uniorb/output/strategy_1/Camera/Camera_KinoSat_110306.txt

KinoSat_110306
-------------------------
    Access    *     Start Time (UTCG)     *     Stop Time (UTCG)  *   Duration (s) *   Data (Mbytes)
         1   01 Jun 2027 03:46:48.356   01 Jun 2027 03:48:36.093           107.737         53868.500
         2   01 Jun 2027 03:48:57.009   01 Jun 2027 03:49:10.474            13.465          6732.500
         3   01 Jun 2027 03:50:49.847   01 Jun 2027 03:51:00.027            10.180          5090.000
         4   01 Jun 2027 03:51:30.541   01 Jun 2027 03:51:30.541             0.000             0.000
         5   01 Jun 2027 03:52:09.983   01 Jun 2027 03:52:22.944            12.961          6480.500
         6   01 Jun 2027 03:52:50.263   01 Jun 2027 03:53:12.813            22.550         11275.000
         7   01 Jun 2027 03:53:35.042   01 Jun 2027 03:53:53.138            18.096          9048.000
         8   01 Jun 2027 05:23:25.366   01 Jun 2027 05:26:24.241           178.875         89437.500
         9   01 Jun 2027 05:28:53.154   01 Jun 2027 05:29:41.158            48.004         24002.000
        10   01 Jun 2027 05:29:44.935   01 Jun 2027 05:29:48.984             4.049          2024.500
        11   01 Jun 2027 07:01:43.253   01 Jun 2027 07:04:22.722           159.469         79734.500
        12   01 Jun 2027 07:04:48.240   01 Jun 2027 07:04:56.963             8.723          4361.500
        13   01 Jun 2027 08:35:02.715   01 Jun 2027 08:36:30.326            87.611         43805.500
        14   01 Jun 2027 08:37:02.607   01 Jun 2027 08:37:38.789            36.182         18091.000
        15   01 Jun 2027 08:38:12.098   01 Jun 2027 08:38:13.587             1.489           744.500
        16   01 Jun 2027 08:39:29.122   01 Jun 2027 08:40:08.273            39.151         19575.500
        17   01 Jun 2027 08:40:31.795   01 Jun 2027 08:40:32.277             0.482           241.000
        18   01 Jun 2027 08:41:04.200   01 Jun 2027 08:41:15.822            11.622          5811.000
        19   01 Jun 2027 08:41:39.821   01 Jun 2027 08:42:03.518            23.697         11848.500
        20   02 Jun 2027 03:58:43.448   02 Jun 2027 04:04:25.328           341.880        170940.000
        21   02 Jun 2027 04:04:54.014   02 Jun 2027 04:04:54.014             0.000             0.000
        22   02 Jun 2027 04:04:59.272   02 Jun 2027 04:06:11.340            72.068         36034.000
        23   02 Jun 2027 04:06:11.686   02 Jun 2027 04:06:12.214             0.528           264.000
        24   02 Jun 2027 05:35:46.368   02 Jun 2027 05:38:33.463           167.095         83547.500
        25   02 Jun 2027 05:38:50.070   02 Jun 2027 05:39:18.150            28.080         14040.000
        26   02 Jun 2027 05:41:28.244   02 Jun 2027 05:41:37.157             8.913          4456.500
        27   02 Jun 2027 05:41:40.380   02 Jun 2027 05:41:55.990            15.610          7805.000
        28   02 Jun 2027 07:13:40.538   02 Jun 2027 07:16:39.380           178.842         89421.000
        29   02 Jun 2027 08:46:54.304   02 Jun 2027 08:49:11.285           136.981         68490.500
        30   02 Jun 2027 08:49:52.022   02 Jun 2027 08:49:59.684             7.662          3831.000
        31   02 Jun 2027 08:50:53.894   02 Jun 2027 08:51:09.664            15.770          7885.000
        32   02 Jun 2027 08:52:32.896   02 Jun 2027 08:52:48.508            15.612          7806.000
        33   02 Jun 2027 08:53:05.328   02 Jun 2027 08:53:15.501            10.173          5086.500
        34   02 Jun 2027 08:53:32.332   02 Jun 2027 08:53:39.551             7.219          3609.500
        35   02 Jun 2027 08:53:59.849   02 Jun 2027 08:54:17.270            17.421          8710.500
        36   03 Jun 2027 04:10:54.171   03 Jun 2027 04:18:15.743           441.572        220786.000
        37   03 Jun 2027 05:47:36.905   03 Jun 2027 05:51:38.162           241.257        120628.500
        38   03 Jun 2027 05:52:28.662   03 Jun 2027 05:53:06.621            37.959         18979.500
        39   03 Jun 2027 05:53:30.511   03 Jun 2027 05:53:38.804             8.293          4146.500
        40   03 Jun 2027 05:54:03.056   03 Jun 2027 05:54:05.216             2.160          1080.000
        41   03 Jun 2027 07:25:40.440   03 Jun 2027 07:28:41.441           181.001         90500.500
        42   03 Jun 2027 07:28:47.460   03 Jun 2027 07:28:54.337             6.877          3438.500
        43   03 Jun 2027 08:59:22.242   03 Jun 2027 09:01:47.027           144.785         72392.500
        44   03 Jun 2027 09:02:33.360   03 Jun 2027 09:02:46.690            13.330          6665.000
        45   03 Jun 2027 09:04:33.185   03 Jun 2027 09:04:49.634            16.449          8224.500
        46   03 Jun 2027 09:05:18.691   03 Jun 2027 09:05:20.910             2.219          1109.500
        47   03 Jun 2027 09:05:58.971   03 Jun 2027 09:06:17.367            18.396          9198.000
        48   04 Jun 2027 04:22:48.483   04 Jun 2027 04:29:54.635           426.152        213076.000
        49   04 Jun 2027 05:59:44.868   04 Jun 2027 06:02:55.685           190.817         95408.500
        50   04 Jun 2027 06:03:21.804   04 Jun 2027 06:03:25.686             3.882          1941.000
        51   04 Jun 2027 06:05:43.517   04 Jun 2027 06:06:13.963            30.446         15223.000
        52   04 Jun 2027 07:37:18.417   04 Jun 2027 07:40:01.088           162.671         81335.500
        53   04 Jun 2027 07:40:23.995   04 Jun 2027 07:40:28.400             4.405          2202.500
        54   04 Jun 2027 07:40:28.934   04 Jun 2027 07:40:38.954            10.020          5010.000
        55   04 Jun 2027 09:11:42.076   04 Jun 2027 09:11:59.376            17.300          8650.000
        56   04 Jun 2027 09:12:26.432   04 Jun 2027 09:12:41.493            15.061          7530.500
        57   04 Jun 2027 09:13:26.294   04 Jun 2027 09:13:34.246             7.952          3976.000
        58   04 Jun 2027 09:14:14.784   04 Jun 2027 09:14:40.235            25.451         12725.500
        59   04 Jun 2027 09:16:31.325   04 Jun 2027 09:16:38.699             7.374          3687.000
        60   05 Jun 2027 03:00:00.000   05 Jun 2027 03:04:21.639           261.639        130819.500
        61   05 Jun 2027 03:04:32.378   05 Jun 2027 03:04:36.857             4.479          2239.500
        62   05 Jun 2027 03:04:36.959   05 Jun 2027 03:04:43.811             6.852          3426.000
        63   05 Jun 2027 03:05:22.603   05 Jun 2027 03:05:44.474            21.871         10935.500
        64   05 Jun 2027 03:06:17.831   05 Jun 2027 03:06:18.822             0.991           495.500
        65   05 Jun 2027 04:35:09.881   05 Jun 2027 04:37:31.257           141.376         70688.000
        66   05 Jun 2027 04:37:41.785   05 Jun 2027 04:37:43.939             2.154          1077.000
        67   05 Jun 2027 04:38:19.123   05 Jun 2027 04:38:20.916             1.793           896.500
        68   05 Jun 2027 04:39:01.228   05 Jun 2027 04:39:17.185            15.957          7978.500
        69   05 Jun 2027 04:39:38.468   05 Jun 2027 04:39:54.181            15.713          7856.500
        70   05 Jun 2027 04:40:34.230   05 Jun 2027 04:40:51.809            17.579          8789.500
        71   05 Jun 2027 04:41:00.202   05 Jun 2027 04:41:06.648             6.446          3223.000
        72   05 Jun 2027 04:42:03.003   05 Jun 2027 04:42:10.289             7.286          3643.000
        73   05 Jun 2027 06:12:13.437   05 Jun 2027 06:14:52.452           159.015         79507.500
        74   05 Jun 2027 06:15:08.472   05 Jun 2027 06:15:12.091             3.619          1809.500
        75   05 Jun 2027 06:15:26.320   05 Jun 2027 06:15:31.554             5.234          2617.000
        76   05 Jun 2027 06:16:04.759   05 Jun 2027 06:16:12.332             7.573          3786.500
        77   05 Jun 2027 06:16:20.383   05 Jun 2027 06:16:30.960            10.577          5288.500
        78   05 Jun 2027 06:17:34.207   05 Jun 2027 06:17:41.530             7.323          3661.500
        79   05 Jun 2027 07:48:58.937   05 Jun 2027 07:51:06.556           127.619         63809.500
        80   05 Jun 2027 07:52:10.407   05 Jun 2027 07:52:22.041            11.634          5817.000
        81   05 Jun 2027 07:52:43.068   05 Jun 2027 07:52:43.749             0.681           340.500
        82   05 Jun 2027 07:53:01.638   05 Jun 2027 07:53:20.639            19.001          9500.500
        83   05 Jun 2027 09:24:14.982   05 Jun 2027 09:24:21.712             6.730          3365.000
        84   05 Jun 2027 09:25:56.589   05 Jun 2027 09:26:04.836             8.247          4123.500
        85   05 Jun 2027 09:26:34.511   05 Jun 2027 09:27:14.193            39.682         19841.000
        86   06 Jun 2027 03:10:20.207   06 Jun 2027 03:14:16.956           236.749        118374.500
        87   06 Jun 2027 03:14:59.564   06 Jun 2027 03:14:59.564             0.000             0.000
        88   06 Jun 2027 03:15:22.604   06 Jun 2027 03:15:38.476            15.872          7936.000
        89   06 Jun 2027 03:16:02.455   06 Jun 2027 03:16:18.860            16.405          8202.500
        90   06 Jun 2027 03:18:13.501   06 Jun 2027 03:18:15.721             2.220          1110.000
        91   06 Jun 2027 04:47:22.259   06 Jun 2027 04:49:39.417           137.158         68579.000
        92   06 Jun 2027 04:49:50.628   06 Jun 2027 04:50:02.518            11.890          5945.000
        93   06 Jun 2027 04:50:14.798   06 Jun 2027 04:50:35.725            20.927         10463.500
        94   06 Jun 2027 04:51:01.456   06 Jun 2027 04:51:03.386             1.930           965.000
        95   06 Jun 2027 04:52:21.179   06 Jun 2027 04:52:41.332            20.153         10076.500
        96   06 Jun 2027 04:53:40.441   06 Jun 2027 04:53:48.999             8.558          4279.000
        97   06 Jun 2027 06:24:19.670   06 Jun 2027 06:27:26.497           186.827         93413.500
        98   06 Jun 2027 06:28:15.614   06 Jun 2027 06:28:30.753            15.139          7569.500
        99   06 Jun 2027 06:28:36.345   06 Jun 2027 06:28:43.223             6.878          3439.000
       100   06 Jun 2027 06:29:06.472   06 Jun 2027 06:29:06.472             0.000             0.000
       101   06 Jun 2027 08:01:05.014   06 Jun 2027 08:02:25.533            80.519         40259.500
       102   06 Jun 2027 08:02:44.703   06 Jun 2027 08:02:50.667             5.964          2982.000
       103   06 Jun 2027 08:03:46.540   06 Jun 2027 08:03:56.742            10.202          5101.000
       104   06 Jun 2027 08:04:19.543   06 Jun 2027 08:04:26.060             6.517          3258.500
       105   06 Jun 2027 08:05:18.346   06 Jun 2027 08:05:28.165             9.819          4909.500
       106   06 Jun 2027 08:05:46.886   06 Jun 2027 08:05:50.872             3.986          1993.000
       107   06 Jun 2027 08:06:02.174   06 Jun 2027 08:06:09.649             7.475          3737.500
       108   06 Jun 2027 09:39:19.395   06 Jun 2027 09:39:40.732            21.337         10668.500
       109   06 Jun 2027 09:40:06.880   06 Jun 2027 09:40:14.668             7.788          3894.000
       110   07 Jun 2027 03:23:31.330   07 Jun 2027 03:27:40.939           249.609        124804.500
       111   07 Jun 2027 03:27:56.254   07 Jun 2027 03:27:57.748             1.494           747.000
       112   07 Jun 2027 03:28:29.220   07 Jun 2027 03:28:40.117            10.897          5448.500
       113   07 Jun 2027 03:30:07.672   07 Jun 2027 03:30:17.306             9.634          4817.000
       114   07 Jun 2027 04:59:53.306   07 Jun 2027 05:02:14.236           140.930         70465.000
       115   07 Jun 2027 05:03:14.251   07 Jun 2027 05:03:41.886            27.635         13817.500
       116   07 Jun 2027 05:03:48.213   07 Jun 2027 05:03:48.213             0.000             0.000
       117   07 Jun 2027 05:04:43.109   07 Jun 2027 05:04:51.727             8.618          4309.000
       118   07 Jun 2027 05:05:11.311   07 Jun 2027 05:05:26.210            14.899          7449.500
       119   07 Jun 2027 06:37:20.842   07 Jun 2027 06:39:38.184           137.342         68671.000
       120   07 Jun 2027 06:40:22.138   07 Jun 2027 06:40:31.162             9.024          4512.000
       121   07 Jun 2027 08:13:27.982   07 Jun 2027 08:14:39.313            71.331         35665.500
       122   07 Jun 2027 08:15:25.510   07 Jun 2027 08:15:47.148            21.638         10819.000
       123   07 Jun 2027 08:16:48.610   07 Jun 2027 08:16:58.393             9.783          4891.500
       124   07 Jun 2027 08:17:17.353   07 Jun 2027 08:17:21.047             3.694          1847.000
       125   08 Jun 2027 03:35:39.567   08 Jun 2027 03:40:09.780           270.213        135106.500
       126   08 Jun 2027 03:41:08.426   08 Jun 2027 03:41:59.680            51.254         25627.000
       127   08 Jun 2027 03:41:59.917   08 Jun 2027 03:42:16.274            16.357          8178.500
       128   08 Jun 2027 05:11:37.818   08 Jun 2027 05:15:03.369           205.551        102775.500
       129   08 Jun 2027 05:16:51.748   08 Jun 2027 05:16:54.663             2.915          1457.500
       130   08 Jun 2027 06:49:27.332   08 Jun 2027 06:51:49.858           142.526         71263.000
       131   08 Jun 2027 06:51:56.405   08 Jun 2027 06:52:08.033            11.628          5814.000
       132   08 Jun 2027 06:52:43.659   08 Jun 2027 06:52:46.055             2.396          1198.000
       133   08 Jun 2027 06:53:10.386   08 Jun 2027 06:53:18.159             7.773          3886.500
       134   08 Jun 2027 08:25:29.301   08 Jun 2027 08:26:24.067            54.766         27383.000
       135   08 Jun 2027 08:27:20.101   08 Jun 2027 08:27:22.000             1.899           949.500
       136   08 Jun 2027 08:27:24.133   08 Jun 2027 08:27:25.553             1.420           710.000
       137   08 Jun 2027 08:27:54.295   08 Jun 2027 08:28:00.997             6.702          3351.000
       138   08 Jun 2027 08:28:28.095   08 Jun 2027 08:28:35.281             7.186          3593.000
       139   08 Jun 2027 08:29:02.280   08 Jun 2027 08:29:06.798             4.518          2259.000
       140   08 Jun 2027 08:29:15.031   08 Jun 2027 08:29:24.026             8.995          4497.500
       141   08 Jun 2027 08:29:51.681   08 Jun 2027 08:29:52.243             0.562           281.000
       142   08 Jun 2027 08:30:24.515   08 Jun 2027 08:30:30.406             5.891          2945.500
       143   09 Jun 2027 03:46:58.864   09 Jun 2027 03:51:45.248           286.384        143192.000
       144   09 Jun 2027 03:53:27.414   09 Jun 2027 03:54:26.747            59.333         29666.500
       145   09 Jun 2027 05:23:40.448   09 Jun 2027 05:27:18.414           217.966        108983.000
       146   09 Jun 2027 05:28:40.289   09 Jun 2027 05:29:07.707            27.418         13709.000
       147   09 Jun 2027 07:01:58.369   09 Jun 2027 07:04:26.452           148.083         74041.500
       148   09 Jun 2027 07:04:34.820   09 Jun 2027 07:04:37.686             2.866          1433.000
       149   09 Jun 2027 07:05:02.829   09 Jun 2027 07:05:10.943             8.114          4057.000
       150   09 Jun 2027 07:05:18.565   09 Jun 2027 07:05:25.311             6.746          3373.000
       151   09 Jun 2027 08:35:17.159   09 Jun 2027 08:35:48.216            31.057         15528.500
       152   09 Jun 2027 08:37:21.329   09 Jun 2027 08:37:48.332            27.003         13501.500
       153   09 Jun 2027 08:38:19.825   09 Jun 2027 08:38:28.088             8.263          4131.500
       154   09 Jun 2027 08:39:45.623   09 Jun 2027 08:40:08.305            22.682         11341.000
       155   09 Jun 2027 08:40:50.245   09 Jun 2027 08:40:51.615             1.370           685.000
       156   09 Jun 2027 08:41:03.469   09 Jun 2027 08:41:07.678             4.209          2104.500
       157   09 Jun 2027 08:41:15.843   09 Jun 2027 08:41:20.842             4.999          2499.500
       158   09 Jun 2027 08:41:55.120   09 Jun 2027 08:42:06.580            11.460          5730.000
       159   09 Jun 2027 08:42:33.057   09 Jun 2027 08:42:39.514             6.457          3228.500
       160   10 Jun 2027 03:58:58.670   10 Jun 2027 04:04:40.099           341.429        170714.500
       161   10 Jun 2027 04:05:35.646   10 Jun 2027 04:06:03.459            27.813         13906.500
       162   10 Jun 2027 05:36:01.190   10 Jun 2027 05:39:26.632           205.442        102721.000
       163   10 Jun 2027 05:41:06.855   10 Jun 2027 05:41:17.392            10.537          5268.500
       164   10 Jun 2027 05:41:46.706   10 Jun 2027 05:41:51.948             5.242          2621.000
       165   10 Jun 2027 07:13:55.205   10 Jun 2027 07:16:41.394           166.189         83094.500
       166   10 Jun 2027 07:16:52.001   10 Jun 2027 07:16:57.489             5.488          2744.000
       167   10 Jun 2027 07:17:06.354   10 Jun 2027 07:17:06.354             0.000             0.000
       168   10 Jun 2027 08:47:09.832   10 Jun 2027 08:47:47.840            38.008         19004.000
       169   10 Jun 2027 08:49:26.217   10 Jun 2027 08:49:41.071            14.854          7427.000
       170   10 Jun 2027 08:50:15.169   10 Jun 2027 08:50:18.151             2.982          1491.000
       171   10 Jun 2027 08:51:11.159   10 Jun 2027 08:51:27.559            16.400          8200.000
       172   10 Jun 2027 08:51:53.438   10 Jun 2027 08:52:03.194             9.756          4878.000
       173   10 Jun 2027 08:52:50.841   10 Jun 2027 08:52:57.711             6.870          3435.000
       174   10 Jun 2027 08:53:06.562   10 Jun 2027 08:53:10.477             3.915          1957.500
       175   10 Jun 2027 08:53:27.113   10 Jun 2027 08:53:30.546             3.433          1716.500
       176   10 Jun 2027 08:53:57.887   10 Jun 2027 08:54:14.526            16.639          8319.500
       177   11 Jun 2027 04:11:08.515   11 Jun 2027 04:16:22.739           314.224        157112.000
       178   11 Jun 2027 04:16:45.044   11 Jun 2027 04:17:04.651            19.607          9803.500
       179   11 Jun 2027 04:17:16.184   11 Jun 2027 04:17:39.591            23.407         11703.500
       180   11 Jun 2027 04:18:29.978   11 Jun 2027 04:18:30.481             0.503           251.500
       181   11 Jun 2027 05:47:51.302   11 Jun 2027 05:51:26.243           214.941        107470.500
       182   11 Jun 2027 05:52:00.923   11 Jun 2027 05:52:07.931             7.008          3504.000
       183   11 Jun 2027 05:52:43.348   11 Jun 2027 05:52:56.542            13.194          6597.000
       184   11 Jun 2027 05:53:00.132   11 Jun 2027 05:53:16.715            16.583          8291.500
       185   11 Jun 2027 05:53:55.133   11 Jun 2027 05:54:01.830             6.697          3348.500
       186   11 Jun 2027 07:25:55.329   11 Jun 2027 07:28:33.923           158.594         79297.000
       187   11 Jun 2027 07:29:02.227   11 Jun 2027 07:29:07.887             5.660          2830.000
       188   11 Jun 2027 08:59:37.439   11 Jun 2027 09:00:28.415            50.976         25488.000
       189   11 Jun 2027 09:01:55.844   11 Jun 2027 09:02:03.063             7.219          3609.500
       190   11 Jun 2027 09:02:40.019   11 Jun 2027 09:02:50.623            10.604          5302.000
       191   11 Jun 2027 09:03:25.806   11 Jun 2027 09:03:29.191             3.385          1692.500
       192   11 Jun 2027 09:03:53.515   11 Jun 2027 09:04:00.008             6.493          3246.500
       193   11 Jun 2027 09:04:20.232   11 Jun 2027 09:04:24.712             4.480          2240.000
       194   11 Jun 2027 09:04:33.244   11 Jun 2027 09:04:39.467             6.223          3111.500
       195   11 Jun 2027 09:05:09.907   11 Jun 2027 09:05:14.345             4.438          2219.000
       196   11 Jun 2027 09:05:34.033   11 Jun 2027 09:05:43.746             9.713          4856.500
       197   12 Jun 2027 04:23:03.155   12 Jun 2027 04:29:57.925           414.770        207385.000
       198   12 Jun 2027 04:30:12.399   12 Jun 2027 04:30:15.612             3.213          1606.500
       199   12 Jun 2027 05:59:59.569   12 Jun 2027 06:03:08.545           188.976         94488.000
       200   12 Jun 2027 06:03:20.277   12 Jun 2027 06:03:24.977             4.700          2350.000
       201   12 Jun 2027 06:03:27.437   12 Jun 2027 06:03:36.443             9.006          4503.000
       202   12 Jun 2027 06:06:05.730   12 Jun 2027 06:06:27.805            22.075         11037.500
       203   12 Jun 2027 07:37:12.815   12 Jun 2027 07:39:34.463           141.648         70824.000
       204   12 Jun 2027 07:39:58.265   12 Jun 2027 07:40:07.543             9.278          4639.000
       205   12 Jun 2027 07:40:43.280   12 Jun 2027 07:40:54.218            10.938          5469.000
       206   12 Jun 2027 09:11:57.009   12 Jun 2027 09:12:14.048            17.039          8519.500
       207   12 Jun 2027 09:12:41.284   12 Jun 2027 09:12:45.071             3.787          1893.500
       208   12 Jun 2027 09:13:41.416   12 Jun 2027 09:13:50.280             8.864          4432.000
       209   12 Jun 2027 09:14:29.345   12 Jun 2027 09:14:48.398            19.053          9526.500
       210   12 Jun 2027 09:15:53.879   12 Jun 2027 09:16:01.031             7.152          3576.000
       211   12 Jun 2027 09:16:38.359   12 Jun 2027 09:16:47.813             9.454          4727.000
       212   12 Jun 2027 09:16:54.522   12 Jun 2027 09:16:54.522             0.000             0.000
       213   13 Jun 2027 03:00:00.000   13 Jun 2027 03:03:50.795           230.795        115397.500
       214   13 Jun 2027 03:03:56.725   13 Jun 2027 03:03:56.725             0.000             0.000
       215   13 Jun 2027 03:04:52.013   13 Jun 2027 03:05:15.992            23.979         11989.500
       216   13 Jun 2027 03:05:58.959   13 Jun 2027 03:05:58.959             0.000             0.000
       217   13 Jun 2027 03:06:32.492   13 Jun 2027 03:06:33.496             1.004           502.000
       218   13 Jun 2027 04:35:24.699   13 Jun 2027 04:38:05.333           160.634         80317.000
       219   13 Jun 2027 04:38:30.351   13 Jun 2027 04:38:35.552             5.201          2600.500
       220   13 Jun 2027 04:39:17.369   13 Jun 2027 04:39:34.648            17.279          8639.500
       221   13 Jun 2027 04:39:51.965   13 Jun 2027 04:39:55.184             3.219          1609.500
       222   13 Jun 2027 04:40:08.188   13 Jun 2027 04:40:11.847             3.659          1829.500
       223   13 Jun 2027 04:40:49.421   13 Jun 2027 04:41:09.776            20.355         10177.500
       224   13 Jun 2027 04:41:31.781   13 Jun 2027 04:41:39.240             7.459          3729.500
       225   13 Jun 2027 04:42:10.145   13 Jun 2027 04:42:13.569             3.424          1712.000
       226   13 Jun 2027 06:12:28.268   13 Jun 2027 06:15:01.519           153.251         76625.500
       227   13 Jun 2027 06:15:37.557   13 Jun 2027 06:15:52.028            14.471          7235.500
       228   13 Jun 2027 06:16:07.073   13 Jun 2027 06:16:14.291             7.218          3609.000
       229   13 Jun 2027 06:16:37.042   13 Jun 2027 06:16:45.728             8.686          4343.000
       230   13 Jun 2027 06:18:13.368   13 Jun 2027 06:18:18.091             4.723          2361.500
       231   13 Jun 2027 07:49:14.180   13 Jun 2027 07:51:29.467           135.287         67643.500
       232   13 Jun 2027 07:51:45.513   13 Jun 2027 07:51:53.776             8.263          4131.500
       233   13 Jun 2027 07:52:46.487   13 Jun 2027 07:52:50.174             3.687          1843.500
       234   13 Jun 2027 07:53:09.804   13 Jun 2027 07:53:16.368             6.564          3282.000
       235   13 Jun 2027 07:53:52.156   13 Jun 2027 07:53:55.142             2.986          1493.000
       236   13 Jun 2027 09:24:29.859   13 Jun 2027 09:24:35.926             6.067          3033.500
       237   13 Jun 2027 09:26:11.488   13 Jun 2027 09:26:19.409             7.921          3960.500
       238   13 Jun 2027 09:26:45.588   13 Jun 2027 09:27:28.928            43.340         21670.000
