uniorb/output/strategy_1/Camera/Camera_KinoSat_111410.txt

KinoSat_111410
-------------------------
    Access    *     Start Time (UTCG)     *     Stop Time (UTCG)  *   Duration (s) *   Data (Mbytes)
         1   01 Jun 2027 04:12:14.647   01 Jun 2027 04:14:27.528           132.881         66440.500
         2   01 Jun 2027 04:14:58.743   01 Jun 2027 04:15:35.489            36.746         18373.000
         3   01 Jun 2027 05:35:36.721   01 Jun 2027 05:36:55.582            78.861         39430.500
         4   01 Jun 2027 05:37:17.567   01 Jun 2027 05:37:17.567             0.000             0.000
         5   01 Jun 2027 05:38:08.425   01 Jun 2027 05:38:08.425             0.000             0.000
         6   01 Jun 2027 07:11:58.768   01 Jun 2027 07:14:24.998           146.230         73115.000
         7   01 Jun 2027 07:15:14.136   01 Jun 2027 07:15:32.255            18.119          9059.500
         8   01 Jun 2027 08:46:02.805   01 Jun 2027 08:47:41.067            98.262         49131.000
         9   01 Jun 2027 08:48:51.312   01 Jun 2027 08:48:51.312             0.000             0.000
        10   01 Jun 2027 08:49:18.662   01 Jun 2027 08:49:21.418             2.756          1378.000
        11   01 Jun 2027 08:52:32.787   01 Jun 2027 08:52:38.575             5.788          2894.000
        12   01 Jun 2027 08:53:14.107   01 Jun 2027 08:53:26.546            12.439          6219.500
        13   01 Jun 2027 08:53:47.742   01 Jun 2027 08:53:59.915            12.173          6086.500
        14   01 Jun 2027 10:23:07.402   01 Jun 2027 10:25:05.697           118.295         59147.500
        15   01 Jun 2027 10:26:12.190   01 Jun 2027 10:26:19.789             7.599          3799.500
        16   02 Jun 2027 04:25:07.173   02 Jun 2027 04:26:47.010            99.837         49918.500
        17   02 Jun 2027 04:26:47.497   02 Jun 2027 04:26:53.751             6.254          3127.000
        18   02 Jun 2027 04:28:35.409   02 Jun 2027 04:28:40.600             5.191          2595.500
        19   02 Jun 2027 05:47:40.366   02 Jun 2027 05:48:56.116            75.750         37875.000
        20   02 Jun 2027 07:24:09.494   02 Jun 2027 07:26:40.221           150.727         75363.500
        21   02 Jun 2027 08:59:14.505   02 Jun 2027 09:00:23.403            68.898         34449.000
        22   02 Jun 2027 09:01:36.985   02 Jun 2027 09:01:36.985             0.000             0.000
        23   02 Jun 2027 09:02:23.199   02 Jun 2027 09:02:39.947            16.748          8374.000
        24   02 Jun 2027 09:04:39.087   02 Jun 2027 09:05:17.502            38.415         19207.500
        25   02 Jun 2027 09:05:53.587   02 Jun 2027 09:06:02.293             8.706          4353.000
        26   02 Jun 2027 10:35:36.578   02 Jun 2027 10:37:09.281            92.703         46351.500
        27   02 Jun 2027 10:37:29.117   02 Jun 2027 10:37:54.214            25.097         12548.500
        28   02 Jun 2027 10:39:18.889   02 Jun 2027 10:39:26.072             7.183          3591.500
        29   02 Jun 2027 10:40:23.702   02 Jun 2027 10:40:30.087             6.385          3192.500
        30   03 Jun 2027 03:00:00.000   03 Jun 2027 03:00:14.111            14.111          7055.500
        31   03 Jun 2027 03:01:05.833   03 Jun 2027 03:01:12.072             6.239          3119.500
        32   03 Jun 2027 03:01:28.726   03 Jun 2027 03:01:28.726             0.000             0.000
        33   03 Jun 2027 03:02:07.225   03 Jun 2027 03:02:09.022             1.797           898.500
        34   03 Jun 2027 03:02:18.028   03 Jun 2027 03:02:27.294             9.266          4633.000
        35   03 Jun 2027 03:03:34.949   03 Jun 2027 03:03:49.916            14.967          7483.500
        36   03 Jun 2027 04:36:16.593   03 Jun 2027 04:36:54.077            37.484         18742.000
        37   03 Jun 2027 04:37:06.576   03 Jun 2027 04:37:57.016            50.440         25220.000
        38   03 Jun 2027 04:39:52.386   03 Jun 2027 04:39:52.386             0.000             0.000
        39   03 Jun 2027 05:59:36.533   03 Jun 2027 06:00:31.421            54.888         27444.000
        40   03 Jun 2027 06:00:38.548   03 Jun 2027 06:00:45.874             7.326          3663.000
        41   03 Jun 2027 07:36:14.301   03 Jun 2027 07:38:29.325           135.024         67512.000
        42   03 Jun 2027 09:11:24.696   03 Jun 2027 09:13:39.959           135.263         67631.500
        43   03 Jun 2027 09:14:41.792   03 Jun 2027 09:14:42.546             0.754           377.000
        44   03 Jun 2027 09:17:46.222   03 Jun 2027 09:18:00.998            14.776          7388.000
        45   03 Jun 2027 10:47:38.725   03 Jun 2027 10:48:44.141            65.416         31901.374
        46   03 Jun 2027 10:49:42.737   03 Jun 2027 10:49:46.232             3.495          1700.375
        47   03 Jun 2027 10:50:16.005   03 Jun 2027 10:50:19.610             3.605           818.812
        48   03 Jun 2027 10:51:41.662   03 Jun 2027 10:51:43.397             1.735           867.500
        49   03 Jun 2027 10:52:23.637   03 Jun 2027 10:52:41.769            18.132          2943.938
        50   03 Jun 2027 10:53:18.701   03 Jun 2027 10:53:18.701             0.000             0.000
        51   03 Jun 2027 10:53:27.943   03 Jun 2027 10:53:29.108             1.165           582.500
        52   03 Jun 2027 10:53:37.653   03 Jun 2027 10:53:38.891             1.238           619.000
        53   03 Jun 2027 10:53:44.088   03 Jun 2027 10:53:45.517             1.429           403.844
        54   04 Jun 2027 03:11:07.995   04 Jun 2027 03:12:26.154            78.159         39079.500
        55   04 Jun 2027 03:13:09.493   04 Jun 2027 03:13:17.447             7.954          3977.000
        56   04 Jun 2027 03:16:00.856   04 Jun 2027 03:16:13.425            12.569          6284.500
        57   04 Jun 2027 03:18:17.798   04 Jun 2027 03:18:27.757             9.959          4979.500
        58   04 Jun 2027 04:37:25.518   04 Jun 2027 04:37:40.904            15.386          7693.000
        59   04 Jun 2027 04:48:13.941   04 Jun 2027 04:49:12.329            58.388         29194.000
        60   04 Jun 2027 04:49:27.890   04 Jun 2027 04:49:36.650             8.760          4380.000
        61   04 Jun 2027 04:50:24.537   04 Jun 2027 04:50:33.203             8.666          4333.000
        62   04 Jun 2027 06:12:12.481   04 Jun 2027 06:12:35.342            22.861         11430.500
        63   04 Jun 2027 06:12:56.999   04 Jun 2027 06:13:22.466            25.467         12733.500
        64   04 Jun 2027 07:47:58.192   04 Jun 2027 07:49:55.503           117.311         58637.626
        65   04 Jun 2027 07:50:18.454   04 Jun 2027 07:50:20.657             2.203           413.625
        66   04 Jun 2027 07:51:26.401   04 Jun 2027 07:51:26.401             0.000             0.000
        67   04 Jun 2027 09:22:48.915   04 Jun 2027 09:23:08.618            19.703          7420.125
        68   04 Jun 2027 09:23:32.488   04 Jun 2027 09:23:39.259             6.771           683.344
        69   04 Jun 2027 09:24:26.018   04 Jun 2027 09:24:27.452             1.434           156.063
        70   04 Jun 2027 09:25:05.305   04 Jun 2027 09:25:07.198             1.893           381.750
        71   04 Jun 2027 09:26:44.899   04 Jun 2027 09:26:51.286             6.387          2466.563
        72   04 Jun 2027 09:27:28.954   04 Jun 2027 09:27:34.007             5.053           516.344
        73   04 Jun 2027 09:28:11.653   04 Jun 2027 09:28:13.731             2.078           818.000
        74   04 Jun 2027 09:28:15.174   04 Jun 2027 09:28:16.134             0.960            45.094
        75   04 Jun 2027 09:29:57.476   04 Jun 2027 09:30:03.540             6.064          3028.594
        76   04 Jun 2027 10:59:24.922   04 Jun 2027 10:59:42.513            17.591          7658.688
        77   04 Jun 2027 11:00:20.959   04 Jun 2027 11:00:23.668             2.709            86.531
        78   04 Jun 2027 11:01:25.405   04 Jun 2027 11:01:31.928             6.523          1664.406
        79   04 Jun 2027 11:01:50.985   04 Jun 2027 11:01:51.791             0.806           393.969
        80   04 Jun 2027 11:02:04.386   04 Jun 2027 11:02:07.685             3.299           375.938
        81   04 Jun 2027 11:03:39.188   04 Jun 2027 11:03:48.497             9.309          2394.594
        82   04 Jun 2027 11:04:29.090   04 Jun 2027 11:04:33.168             4.078          1193.344
        83   04 Jun 2027 11:05:16.045   04 Jun 2027 11:05:22.129             6.084          1250.875
        84   04 Jun 2027 11:05:42.943   04 Jun 2027 11:05:42.943             0.000             0.000
        85   04 Jun 2027 11:05:48.087   04 Jun 2027 11:05:48.915             0.828           414.000
        86   05 Jun 2027 03:23:28.498   05 Jun 2027 03:24:49.697            81.199         40599.500
        87   05 Jun 2027 03:25:40.101   05 Jun 2027 03:25:46.776             6.675          3337.500
        88   05 Jun 2027 03:25:49.196   05 Jun 2027 03:25:56.586             7.390          3695.000
        89   05 Jun 2027 03:28:14.095   05 Jun 2027 03:28:22.035             7.940          3970.000
        90   05 Jun 2027 03:30:24.029   05 Jun 2027 03:30:53.248            29.219         14609.500
        91   05 Jun 2027 04:48:41.937   05 Jun 2027 04:49:05.869            23.932         11966.000
        92   05 Jun 2027 05:00:12.307   05 Jun 2027 05:01:04.117            51.810         25905.000
        93   05 Jun 2027 06:22:51.449   05 Jun 2027 06:23:50.220            58.771         29385.500
        94   05 Jun 2027 06:24:26.933   05 Jun 2027 06:24:42.944            16.011          8005.500
        95   05 Jun 2027 07:58:08.584   05 Jun 2027 07:59:10.875            62.291         31145.500
        96   05 Jun 2027 07:59:47.535   05 Jun 2027 07:59:49.729             2.194          1097.000
        97   05 Jun 2027 08:00:53.931   05 Jun 2027 08:00:56.695             2.764          1382.000
        98   05 Jun 2027 08:02:19.994   05 Jun 2027 08:02:22.664             2.670          1335.000
        99   05 Jun 2027 08:02:28.386   05 Jun 2027 08:02:34.178             5.792          2728.812
       100   05 Jun 2027 09:34:42.725   05 Jun 2027 09:34:56.747            14.022          6703.625
       101   05 Jun 2027 09:38:00.143   05 Jun 2027 09:38:14.688            14.545          5731.125
       102   05 Jun 2027 09:38:30.997   05 Jun 2027 09:38:32.640             1.643           397.469
       103   05 Jun 2027 09:39:14.606   05 Jun 2027 09:39:16.595             1.989           863.312
       104   05 Jun 2027 09:39:48.810   05 Jun 2027 09:39:53.576             4.766           969.437
       105   05 Jun 2027 09:39:55.176   05 Jun 2027 09:39:57.271             2.095            50.000
       106   05 Jun 2027 09:40:13.063   05 Jun 2027 09:40:14.349             1.286           493.500
       107   05 Jun 2027 09:40:36.527   05 Jun 2027 09:40:36.890             0.363           181.500
       108   05 Jun 2027 09:41:22.835   05 Jun 2027 09:41:26.521             3.686          1706.000
       109   05 Jun 2027 09:41:46.357   05 Jun 2027 09:41:48.909             2.552           307.344
       110   05 Jun 2027 09:42:09.390   05 Jun 2027 09:42:11.280             1.890           640.031
       111   05 Jun 2027 11:11:46.239   05 Jun 2027 11:12:02.198            15.959          7361.875
       112   05 Jun 2027 11:14:04.145   05 Jun 2027 11:14:12.714             8.569          3810.844
       113   05 Jun 2027 11:15:05.973   05 Jun 2027 11:15:08.944             2.971          1326.094
       114   05 Jun 2027 11:15:55.223   05 Jun 2027 11:15:59.684             4.461          1446.219
       115   05 Jun 2027 11:16:16.896   05 Jun 2027 11:16:21.024             4.128           435.594
       116   05 Jun 2027 11:16:31.716   05 Jun 2027 11:16:34.775             3.059           334.125
       117   05 Jun 2027 11:17:10.997   05 Jun 2027 11:17:15.336             4.339           523.937
       118   05 Jun 2027 11:17:27.130   05 Jun 2027 11:17:30.051             2.921           368.562
       119   05 Jun 2027 11:17:43.655   05 Jun 2027 11:17:44.164             0.509           241.500
       120   05 Jun 2027 11:17:55.064   05 Jun 2027 11:17:56.357             1.293           333.344
       121   06 Jun 2027 03:35:42.937   06 Jun 2027 03:37:19.616            96.679         48339.500
       122   06 Jun 2027 03:38:52.686   06 Jun 2027 03:38:58.727             6.041          3020.500
       123   06 Jun 2027 03:39:14.962   06 Jun 2027 03:39:44.828            29.866         14933.000
       124   06 Jun 2027 03:39:46.055   06 Jun 2027 03:39:52.073             6.018          3009.000
       125   06 Jun 2027 03:40:56.344   06 Jun 2027 03:40:57.535             1.191           595.500
       126   06 Jun 2027 04:59:58.839   06 Jun 2027 05:00:40.975            42.136         21068.000
       127   06 Jun 2027 05:02:01.120   06 Jun 2027 05:02:08.929             7.809          3904.500
       128   06 Jun 2027 05:12:11.507   06 Jun 2027 05:12:53.173            41.666         20833.000
       129   06 Jun 2027 05:13:04.520   06 Jun 2027 05:13:09.595             5.075          2537.500
       130   06 Jun 2027 06:34:27.345   06 Jun 2027 06:35:33.676            66.331         33165.500
       131   06 Jun 2027 06:37:26.160   06 Jun 2027 06:37:26.160             0.000             0.000
       132   06 Jun 2027 06:37:55.989   06 Jun 2027 06:38:07.754            11.765          5882.500
       133   06 Jun 2027 06:39:08.015   06 Jun 2027 06:39:21.045            13.030          6515.000
       134   06 Jun 2027 08:09:20.142   06 Jun 2027 08:09:47.453            27.311         13655.500
       135   06 Jun 2027 08:10:20.097   06 Jun 2027 08:10:28.796             8.699          2655.501
       136   06 Jun 2027 08:10:55.368   06 Jun 2027 08:10:59.084             3.716           803.625
       137   06 Jun 2027 08:11:41.955   06 Jun 2027 08:11:43.980             2.025          1012.500
       138   06 Jun 2027 08:11:58.684   06 Jun 2027 08:12:10.545            11.861           698.969
       139   06 Jun 2027 08:13:02.396   06 Jun 2027 08:13:04.954             2.558          1083.062
       140   06 Jun 2027 08:13:32.232   06 Jun 2027 08:13:39.414             7.182           799.656
       141   06 Jun 2027 08:13:55.017   06 Jun 2027 08:13:59.121             4.104           202.406
       142   06 Jun 2027 08:14:18.467   06 Jun 2027 08:14:22.118             3.651           467.156
       143   06 Jun 2027 08:15:11.444   06 Jun 2027 08:15:15.090             3.646           961.656
       144   06 Jun 2027 08:17:23.625   06 Jun 2027 08:17:32.237             8.612          3292.313
       145   06 Jun 2027 08:17:39.030   06 Jun 2027 08:17:39.928             0.898           203.469
       146   06 Jun 2027 09:46:54.564   06 Jun 2027 09:47:05.749            11.185          4783.250
       147   06 Jun 2027 09:47:29.026   06 Jun 2027 09:47:29.758             0.732            15.719
       148   06 Jun 2027 09:48:54.732   06 Jun 2027 09:48:54.732             0.000             0.000
       149   06 Jun 2027 09:49:59.278   06 Jun 2027 09:50:09.851            10.573          4672.500
       150   06 Jun 2027 09:51:09.704   06 Jun 2027 09:51:17.137             7.433          1427.094
       151   06 Jun 2027 09:52:07.365   06 Jun 2027 09:52:11.382             4.017          1455.281
       152   06 Jun 2027 09:52:12.724   06 Jun 2027 09:52:13.591             0.867            41.938
       153   06 Jun 2027 09:53:12.156   06 Jun 2027 09:53:16.342             4.186          1830.156
       154   06 Jun 2027 09:54:10.416   06 Jun 2027 09:54:14.059             3.643          1675.656
       155   06 Jun 2027 11:23:37.441   06 Jun 2027 11:23:53.006            15.565          6303.469
       156   06 Jun 2027 11:24:42.180   06 Jun 2027 11:24:47.454             5.274          1467.344
       157   06 Jun 2027 11:25:09.024   06 Jun 2027 11:25:09.860             0.836           313.750
       158   06 Jun 2027 11:25:35.856   06 Jun 2027 11:25:41.351             5.495           653.594
       159   06 Jun 2027 11:25:56.047   06 Jun 2027 11:25:59.267             3.220           353.375
       160   06 Jun 2027 11:26:22.880   06 Jun 2027 11:26:24.398             1.518           378.188
       161   06 Jun 2027 11:26:59.959   06 Jun 2027 11:26:59.959             0.000             0.000
       162   06 Jun 2027 11:27:12.516   06 Jun 2027 11:27:17.112             4.596          1144.250
       163   06 Jun 2027 11:27:58.347   06 Jun 2027 11:28:01.353             3.006          1288.594
       164   06 Jun 2027 11:28:28.804   06 Jun 2027 11:28:34.061             5.257           857.844
       165   06 Jun 2027 11:29:05.654   06 Jun 2027 11:29:11.088             5.434           987.281
       166   06 Jun 2027 11:29:43.520   06 Jun 2027 11:29:44.363             0.843           421.500
       167   06 Jun 2027 11:29:57.771   06 Jun 2027 11:30:03.539             5.768           909.281
       168   06 Jun 2027 11:30:15.147   06 Jun 2027 11:30:15.341             0.194            97.000
       169   07 Jun 2027 03:47:48.021   07 Jun 2027 03:49:23.159            95.138         47569.000
       170   07 Jun 2027 03:49:45.279   07 Jun 2027 03:49:52.815             7.536          3768.000
       171   07 Jun 2027 03:50:56.975   07 Jun 2027 03:51:13.297            16.322          8161.000
       172   07 Jun 2027 03:51:35.988   07 Jun 2027 03:51:47.948            11.960          5980.000
       173   07 Jun 2027 05:12:04.614   07 Jun 2027 05:12:53.331            48.717         24358.500
       174   07 Jun 2027 05:24:27.378   07 Jun 2027 05:24:43.983            16.605          8302.500
       175   07 Jun 2027 06:45:55.956   07 Jun 2027 06:47:19.234            83.278         41639.000
       176   07 Jun 2027 06:47:57.349   07 Jun 2027 06:48:22.603            25.254         12627.000
       177   07 Jun 2027 06:48:29.878   07 Jun 2027 06:48:33.961             4.083          2041.500
       178   07 Jun 2027 06:49:51.612   07 Jun 2027 06:50:01.879            10.267          5133.500
       179   07 Jun 2027 08:20:50.506   07 Jun 2027 08:21:21.417            30.911         13244.907
       180   07 Jun 2027 08:21:49.811   07 Jun 2027 08:21:49.811             0.000             0.000
       181   07 Jun 2027 08:22:59.345   07 Jun 2027 08:23:04.656             5.311          2284.656
       182   07 Jun 2027 08:24:08.424   07 Jun 2027 08:24:12.664             4.240          1705.031
       183   07 Jun 2027 08:24:24.202   07 Jun 2027 08:24:24.202             0.000             0.000
       184   07 Jun 2027 08:24:34.023   07 Jun 2027 08:24:36.179             2.156           487.625
       185   07 Jun 2027 08:26:44.340   07 Jun 2027 08:26:50.687             6.347          3109.906
       186   07 Jun 2027 08:27:13.236   07 Jun 2027 08:27:15.094             1.858           297.812
       187   07 Jun 2027 08:27:47.561   07 Jun 2027 08:27:52.341             4.780           420.312
       188   07 Jun 2027 08:28:14.829   07 Jun 2027 08:28:14.829             0.000             0.000
       189   07 Jun 2027 08:28:53.491   07 Jun 2027 08:28:59.888             6.397          1891.125
       190   07 Jun 2027 08:29:47.989   07 Jun 2027 08:29:51.218             3.229          1469.906
       191   07 Jun 2027 08:30:03.201   07 Jun 2027 08:30:10.035             6.834           249.594
       192   07 Jun 2027 09:58:48.862   07 Jun 2027 09:59:02.430            13.568          6426.625
       193   07 Jun 2027 10:00:53.642   07 Jun 2027 10:01:00.909             7.267          3380.594
       194   07 Jun 2027 10:01:59.776   07 Jun 2027 10:02:04.239             4.463          1639.219
       195   07 Jun 2027 10:02:23.678   07 Jun 2027 10:02:26.213             2.535           579.437
       196   07 Jun 2027 10:02:28.984   07 Jun 2027 10:02:30.902             1.918            86.594
       197   07 Jun 2027 10:03:11.276   07 Jun 2027 10:03:14.040             2.764           660.719
       198   07 Jun 2027 10:03:15.332   07 Jun 2027 10:03:16.516             1.184             1.125
       199   07 Jun 2027 10:03:51.438   07 Jun 2027 10:03:51.438             0.000             0.000
       200   07 Jun 2027 10:04:35.459   07 Jun 2027 10:04:39.990             4.531          2148.781
       201   07 Jun 2027 10:04:46.926   07 Jun 2027 10:04:50.476             3.550           216.750
       202   07 Jun 2027 10:05:00.198   07 Jun 2027 10:05:00.959             0.761           303.813
       203   07 Jun 2027 10:05:24.696   07 Jun 2027 10:05:25.629             0.933           455.719
       204   07 Jun 2027 10:05:52.030   07 Jun 2027 10:05:53.534             1.504           752.000
       205   07 Jun 2027 10:05:58.717   07 Jun 2027 10:06:01.502             2.785           235.000
       206   07 Jun 2027 10:06:09.518   07 Jun 2027 10:06:12.007             2.489           250.500
       207   07 Jun 2027 11:35:44.455   07 Jun 2027 11:35:59.927            15.472          6632.281
       208   07 Jun 2027 11:37:33.592   07 Jun 2027 11:37:40.860             7.268          2598.344
       209   07 Jun 2027 11:37:56.325   07 Jun 2027 11:37:57.601             1.276           343.812
       210   07 Jun 2027 11:38:06.728   07 Jun 2027 11:38:10.679             3.951           266.125
       211   07 Jun 2027 11:38:51.729   07 Jun 2027 11:39:07.085            15.356          1282.812
       212   07 Jun 2027 11:39:26.897   07 Jun 2027 11:39:28.669             1.772           191.406
       213   07 Jun 2027 11:39:43.020   07 Jun 2027 11:39:43.183             0.163            81.500
       214   07 Jun 2027 11:40:01.075   07 Jun 2027 11:40:01.204             0.129            64.500
       215   07 Jun 2027 11:40:09.686   07 Jun 2027 11:40:11.168             1.482           741.000
       216   07 Jun 2027 11:40:50.327   07 Jun 2027 11:40:53.899             3.572          1609.375
       217   07 Jun 2027 11:41:03.297   07 Jun 2027 11:41:05.856             2.559           259.875
       218   07 Jun 2027 11:41:59.945   07 Jun 2027 11:42:11.986            12.041          1628.406
       219   08 Jun 2027 04:00:12.128   08 Jun 2027 04:01:54.321           102.193         51096.500
       220   08 Jun 2027 04:02:06.475   08 Jun 2027 04:02:08.028             1.553           776.500
       221   08 Jun 2027 04:02:20.147   08 Jun 2027 04:02:23.124             2.977          1488.500
       222   08 Jun 2027 04:03:11.008   08 Jun 2027 04:03:17.339             6.331          3165.500
       223   08 Jun 2027 04:03:25.418   08 Jun 2027 04:03:40.115            14.697          7348.500
       224   08 Jun 2027 05:24:00.470   08 Jun 2027 05:25:11.690            71.220         35610.000
       225   08 Jun 2027 07:00:00.766   08 Jun 2027 07:02:08.938           128.172         64086.000
       226   08 Jun 2027 07:02:46.624   08 Jun 2027 07:02:48.734             2.110          1055.000
       227   08 Jun 2027 08:33:44.644   08 Jun 2027 08:34:07.280            22.636          8616.312
       228   08 Jun 2027 08:35:23.416   08 Jun 2027 08:35:24.901             1.485           619.000
       229   08 Jun 2027 08:36:07.228   08 Jun 2027 08:36:07.228             0.000             0.000
       230   08 Jun 2027 08:36:23.760   08 Jun 2027 08:36:27.921             4.161          1730.625
       231   08 Jun 2027 08:37:01.757   08 Jun 2027 08:37:05.928             4.171           403.719
       232   08 Jun 2027 08:38:52.384   08 Jun 2027 08:38:52.384             0.000             0.000
       233   08 Jun 2027 08:39:39.478   08 Jun 2027 08:39:49.985            10.507          4764.937
       234   08 Jun 2027 08:40:52.666   08 Jun 2027 08:40:54.844             2.178          1089.000
       235   08 Jun 2027 08:42:19.099   08 Jun 2027 08:42:19.875             0.776           388.000
       236   08 Jun 2027 10:11:10.407   08 Jun 2027 10:11:25.595            15.188          6959.031
       237   08 Jun 2027 10:11:48.026   08 Jun 2027 10:11:51.682             3.656           700.156
       238   08 Jun 2027 10:12:42.391   08 Jun 2027 10:12:49.211             6.820           941.031
       239   08 Jun 2027 10:13:30.399   08 Jun 2027 10:13:33.458             3.059          1209.719
       240   08 Jun 2027 10:14:05.479   08 Jun 2027 10:14:07.108             1.629           460.219
       241   08 Jun 2027 10:15:46.300   08 Jun 2027 10:15:51.110             4.810          1758.969
       242   08 Jun 2027 10:16:23.144   08 Jun 2027 10:16:26.014             2.870           964.563
       243   08 Jun 2027 10:17:27.095   08 Jun 2027 10:17:31.804             4.709          1256.406
       244   08 Jun 2027 10:17:42.507   08 Jun 2027 10:17:43.165             0.658           298.219
       245   08 Jun 2027 10:17:51.086   08 Jun 2027 10:17:51.086             0.000             0.000
       246   08 Jun 2027 11:48:13.966   08 Jun 2027 11:48:31.033            17.067          7809.281
       247   08 Jun 2027 11:49:56.672   08 Jun 2027 11:50:04.185             7.513          2125.219
       248   08 Jun 2027 11:50:19.359   08 Jun 2027 11:50:22.155             2.796           344.906
       249   08 Jun 2027 11:51:29.123   08 Jun 2027 11:51:34.339             5.216          2025.125
       250   08 Jun 2027 11:52:23.217   08 Jun 2027 11:52:29.406             6.189          1231.562
       251   08 Jun 2027 11:53:36.945   08 Jun 2027 11:53:42.472             5.527          2043.125
       252   08 Jun 2027 11:53:46.619   08 Jun 2027 11:53:47.388             0.769           129.594
       253   08 Jun 2027 11:53:54.974   08 Jun 2027 11:53:58.865             3.891           228.156
       254   09 Jun 2027 04:12:30.752   09 Jun 2027 04:13:55.598            84.846         42423.000
       255   09 Jun 2027 04:15:14.449   09 Jun 2027 04:15:51.874            37.425         18712.500
       256   09 Jun 2027 05:35:52.093   09 Jun 2027 05:37:11.234            79.141         39570.500
       257   09 Jun 2027 05:38:27.173   09 Jun 2027 05:38:28.340             1.167           583.500
       258   09 Jun 2027 07:12:15.556   09 Jun 2027 07:14:20.157           124.601         61950.187
       259   09 Jun 2027 08:46:21.154   09 Jun 2027 08:46:38.864            17.710          7987.062
       260   09 Jun 2027 08:47:58.224   09 Jun 2027 08:48:02.099             3.875          1703.000
       261   09 Jun 2027 08:48:12.690   09 Jun 2027 08:48:12.690             0.000             0.000
       262   09 Jun 2027 08:48:27.490   09 Jun 2027 08:48:29.751             2.261           793.469
       263   09 Jun 2027 08:49:36.961   09 Jun 2027 08:49:39.440             2.479           877.094
       264   09 Jun 2027 08:50:12.931   09 Jun 2027 08:50:14.809             1.878           927.781
       265   09 Jun 2027 08:51:31.879   09 Jun 2027 08:51:36.304             4.425          1878.344
       266   09 Jun 2027 08:52:55.791   09 Jun 2027 08:52:55.791             0.000             0.000
       267   09 Jun 2027 08:53:04.460   09 Jun 2027 08:53:14.070             9.610          2754.875
       268   09 Jun 2027 08:53:44.670   09 Jun 2027 08:53:46.356             1.686           756.625
       269   09 Jun 2027 10:23:23.012   09 Jun 2027 10:23:35.895            12.883          5569.000
       270   09 Jun 2027 10:23:54.571   09 Jun 2027 10:23:55.847             1.276           428.000
       271   09 Jun 2027 10:24:06.405   09 Jun 2027 10:24:09.095             2.690           324.000
       272   09 Jun 2027 10:25:32.169   09 Jun 2027 10:25:36.574             4.405          1984.188
       273   09 Jun 2027 10:26:17.126   09 Jun 2027 10:26:19.496             2.370          1176.781
       274   09 Jun 2027 10:26:58.825   09 Jun 2027 10:27:04.171             5.346           624.844
       275   09 Jun 2027 10:27:34.180   09 Jun 2027 10:27:36.843             2.663           937.781
       276   09 Jun 2027 10:28:07.874   09 Jun 2027 10:28:07.912             0.038            19.000
       277   09 Jun 2027 10:28:36.251   09 Jun 2027 10:28:41.546             5.295          1677.312
       278   09 Jun 2027 10:29:28.738   09 Jun 2027 10:29:29.127             0.389           194.500
       279   09 Jun 2027 10:29:54.267   09 Jun 2027 10:29:58.369             4.102          1984.031
       280   10 Jun 2027 04:25:24.277   10 Jun 2027 04:27:01.908            97.631         48815.500
       281   10 Jun 2027 04:27:10.931   10 Jun 2027 04:27:15.501             4.570          2285.000
       282   10 Jun 2027 04:27:53.817   10 Jun 2027 04:27:53.817             0.000             0.000
       283   10 Jun 2027 04:28:19.199   10 Jun 2027 04:28:29.719            10.520          5260.000
       284   10 Jun 2027 05:47:57.097   10 Jun 2027 05:49:28.100            91.003         45501.500
       285   10 Jun 2027 05:49:54.691   10 Jun 2027 05:49:54.691             0.000             0.000
       286   10 Jun 2027 07:24:26.056   10 Jun 2027 07:26:22.718           116.662         57390.032
       287   10 Jun 2027 07:26:33.009   10 Jun 2027 07:26:33.639             0.630           311.625
       288   10 Jun 2027 07:26:46.713   10 Jun 2027 07:26:49.101             2.388           363.688
       289   10 Jun 2027 07:26:56.906   10 Jun 2027 07:26:56.906             0.000             0.000
       290   10 Jun 2027 08:59:32.285   10 Jun 2027 08:59:46.045            13.760          6660.062
       291   10 Jun 2027 09:00:03.816   10 Jun 2027 09:00:04.679             0.863           386.031
       292   10 Jun 2027 09:00:37.065   10 Jun 2027 09:00:38.528             1.463           605.469
       293   10 Jun 2027 09:01:27.522   10 Jun 2027 09:01:32.964             5.442          1531.062
       294   10 Jun 2027 09:02:12.453   10 Jun 2027 09:02:14.105             1.652           620.062
       295   10 Jun 2027 09:02:58.115   10 Jun 2027 09:03:01.930             3.815           579.250
       296   10 Jun 2027 09:03:38.816   10 Jun 2027 09:03:41.623             2.807          1046.875
       297   10 Jun 2027 09:04:12.826   10 Jun 2027 09:04:14.406             1.580            28.594
       298   10 Jun 2027 09:04:47.089   10 Jun 2027 09:04:48.746             1.657           775.875
       299   10 Jun 2027 09:05:37.741   10 Jun 2027 09:05:45.953             8.212          1299.031
       300   10 Jun 2027 10:35:54.350   10 Jun 2027 10:36:06.938            12.588          6024.906
       301   10 Jun 2027 10:36:58.369   10 Jun 2027 10:37:00.471             2.102           128.250
       302   10 Jun 2027 10:37:48.455   10 Jun 2027 10:37:50.807             2.352           764.750
       303   10 Jun 2027 10:38:02.263   10 Jun 2027 10:38:02.877             0.614           307.000
       304   10 Jun 2027 10:38:07.627   10 Jun 2027 10:38:08.726             1.099           156.406
       305   10 Jun 2027 10:38:16.493   10 Jun 2027 10:38:18.155             1.662           191.219
       306   10 Jun 2027 10:38:39.170   10 Jun 2027 10:38:45.293             6.123           650.719
       307   10 Jun 2027 10:39:16.692   10 Jun 2027 10:39:20.619             3.927           981.219
       308   10 Jun 2027 10:39:58.114   10 Jun 2027 10:40:02.098             3.984           999.688
       309   10 Jun 2027 10:40:36.190   10 Jun 2027 10:40:38.433             2.243           983.531
       310   10 Jun 2027 10:40:52.031   10 Jun 2027 10:40:56.957             4.926           229.375
       311   10 Jun 2027 10:41:30.517   10 Jun 2027 10:41:34.495             3.978          1010.687
       312   10 Jun 2027 10:41:36.543   10 Jun 2027 10:41:37.392             0.849            64.000
       313   10 Jun 2027 10:41:54.417   10 Jun 2027 10:41:54.417             0.000             0.000
       314   11 Jun 2027 03:00:00.000   11 Jun 2027 03:00:13.438            13.438          6719.000
       315   11 Jun 2027 03:00:29.545   11 Jun 2027 03:00:35.140             5.595          2797.500
       316   11 Jun 2027 03:00:57.973   11 Jun 2027 03:01:20.577            22.604         11302.000
       317   11 Jun 2027 04:36:32.577   11 Jun 2027 04:37:10.462            37.885         18942.500
       318   11 Jun 2027 04:37:22.875   11 Jun 2027 04:38:14.345            51.470         25735.000
       319   11 Jun 2027 04:38:55.594   11 Jun 2027 04:39:20.079            24.485         12242.500
       320   11 Jun 2027 06:00:01.116   11 Jun 2027 06:01:03.169            62.053         31026.500
       321   11 Jun 2027 06:01:38.284   11 Jun 2027 06:02:07.469            29.185         14592.500
       322   11 Jun 2027 07:36:30.176   11 Jun 2027 07:38:00.438            90.262         45131.000
       323   11 Jun 2027 07:38:47.708   11 Jun 2027 07:38:54.224             6.516          3258.000
       324   11 Jun 2027 07:38:58.525   11 Jun 2027 07:39:05.020             6.495          1840.374
       325   11 Jun 2027 09:11:40.738   11 Jun 2027 09:11:47.000             6.262          3131.000
       326   11 Jun 2027 09:11:51.840   11 Jun 2027 09:12:03.282            11.442          3694.719
       327   11 Jun 2027 09:14:21.114   11 Jun 2027 09:14:27.345             6.231          2447.500
       328   11 Jun 2027 09:15:00.686   11 Jun 2027 09:15:00.686             0.000             0.000
       329   11 Jun 2027 09:15:37.192   11 Jun 2027 09:15:41.444             4.252          1912.125
       330   11 Jun 2027 09:15:58.646   11 Jun 2027 09:15:59.385             0.739           156.719
       331   11 Jun 2027 09:17:10.717   11 Jun 2027 09:17:17.120             6.403          1421.344
       332   11 Jun 2027 09:18:02.380   11 Jun 2027 09:18:06.778             4.398           762.719
       333   11 Jun 2027 10:47:38.548   11 Jun 2027 10:47:53.110            14.562          6964.500
       334   11 Jun 2027 10:48:33.453   11 Jun 2027 10:48:37.046             3.593           715.281
       335   11 Jun 2027 10:48:55.194   11 Jun 2027 10:48:57.328             2.134           353.406
       336   11 Jun 2027 10:49:50.628   11 Jun 2027 10:49:53.642             3.014          1493.500
       337   11 Jun 2027 10:50:05.918   11 Jun 2027 10:50:07.973             2.055           383.625
       338   11 Jun 2027 10:51:36.422   11 Jun 2027 10:51:40.602             4.180          2090.000
       339   11 Jun 2027 10:51:45.433   11 Jun 2027 10:51:48.258             2.825           604.000
       340   11 Jun 2027 10:51:54.107   11 Jun 2027 10:51:55.088             0.981           182.781
       341   11 Jun 2027 10:52:03.190   11 Jun 2027 10:52:16.323            13.133           199.469
       342   11 Jun 2027 10:52:42.060   11 Jun 2027 10:52:45.706             3.646           779.344
       343   11 Jun 2027 10:53:36.529   11 Jun 2027 10:53:42.782             6.253          1157.406
       344   11 Jun 2027 10:53:56.045   11 Jun 2027 10:53:58.704             2.659           414.469
       345   12 Jun 2027 03:11:24.488   12 Jun 2027 03:12:50.026            85.538         42769.000
       346   12 Jun 2027 03:13:44.966   12 Jun 2027 03:13:48.327             3.361          1680.500
       347   12 Jun 2027 03:13:53.364   12 Jun 2027 03:13:56.954             3.590          1795.000
       348   12 Jun 2027 03:14:23.673   12 Jun 2027 03:14:24.602             0.929           464.500
       349   12 Jun 2027 03:15:08.748   12 Jun 2027 03:15:18.722             9.974          4987.000
       350   12 Jun 2027 03:17:51.387   12 Jun 2027 03:17:58.262             6.875          3437.500
       351   12 Jun 2027 03:18:06.407   12 Jun 2027 03:18:17.087            10.680          5340.000
       352   12 Jun 2027 03:18:30.712   12 Jun 2027 03:18:42.670            11.958          5979.000
       353   12 Jun 2027 04:37:39.694   12 Jun 2027 04:37:58.749            19.055          9527.500
       354   12 Jun 2027 04:48:30.287   12 Jun 2027 04:49:16.694            46.407         23203.500
       355   12 Jun 2027 04:49:51.507   12 Jun 2027 04:49:53.856             2.349          1174.500
       356   12 Jun 2027 04:51:54.333   12 Jun 2027 04:51:57.500             3.167          1583.500
       357   12 Jun 2027 06:12:28.034   12 Jun 2027 06:13:40.055            72.021         36010.500
       358   12 Jun 2027 07:48:14.616   12 Jun 2027 07:49:34.180            79.564         39425.469
       359   12 Jun 2027 07:51:04.751   12 Jun 2027 07:51:10.963             6.212          2780.156
       360   12 Jun 2027 07:51:43.294   12 Jun 2027 07:51:43.294             0.000             0.000
       361   12 Jun 2027 09:22:58.171   12 Jun 2027 09:23:12.099            13.928          6493.969
       362   12 Jun 2027 09:23:23.579   12 Jun 2027 09:23:25.585             2.006           145.969
       363   12 Jun 2027 09:24:07.613   12 Jun 2027 09:24:11.161             3.548          1019.219
       364   12 Jun 2027 09:24:37.181   12 Jun 2027 09:24:38.289             1.108           548.406
       365   12 Jun 2027 09:24:58.644   12 Jun 2027 09:25:01.032             2.388           539.312
       366   12 Jun 2027 09:25:17.200   12 Jun 2027 09:25:18.567             1.367           298.531
       367   12 Jun 2027 09:25:48.213   12 Jun 2027 09:25:49.229             1.016           116.656
       368   12 Jun 2027 09:26:35.732   12 Jun 2027 09:26:44.319             8.587          1415.531
       369   12 Jun 2027 09:29:51.935   12 Jun 2027 09:30:04.307            12.372          5278.687
       370   12 Jun 2027 09:30:05.052   12 Jun 2027 09:30:12.121             7.069            23.281
       371   12 Jun 2027 09:30:23.205   12 Jun 2027 09:30:25.866             2.661           340.375
       372   12 Jun 2027 10:59:42.509   12 Jun 2027 10:59:56.776            14.267          6824.000
       373   12 Jun 2027 11:01:42.030   12 Jun 2027 11:01:47.502             5.472          2469.063
       374   12 Jun 2027 11:02:13.169   12 Jun 2027 11:02:15.431             2.262           705.219
       375   12 Jun 2027 11:02:38.421   12 Jun 2027 11:02:41.921             3.500           597.187
       376   12 Jun 2027 11:03:50.792   12 Jun 2027 11:03:55.269             4.477          2152.219
       377   12 Jun 2027 11:04:17.707   12 Jun 2027 11:04:19.196             1.489           701.188
       378   12 Jun 2027 11:04:39.848   12 Jun 2027 11:04:41.821             1.973           321.500
       379   12 Jun 2027 11:04:53.300   12 Jun 2027 11:04:58.780             5.480           314.844
       380   12 Jun 2027 11:05:55.744   12 Jun 2027 11:05:57.174             1.430           715.000
       381   13 Jun 2027 03:23:45.092   13 Jun 2027 03:25:04.342            79.250         39625.000
       382   13 Jun 2027 03:25:58.117   13 Jun 2027 03:26:23.674            25.557         12778.500
       383   13 Jun 2027 03:26:52.592   13 Jun 2027 03:27:03.553            10.961          5480.500
       384   13 Jun 2027 04:48:55.565   13 Jun 2027 04:49:03.652             8.087          4043.500
       385   13 Jun 2027 04:49:21.918   13 Jun 2027 04:49:26.814             4.896          2448.000
       386   13 Jun 2027 05:00:28.849   13 Jun 2027 05:01:24.439            55.590         27795.000
       387   13 Jun 2027 06:23:06.597   13 Jun 2027 06:24:04.790            58.193         29096.500
       388   13 Jun 2027 06:24:43.136   13 Jun 2027 06:24:55.125            11.989          5994.500
       389   13 Jun 2027 06:25:27.468   13 Jun 2027 06:25:41.887            14.419          7209.500
       390   13 Jun 2027 07:58:15.172   13 Jun 2027 07:59:23.964            68.792         33274.563
       391   13 Jun 2027 08:01:36.722   13 Jun 2027 08:01:45.800             9.078          4054.500
       392   13 Jun 2027 08:03:00.647   13 Jun 2027 08:03:05.541             4.894          2209.562
       393   13 Jun 2027 08:03:56.462   13 Jun 2027 08:04:00.125             3.663          1417.969
       394   13 Jun 2027 08:04:05.680   13 Jun 2027 08:04:07.629             1.949            65.438
       395   13 Jun 2027 09:35:01.875   13 Jun 2027 09:35:11.325             9.450          4426.313
       396   13 Jun 2027 09:37:12.521   13 Jun 2027 09:37:28.702            16.181          3787.375
       397   13 Jun 2027 09:38:24.209   13 Jun 2027 09:38:24.281             0.072            36.000
       398   13 Jun 2027 09:39:05.069   13 Jun 2027 09:39:11.375             6.306          1996.781
       399   13 Jun 2027 09:39:40.356   13 Jun 2027 09:39:40.459             0.103            51.500
       400   13 Jun 2027 09:39:44.417   13 Jun 2027 09:39:48.268             3.851           298.406
       401   13 Jun 2027 09:41:38.219   13 Jun 2027 09:41:48.084             9.865          3435.969
       402   13 Jun 2027 09:42:01.014   13 Jun 2027 09:42:02.522             1.508           301.063
       403   13 Jun 2027 09:42:27.790   13 Jun 2027 09:42:28.322             0.532           266.000
       404   13 Jun 2027 11:12:02.996   13 Jun 2027 11:12:17.886            14.890          7445.000
       405   13 Jun 2027 11:12:55.415   13 Jun 2027 11:12:59.988             4.573          1230.688
       406   13 Jun 2027 11:14:22.933   13 Jun 2027 11:14:26.984             4.051          1844.594
       407   13 Jun 2027 11:14:56.806   13 Jun 2027 11:15:00.632             3.826           866.125
       408   13 Jun 2027 11:15:05.567   13 Jun 2027 11:15:06.944             1.377           154.219
       409   13 Jun 2027 11:15:50.439   13 Jun 2027 11:15:53.673             3.234          1048.375
       410   13 Jun 2027 11:16:19.694   13 Jun 2027 11:16:21.163             1.469           719.750
       411   13 Jun 2027 11:16:48.766   13 Jun 2027 11:16:58.799            10.033           845.687
