uniorb/output/strategy_1/Camera/Camera_KinoSat_111505.txt

KinoSat_111505
-------------------------
    Access    *     Start Time (UTCG)     *     Stop Time (UTCG)  *   Duration (s) *   Data (Mbytes)
         1   01 Jun 2027 03:18:11.691   01 Jun 2027 03:19:13.865            62.174         31087.000
         2   01 Jun 2027 03:19:20.371   01 Jun 2027 03:20:05.574            45.203         22601.500
         3   01 Jun 2027 03:20:10.098   01 Jun 2027 03:20:15.707             5.609          2804.500
         4   01 Jun 2027 03:20:32.304   01 Jun 2027 03:20:50.389            18.085          9042.500
         5   01 Jun 2027 03:21:40.344   01 Jun 2027 03:21:43.014             2.670          1335.000
         6   01 Jun 2027 03:22:37.858   01 Jun 2027 03:22:55.391            17.533          8766.500
         7   01 Jun 2027 03:24:25.654   01 Jun 2027 03:24:26.065             0.411           205.500
         8   01 Jun 2027 04:56:30.129   01 Jun 2027 04:57:02.076            31.947         15973.500
         9   01 Jun 2027 04:57:19.582   01 Jun 2027 04:58:03.210            43.628         21814.000
        10   01 Jun 2027 04:59:10.582   01 Jun 2027 04:59:16.627             6.045          3022.500
        11   01 Jun 2027 06:19:52.640   01 Jun 2027 06:21:06.628            73.988         36994.000
        12   01 Jun 2027 07:56:24.500   01 Jun 2027 07:58:29.681           125.181         62590.500
        13   01 Jun 2027 09:31:34.894   01 Jun 2027 09:32:57.604            82.710         41355.000
        14   01 Jun 2027 09:33:50.726   01 Jun 2027 09:34:31.888            41.162         20581.000
        15   01 Jun 2027 09:38:00.161   01 Jun 2027 09:38:07.328             7.167          3583.500
        16   01 Jun 2027 11:07:57.952   01 Jun 2027 11:10:15.756           137.804         68902.000
        17   01 Jun 2027 11:11:25.259   01 Jun 2027 11:11:39.174            13.915          6957.500
        18   02 Jun 2027 03:31:18.310   02 Jun 2027 03:33:10.051           111.741         55870.500
        19   02 Jun 2027 03:35:10.550   02 Jun 2027 03:35:20.412             9.862          4931.000
        20   02 Jun 2027 03:37:48.792   02 Jun 2027 03:37:54.468             5.676          2838.000
        21   02 Jun 2027 03:38:16.322   02 Jun 2027 03:38:31.994            15.672          7836.000
        22   02 Jun 2027 05:08:26.833   02 Jun 2027 05:09:06.114            39.281         19640.500
        23   02 Jun 2027 05:09:27.275   02 Jun 2027 05:10:05.230            37.955         18977.500
        24   02 Jun 2027 05:11:18.727   02 Jun 2027 05:11:26.867             8.140          4070.000
        25   02 Jun 2027 06:32:22.419   02 Jun 2027 06:33:25.578            63.159         31579.500
        26   02 Jun 2027 08:08:17.179   02 Jun 2027 08:10:09.340           112.161         56080.500
        27   02 Jun 2027 08:10:45.924   02 Jun 2027 08:11:00.112            14.188          7094.000
        28   02 Jun 2027 09:43:12.638   02 Jun 2027 09:44:58.651           106.013         53006.500
        29   02 Jun 2027 09:45:25.558   02 Jun 2027 09:45:51.977            26.419         13209.500
        30   02 Jun 2027 09:49:51.318   02 Jun 2027 09:50:11.781            20.463         10231.500
        31   02 Jun 2027 11:19:32.385   02 Jun 2027 11:21:28.848           116.463         58231.500
        32   02 Jun 2027 11:22:29.247   02 Jun 2027 11:22:35.739             6.492          3246.000
        33   03 Jun 2027 03:43:22.034   03 Jun 2027 03:45:11.253           109.219         54609.500
        34   03 Jun 2027 03:45:19.278   03 Jun 2027 03:45:32.814            13.536          6768.000
        35   03 Jun 2027 03:48:09.474   03 Jun 2027 03:48:16.442             6.968          3484.000
        36   03 Jun 2027 03:50:23.563   03 Jun 2027 03:50:59.281            35.718         17859.000
        37   03 Jun 2027 05:09:10.190   03 Jun 2027 05:09:45.683            35.493         17746.500
        38   03 Jun 2027 05:20:22.916   03 Jun 2027 05:20:47.883            24.967         12483.500
        39   03 Jun 2027 05:20:50.568   03 Jun 2027 05:21:03.761            13.193          6596.500
        40   03 Jun 2027 05:21:22.362   03 Jun 2027 05:21:40.312            17.950          8975.000
        41   03 Jun 2027 06:42:59.716   03 Jun 2027 06:44:14.103            74.387         37193.500
        42   03 Jun 2027 06:45:07.154   03 Jun 2027 06:45:18.617            11.463          5731.500
        43   03 Jun 2027 06:47:30.857   03 Jun 2027 06:47:35.026             4.169          2084.500
        44   03 Jun 2027 08:18:34.838   03 Jun 2027 08:19:16.256            41.418         20709.000
        45   03 Jun 2027 08:20:01.826   03 Jun 2027 08:21:22.973            81.147         40573.500
        46   03 Jun 2027 08:22:40.325   03 Jun 2027 08:22:40.325             0.000             0.000
        47   03 Jun 2027 09:54:46.510   03 Jun 2027 09:56:23.283            96.773         48386.500
        48   03 Jun 2027 09:57:47.496   03 Jun 2027 09:57:47.902             0.406           203.000
        49   03 Jun 2027 09:58:15.407   03 Jun 2027 09:58:19.600             4.193          2096.500
        50   03 Jun 2027 09:58:57.400   03 Jun 2027 09:59:08.965            11.565          3076.062
        51   03 Jun 2027 10:01:39.335   03 Jun 2027 10:01:41.306             1.971           985.500
        52   03 Jun 2027 10:01:57.152   03 Jun 2027 10:02:04.843             7.691          3687.156
        53   03 Jun 2027 11:31:52.733   03 Jun 2027 11:32:03.226            10.493          5246.500
        54   03 Jun 2027 11:33:29.049   03 Jun 2027 11:33:46.368            17.319          7990.969
        55   03 Jun 2027 11:34:03.731   03 Jun 2027 11:34:15.234            11.503           542.594
        56   03 Jun 2027 11:35:29.403   03 Jun 2027 11:35:34.239             4.836          2179.688
        57   03 Jun 2027 11:38:10.981   03 Jun 2027 11:38:14.454             3.473          1736.500
        58   04 Jun 2027 03:55:51.349   04 Jun 2027 03:57:16.127            84.778         42389.000
        59   04 Jun 2027 03:58:47.106   04 Jun 2027 03:58:56.115             9.009          4504.500
        60   04 Jun 2027 03:59:35.563   04 Jun 2027 03:59:45.611            10.048          5024.000
        61   04 Jun 2027 04:00:00.247   04 Jun 2027 04:00:04.708             4.461          2230.500
        62   04 Jun 2027 04:01:18.538   04 Jun 2027 04:01:40.479            21.941         10970.500
        63   04 Jun 2027 04:02:38.418   04 Jun 2027 04:02:59.513            21.095         10547.500
        64   04 Jun 2027 05:20:42.881   04 Jun 2027 05:21:50.161            67.280         33640.000
        65   04 Jun 2027 05:32:25.630   04 Jun 2027 05:32:49.714            24.084         12042.000
        66   04 Jun 2027 05:33:21.224   04 Jun 2027 05:33:27.010             5.786          2893.000
        67   04 Jun 2027 06:54:40.169   04 Jun 2027 06:55:48.968            68.799         34399.500
        68   04 Jun 2027 06:56:39.384   04 Jun 2027 06:57:06.725            27.341         13670.500
        69   04 Jun 2027 06:57:29.325   04 Jun 2027 06:57:29.325             0.000             0.000
        70   04 Jun 2027 06:58:01.336   04 Jun 2027 06:58:16.625            15.289          7644.500
        71   04 Jun 2027 08:29:41.452   04 Jun 2027 08:30:19.855            38.403         18254.468
        72   04 Jun 2027 08:31:18.947   04 Jun 2027 08:31:23.771             4.824          1710.188
        73   04 Jun 2027 08:33:05.163   04 Jun 2027 08:33:11.713             6.550          2377.937
        74   04 Jun 2027 08:33:39.511   04 Jun 2027 08:33:39.511             0.000             0.000
        75   04 Jun 2027 08:36:00.382   04 Jun 2027 08:36:08.930             8.548          4274.000
        76   04 Jun 2027 10:07:06.586   04 Jun 2027 10:07:17.308            10.722          4701.688
        77   04 Jun 2027 10:07:50.677   04 Jun 2027 10:07:52.275             1.598           349.531
        78   04 Jun 2027 10:08:08.186   04 Jun 2027 10:08:10.321             2.135           497.219
        79   04 Jun 2027 10:08:13.384   04 Jun 2027 10:08:14.942             1.558            95.719
        80   04 Jun 2027 10:08:26.157   04 Jun 2027 10:08:28.447             2.290           336.219
        81   04 Jun 2027 10:09:05.511   04 Jun 2027 10:09:08.348             2.837           916.313
        82   04 Jun 2027 10:09:51.058   04 Jun 2027 10:09:53.732             2.674           269.281
        83   04 Jun 2027 10:10:15.196   04 Jun 2027 10:10:15.679             0.483           137.344
        84   04 Jun 2027 10:11:23.135   04 Jun 2027 10:11:31.184             8.049          1575.844
        85   04 Jun 2027 10:12:02.395   04 Jun 2027 10:12:04.884             2.489           975.344
        86   04 Jun 2027 10:12:21.730   04 Jun 2027 10:12:24.629             2.899           359.875
        87   04 Jun 2027 10:12:43.077   04 Jun 2027 10:12:43.077             0.000             0.000
        88   04 Jun 2027 10:13:22.736   04 Jun 2027 10:13:26.450             3.714          1796.719
        89   04 Jun 2027 10:13:57.465   04 Jun 2027 10:13:58.746             1.281           444.656
        90   04 Jun 2027 10:14:06.785   04 Jun 2027 10:14:06.785             0.000             0.000
        91   04 Jun 2027 11:43:54.137   04 Jun 2027 11:44:08.342            14.205          6916.844
        92   04 Jun 2027 11:44:43.992   04 Jun 2027 11:44:48.381             4.389          1114.063
        93   04 Jun 2027 11:45:26.301   04 Jun 2027 11:45:35.046             8.745           791.594
        94   04 Jun 2027 11:45:46.118   04 Jun 2027 11:45:48.365             2.247           155.406
        95   04 Jun 2027 11:46:05.449   04 Jun 2027 11:46:08.646             3.197           351.313
        96   04 Jun 2027 11:47:10.824   04 Jun 2027 11:47:20.562             9.738          1391.187
        97   04 Jun 2027 11:47:35.222   04 Jun 2027 11:47:35.744             0.522           261.000
        98   04 Jun 2027 11:47:59.318   04 Jun 2027 11:48:01.664             2.346           933.813
        99   04 Jun 2027 11:49:09.341   04 Jun 2027 11:49:14.811             5.470          2089.594
       100   04 Jun 2027 11:49:50.455   04 Jun 2027 11:49:50.455             0.000             0.000
       101   04 Jun 2027 11:50:00.952   04 Jun 2027 11:50:03.975             3.023          1278.875
       102   05 Jun 2027 04:07:52.969   05 Jun 2027 04:09:43.354           110.385         55192.500
       103   05 Jun 2027 04:12:44.384   05 Jun 2027 04:13:07.231            22.847         11423.500
       104   05 Jun 2027 05:32:14.658   05 Jun 2027 05:33:36.127            81.469         40734.500
       105   05 Jun 2027 05:44:27.674   05 Jun 2027 05:44:51.173            23.499         11749.500
       106   05 Jun 2027 07:06:21.883   05 Jun 2027 07:07:35.793            73.910         36955.000
       107   05 Jun 2027 07:08:25.229   05 Jun 2027 07:09:00.790            35.561         17333.000
       108   05 Jun 2027 07:09:28.434   05 Jun 2027 07:09:28.434             0.000             0.000
       109   05 Jun 2027 07:10:55.112   05 Jun 2027 07:11:00.212             5.100          2550.000
       110   05 Jun 2027 07:11:42.500   05 Jun 2027 07:11:50.866             8.366          2333.125
       111   05 Jun 2027 08:41:10.272   05 Jun 2027 08:41:31.454            21.182          7835.938
       112   05 Jun 2027 08:41:55.039   05 Jun 2027 08:41:55.717             0.678           339.000
       113   05 Jun 2027 08:42:59.674   05 Jun 2027 08:43:05.250             5.576          2110.156
       114   05 Jun 2027 08:43:12.171   05 Jun 2027 08:43:12.378             0.207           103.500
       115   05 Jun 2027 08:43:16.678   05 Jun 2027 08:43:16.678             0.000             0.000
       116   05 Jun 2027 08:45:24.325   05 Jun 2027 08:45:32.698             8.373          4128.750
       117   05 Jun 2027 08:46:55.301   05 Jun 2027 08:47:04.725             9.424          2345.625
       118   05 Jun 2027 08:49:31.349   05 Jun 2027 08:49:39.265             7.916          2716.688
       119   05 Jun 2027 08:49:53.807   05 Jun 2027 08:49:58.421             4.614           170.219
       120   05 Jun 2027 10:19:00.722   05 Jun 2027 10:19:16.607            15.885          6973.562
       121   05 Jun 2027 10:19:54.968   05 Jun 2027 10:19:56.885             1.917           958.500
       122   05 Jun 2027 10:19:58.124   05 Jun 2027 10:19:58.988             0.864           235.344
       123   05 Jun 2027 10:20:12.898   05 Jun 2027 10:20:14.324             1.426           206.687
       124   05 Jun 2027 10:20:19.637   05 Jun 2027 10:20:20.117             0.480           144.750
       125   05 Jun 2027 10:20:38.345   05 Jun 2027 10:20:39.950             1.605            20.062
       126   05 Jun 2027 10:21:06.960   05 Jun 2027 10:21:09.891             2.931           844.062
       127   05 Jun 2027 10:21:44.438   05 Jun 2027 10:21:46.474             2.036           971.750
       128   05 Jun 2027 10:22:15.495   05 Jun 2027 10:22:24.775             9.280           741.313
       129   05 Jun 2027 10:23:18.719   05 Jun 2027 10:23:19.835             1.116           558.000
       130   05 Jun 2027 10:24:40.126   05 Jun 2027 10:24:40.126             0.000             0.000
       131   05 Jun 2027 10:24:58.517   05 Jun 2027 10:25:07.005             8.488          4178.562
       132   05 Jun 2027 10:25:25.468   05 Jun 2027 10:25:25.682             0.214            98.094
       133   05 Jun 2027 10:25:32.056   05 Jun 2027 10:25:34.579             2.523           199.187
       134   05 Jun 2027 10:25:45.116   05 Jun 2027 10:25:48.671             3.555           308.437
       135   05 Jun 2027 10:26:01.378   05 Jun 2027 10:26:06.385             5.007           316.250
       136   05 Jun 2027 11:55:45.451   05 Jun 2027 11:55:58.032            12.581          6290.500
       137   05 Jun 2027 11:56:16.616   05 Jun 2027 11:56:20.595             3.979          1269.406
       138   05 Jun 2027 11:58:34.007   05 Jun 2027 11:58:43.267             9.260          4169.125
       139   05 Jun 2027 11:58:58.836   05 Jun 2027 11:58:58.836             0.000             0.000
       140   05 Jun 2027 11:59:31.997   05 Jun 2027 11:59:33.327             1.330           665.000
       141   05 Jun 2027 11:59:47.671   05 Jun 2027 11:59:50.343             2.672          1074.125
       142   06 Jun 2027 04:20:15.410   06 Jun 2027 04:21:34.164            78.754         39377.000
       143   06 Jun 2027 04:22:52.969   06 Jun 2027 04:23:13.144            20.175         10087.500
       144   06 Jun 2027 04:25:16.486   06 Jun 2027 04:25:24.418             7.932          3966.000
       145   06 Jun 2027 05:44:12.740   06 Jun 2027 05:45:57.282           104.542         52271.000
       146   06 Jun 2027 07:20:09.901   06 Jun 2027 07:22:07.687           117.786         57635.844
       147   06 Jun 2027 07:23:19.900   06 Jun 2027 07:23:19.900             0.000             0.000
       148   06 Jun 2027 08:53:58.607   06 Jun 2027 08:54:11.489            12.882          5895.344
       149   06 Jun 2027 08:55:27.172   06 Jun 2027 08:55:27.172             0.000             0.000
       150   06 Jun 2027 08:55:59.819   06 Jun 2027 08:56:03.064             3.245          1461.719
       151   06 Jun 2027 08:57:24.357   06 Jun 2027 08:57:24.357             0.000             0.000
       152   06 Jun 2027 08:58:40.168   06 Jun 2027 08:58:50.822            10.654          4720.781
       153   06 Jun 2027 09:00:20.087   06 Jun 2027 09:00:29.696             9.609          2789.531
       154   06 Jun 2027 09:01:09.054   06 Jun 2027 09:01:11.618             2.564          1183.688
       155   06 Jun 2027 09:01:11.809   06 Jun 2027 09:01:18.224             6.415             5.969
       156   06 Jun 2027 09:02:26.097   06 Jun 2027 09:02:30.657             4.560          1913.406
       157   06 Jun 2027 10:31:08.084   06 Jun 2027 10:31:26.014            17.930          7381.219
       158   06 Jun 2027 10:31:53.960   06 Jun 2027 10:31:55.939             1.979           403.625
       159   06 Jun 2027 10:32:33.803   06 Jun 2027 10:32:37.432             3.629           895.062
       160   06 Jun 2027 10:33:21.757   06 Jun 2027 10:33:36.695            14.938          1303.125
       161   06 Jun 2027 10:35:35.065   06 Jun 2027 10:35:42.887             7.822          3339.844
       162   06 Jun 2027 10:36:01.736   06 Jun 2027 10:36:03.165             1.429           586.344
       163   06 Jun 2027 10:36:18.174   06 Jun 2027 10:36:20.776             2.602           178.344
       164   06 Jun 2027 10:36:27.754   06 Jun 2027 10:36:29.984             2.230           218.062
       165   06 Jun 2027 10:36:35.397   06 Jun 2027 10:36:35.890             0.493           169.156
       166   06 Jun 2027 10:36:50.620   06 Jun 2027 10:36:50.988             0.368           126.281
       167   06 Jun 2027 10:36:58.179   06 Jun 2027 10:37:03.836             5.657           224.719
       168   06 Jun 2027 10:37:50.425   06 Jun 2027 10:37:53.788             3.363          1128.656
       169   06 Jun 2027 10:38:10.084   06 Jun 2027 10:38:12.809             2.725           495.219
       170   07 Jun 2027 03:00:00.000   07 Jun 2027 03:00:26.793            26.793         13396.500
       171   07 Jun 2027 04:32:44.108   07 Jun 2027 04:34:17.219            93.111         46555.500
       172   07 Jun 2027 04:35:06.599   07 Jun 2027 04:35:06.599             0.000             0.000
       173   07 Jun 2027 04:35:11.104   07 Jun 2027 04:35:12.531             1.427           713.500
       174   07 Jun 2027 04:36:02.167   07 Jun 2027 04:36:09.140             6.973          3486.500
       175   07 Jun 2027 04:36:27.485   07 Jun 2027 04:36:38.072            10.587          5293.500
       176   07 Jun 2027 05:56:05.664   07 Jun 2027 05:57:21.119            75.455         37727.500
       177   07 Jun 2027 05:58:22.300   07 Jun 2027 05:58:22.300             0.000             0.000
       178   07 Jun 2027 07:32:28.112   07 Jun 2027 07:34:22.803           114.691         57345.500
       179   07 Jun 2027 07:35:54.145   07 Jun 2027 07:35:57.416             3.271          1635.500
       180   07 Jun 2027 09:06:19.743   07 Jun 2027 09:06:27.674             7.931          3965.500
       181   07 Jun 2027 09:06:40.587   07 Jun 2027 09:06:49.946             9.359          2524.656
       182   07 Jun 2027 09:09:03.283   07 Jun 2027 09:09:12.200             8.917          3433.062
       183   07 Jun 2027 09:09:49.319   07 Jun 2027 09:09:52.268             2.949          1159.969
       184   07 Jun 2027 09:12:49.990   07 Jun 2027 09:12:56.188             6.198          3099.000
       185   07 Jun 2027 09:13:15.650   07 Jun 2027 09:13:18.449             2.799          1399.500
       186   07 Jun 2027 09:13:21.010   07 Jun 2027 09:13:23.056             2.046           589.094
       187   07 Jun 2027 09:14:13.978   07 Jun 2027 09:14:16.281             2.303          1151.500
       188   07 Jun 2027 10:43:34.896   07 Jun 2027 10:43:48.464            13.568          6492.094
       189   07 Jun 2027 10:43:58.633   07 Jun 2027 10:44:00.598             1.965           298.000
       190   07 Jun 2027 10:44:26.952   07 Jun 2027 10:44:28.162             1.210           282.844
       191   07 Jun 2027 10:45:12.948   07 Jun 2027 10:45:15.280             2.332          1026.531
       192   07 Jun 2027 10:45:27.456   07 Jun 2027 10:45:29.271             1.815           211.094
       193   07 Jun 2027 10:46:19.856   07 Jun 2027 10:46:31.914            12.058           101.531
       194   07 Jun 2027 10:46:46.249   07 Jun 2027 10:46:49.245             2.996           447.969
       195   07 Jun 2027 10:48:18.631   07 Jun 2027 10:48:25.359             6.728          2007.562
       196   07 Jun 2027 10:48:31.768   07 Jun 2027 10:48:34.886             3.118           176.906
       197   07 Jun 2027 10:48:44.279   07 Jun 2027 10:48:44.737             0.458           229.000
       198   07 Jun 2027 10:49:15.924   07 Jun 2027 10:49:18.290             2.366          1039.125
       199   07 Jun 2027 10:49:38.243   07 Jun 2027 10:49:39.971             1.728           584.813
       200   07 Jun 2027 10:49:52.293   07 Jun 2027 10:49:53.699             1.406           308.187
       201   08 Jun 2027 03:06:20.014   08 Jun 2027 03:06:24.062             4.048          2024.000
       202   08 Jun 2027 03:06:49.004   08 Jun 2027 03:07:18.066            29.062         14531.000
       203   08 Jun 2027 03:07:46.789   08 Jun 2027 03:08:06.775            19.986          9993.000
       204   08 Jun 2027 03:08:51.911   08 Jun 2027 03:08:58.832             6.921          3460.500
       205   08 Jun 2027 03:09:39.500   08 Jun 2027 03:09:43.595             4.095          2047.500
       206   08 Jun 2027 03:11:18.929   08 Jun 2027 03:11:25.622             6.693          3346.500
       207   08 Jun 2027 03:11:59.374   08 Jun 2027 03:12:06.691             7.317          3658.500
       208   08 Jun 2027 04:45:00.595   08 Jun 2027 04:46:38.696            98.101         49050.500
       209   08 Jun 2027 04:47:30.137   08 Jun 2027 04:47:56.504            26.367         13183.500
       210   08 Jun 2027 06:07:54.381   08 Jun 2027 06:08:37.328            42.947         21473.500
       211   08 Jun 2027 07:44:31.635   08 Jun 2027 07:46:13.025           101.390         50695.000
       212   08 Jun 2027 07:46:40.761   08 Jun 2027 07:46:44.513             3.752          1859.500
       213   08 Jun 2027 07:47:06.469   08 Jun 2027 07:47:09.230             2.761           584.250
       214   08 Jun 2027 09:19:37.536   08 Jun 2027 09:19:50.487            12.951          6242.906
       215   08 Jun 2027 09:20:20.825   08 Jun 2027 09:20:24.088             3.263           786.594
       216   08 Jun 2027 09:20:50.066   08 Jun 2027 09:20:52.042             1.976           811.812
       217   08 Jun 2027 09:21:57.852   08 Jun 2027 09:22:08.045            10.193          2056.562
       218   08 Jun 2027 09:22:33.639   08 Jun 2027 09:22:40.517             6.878           433.969
       219   08 Jun 2027 09:22:53.031   08 Jun 2027 09:23:02.936             9.905            83.312
       220   08 Jun 2027 09:23:18.102   08 Jun 2027 09:23:19.622             1.520           274.969
       221   08 Jun 2027 09:23:59.821   08 Jun 2027 09:24:03.117             3.296          1009.844
       222   08 Jun 2027 09:24:29.104   08 Jun 2027 09:24:32.554             3.450           524.125
       223   08 Jun 2027 09:25:47.906   08 Jun 2027 09:25:58.887            10.981          2328.312
       224   08 Jun 2027 09:26:18.326   08 Jun 2027 09:26:19.710             1.384           438.188
       225   08 Jun 2027 10:55:58.346   08 Jun 2027 10:56:16.389            18.043          8213.031
       226   08 Jun 2027 10:56:35.697   08 Jun 2027 10:56:36.928             1.231           535.094
       227   08 Jun 2027 10:57:35.405   08 Jun 2027 10:57:45.394             9.989          1745.813
       228   08 Jun 2027 10:58:52.917   08 Jun 2027 10:58:58.116             5.199          1051.406
       229   08 Jun 2027 11:00:15.136   08 Jun 2027 11:00:20.653             5.517          1788.812
       230   08 Jun 2027 11:00:25.533   08 Jun 2027 11:00:26.349             0.816            44.625
       231   08 Jun 2027 11:00:51.419   08 Jun 2027 11:00:53.202             1.783           690.156
       232   08 Jun 2027 11:01:17.581   08 Jun 2027 11:01:19.703             2.122           759.500
       233   08 Jun 2027 11:01:28.104   08 Jun 2027 11:01:33.716             5.612           257.000
       234   08 Jun 2027 11:01:42.993   08 Jun 2027 11:01:43.264             0.271           135.500
       235   08 Jun 2027 11:02:09.912   08 Jun 2027 11:02:11.847             1.935           967.500
       236   09 Jun 2027 03:18:28.421   09 Jun 2027 03:19:30.228            61.807         30903.500
       237   09 Jun 2027 03:19:36.777   09 Jun 2027 03:20:39.544            62.767         31383.500
       238   09 Jun 2027 03:21:37.455   09 Jun 2027 03:21:40.894             3.439          1719.500
       239   09 Jun 2027 04:56:46.533   09 Jun 2027 04:57:19.558            33.025         16512.500
       240   09 Jun 2027 04:57:35.055   09 Jun 2027 04:58:20.833            45.778         22889.000
       241   09 Jun 2027 06:20:08.436   09 Jun 2027 06:20:59.471            51.035         25517.500
       242   09 Jun 2027 06:21:03.461   09 Jun 2027 06:21:03.959             0.498           249.000
       243   09 Jun 2027 06:21:06.067   09 Jun 2027 06:21:22.923            16.856          8428.000
       244   09 Jun 2027 07:56:41.587   09 Jun 2027 07:57:38.223            56.636         28318.000
       245   09 Jun 2027 07:58:00.479   09 Jun 2027 07:58:04.513             4.034          1199.562
       246   09 Jun 2027 07:59:08.919   09 Jun 2027 07:59:08.919             0.000             0.000
       247   09 Jun 2027 07:59:41.234   09 Jun 2027 07:59:48.839             7.605          2899.219
       248   09 Jun 2027 09:31:51.848   09 Jun 2027 09:32:02.067            10.219          5094.594
       249   09 Jun 2027 09:32:21.339   09 Jun 2027 09:32:22.596             1.257           467.500
       250   09 Jun 2027 09:33:19.614   09 Jun 2027 09:33:20.525             0.911           104.938
       251   09 Jun 2027 09:34:28.936   09 Jun 2027 09:34:33.367             4.431          2136.812
       252   09 Jun 2027 09:35:46.006   09 Jun 2027 09:35:53.260             7.254          2267.250
       253   09 Jun 2027 09:36:15.410   09 Jun 2027 09:36:23.705             8.295           543.500
       254   09 Jun 2027 09:36:35.132   09 Jun 2027 09:36:39.183             4.051           357.094
       255   09 Jun 2027 09:37:48.404   09 Jun 2027 09:37:51.958             3.554          1722.375
       256   09 Jun 2027 09:38:06.262   09 Jun 2027 09:38:08.223             1.961           447.000
       257   09 Jun 2027 09:38:16.246   09 Jun 2027 09:38:16.286             0.040            20.000
       258   09 Jun 2027 11:08:13.285   09 Jun 2027 11:08:26.410            13.125          6377.312
       259   09 Jun 2027 11:09:52.055   09 Jun 2027 11:09:56.337             4.282          1907.281
       260   09 Jun 2027 11:10:41.705   09 Jun 2027 11:10:45.444             3.739          1217.438
       261   09 Jun 2027 11:11:24.781   09 Jun 2027 11:11:25.513             0.732           366.000
       262   09 Jun 2027 11:11:37.834   09 Jun 2027 11:11:41.030             3.196          1063.500
       263   09 Jun 2027 11:12:03.368   09 Jun 2027 11:12:06.655             3.287           698.062
       264   09 Jun 2027 11:12:46.489   09 Jun 2027 11:12:51.128             4.639          1138.906
       265   09 Jun 2027 11:13:19.244   09 Jun 2027 11:13:19.244             0.000             0.000
       266   09 Jun 2027 11:13:40.586   09 Jun 2027 11:13:45.686             5.100          1449.438
       267   09 Jun 2027 11:14:04.973   09 Jun 2027 11:14:11.179             6.206           427.781
       268   10 Jun 2027 03:31:34.943   10 Jun 2027 03:33:09.778            94.835         47417.500
       269   10 Jun 2027 03:33:45.492   10 Jun 2027 03:33:59.906            14.414          7207.000
       270   10 Jun 2027 03:34:17.227   10 Jun 2027 03:34:41.036            23.809         11904.500
       271   10 Jun 2027 03:35:07.159   10 Jun 2027 03:35:22.124            14.965          7482.500
       272   10 Jun 2027 05:08:43.120   10 Jun 2027 05:09:22.879            39.759         19879.500
       273   10 Jun 2027 05:09:42.532   10 Jun 2027 05:10:22.849            40.317         20158.500
       274   10 Jun 2027 06:32:10.122   10 Jun 2027 06:33:06.381            56.259         28129.500
       275   10 Jun 2027 06:33:18.895   10 Jun 2027 06:33:18.895             0.000             0.000
       276   10 Jun 2027 06:35:08.761   10 Jun 2027 06:35:22.168            13.407          6703.500
       277   10 Jun 2027 08:08:32.889   10 Jun 2027 08:09:25.633            52.744         26139.000
       278   10 Jun 2027 08:11:04.816   10 Jun 2027 08:11:04.816             0.000             0.000
       279   10 Jun 2027 08:11:16.808   10 Jun 2027 08:11:20.869             4.061          2030.500
       280   10 Jun 2027 08:11:25.759   10 Jun 2027 08:11:29.318             3.559          1160.000
       281   10 Jun 2027 08:12:19.024   10 Jun 2027 08:12:24.530             5.506          1013.156
       282   10 Jun 2027 09:43:26.317   10 Jun 2027 09:43:32.646             6.329          3164.500
       283   10 Jun 2027 09:43:34.869   10 Jun 2027 09:43:37.385             2.516          1182.906
       284   10 Jun 2027 09:45:44.499   10 Jun 2027 09:45:51.615             7.116          3491.562
       285   10 Jun 2027 09:45:55.907   10 Jun 2027 09:45:57.504             1.597            65.937
       286   10 Jun 2027 09:46:27.172   10 Jun 2027 09:46:29.676             2.504           907.813
       287   10 Jun 2027 09:46:39.496   10 Jun 2027 09:46:41.261             1.765           306.875
       288   10 Jun 2027 09:49:03.415   10 Jun 2027 09:49:03.415             0.000             0.000
       289   10 Jun 2027 09:50:07.233   10 Jun 2027 09:50:21.525            14.292          6347.625
       290   10 Jun 2027 09:50:28.447   10 Jun 2027 09:50:32.492             4.045           216.313
       291   10 Jun 2027 11:19:50.013   10 Jun 2027 11:20:05.485            15.472          7374.094
       292   10 Jun 2027 11:20:22.953   10 Jun 2027 11:20:26.727             3.774           282.906
       293   10 Jun 2027 11:20:58.305   10 Jun 2027 11:21:03.559             5.254           315.812
       294   10 Jun 2027 11:21:25.221   10 Jun 2027 11:21:35.923            10.702           181.250
       295   10 Jun 2027 11:21:51.721   10 Jun 2027 11:21:52.840             1.119           253.531
       296   10 Jun 2027 11:22:41.780   10 Jun 2027 11:22:45.364             3.584          1529.375
       297   10 Jun 2027 11:23:57.685   10 Jun 2027 11:24:03.019             5.334          2260.031
       298   10 Jun 2027 11:24:51.075   10 Jun 2027 11:24:54.814             3.739          1501.750
       299   10 Jun 2027 11:25:38.465   10 Jun 2027 11:25:44.046             5.581          1364.094
       300   10 Jun 2027 11:25:52.236   10 Jun 2027 11:25:53.505             1.269           255.938
       301   10 Jun 2027 11:26:03.819   10 Jun 2027 11:26:04.588             0.769            27.094
       302   11 Jun 2027 03:43:38.929   11 Jun 2027 03:45:36.061           117.132         58566.000
       303   11 Jun 2027 03:46:06.442   11 Jun 2027 03:46:07.514             1.072           536.000
       304   11 Jun 2027 03:48:33.988   11 Jun 2027 03:49:01.111            27.123         13561.500
       305   11 Jun 2027 03:50:41.080   11 Jun 2027 03:51:17.034            35.954         17977.000
       306   11 Jun 2027 05:09:23.934   11 Jun 2027 05:09:32.771             8.837          4418.500
       307   11 Jun 2027 05:10:21.123   11 Jun 2027 05:10:21.674             0.551           275.500
       308   11 Jun 2027 05:20:39.283   11 Jun 2027 05:21:30.450            51.167         25583.500
       309   11 Jun 2027 06:43:15.684   11 Jun 2027 06:44:31.687            76.003         38001.500
       310   11 Jun 2027 06:47:34.333   11 Jun 2027 06:47:52.238            17.905          8952.500
       311   11 Jun 2027 08:18:50.440   11 Jun 2027 08:19:26.528            36.088         18044.000
       312   11 Jun 2027 08:20:16.861   11 Jun 2027 08:20:23.462             6.601           749.406
       313   11 Jun 2027 08:21:40.737   11 Jun 2027 08:21:40.737             0.000             0.000
       314   11 Jun 2027 08:22:59.456   11 Jun 2027 08:23:07.954             8.498          4249.000
       315   11 Jun 2027 08:24:02.765   11 Jun 2027 08:24:07.355             4.590          2035.562
       316   11 Jun 2027 09:55:03.367   11 Jun 2027 09:55:08.025             4.658          2329.000
       317   11 Jun 2027 09:57:16.920   11 Jun 2027 09:57:30.882            13.962          6246.344
       318   11 Jun 2027 10:01:02.290   11 Jun 2027 10:01:12.704            10.414          5156.344
       319   11 Jun 2027 10:02:07.268   11 Jun 2027 10:02:11.764             4.496          1622.250
       320   11 Jun 2027 10:02:21.358   11 Jun 2027 10:02:24.320             2.962           299.813
       321   11 Jun 2027 11:32:09.681   11 Jun 2027 11:32:28.536            18.855          8455.812
       322   11 Jun 2027 11:33:31.637   11 Jun 2027 11:33:37.487             5.850          1971.906
       323   11 Jun 2027 11:33:39.003   11 Jun 2027 11:33:39.645             0.642            47.375
       324   11 Jun 2027 11:34:53.067   11 Jun 2027 11:34:57.588             4.521          2094.406
       325   11 Jun 2027 11:35:45.166   11 Jun 2027 11:35:49.400             4.234          1288.406
       326   11 Jun 2027 11:36:32.643   11 Jun 2027 11:36:53.371            20.728          1221.437
       327   11 Jun 2027 11:37:00.577   11 Jun 2027 11:37:01.808             1.231           225.188
       328   11 Jun 2027 11:37:26.388   11 Jun 2027 11:37:27.521             1.133           366.969
       329   11 Jun 2027 11:38:14.096   11 Jun 2027 11:38:19.086             4.990          1163.969
       330   12 Jun 2027 03:56:08.111   12 Jun 2027 03:57:41.519            93.408         46704.000
       331   12 Jun 2027 03:58:35.148   12 Jun 2027 03:58:50.546            15.398          7699.000
       332   12 Jun 2027 04:00:12.878   12 Jun 2027 04:00:19.515             6.637          3318.500
       333   12 Jun 2027 04:01:33.181   12 Jun 2027 04:01:56.243            23.062         11531.000
       334   12 Jun 2027 04:02:55.816   12 Jun 2027 04:03:16.534            20.718         10359.000
       335   12 Jun 2027 05:20:59.072   12 Jun 2027 05:21:33.301            34.229         17114.500
       336   12 Jun 2027 05:22:09.455   12 Jun 2027 05:22:33.067            23.612         11806.000
       337   12 Jun 2027 05:32:42.506   12 Jun 2027 05:33:30.745            48.239         24119.500
       338   12 Jun 2027 06:54:58.068   12 Jun 2027 06:56:04.454            66.386         33193.000
       339   12 Jun 2027 06:56:55.078   12 Jun 2027 06:57:10.580            15.502          7751.000
       340   12 Jun 2027 06:57:15.791   12 Jun 2027 06:57:22.942             7.151          3575.500
       341   12 Jun 2027 06:58:19.110   12 Jun 2027 06:58:28.008             8.898          4449.000
       342   12 Jun 2027 08:29:57.051   12 Jun 2027 08:30:14.178            17.127          8010.501
       343   12 Jun 2027 08:30:24.377   12 Jun 2027 08:30:25.090             0.713           199.781
       344   12 Jun 2027 08:31:28.154   12 Jun 2027 08:31:34.664             6.510          1412.188
       345   12 Jun 2027 08:33:41.563   12 Jun 2027 08:33:50.188             8.625          3925.531
       346   12 Jun 2027 08:35:12.053   12 Jun 2027 08:35:17.655             5.602          2348.156
       347   12 Jun 2027 08:35:55.007   12 Jun 2027 08:35:59.178             4.171          1126.250
       348   12 Jun 2027 10:07:23.541   12 Jun 2027 10:07:38.575            15.034          4643.594
       349   12 Jun 2027 10:07:51.237   12 Jun 2027 10:07:52.736             1.499           369.688
       350   12 Jun 2027 10:08:24.062   12 Jun 2027 10:08:26.147             2.085           936.531
       351   12 Jun 2027 10:08:28.238   12 Jun 2027 10:08:30.222             1.984            65.344
       352   12 Jun 2027 10:08:40.747   12 Jun 2027 10:08:41.814             1.067           316.562
       353   12 Jun 2027 10:08:52.601   12 Jun 2027 10:08:56.470             3.869           337.094
       354   12 Jun 2027 10:10:55.384   12 Jun 2027 10:11:01.878             6.494          3078.656
       355   12 Jun 2027 10:11:52.139   12 Jun 2027 10:11:56.769             4.630          1570.656
       356   12 Jun 2027 10:12:25.543   12 Jun 2027 10:12:26.132             0.589           188.219
       357   12 Jun 2027 10:12:37.729   12 Jun 2027 10:12:39.347             1.618           288.406
       358   12 Jun 2027 10:13:38.053   12 Jun 2027 10:13:41.026             2.973          1179.938
       359   12 Jun 2027 10:13:58.265   12 Jun 2027 10:14:02.959             4.694           247.875
       360   12 Jun 2027 10:14:20.900   12 Jun 2027 10:14:27.312             6.412           546.281
       361   12 Jun 2027 11:44:10.050   12 Jun 2027 11:44:22.948            12.898          6325.656
       362   12 Jun 2027 11:45:02.098   12 Jun 2027 11:45:10.947             8.849          1183.875
       363   12 Jun 2027 11:45:50.575   12 Jun 2027 11:45:55.461             4.886           700.937
       364   12 Jun 2027 11:46:02.815   12 Jun 2027 11:46:04.220             1.405           202.031
       365   12 Jun 2027 11:46:21.797   12 Jun 2027 11:46:23.209             1.412           288.062
       366   12 Jun 2027 11:47:27.564   12 Jun 2027 11:47:33.947             6.383          1420.844
       367   12 Jun 2027 11:47:50.481   12 Jun 2027 11:47:53.265             2.784           516.687
       368   12 Jun 2027 11:48:15.777   12 Jun 2027 11:48:17.200             1.423           689.531
       369   12 Jun 2027 11:48:44.730   12 Jun 2027 11:48:44.730             0.000             0.000
       370   12 Jun 2027 11:48:54.772   12 Jun 2027 11:48:57.909             3.137          1166.937
       371   12 Jun 2027 11:49:30.413   12 Jun 2027 11:49:33.445             3.032          1015.750
       372   12 Jun 2027 11:49:59.054   12 Jun 2027 11:50:02.349             3.295           800.281
       373   12 Jun 2027 11:50:05.810   12 Jun 2027 11:50:07.308             1.498           108.156
       374   12 Jun 2027 11:50:15.690   12 Jun 2027 11:50:15.690             0.000             0.000
       375   12 Jun 2027 11:50:26.956   12 Jun 2027 11:50:31.503             4.547           614.000
       376   13 Jun 2027 04:08:10.218   13 Jun 2027 04:09:44.788            94.570         47285.000
       377   13 Jun 2027 04:10:34.055   13 Jun 2027 04:10:52.182            18.127          9063.500
       378   13 Jun 2027 04:11:33.500   13 Jun 2027 04:11:36.742             3.242          1621.000
       379   13 Jun 2027 04:12:39.125   13 Jun 2027 04:13:02.689            23.564         11782.000
       380   13 Jun 2027 04:15:08.602   13 Jun 2027 04:15:11.534             2.932          1466.000
       381   13 Jun 2027 05:32:31.624   13 Jun 2027 05:33:32.544            60.920         30460.000
       382   13 Jun 2027 05:44:48.209   13 Jun 2027 05:45:15.687            27.478         13739.000
       383   13 Jun 2027 07:06:36.247   13 Jun 2027 07:07:51.365            75.118         37559.000
       384   13 Jun 2027 07:08:40.697   13 Jun 2027 07:09:19.149            38.452         19226.000
       385   13 Jun 2027 07:11:11.249   13 Jun 2027 07:11:17.272             6.023          3011.500
       386   13 Jun 2027 08:41:25.012   13 Jun 2027 08:41:40.460            15.448          7304.719
       387   13 Jun 2027 08:42:10.234   13 Jun 2027 08:42:13.061             2.827           449.844
       388   13 Jun 2027 08:43:17.310   13 Jun 2027 08:43:23.673             6.363          2007.781
       389   13 Jun 2027 08:44:17.929   13 Jun 2027 08:44:22.337             4.408          1616.000
       390   13 Jun 2027 08:45:57.847   13 Jun 2027 08:46:02.502             4.655          2056.844
       391   13 Jun 2027 08:46:32.144   13 Jun 2027 08:46:34.871             2.727           353.156
       392   13 Jun 2027 08:47:23.288   13 Jun 2027 08:47:26.908             3.620          1307.812
       393   13 Jun 2027 08:47:55.029   13 Jun 2027 08:47:57.151             2.122           110.906
       394   13 Jun 2027 08:48:14.275   13 Jun 2027 08:48:16.321             2.046           455.437
       395   13 Jun 2027 08:48:36.385   13 Jun 2027 08:48:36.385             0.000             0.000
       396   13 Jun 2027 08:49:17.681   13 Jun 2027 08:49:22.748             5.067          1787.312
       397   13 Jun 2027 08:50:20.725   13 Jun 2027 08:50:25.044             4.319          1662.156
       398   13 Jun 2027 10:19:17.889   13 Jun 2027 10:19:31.505            13.616          6052.312
       399   13 Jun 2027 10:20:11.055   13 Jun 2027 10:20:13.385             2.330          1165.000
       400   13 Jun 2027 10:20:21.977   13 Jun 2027 10:20:22.578             0.601           273.937
       401   13 Jun 2027 10:20:36.982   13 Jun 2027 10:20:39.749             2.767           211.719
       402   13 Jun 2027 10:20:54.711   13 Jun 2027 10:20:55.394             0.683            70.687
       403   13 Jun 2027 10:22:15.561   13 Jun 2027 10:22:18.959             3.398          1699.000
       404   13 Jun 2027 10:23:40.002   13 Jun 2027 10:23:48.546             8.544          3281.437
       405   13 Jun 2027 10:24:02.132   13 Jun 2027 10:24:02.897             0.765           382.500
       406   13 Jun 2027 10:25:13.184   13 Jun 2027 10:25:20.798             7.614          2231.969
       407   13 Jun 2027 10:25:27.393   13 Jun 2027 10:25:29.905             2.512           127.000
       408   13 Jun 2027 10:26:07.424   13 Jun 2027 10:26:10.357             2.933          1055.469
       409   13 Jun 2027 11:56:01.941   13 Jun 2027 11:56:12.616            10.675          5337.500
       410   13 Jun 2027 11:56:34.566   13 Jun 2027 11:56:38.099             3.533          1396.469
       411   13 Jun 2027 11:57:41.887   13 Jun 2027 11:57:45.936             4.049          1941.719
       412   13 Jun 2027 11:58:14.194   13 Jun 2027 11:58:16.621             2.427           883.063
       413   13 Jun 2027 11:58:26.041   13 Jun 2027 11:58:26.474             0.433           202.469
       414   13 Jun 2027 11:58:52.120   13 Jun 2027 11:58:54.789             2.669           707.531
       415   13 Jun 2027 11:59:49.077   13 Jun 2027 11:59:55.453             6.376          1696.500
