uniorb/output/strategy_1/Camera/Camera_KinoSat_110203.txt

KinoSat_110203
-------------------------
    Access    *     Start Time (UTCG)     *     Stop Time (UTCG)  *   Duration (s) *   Data (Mbytes)
         1   01 Jun 2027 04:21:19.579   01 Jun 2027 04:23:13.469           113.890         56945.000
         2   01 Jun 2027 04:24:32.409   01 Jun 2027 04:25:12.974            40.565         20282.500
         3   01 Jun 2027 04:25:26.086   01 Jun 2027 04:25:41.597            15.511          7755.500
         4   01 Jun 2027 04:27:14.744   01 Jun 2027 04:27:36.416            21.672         10836.000
         5   01 Jun 2027 05:58:42.997   01 Jun 2027 06:02:10.569           207.572        103786.000
         6   01 Jun 2027 07:34:54.284   01 Jun 2027 07:37:39.747           165.463         82731.500
         7   01 Jun 2027 07:38:35.326   01 Jun 2027 07:39:06.421            31.095         15547.500
         8   02 Jun 2027 03:00:00.000   02 Jun 2027 03:03:44.074           224.074        112037.000
         9   02 Jun 2027 04:32:58.492   02 Jun 2027 04:36:12.959           194.467         97233.500
        10   02 Jun 2027 04:36:27.735   02 Jun 2027 04:37:26.997            59.262         29631.000
        11   02 Jun 2027 04:37:29.414   02 Jun 2027 04:37:29.414             0.000             0.000
        12   02 Jun 2027 04:37:45.145   02 Jun 2027 04:37:55.058             9.913          4956.500
        13   02 Jun 2027 04:38:22.989   02 Jun 2027 04:38:30.177             7.188          3594.000
        14   02 Jun 2027 04:38:38.254   02 Jun 2027 04:39:00.543            22.289         11144.500
        15   02 Jun 2027 06:10:57.695   02 Jun 2027 06:13:43.019           165.324         82662.000
        16   02 Jun 2027 06:14:18.190   02 Jun 2027 06:14:45.816            27.626         13813.000
        17   02 Jun 2027 06:15:14.552   02 Jun 2027 06:15:15.616             1.064           532.000
        18   02 Jun 2027 07:46:49.147   02 Jun 2027 07:49:05.122           135.975         67987.500
        19   02 Jun 2027 07:50:05.830   02 Jun 2027 07:50:17.989            12.159          6079.500
        20   02 Jun 2027 07:50:32.420   02 Jun 2027 07:50:36.224             3.804          1902.000
        21   02 Jun 2027 07:51:15.962   02 Jun 2027 07:51:40.671            24.709         12354.500
        22   03 Jun 2027 03:08:18.201   03 Jun 2027 03:14:32.447           374.246        187123.000
        23   03 Jun 2027 03:15:11.599   03 Jun 2027 03:15:42.189            30.590         15295.000
        24   03 Jun 2027 03:15:46.616   03 Jun 2027 03:15:51.245             4.629          2314.500
        25   03 Jun 2027 04:45:07.313   03 Jun 2027 04:47:21.978           134.665         67332.500
        26   03 Jun 2027 04:48:31.443   03 Jun 2027 04:49:28.268            56.825         28412.500
        27   03 Jun 2027 04:50:14.140   03 Jun 2027 04:50:52.715            38.575         19287.500
        28   03 Jun 2027 06:23:20.227   03 Jun 2027 06:25:44.651           144.424         72212.000
        29   03 Jun 2027 06:26:12.356   03 Jun 2027 06:26:22.121             9.765          4882.500
        30   03 Jun 2027 06:26:58.650   03 Jun 2027 06:27:02.308             3.658          1829.000
        31   03 Jun 2027 07:56:37.963   03 Jun 2027 07:58:10.539            92.576         46288.000
        32   03 Jun 2027 07:58:13.420   03 Jun 2027 07:59:21.074            67.654         33827.000
        33   03 Jun 2027 08:00:03.996   03 Jun 2027 08:00:06.271             2.275          1137.500
        34   03 Jun 2027 08:00:37.637   03 Jun 2027 08:00:46.888             9.251          4625.500
        35   03 Jun 2027 08:01:04.457   03 Jun 2027 08:01:05.576             1.119           559.500
        36   03 Jun 2027 08:01:45.874   03 Jun 2027 08:01:59.458            13.584          6792.000
        37   03 Jun 2027 08:02:20.459   03 Jun 2027 08:02:22.937             2.478          1239.000
        38   03 Jun 2027 08:02:38.507   03 Jun 2027 08:02:46.596             8.089          4044.500
        39   03 Jun 2027 08:02:53.112   03 Jun 2027 08:02:59.321             6.209          3104.500
        40   03 Jun 2027 08:03:42.677   03 Jun 2027 08:03:48.884             6.207          3103.500
        41   04 Jun 2027 03:20:26.305   04 Jun 2027 03:25:33.311           307.006        153503.000
        42   04 Jun 2027 03:25:50.577   04 Jun 2027 03:27:08.435            77.858         38929.000
        43   04 Jun 2027 03:27:49.221   04 Jun 2027 03:27:50.381             1.160           580.000
        44   04 Jun 2027 04:57:24.417   04 Jun 2027 05:00:06.099           161.682         80841.000
        45   04 Jun 2027 05:01:58.379   04 Jun 2027 05:02:24.921            26.542         13271.000
        46   04 Jun 2027 05:02:42.641   04 Jun 2027 05:02:45.834             3.193          1596.500
        47   04 Jun 2027 05:03:00.058   04 Jun 2027 05:03:00.528             0.470           235.000
        48   04 Jun 2027 06:35:19.582   04 Jun 2027 06:38:06.377           166.795         83397.500
        49   04 Jun 2027 06:38:39.271   04 Jun 2027 06:38:52.763            13.492          6746.000
        50   04 Jun 2027 06:39:18.480   04 Jun 2027 06:39:18.764             0.284           142.000
        51   04 Jun 2027 08:08:39.076   04 Jun 2027 08:09:57.029            77.953         38976.500
        52   04 Jun 2027 08:10:55.810   04 Jun 2027 08:11:04.157             8.347          4173.500
        53   04 Jun 2027 08:11:23.913   04 Jun 2027 08:11:29.718             5.805          2902.500
        54   04 Jun 2027 08:12:56.513   04 Jun 2027 08:13:23.694            27.181         13590.500
        55   04 Jun 2027 08:13:59.160   04 Jun 2027 08:14:04.331             5.171          2585.500
        56   04 Jun 2027 08:14:04.845   04 Jun 2027 08:14:07.754             2.909          1454.500
        57   04 Jun 2027 08:14:26.991   04 Jun 2027 08:14:29.549             2.558          1279.000
        58   04 Jun 2027 08:14:58.885   04 Jun 2027 08:15:11.842            12.957          6478.500
        59   04 Jun 2027 08:15:54.459   04 Jun 2027 08:16:10.889            16.430          8215.000
        60   05 Jun 2027 03:32:28.422   05 Jun 2027 03:37:28.035           299.613        149806.500
        61   05 Jun 2027 03:38:11.649   05 Jun 2027 03:39:25.775            74.126         37063.000
        62   05 Jun 2027 05:09:14.041   05 Jun 2027 05:11:33.275           139.234         69617.000
        63   05 Jun 2027 05:11:43.760   05 Jun 2027 05:12:11.880            28.120         14060.000
        64   05 Jun 2027 05:12:39.666   05 Jun 2027 05:12:42.110             2.444          1222.000
        65   05 Jun 2027 05:13:24.303   05 Jun 2027 05:13:28.130             3.827          1913.500
        66   05 Jun 2027 05:14:38.917   05 Jun 2027 05:15:11.791            32.874         16437.000
        67   05 Jun 2027 05:15:30.510   05 Jun 2027 05:15:43.102            12.592          6296.000
        68   05 Jun 2027 06:47:18.899   05 Jun 2027 06:50:04.020           165.121         82560.500
        69   05 Jun 2027 06:50:53.594   05 Jun 2027 06:50:59.953             6.359          3179.500
        70   05 Jun 2027 08:21:05.502   05 Jun 2027 08:21:52.686            47.184         23592.000
        71   05 Jun 2027 08:22:57.059   05 Jun 2027 08:23:06.906             9.847          4923.500
        72   05 Jun 2027 08:23:38.971   05 Jun 2027 08:23:42.572             3.601          1800.500
        73   05 Jun 2027 08:23:47.430   05 Jun 2027 08:23:47.430             0.000             0.000
        74   05 Jun 2027 08:24:41.784   05 Jun 2027 08:25:02.491            20.707         10353.500
        75   05 Jun 2027 08:26:07.796   05 Jun 2027 08:26:21.663            13.867          6933.500
        76   05 Jun 2027 08:27:29.505   05 Jun 2027 08:27:37.617             8.112          4056.000
        77   06 Jun 2027 03:44:28.859   06 Jun 2027 03:51:13.290           404.431        202215.500
        78   06 Jun 2027 03:51:24.151   06 Jun 2027 03:51:34.202            10.051          5025.500
        79   06 Jun 2027 05:21:22.515   06 Jun 2027 05:24:35.474           192.959         96479.500
        80   06 Jun 2027 05:25:38.315   06 Jun 2027 05:25:50.876            12.561          6280.500
        81   06 Jun 2027 05:27:04.849   06 Jun 2027 05:27:07.621             2.772          1386.000
        82   06 Jun 2027 05:27:26.042   06 Jun 2027 05:27:34.396             8.354          4177.000
        83   06 Jun 2027 05:27:42.683   06 Jun 2027 05:27:49.830             7.147          3573.500
        84   06 Jun 2027 06:58:31.954   06 Jun 2027 07:00:58.259           146.305         73152.500
        85   06 Jun 2027 07:01:26.812   06 Jun 2027 07:01:32.899             6.087          3043.500
        86   06 Jun 2027 07:02:28.549   06 Jun 2027 07:02:41.639            13.090          6545.000
        87   06 Jun 2027 07:03:17.294   06 Jun 2027 07:03:26.146             8.852          4426.000
        88   06 Jun 2027 08:33:20.598   06 Jun 2027 08:33:48.992            28.394         14197.000
        89   06 Jun 2027 08:35:31.559   06 Jun 2027 08:35:49.636            18.077          9038.500
        90   06 Jun 2027 08:37:09.080   06 Jun 2027 08:37:26.723            17.643          8821.500
        91   06 Jun 2027 08:38:01.149   06 Jun 2027 08:38:10.778             9.629          4814.500
        92   06 Jun 2027 08:38:17.922   06 Jun 2027 08:38:31.476            13.554          6777.000
        93   07 Jun 2027 03:56:52.085   07 Jun 2027 04:03:40.761           408.676        204338.000
        94   07 Jun 2027 05:33:50.496   07 Jun 2027 05:37:19.248           208.752        104376.000
        95   07 Jun 2027 05:37:33.834   07 Jun 2027 05:37:35.647             1.813           906.500
        96   07 Jun 2027 05:38:16.692   07 Jun 2027 05:38:20.457             3.765          1882.500
        97   07 Jun 2027 05:39:19.909   07 Jun 2027 05:39:28.297             8.388          4194.000
        98   07 Jun 2027 07:10:44.539   07 Jun 2027 07:13:11.202           146.663         73331.500
        99   07 Jun 2027 07:14:17.100   07 Jun 2027 07:14:23.105             6.005          3002.500
       100   07 Jun 2027 08:47:54.361   07 Jun 2027 08:48:31.598            37.237         18618.500
       101   07 Jun 2027 08:48:53.031   07 Jun 2027 08:49:05.108            12.077          6038.500
       102   07 Jun 2027 08:49:53.255   07 Jun 2027 08:50:13.263            20.008         10004.000
       103   08 Jun 2027 04:09:00.792   08 Jun 2027 04:15:18.594           377.802        188901.000
       104   08 Jun 2027 04:15:42.818   08 Jun 2027 04:15:45.307             2.489          1244.500
       105   08 Jun 2027 05:46:20.919   08 Jun 2027 05:49:59.893           218.974        109487.000
       106   08 Jun 2027 05:50:09.536   08 Jun 2027 05:50:12.014             2.478          1239.000
       107   08 Jun 2027 05:50:24.791   08 Jun 2027 05:50:26.156             1.365           682.500
       108   08 Jun 2027 05:50:28.447   08 Jun 2027 05:50:29.971             1.524           762.000
       109   08 Jun 2027 07:22:45.983   08 Jun 2027 07:25:22.320           156.337         78168.500
       110   08 Jun 2027 07:25:36.541   08 Jun 2027 07:25:37.686             1.145           572.500
       111   08 Jun 2027 07:26:19.696   08 Jun 2027 07:26:27.616             7.920          3960.000
       112   08 Jun 2027 07:26:49.613   08 Jun 2027 07:27:00.145            10.532          5266.000
       113   08 Jun 2027 09:01:02.430   08 Jun 2027 09:01:23.720            21.290         10645.000
       114   09 Jun 2027 04:21:34.549   09 Jun 2027 04:27:51.303           376.754        188377.000
       115   09 Jun 2027 05:58:57.644   09 Jun 2027 06:01:01.093           123.449         61724.500
       116   09 Jun 2027 06:01:05.949   09 Jun 2027 06:01:42.120            36.171         18085.500
       117   09 Jun 2027 06:02:53.342   09 Jun 2027 06:03:30.133            36.791         18395.500
       118   09 Jun 2027 07:35:08.392   09 Jun 2027 07:37:37.785           149.393         74696.500
       119   09 Jun 2027 07:38:49.110   09 Jun 2027 07:38:57.021             7.911          3955.500
       120   09 Jun 2027 07:39:00.909   09 Jun 2027 07:39:17.932            17.023          8511.500
       121   10 Jun 2027 03:00:00.000   10 Jun 2027 03:03:59.171           239.171        119585.500
       122   10 Jun 2027 04:33:13.194   10 Jun 2027 04:36:24.266           191.072         95536.000
       123   10 Jun 2027 04:36:36.124   10 Jun 2027 04:36:40.394             4.270          2135.000
       124   10 Jun 2027 04:37:20.967   10 Jun 2027 04:37:43.960            22.993         11496.500
       125   10 Jun 2027 04:37:44.812   10 Jun 2027 04:37:47.847             3.035          1517.500
       126   10 Jun 2027 06:11:12.121   10 Jun 2027 06:13:31.764           139.643         69821.500
       127   10 Jun 2027 06:13:45.556   10 Jun 2027 06:14:17.274            31.718         15859.000
       128   10 Jun 2027 06:15:00.664   10 Jun 2027 06:15:08.890             8.226          4113.000
       129   10 Jun 2027 06:15:29.081   10 Jun 2027 06:15:36.594             7.513          3756.500
       130   10 Jun 2027 07:47:03.660   10 Jun 2027 07:48:57.304           113.644         56822.000
       131   10 Jun 2027 07:50:20.430   10 Jun 2027 07:50:47.053            26.623         13311.500
       132   10 Jun 2027 07:52:04.704   10 Jun 2027 07:52:14.191             9.487          4743.500
       133   11 Jun 2027 03:08:33.005   11 Jun 2027 03:12:11.570           218.565        109282.500
       134   11 Jun 2027 03:12:15.509   11 Jun 2027 03:12:49.488            33.979         16989.500
       135   11 Jun 2027 03:13:47.732   11 Jun 2027 03:14:03.492            15.760          7880.000
       136   11 Jun 2027 03:15:26.229   11 Jun 2027 03:16:04.378            38.149         19074.500
       137   11 Jun 2027 04:45:22.728   11 Jun 2027 04:47:35.958           133.230         66615.000
       138   11 Jun 2027 04:49:06.764   11 Jun 2027 04:49:13.651             6.887          3443.500
       139   11 Jun 2027 04:49:43.494   11 Jun 2027 04:50:43.811            60.317         30158.500
       140   11 Jun 2027 04:51:07.223   11 Jun 2027 04:51:16.531             9.308          4654.000
       141   11 Jun 2027 04:51:22.007   11 Jun 2027 04:51:30.719             8.712          4356.000
       142   11 Jun 2027 06:23:34.677   11 Jun 2027 06:26:54.201           199.524         99762.000
       143   11 Jun 2027 07:56:52.452   11 Jun 2027 07:58:24.728            92.276         46138.000
       144   11 Jun 2027 07:58:26.012   11 Jun 2027 07:58:50.870            24.858         12429.000
       145   11 Jun 2027 08:00:18.821   11 Jun 2027 08:00:28.285             9.464          4732.000
       146   11 Jun 2027 08:01:09.466   11 Jun 2027 08:01:19.090             9.624          4812.000
       147   11 Jun 2027 08:01:40.589   11 Jun 2027 08:01:44.480             3.891          1945.500
       148   11 Jun 2027 08:02:11.827   11 Jun 2027 08:02:15.163             3.336          1668.000
       149   11 Jun 2027 08:02:34.556   11 Jun 2027 08:02:38.039             3.483          1741.500
       150   11 Jun 2027 08:02:42.225   11 Jun 2027 08:02:48.395             6.170          3085.000
       151   11 Jun 2027 08:03:31.966   11 Jun 2027 08:03:40.601             8.635          4317.500
       152   11 Jun 2027 08:03:54.844   11 Jun 2027 08:03:55.943             1.099           549.500
       153   11 Jun 2027 08:04:28.052   11 Jun 2027 08:04:37.195             9.143          4571.500
       154   12 Jun 2027 03:20:40.997   12 Jun 2027 03:25:42.319           301.322        150661.000
       155   12 Jun 2027 03:27:11.549   12 Jun 2027 03:28:05.367            53.818         26909.000
       156   12 Jun 2027 04:57:39.045   12 Jun 2027 04:59:35.147           116.102         58051.000
       157   12 Jun 2027 05:00:30.365   12 Jun 2027 05:01:05.102            34.737         17368.500
       158   12 Jun 2027 05:03:14.872   12 Jun 2027 05:03:32.661            17.789          8894.500
       159   12 Jun 2027 06:35:34.787   12 Jun 2027 06:38:29.647           174.860         87430.000
       160   12 Jun 2027 08:08:54.618   12 Jun 2027 08:09:57.112            62.494         31247.000
       161   12 Jun 2027 08:11:13.106   12 Jun 2027 08:11:37.501            24.395         12197.500
       162   12 Jun 2027 08:12:49.404   12 Jun 2027 08:13:02.555            13.151          6575.500
       163   12 Jun 2027 08:13:26.321   12 Jun 2027 08:13:30.870             4.549          2274.500
       164   12 Jun 2027 08:13:59.911   12 Jun 2027 08:14:06.488             6.577          3288.500
       165   12 Jun 2027 08:14:13.774   12 Jun 2027 08:14:15.453             1.679           839.500
       166   12 Jun 2027 08:14:19.042   12 Jun 2027 08:14:19.091             0.049            24.500
       167   12 Jun 2027 08:14:19.555   12 Jun 2027 08:14:23.378             3.823          1911.500
       168   12 Jun 2027 08:15:50.858   12 Jun 2027 08:16:09.593            18.735          9367.500
       169   12 Jun 2027 08:16:12.096   12 Jun 2027 08:16:38.246            26.150         13075.000
       170   13 Jun 2027 03:32:42.877   13 Jun 2027 03:37:42.593           299.716        149858.000
       171   13 Jun 2027 03:38:26.575   13 Jun 2027 03:39:33.460            66.885         33442.500
       172   13 Jun 2027 05:09:28.820   13 Jun 2027 05:12:41.742           192.922         96461.000
       173   13 Jun 2027 05:14:21.733   13 Jun 2027 05:14:47.786            26.053         13026.500
       174   13 Jun 2027 05:15:41.055   13 Jun 2027 05:15:48.340             7.285          3642.500
       175   13 Jun 2027 05:15:53.154   13 Jun 2027 05:15:58.142             4.988          2494.000
       176   13 Jun 2027 06:47:33.867   13 Jun 2027 06:50:25.482           171.615         85807.500
       177   13 Jun 2027 06:51:17.498   13 Jun 2027 06:51:38.151            20.653         10326.500
       178   13 Jun 2027 08:21:21.386   13 Jun 2027 08:22:07.355            45.969         22984.500
       179   13 Jun 2027 08:23:36.351   13 Jun 2027 08:23:57.066            20.715         10357.500
       180   13 Jun 2027 08:24:59.329   13 Jun 2027 08:24:59.329             0.000             0.000
       181   13 Jun 2027 08:25:04.695   13 Jun 2027 08:25:18.830            14.135          7067.500
       182   13 Jun 2027 08:26:10.558   13 Jun 2027 08:26:22.550            11.992          5996.000
       183   13 Jun 2027 08:27:52.460   13 Jun 2027 08:28:08.520            16.060          8030.000
