uniorb/output/strategy_1/Camera/Camera_KinoSat_110401.txt

KinoSat_110401
-------------------------
    Access    *     Start Time (UTCG)     *     Stop Time (UTCG)  *   Duration (s) *   Data (Mbytes)
         1   01 Jun 2027 04:29:57.825   01 Jun 2027 04:32:18.998           141.173         70586.500
         2   01 Jun 2027 04:32:34.500   01 Jun 2027 04:32:41.139             6.639          3319.500
         3   01 Jun 2027 04:35:17.263   01 Jun 2027 04:35:54.977            37.714         18857.000
         4   01 Jun 2027 04:36:10.886   01 Jun 2027 04:36:10.886             0.000             0.000
         5   01 Jun 2027 04:36:29.467   01 Jun 2027 04:36:34.856             5.389          2694.500
         6   01 Jun 2027 04:36:40.207   01 Jun 2027 04:36:48.528             8.321          4160.500
         7   01 Jun 2027 04:37:19.215   01 Jun 2027 04:37:23.983             4.768          2384.000
         8   01 Jun 2027 06:06:58.699   01 Jun 2027 06:09:41.910           163.211         81605.500
         9   01 Jun 2027 06:11:57.484   01 Jun 2027 06:12:28.728            31.244         15622.000
        10   01 Jun 2027 07:44:59.170   01 Jun 2027 07:48:07.939           188.769         94384.500
        11   01 Jun 2027 07:48:28.415   01 Jun 2027 07:48:36.556             8.141          4070.500
        12   01 Jun 2027 09:18:13.069   01 Jun 2027 09:20:39.329           146.260         73130.000
        13   01 Jun 2027 09:21:27.157   01 Jun 2027 09:21:48.551            21.394         10697.000
        14   01 Jun 2027 09:23:11.383   01 Jun 2027 09:23:36.119            24.736         12368.000
        15   01 Jun 2027 09:24:34.323   01 Jun 2027 09:24:52.441            18.118          9059.000
        16   02 Jun 2027 03:04:54.319   02 Jun 2027 03:06:28.409            94.090         47045.000
        17   02 Jun 2027 03:06:55.866   02 Jun 2027 03:11:04.252           248.386        124193.000
        18   02 Jun 2027 03:11:41.120   02 Jun 2027 03:11:45.296             4.176          2088.000
        19   02 Jun 2027 04:42:06.711   02 Jun 2027 04:44:08.866           122.155         61077.500
        20   02 Jun 2027 04:45:14.518   02 Jun 2027 04:45:51.918            37.400         18700.000
        21   02 Jun 2027 04:47:17.845   02 Jun 2027 04:47:23.730             5.885          2942.500
        22   02 Jun 2027 04:47:58.251   02 Jun 2027 04:47:58.251             0.000             0.000
        23   02 Jun 2027 04:48:15.563   02 Jun 2027 04:48:15.877             0.314           157.000
        24   02 Jun 2027 04:48:33.218   02 Jun 2027 04:48:54.374            21.156         10578.000
        25   02 Jun 2027 06:19:03.888   02 Jun 2027 06:21:57.069           173.181         86590.500
        26   02 Jun 2027 06:23:00.353   02 Jun 2027 06:23:13.362            13.009          6504.500
        27   02 Jun 2027 06:24:15.338   02 Jun 2027 06:24:41.574            26.236         13118.000
        28   02 Jun 2027 07:56:56.928   02 Jun 2027 07:59:20.293           143.365         71682.500
        29   02 Jun 2027 07:59:28.214   02 Jun 2027 07:59:29.965             1.751           875.500
        30   02 Jun 2027 08:00:38.826   02 Jun 2027 08:00:46.945             8.119          4059.500
        31   02 Jun 2027 09:30:31.297   02 Jun 2027 09:32:51.399           140.102         70051.000
        32   02 Jun 2027 09:34:31.490   02 Jun 2027 09:34:48.941            17.451          8725.500
        33   02 Jun 2027 09:35:03.064   02 Jun 2027 09:35:06.476             3.412          1706.000
        34   02 Jun 2027 09:35:11.529   02 Jun 2027 09:35:37.385            25.856         12928.000
        35   03 Jun 2027 03:16:23.899   03 Jun 2027 03:22:26.820           362.921        181460.500
        36   03 Jun 2027 03:23:45.662   03 Jun 2027 03:24:14.714            29.052         14526.000
        37   03 Jun 2027 03:25:24.798   03 Jun 2027 03:25:33.162             8.364          4182.000
        38   03 Jun 2027 04:54:08.508   03 Jun 2027 04:56:37.551           149.043         74521.500
        39   03 Jun 2027 04:59:09.938   03 Jun 2027 04:59:27.378            17.440          8720.000
        40   03 Jun 2027 05:00:10.773   03 Jun 2027 05:00:34.531            23.758         11879.000
        41   03 Jun 2027 05:01:26.289   03 Jun 2027 05:01:34.278             7.989          3994.500
        42   03 Jun 2027 06:30:56.326   03 Jun 2027 06:33:07.186           130.860         65430.000
        43   03 Jun 2027 06:34:16.709   03 Jun 2027 06:34:29.755            13.046          6523.000
        44   03 Jun 2027 06:35:46.328   03 Jun 2027 06:36:14.175            27.847         13923.500
        45   03 Jun 2027 06:37:13.908   03 Jun 2027 06:37:25.740            11.832          5916.000
        46   03 Jun 2027 08:09:00.047   03 Jun 2027 08:11:26.355           146.308         73154.000
        47   03 Jun 2027 08:11:44.746   03 Jun 2027 08:11:44.746             0.000             0.000
        48   03 Jun 2027 08:11:59.117   03 Jun 2027 08:12:08.771             9.654          4827.000
        49   03 Jun 2027 08:12:46.627   03 Jun 2027 08:13:01.369            14.742          7371.000
        50   03 Jun 2027 09:42:50.569   03 Jun 2027 09:44:40.817           110.248         55124.000
        51   03 Jun 2027 09:45:51.820   03 Jun 2027 09:46:20.690            28.870         14435.000
        52   03 Jun 2027 09:48:05.068   03 Jun 2027 09:48:14.530             9.462          4731.000
        53   03 Jun 2027 09:48:27.515   03 Jun 2027 09:48:39.477            11.962          5981.000
        54   04 Jun 2027 03:29:08.349   04 Jun 2027 03:34:02.697           294.348        147174.000
        55   04 Jun 2027 03:34:17.913   04 Jun 2027 03:34:26.515             8.602          4301.000
        56   04 Jun 2027 03:35:46.338   04 Jun 2027 03:36:27.991            41.653         20826.500
        57   04 Jun 2027 03:36:56.391   04 Jun 2027 03:37:03.187             6.796          3398.000
        58   04 Jun 2027 05:06:11.453   04 Jun 2027 05:08:57.681           166.228         83114.000
        59   04 Jun 2027 05:12:17.546   04 Jun 2027 05:12:57.929            40.383         20191.500
        60   04 Jun 2027 05:13:13.968   04 Jun 2027 05:13:18.983             5.015          2507.500
        61   04 Jun 2027 06:43:05.927   04 Jun 2027 06:45:48.213           162.286         81143.000
        62   04 Jun 2027 06:45:53.209   04 Jun 2027 06:45:54.053             0.844           422.000
        63   04 Jun 2027 06:49:07.053   04 Jun 2027 06:49:26.529            19.476          9738.000
        64   04 Jun 2027 08:20:12.219   04 Jun 2027 08:21:53.026           100.807         50403.500
        65   04 Jun 2027 08:24:31.454   04 Jun 2027 08:25:05.577            34.123         17061.500
        66   04 Jun 2027 09:55:13.603   04 Jun 2027 09:55:25.516            11.913          5956.500
        67   04 Jun 2027 09:56:53.453   04 Jun 2027 09:57:08.519            15.066          7533.000
        68   04 Jun 2027 09:58:37.291   04 Jun 2027 09:59:07.236            29.945         14972.500
        69   04 Jun 2027 09:59:41.275   04 Jun 2027 09:59:56.472            15.197          7598.500
        70   05 Jun 2027 03:41:06.292   05 Jun 2027 03:45:43.860           277.568        138784.000
        71   05 Jun 2027 03:46:36.726   05 Jun 2027 03:46:45.021             8.295          4147.500
        72   05 Jun 2027 03:47:47.281   05 Jun 2027 03:48:06.669            19.388          9694.000
        73   05 Jun 2027 03:48:28.625   05 Jun 2027 03:49:04.324            35.699         17849.500
        74   05 Jun 2027 03:49:35.141   05 Jun 2027 03:49:37.139             1.998           999.000
        75   05 Jun 2027 05:18:37.128   05 Jun 2027 05:21:03.321           146.193         73096.500
        76   05 Jun 2027 05:21:28.515   05 Jun 2027 05:21:32.173             3.658          1829.000
        77   05 Jun 2027 05:21:57.852   05 Jun 2027 05:21:57.852             0.000             0.000
        78   05 Jun 2027 05:21:59.000   05 Jun 2027 05:22:21.233            22.233         11116.500
        79   05 Jun 2027 05:23:58.465   05 Jun 2027 05:24:20.594            22.129         11064.500
        80   05 Jun 2027 05:24:41.313   05 Jun 2027 05:24:59.945            18.632          9316.000
        81   05 Jun 2027 05:25:11.765   05 Jun 2027 05:25:14.659             2.894          1447.000
        82   05 Jun 2027 06:55:33.361   05 Jun 2027 06:58:04.410           151.049         75524.500
        83   05 Jun 2027 06:58:15.514   05 Jun 2027 06:58:17.548             2.034          1017.000
        84   05 Jun 2027 06:58:32.769   05 Jun 2027 06:58:49.012            16.243          8121.500
        85   05 Jun 2027 07:00:02.975   05 Jun 2027 07:00:10.183             7.208          3604.000
        86   05 Jun 2027 07:00:21.499   05 Jun 2027 07:00:38.658            17.159          8579.500
        87   05 Jun 2027 08:32:23.780   05 Jun 2027 08:33:16.163            52.383         26191.500
        88   05 Jun 2027 08:34:12.541   05 Jun 2027 08:34:23.037            10.496          5248.000
        89   05 Jun 2027 08:35:24.929   05 Jun 2027 08:35:40.357            15.428          7714.000
        90   05 Jun 2027 08:35:42.495   05 Jun 2027 08:35:44.746             2.251          1125.500
        91   05 Jun 2027 08:35:51.270   05 Jun 2027 08:36:03.418            12.148          6074.000
        92   05 Jun 2027 10:10:00.862   05 Jun 2027 10:10:17.063            16.201          8100.500
        93   05 Jun 2027 10:11:33.273   05 Jun 2027 10:11:43.660            10.387          5193.500
        94   06 Jun 2027 03:53:55.942   06 Jun 2027 03:58:54.668           298.726        149363.000
        95   06 Jun 2027 03:59:32.837   06 Jun 2027 03:59:35.611             2.774          1387.000
        96   06 Jun 2027 03:59:49.858   06 Jun 2027 04:00:22.424            32.566         16283.000
        97   06 Jun 2027 04:01:30.250   06 Jun 2027 04:01:32.375             2.125          1062.500
        98   06 Jun 2027 05:30:43.807   06 Jun 2027 05:33:37.134           173.327         86663.500
        99   06 Jun 2027 05:34:23.550   06 Jun 2027 05:34:54.512            30.962         15481.000
       100   06 Jun 2027 05:35:08.910   06 Jun 2027 05:35:18.021             9.111          4555.500
       101   06 Jun 2027 05:35:48.451   06 Jun 2027 05:35:50.497             2.046          1023.000
       102   06 Jun 2027 07:08:24.825   06 Jun 2027 07:10:31.815           126.990         63495.000
       103   06 Jun 2027 07:11:08.229   06 Jun 2027 07:11:27.586            19.357          9678.500
       104   06 Jun 2027 07:11:51.014   06 Jun 2027 07:12:02.083            11.069          5534.500
       105   06 Jun 2027 07:12:44.529   06 Jun 2027 07:12:52.398             7.869          3934.500
       106   06 Jun 2027 08:44:26.283   06 Jun 2027 08:44:56.722            30.439         15219.500
       107   06 Jun 2027 08:45:33.706   06 Jun 2027 08:45:47.036            13.330          6665.000
       108   06 Jun 2027 08:47:26.218   06 Jun 2027 08:47:56.961            30.743         15371.500
       109   06 Jun 2027 08:48:15.279   06 Jun 2027 08:48:21.121             5.842          2921.000
       110   07 Jun 2027 04:06:57.101   07 Jun 2027 04:12:05.697           308.596        154298.000
       111   07 Jun 2027 04:13:11.743   07 Jun 2027 04:13:19.123             7.380          3690.000
       112   07 Jun 2027 04:13:23.716   07 Jun 2027 04:13:34.034            10.318          5159.000
       113   07 Jun 2027 05:43:19.599   07 Jun 2027 05:46:09.046           169.447         84723.500
       114   07 Jun 2027 07:20:34.911   07 Jun 2027 07:23:10.422           155.511         77755.500
       115   07 Jun 2027 07:23:48.913   07 Jun 2027 07:23:53.714             4.801          2400.500
       116   07 Jun 2027 07:24:47.916   07 Jun 2027 07:25:07.625            19.709          9854.500
       117   07 Jun 2027 08:56:49.551   07 Jun 2027 08:57:24.609            35.058         17529.000
       118   07 Jun 2027 08:57:48.677   07 Jun 2027 08:58:00.506            11.829          5914.500
       119   07 Jun 2027 08:58:40.284   07 Jun 2027 08:58:42.225             1.941           970.500
       120   07 Jun 2027 08:58:53.896   07 Jun 2027 08:58:56.908             3.012          1506.000
       121   07 Jun 2027 08:59:37.113   07 Jun 2027 08:59:49.400            12.287          6143.500
       122   07 Jun 2027 09:00:20.296   07 Jun 2027 09:00:35.968            15.672          7836.000
       123   07 Jun 2027 09:01:27.309   07 Jun 2027 09:01:29.047             1.738           869.000
       124   08 Jun 2027 04:18:38.871   08 Jun 2027 04:21:09.590           150.719         75359.500
       125   08 Jun 2027 04:21:34.854   08 Jun 2027 04:24:33.140           178.286         89143.000
       126   08 Jun 2027 04:25:34.613   08 Jun 2027 04:25:41.293             6.680          3340.000
       127   08 Jun 2027 05:54:51.496   08 Jun 2027 05:58:05.525           194.029         97014.500
       128   08 Jun 2027 05:58:18.986   08 Jun 2027 05:58:31.498            12.512          6256.000
       129   08 Jun 2027 05:59:38.890   08 Jun 2027 05:59:52.143            13.253          6626.500
       130   08 Jun 2027 06:00:56.395   08 Jun 2027 06:01:07.340            10.945          5472.500
       131   08 Jun 2027 07:33:04.057   08 Jun 2027 07:35:25.053           140.996         70498.000
       132   08 Jun 2027 07:36:58.932   08 Jun 2027 07:37:03.115             4.183          2091.500
       133   08 Jun 2027 09:08:32.137   08 Jun 2027 09:08:58.680            26.543         13271.500
       134   08 Jun 2027 09:09:52.856   08 Jun 2027 09:10:08.538            15.682          7841.000
       135   08 Jun 2027 09:10:41.424   08 Jun 2027 09:10:47.676             6.252          3126.000
       136   08 Jun 2027 09:11:25.472   08 Jun 2027 09:11:32.503             7.031          3515.500
       137   08 Jun 2027 09:11:50.923   08 Jun 2027 09:12:00.447             9.524          4762.000
       138   08 Jun 2027 09:12:37.793   08 Jun 2027 09:12:48.714            10.921          5460.500
       139   08 Jun 2027 09:13:26.068   08 Jun 2027 09:13:37.871            11.803          5901.500
       140   09 Jun 2027 04:30:12.283   09 Jun 2027 04:36:44.930           392.647        196323.500
       141   09 Jun 2027 04:37:03.438   09 Jun 2027 04:37:04.603             1.165           582.500
       142   09 Jun 2027 04:37:42.788   09 Jun 2027 04:37:46.174             3.386          1693.000
       143   09 Jun 2027 06:07:13.446   09 Jun 2027 06:09:56.707           163.261         81630.500
       144   09 Jun 2027 06:12:11.940   09 Jun 2027 06:12:42.733            30.793         15396.500
       145   09 Jun 2027 06:13:05.579   09 Jun 2027 06:13:21.148            15.569          7784.500
       146   09 Jun 2027 07:45:13.627   09 Jun 2027 07:47:19.331           125.704         62852.000
       147   09 Jun 2027 07:48:34.226   09 Jun 2027 07:48:43.477             9.251          4625.500
       148   09 Jun 2027 07:49:05.587   09 Jun 2027 07:49:07.286             1.699           849.500
       149   09 Jun 2027 07:49:09.606   09 Jun 2027 07:49:10.610             1.004           502.000
       150   09 Jun 2027 09:18:27.262   09 Jun 2027 09:19:12.038            44.776         22388.000
       151   09 Jun 2027 09:20:34.567   09 Jun 2027 09:20:44.101             9.534          4767.000
       152   09 Jun 2027 09:21:32.505   09 Jun 2027 09:21:42.932            10.427          5213.500
       153   09 Jun 2027 09:22:02.725   09 Jun 2027 09:22:08.068             5.343          2671.500
       154   09 Jun 2027 09:22:21.350   09 Jun 2027 09:22:27.905             6.555          3277.500
       155   09 Jun 2027 09:23:23.822   09 Jun 2027 09:23:51.104            27.282         13641.000
       156   09 Jun 2027 09:25:14.814   09 Jun 2027 09:25:18.254             3.440          1720.000
       157   09 Jun 2027 09:25:29.487   09 Jun 2027 09:25:33.675             4.188          2094.000
       158   09 Jun 2027 09:25:49.362   09 Jun 2027 09:25:52.471             3.109          1554.500
       159   10 Jun 2027 03:05:08.696   10 Jun 2027 03:06:48.996           100.300         50150.000
       160   10 Jun 2027 03:07:10.338   10 Jun 2027 03:09:07.318           116.980         58490.000
       161   10 Jun 2027 03:09:34.059   10 Jun 2027 03:09:55.663            21.604         10802.000
       162   10 Jun 2027 03:10:26.696   10 Jun 2027 03:10:34.565             7.869          3934.500
       163   10 Jun 2027 03:10:39.812   10 Jun 2027 03:10:41.424             1.612           806.000
       164   10 Jun 2027 03:12:01.606   10 Jun 2027 03:12:08.824             7.218          3609.000
       165   10 Jun 2027 03:13:02.196   10 Jun 2027 03:13:14.666            12.470          6235.000
       166   10 Jun 2027 04:42:21.464   10 Jun 2027 04:44:18.477           117.013         58506.500
       167   10 Jun 2027 04:46:06.832   10 Jun 2027 04:46:21.115            14.283          7141.500
       168   10 Jun 2027 04:46:47.705   10 Jun 2027 04:46:54.622             6.917          3458.500
       169   10 Jun 2027 04:47:24.897   10 Jun 2027 04:47:32.368             7.471          3735.500
       170   10 Jun 2027 04:47:39.635   10 Jun 2027 04:48:03.680            24.045         12022.500
       171   10 Jun 2027 04:48:43.865   10 Jun 2027 04:49:08.660            24.795         12397.500
       172   10 Jun 2027 06:19:18.225   10 Jun 2027 06:22:21.116           182.891         91445.500
       173   10 Jun 2027 06:23:38.272   10 Jun 2027 06:23:59.845            21.573         10786.500
       174   10 Jun 2027 06:24:41.128   10 Jun 2027 06:24:44.266             3.138          1569.000
       175   10 Jun 2027 06:24:56.109   10 Jun 2027 06:25:08.363            12.254          6127.000
       176   10 Jun 2027 07:57:11.652   10 Jun 2027 07:58:36.188            84.536         42268.000
       177   10 Jun 2027 07:58:39.138   10 Jun 2027 07:58:42.597             3.459          1729.500
       178   10 Jun 2027 07:59:44.689   10 Jun 2027 08:00:03.213            18.524          9262.000
       179   10 Jun 2027 08:00:55.295   10 Jun 2027 08:01:09.587            14.292          7146.000
       180   10 Jun 2027 09:30:45.931   10 Jun 2027 09:31:14.410            28.479         14239.500
       181   10 Jun 2027 09:32:37.853   10 Jun 2027 09:32:50.487            12.634          6317.000
       182   10 Jun 2027 09:33:34.730   10 Jun 2027 09:34:04.612            29.882         14941.000
       183   10 Jun 2027 09:36:11.726   10 Jun 2027 09:36:14.499             2.773          1386.500
       184   10 Jun 2027 09:36:48.211   10 Jun 2027 09:36:57.943             9.732          4866.000
       185   10 Jun 2027 09:37:00.521   10 Jun 2027 09:37:07.278             6.757          3378.500
       186   10 Jun 2027 09:38:05.468   10 Jun 2027 09:38:10.758             5.290          2645.000
       187   11 Jun 2027 03:16:38.213   11 Jun 2027 03:20:05.782           207.569        103784.500
       188   11 Jun 2027 03:20:48.924   11 Jun 2027 03:21:22.556            33.632         16816.000
       189   11 Jun 2027 03:22:12.718   11 Jun 2027 03:22:30.987            18.269          9134.500
       190   11 Jun 2027 03:24:01.984   11 Jun 2027 03:24:04.803             2.819          1409.500
       191   11 Jun 2027 03:24:54.067   11 Jun 2027 03:25:41.443            47.376         23688.000
       192   11 Jun 2027 04:54:23.350   11 Jun 2027 04:56:21.885           118.535         59267.500
       193   11 Jun 2027 04:56:54.166   11 Jun 2027 04:56:59.487             5.321          2660.500
       194   11 Jun 2027 04:57:29.179   11 Jun 2027 04:57:39.508            10.329          5164.500
       195   11 Jun 2027 04:58:16.614   11 Jun 2027 04:58:16.614             0.000             0.000
       196   11 Jun 2027 04:59:26.403   11 Jun 2027 04:59:41.846            15.443          7721.500
       197   11 Jun 2027 05:00:25.072   11 Jun 2027 05:00:31.576             6.504          3252.000
       198   11 Jun 2027 05:01:18.876   11 Jun 2027 05:01:48.913            30.037         15018.500
       199   11 Jun 2027 06:31:11.039   11 Jun 2027 06:33:38.584           147.545         73772.500
       200   11 Jun 2027 06:34:19.886   11 Jun 2027 06:34:25.542             5.656          2828.000
       201   11 Jun 2027 06:34:51.607   11 Jun 2027 06:34:58.036             6.429          3214.500
       202   11 Jun 2027 06:35:20.429   11 Jun 2027 06:35:48.858            28.429         14214.500
       203   11 Jun 2027 06:37:33.003   11 Jun 2027 06:37:44.452            11.449          5724.500
       204   11 Jun 2027 06:37:50.326   11 Jun 2027 06:37:53.510             3.184          1592.000
       205   11 Jun 2027 08:09:14.803   11 Jun 2027 08:10:37.413            82.610         41305.000
       206   11 Jun 2027 08:11:15.515   11 Jun 2027 08:11:23.054             7.539          3769.500
       207   11 Jun 2027 08:12:38.277   11 Jun 2027 08:12:50.343            12.066          6033.000
       208   11 Jun 2027 09:43:05.082   11 Jun 2027 09:43:24.494            19.412          9706.000
       209   11 Jun 2027 09:44:00.542   11 Jun 2027 09:44:18.902            18.360          9180.000
       210   11 Jun 2027 09:45:24.438   11 Jun 2027 09:45:24.438             0.000             0.000
       211   11 Jun 2027 09:45:51.833   11 Jun 2027 09:46:03.937            12.104          6052.000
       212   11 Jun 2027 09:47:06.778   11 Jun 2027 09:47:25.913            19.135          9567.500
       213   11 Jun 2027 09:48:17.676   11 Jun 2027 09:48:29.136            11.460          5730.000
       214   11 Jun 2027 09:49:04.407   11 Jun 2027 09:49:19.997            15.590          7795.000
       215   12 Jun 2027 03:29:23.029   12 Jun 2027 03:33:31.591           248.562        124281.000
       216   12 Jun 2027 03:33:37.068   12 Jun 2027 03:33:45.533             8.465          4232.500
       217   12 Jun 2027 03:34:27.575   12 Jun 2027 03:34:41.215            13.640          6820.000
       218   12 Jun 2027 03:36:02.672   12 Jun 2027 03:36:37.804            35.132         17566.000
       219   12 Jun 2027 03:37:10.765   12 Jun 2027 03:37:18.740             7.975          3987.500
       220   12 Jun 2027 05:06:26.231   12 Jun 2027 05:09:13.681           167.450         83725.000
       221   12 Jun 2027 05:11:13.468   12 Jun 2027 05:11:25.174            11.706          5853.000
       222   12 Jun 2027 05:12:51.675   12 Jun 2027 05:13:25.839            34.164         17082.000
       223   12 Jun 2027 06:43:20.609   12 Jun 2027 06:46:13.603           172.994         86497.000
       224   12 Jun 2027 06:46:44.877   12 Jun 2027 06:46:47.725             2.848          1424.000
       225   12 Jun 2027 06:46:57.604   12 Jun 2027 06:47:02.886             5.282          2641.000
       226   12 Jun 2027 06:47:27.822   12 Jun 2027 06:47:39.102            11.280          5640.000
       227   12 Jun 2027 06:47:59.205   12 Jun 2027 06:48:02.119             2.914          1457.000
       228   12 Jun 2027 06:48:50.676   12 Jun 2027 06:49:02.680            12.004          6002.000
       229   12 Jun 2027 06:49:33.117   12 Jun 2027 06:49:35.713             2.596          1298.000
       230   12 Jun 2027 08:20:27.001   12 Jun 2027 08:21:04.285            37.284         18642.000
       231   12 Jun 2027 08:21:29.383   12 Jun 2027 08:21:38.320             8.937          4468.500
       232   12 Jun 2027 08:22:34.342   12 Jun 2027 08:22:52.143            17.801          8900.500
       233   12 Jun 2027 08:23:22.955   12 Jun 2027 08:23:28.292             5.337          2668.500
       234   12 Jun 2027 08:23:55.892   12 Jun 2027 08:23:58.631             2.739          1369.500
       235   12 Jun 2027 08:23:59.650   12 Jun 2027 08:24:03.606             3.956          1978.000
       236   12 Jun 2027 08:24:33.938   12 Jun 2027 08:24:46.205            12.267          6133.500
       237   12 Jun 2027 09:55:28.540   12 Jun 2027 09:55:38.981            10.441          5220.500
       238   12 Jun 2027 09:57:08.098   12 Jun 2027 09:57:24.196            16.098          8049.000
       239   12 Jun 2027 09:58:51.939   12 Jun 2027 09:59:13.266            21.327         10663.500
       240   12 Jun 2027 09:59:50.261   12 Jun 2027 10:00:01.122            10.861          5430.500
       241   12 Jun 2027 10:00:12.510   12 Jun 2027 10:00:13.520             1.010           505.000
       242   13 Jun 2027 03:41:21.000   13 Jun 2027 03:45:30.921           249.921        124960.500
       243   13 Jun 2027 03:46:00.694   13 Jun 2027 03:46:19.246            18.552          9276.000
       244   13 Jun 2027 03:47:26.732   13 Jun 2027 03:47:45.428            18.696          9348.000
       245   13 Jun 2027 03:49:18.954   13 Jun 2027 03:49:21.580             2.626          1313.000
       246   13 Jun 2027 03:49:49.727   13 Jun 2027 03:49:51.761             2.034          1017.000
       247   13 Jun 2027 05:18:52.030   13 Jun 2027 05:21:17.987           145.957         72978.500
       248   13 Jun 2027 05:21:43.380   13 Jun 2027 05:22:26.322            42.942         21471.000
       249   13 Jun 2027 05:23:56.219   13 Jun 2027 05:24:05.798             9.579          4789.500
       250   13 Jun 2027 05:24:38.387   13 Jun 2027 05:24:55.883            17.496          8748.000
       251   13 Jun 2027 05:25:27.393   13 Jun 2027 05:25:29.848             2.455          1227.500
       252   13 Jun 2027 05:25:33.573   13 Jun 2027 05:25:36.736             3.163          1581.500
       253   13 Jun 2027 06:55:47.961   13 Jun 2027 06:58:32.788           164.827         82413.500
       254   13 Jun 2027 06:59:03.770   13 Jun 2027 06:59:10.981             7.211          3605.500
       255   13 Jun 2027 06:59:26.629   13 Jun 2027 06:59:30.065             3.436          1718.000
       256   13 Jun 2027 07:00:06.358   13 Jun 2027 07:00:11.375             5.017          2508.500
       257   13 Jun 2027 07:00:16.919   13 Jun 2027 07:00:22.839             5.920          2960.000
       258   13 Jun 2027 07:01:12.363   13 Jun 2027 07:01:21.994             9.631          4815.500
       259   13 Jun 2027 08:32:38.386   13 Jun 2027 08:33:22.762            44.376         22188.000
       260   13 Jun 2027 08:34:29.996   13 Jun 2027 08:34:53.604            23.608         11804.000
       261   13 Jun 2027 08:35:57.317   13 Jun 2027 08:35:59.490             2.173          1086.500
       262   13 Jun 2027 08:36:05.964   13 Jun 2027 08:36:10.041             4.077          2038.500
       263   13 Jun 2027 08:36:35.507   13 Jun 2027 08:36:54.912            19.405          9702.500
       264   13 Jun 2027 10:10:15.516   13 Jun 2027 10:10:31.571            16.055          8027.500
       265   13 Jun 2027 10:11:02.951   13 Jun 2027 10:11:27.514            24.563         12281.500
