uniorb/output/strategy_1/Camera/Camera_KinoSat_111310.txt

KinoSat_111310
-------------------------
    Access    *     Start Time (UTCG)     *     Stop Time (UTCG)  *   Duration (s) *   Data (Mbytes)
         1   01 Jun 2027 04:15:59.030   01 Jun 2027 04:16:35.769            36.739         18369.500
         2   01 Jun 2027 04:17:04.504   01 Jun 2027 04:18:46.545           102.041         51020.500
         3   01 Jun 2027 04:19:21.934   01 Jun 2027 04:19:31.175             9.241          4620.500
         4   01 Jun 2027 05:40:04.982   01 Jun 2027 05:42:08.944           123.962         61981.000
         5   01 Jun 2027 07:15:50.375   01 Jun 2027 07:17:54.797           124.422         62211.000
         6   01 Jun 2027 07:17:58.497   01 Jun 2027 07:18:02.507             4.010          2005.000
         7   01 Jun 2027 08:50:48.343   01 Jun 2027 08:52:12.515            84.172         42086.000
         8   01 Jun 2027 08:53:26.546   01 Jun 2027 08:53:54.050            27.504         13752.000
         9   01 Jun 2027 08:53:59.050   01 Jun 2027 08:54:10.367            11.317          5658.500
        10   01 Jun 2027 08:54:23.479   01 Jun 2027 08:54:28.016             4.537          2268.500
        11   01 Jun 2027 08:55:27.174   01 Jun 2027 08:55:31.069             3.895          1947.500
        12   01 Jun 2027 08:56:06.465   01 Jun 2027 08:56:10.248             3.783          1891.500
        13   01 Jun 2027 08:57:45.267   01 Jun 2027 08:57:48.176             2.909          1454.500
        14   01 Jun 2027 10:26:59.991   01 Jun 2027 10:29:02.162           122.171         61085.500
        15   01 Jun 2027 10:29:10.714   01 Jun 2027 10:29:12.674             1.960           980.000
        16   01 Jun 2027 10:31:41.511   01 Jun 2027 10:31:46.272             4.761          2380.500
        17   01 Jun 2027 10:33:08.506   01 Jun 2027 10:33:08.506             0.000             0.000
        18   02 Jun 2027 04:16:52.904   02 Jun 2027 04:17:29.669            36.765         18382.500
        19   02 Jun 2027 04:27:54.801   02 Jun 2027 04:29:25.467            90.666         45333.000
        20   02 Jun 2027 05:50:54.835   02 Jun 2027 05:51:44.286            49.451         24725.500
        21   02 Jun 2027 05:51:53.865   02 Jun 2027 05:52:20.397            26.532         13266.000
        22   02 Jun 2027 07:26:26.540   02 Jun 2027 07:26:31.949             5.409          2704.500
        23   02 Jun 2027 07:27:35.730   02 Jun 2027 07:30:00.490           144.760         72380.000
        24   02 Jun 2027 09:02:21.882   02 Jun 2027 09:04:31.692           129.810         64905.000
        25   02 Jun 2027 09:07:06.571   02 Jun 2027 09:07:13.150             6.579          3289.500
        26   02 Jun 2027 09:09:13.653   02 Jun 2027 09:09:21.194             7.541          3770.500
        27   02 Jun 2027 10:39:14.726   02 Jun 2027 10:41:10.659           115.933         57966.500
        28   02 Jun 2027 10:42:06.320   02 Jun 2027 10:42:11.773             5.453          2726.500
        29   02 Jun 2027 10:42:41.971   02 Jun 2027 10:42:57.476            15.505          7752.500
        30   02 Jun 2027 10:43:26.720   02 Jun 2027 10:43:26.720             0.000             0.000
        31   02 Jun 2027 10:44:07.945   02 Jun 2027 10:44:11.290             3.345          1672.500
        32   03 Jun 2027 03:03:15.030   03 Jun 2027 03:03:40.814            25.784         12892.000
        33   03 Jun 2027 03:03:49.916   03 Jun 2027 03:04:01.533            11.617          5808.500
        34   03 Jun 2027 03:04:51.182   03 Jun 2027 03:04:53.373             2.191          1095.500
        35   03 Jun 2027 03:06:06.443   03 Jun 2027 03:06:18.171            11.728          5864.000
        36   03 Jun 2027 03:06:39.441   03 Jun 2027 03:06:42.221             2.780          1390.000
        37   03 Jun 2027 03:07:16.880   03 Jun 2027 03:07:20.175             3.295          1647.500
        38   03 Jun 2027 03:08:39.447   03 Jun 2027 03:08:50.256            10.809          5404.500
        39   03 Jun 2027 03:08:59.746   03 Jun 2027 03:09:15.257            15.511          7755.500
        40   03 Jun 2027 03:10:04.922   03 Jun 2027 03:10:30.574            25.652         12826.000
        41   03 Jun 2027 04:28:14.626   03 Jun 2027 04:28:35.984            21.358         10679.000
        42   03 Jun 2027 04:39:56.034   03 Jun 2027 04:40:55.457            59.423         29711.500
        43   03 Jun 2027 06:02:10.718   03 Jun 2027 06:02:48.873            38.155         19077.500
        44   03 Jun 2027 06:03:04.412   03 Jun 2027 06:03:10.570             6.158          3079.000
        45   03 Jun 2027 06:04:09.483   03 Jun 2027 06:04:12.004             2.521          1260.500
        46   03 Jun 2027 06:06:06.988   03 Jun 2027 06:06:06.988             0.000             0.000
        47   03 Jun 2027 07:37:20.616   03 Jun 2027 07:38:46.461            85.845         42922.500
        48   03 Jun 2027 07:39:19.591   03 Jun 2027 07:40:13.076            53.485         26742.500
        49   03 Jun 2027 07:42:35.674   03 Jun 2027 07:42:55.255            19.581          9790.500
        50   03 Jun 2027 09:14:29.181   03 Jun 2027 09:16:39.046           129.865         64932.500
        51   03 Jun 2027 09:20:58.469   03 Jun 2027 09:21:11.110            12.641          6320.500
        52   03 Jun 2027 09:21:54.640   03 Jun 2027 09:21:55.045             0.405           202.500
        53   03 Jun 2027 10:51:26.787   03 Jun 2027 10:52:23.637            56.850         28425.000
        54   03 Jun 2027 10:52:45.604   03 Jun 2027 10:52:52.632             7.028          2865.781
        55   03 Jun 2027 10:53:02.304   03 Jun 2027 10:53:03.719             1.415           121.906
        56   03 Jun 2027 10:53:38.891   03 Jun 2027 10:53:41.385             2.494           948.438
        57   03 Jun 2027 10:53:45.517   03 Jun 2027 10:53:47.228             1.711            71.969
        58   03 Jun 2027 10:55:16.754   03 Jun 2027 10:55:23.718             6.964          2392.969
        59   03 Jun 2027 10:55:34.952   03 Jun 2027 10:55:34.952             0.000             0.000
        60   03 Jun 2027 10:56:16.929   03 Jun 2027 10:56:21.475             4.546          1556.312
        61   03 Jun 2027 10:57:05.070   03 Jun 2027 10:57:06.811             1.741           870.500
        62   04 Jun 2027 03:15:33.298   04 Jun 2027 03:16:45.309            72.011         36005.500
        63   04 Jun 2027 03:17:19.908   04 Jun 2027 03:17:28.995             9.087          4543.500
        64   04 Jun 2027 03:18:32.188   04 Jun 2027 03:18:42.333            10.145          5072.500
        65   04 Jun 2027 03:19:24.567   04 Jun 2027 03:19:28.620             4.053          2026.500
        66   04 Jun 2027 03:22:18.338   04 Jun 2027 03:22:28.218             9.880          4940.000
        67   04 Jun 2027 04:39:40.429   04 Jun 2027 04:40:04.044            23.615         11807.500
        68   04 Jun 2027 04:41:01.365   04 Jun 2027 04:41:02.511             1.146           573.000
        69   04 Jun 2027 04:51:53.064   04 Jun 2027 04:52:32.733            39.669         19834.500
        70   04 Jun 2027 06:13:55.719   04 Jun 2027 06:15:05.814            70.095         35047.500
        71   04 Jun 2027 06:16:39.343   04 Jun 2027 06:16:41.092             1.749           874.500
        72   04 Jun 2027 06:17:27.539   04 Jun 2027 06:17:27.539             0.000             0.000
        73   04 Jun 2027 06:18:27.033   04 Jun 2027 06:18:30.659             3.626          1813.000
        74   04 Jun 2027 06:18:33.219   04 Jun 2027 06:18:49.013            15.794          7897.000
        75   04 Jun 2027 07:48:48.234   04 Jun 2027 07:50:27.808            99.574         49787.000
        76   04 Jun 2027 07:51:26.401   04 Jun 2027 07:51:34.157             7.756          3563.469
        77   04 Jun 2027 07:54:19.382   04 Jun 2027 07:54:19.382             0.000             0.000
        78   04 Jun 2027 07:55:03.233   04 Jun 2027 07:55:11.713             8.480          4240.000
        79   04 Jun 2027 07:55:20.154   04 Jun 2027 07:55:24.834             4.680          1929.250
        80   04 Jun 2027 07:56:05.413   04 Jun 2027 07:56:09.929             4.516          1268.094
        81   04 Jun 2027 07:56:29.453   04 Jun 2027 07:56:33.510             4.057           609.125
        82   04 Jun 2027 09:26:30.792   04 Jun 2027 09:26:44.899            14.107          7053.500
        83   04 Jun 2027 09:27:23.246   04 Jun 2027 09:27:23.246             0.000             0.000
        84   04 Jun 2027 09:28:38.357   04 Jun 2027 09:28:48.370            10.013          5006.500
        85   04 Jun 2027 09:29:31.850   04 Jun 2027 09:29:34.893             3.043          1472.437
        86   04 Jun 2027 09:30:35.134   04 Jun 2027 09:30:40.467             5.333          1838.062
        87   04 Jun 2027 09:31:31.642   04 Jun 2027 09:31:31.642             0.000             0.000
        88   04 Jun 2027 09:32:15.236   04 Jun 2027 09:32:22.636             7.400          2961.531
        89   04 Jun 2027 09:32:30.979   04 Jun 2027 09:32:30.979             0.000             0.000
        90   04 Jun 2027 09:32:41.523   04 Jun 2027 09:32:43.939             2.416           590.219
        91   04 Jun 2027 09:33:29.606   04 Jun 2027 09:33:35.042             5.436          1313.750
        92   04 Jun 2027 11:03:18.962   04 Jun 2027 11:03:32.136            13.174          6587.000
        93   04 Jun 2027 11:03:40.570   04 Jun 2027 11:03:48.497             7.927          2084.719
        94   04 Jun 2027 11:04:23.311   04 Jun 2027 11:04:27.311             4.000           695.375
        95   04 Jun 2027 11:04:37.397   04 Jun 2027 11:04:43.402             6.005           259.594
        96   04 Jun 2027 11:05:40.875   04 Jun 2027 11:05:44.846             3.971          1796.031
        97   04 Jun 2027 11:06:07.066   04 Jun 2027 11:06:08.122             1.056           528.000
        98   04 Jun 2027 11:07:31.236   04 Jun 2027 11:07:37.110             5.874          2662.406
        99   04 Jun 2027 11:07:40.599   04 Jun 2027 11:07:41.656             1.057           109.031
       100   04 Jun 2027 11:07:48.556   04 Jun 2027 11:07:56.758             8.202           213.594
       101   04 Jun 2027 11:08:16.788   04 Jun 2027 11:08:27.628            10.840           625.937
       102   04 Jun 2027 11:09:07.151   04 Jun 2027 11:09:08.955             1.804           707.125
       103   04 Jun 2027 11:09:37.778   04 Jun 2027 11:09:39.851             2.073           888.937
       104   05 Jun 2027 03:27:38.153   05 Jun 2027 03:29:10.935            92.782         46391.000
       105   05 Jun 2027 03:31:14.298   05 Jun 2027 03:31:30.230            15.932          7966.000
       106   05 Jun 2027 03:31:50.318   05 Jun 2027 03:31:56.720             6.402          3201.000
       107   05 Jun 2027 04:51:44.884   05 Jun 2027 04:52:38.532            53.648         26824.000
       108   05 Jun 2027 06:25:31.348   05 Jun 2027 06:27:07.031            95.683         47841.500
       109   05 Jun 2027 06:29:30.810   05 Jun 2027 06:29:46.372            15.562          7781.000
       110   05 Jun 2027 08:01:31.739   05 Jun 2027 08:02:34.178            62.439         29787.312
       111   05 Jun 2027 08:03:39.411   05 Jun 2027 08:03:45.137             5.726          1770.438
       112   05 Jun 2027 08:03:50.394   05 Jun 2027 08:03:51.660             1.266            45.562
       113   05 Jun 2027 08:04:14.198   05 Jun 2027 08:04:15.693             1.495           583.656
       114   05 Jun 2027 08:05:42.292   05 Jun 2027 08:05:49.116             6.824          2704.219
       115   05 Jun 2027 08:07:04.667   05 Jun 2027 08:07:04.667             0.000             0.000
       116   05 Jun 2027 08:07:54.499   05 Jun 2027 08:08:01.498             6.999          3195.344
       117   05 Jun 2027 08:09:14.162   05 Jun 2027 08:09:19.916             5.754          2186.406
       118   05 Jun 2027 09:38:34.258   05 Jun 2027 09:38:56.317            22.059          6916.313
       119   05 Jun 2027 09:40:36.890   05 Jun 2027 09:40:42.263             5.373          2571.375
       120   05 Jun 2027 09:41:49.489   05 Jun 2027 09:41:57.678             8.189          2100.812
       121   05 Jun 2027 09:42:30.488   05 Jun 2027 09:42:31.726             1.238           600.250
       122   05 Jun 2027 09:42:35.501   05 Jun 2027 09:42:37.804             2.303           117.969
       123   05 Jun 2027 09:43:24.628   05 Jun 2027 09:43:30.949             6.321          1345.156
       124   05 Jun 2027 09:43:44.576   05 Jun 2027 09:43:44.576             0.000             0.000
       125   05 Jun 2027 09:43:51.226   05 Jun 2027 09:43:53.563             2.337           633.656
       126   05 Jun 2027 09:45:00.454   05 Jun 2027 09:45:07.043             6.589          2075.406
       127   05 Jun 2027 09:45:10.002   05 Jun 2027 09:45:10.387             0.385            92.469
       128   05 Jun 2027 09:45:27.187   05 Jun 2027 09:45:29.617             2.430           525.000
       129   05 Jun 2027 09:45:31.575   05 Jun 2027 09:45:32.348             0.773            61.187
       130   05 Jun 2027 09:45:50.823   05 Jun 2027 09:45:52.242             1.419           493.969
       131   05 Jun 2027 11:15:29.025   05 Jun 2027 11:15:46.033            17.008          7205.750
       132   05 Jun 2027 11:16:01.931   05 Jun 2027 11:16:02.957             1.026           496.813
       133   05 Jun 2027 11:16:31.368   05 Jun 2027 11:16:34.775             3.407           808.594
       134   05 Jun 2027 11:18:01.969   05 Jun 2027 11:18:06.678             4.709          1916.750
       135   05 Jun 2027 11:18:22.063   05 Jun 2027 11:18:23.796             1.733           273.531
       136   05 Jun 2027 11:20:01.616   05 Jun 2027 11:20:10.298             8.682          2974.781
       137   05 Jun 2027 11:20:13.050   05 Jun 2027 11:20:16.823             3.773            58.812
       138   05 Jun 2027 11:20:55.619   05 Jun 2027 11:20:58.473             2.854          1165.750
       139   05 Jun 2027 11:21:31.234   05 Jun 2027 11:21:41.811            10.577          1023.781
       140   06 Jun 2027 03:40:14.933   06 Jun 2027 03:42:18.582           123.649         61824.500
       141   06 Jun 2027 03:43:10.463   06 Jun 2027 03:43:21.044            10.581          5290.500
       142   06 Jun 2027 05:03:39.711   06 Jun 2027 05:04:31.754            52.043         26021.500
       143   06 Jun 2027 05:04:40.677   06 Jun 2027 05:04:54.300            13.623          6811.500
       144   06 Jun 2027 06:39:58.879   06 Jun 2027 06:41:47.584           108.705         54352.500
       145   06 Jun 2027 06:42:02.151   06 Jun 2027 06:42:04.633             2.482          1241.000
       146   06 Jun 2027 06:42:19.825   06 Jun 2027 06:42:25.473             5.648          2824.000
       147   06 Jun 2027 06:43:16.070   06 Jun 2027 06:43:27.442            11.372          5686.000
       148   06 Jun 2027 08:13:28.400   06 Jun 2027 08:13:51.479            23.079         10360.344
       149   06 Jun 2027 08:14:26.116   06 Jun 2027 08:14:27.573             1.457           571.562
       150   06 Jun 2027 08:15:52.755   06 Jun 2027 08:15:55.483             2.728          1364.000
       151   06 Jun 2027 08:16:51.777   06 Jun 2027 08:16:53.432             1.655           827.500
       152   06 Jun 2027 08:17:22.342   06 Jun 2027 08:17:28.388             6.046          2605.281
       153   06 Jun 2027 08:17:40.507   06 Jun 2027 08:17:46.270             5.763             7.344
       154   06 Jun 2027 08:18:27.018   06 Jun 2027 08:18:30.100             3.082           917.594
       155   06 Jun 2027 08:19:30.564   06 Jun 2027 08:19:37.553             6.989          1780.625
       156   06 Jun 2027 08:20:09.908   06 Jun 2027 08:20:13.710             3.802           218.656
       157   06 Jun 2027 08:20:40.702   06 Jun 2027 08:20:42.964             2.262           726.125
       158   06 Jun 2027 08:21:00.976   06 Jun 2027 08:21:02.333             1.357           562.875
       159   06 Jun 2027 08:21:50.112   06 Jun 2027 08:21:53.012             2.900          1139.844
       160   06 Jun 2027 09:51:00.418   06 Jun 2027 09:51:17.137            16.719          7665.844
       161   06 Jun 2027 09:51:51.129   06 Jun 2027 09:51:52.745             1.616           624.750
       162   06 Jun 2027 09:52:32.668   06 Jun 2027 09:52:36.289             3.621          1133.094
       163   06 Jun 2027 09:53:14.896   06 Jun 2027 09:53:16.342             1.446            85.625
       164   06 Jun 2027 09:54:40.166   06 Jun 2027 09:54:45.688             5.522          2619.500
       165   06 Jun 2027 09:55:22.182   06 Jun 2027 09:55:27.253             5.071           241.156
       166   06 Jun 2027 09:55:39.147   06 Jun 2027 09:55:40.718             1.571           371.219
       167   06 Jun 2027 09:55:43.175   06 Jun 2027 09:55:43.629             0.454            41.781
       168   06 Jun 2027 09:57:11.239   06 Jun 2027 09:57:15.047             3.808          1904.000
       169   06 Jun 2027 09:57:31.879   06 Jun 2027 09:57:35.022             3.143          1023.406
       170   06 Jun 2027 11:27:56.664   06 Jun 2027 11:28:17.860            21.196          7185.406
       171   06 Jun 2027 11:29:40.192   06 Jun 2027 11:29:43.520             3.328          1664.000
       172   06 Jun 2027 11:29:45.707   06 Jun 2027 11:29:51.171             5.464           635.219
       173   06 Jun 2027 11:30:59.932   06 Jun 2027 11:31:07.582             7.650          2094.437
       174   06 Jun 2027 11:31:23.540   06 Jun 2027 11:31:24.755             1.215           495.125
       175   06 Jun 2027 11:31:29.778   06 Jun 2027 11:31:30.680             0.902           156.969
       176   06 Jun 2027 11:32:00.763   06 Jun 2027 11:32:01.669             0.906           453.000
       177   06 Jun 2027 11:32:11.975   06 Jun 2027 11:32:15.001             3.026           527.500
       178   06 Jun 2027 11:33:22.238   06 Jun 2027 11:33:31.189             8.951          2101.156
       179   07 Jun 2027 03:51:53.350   07 Jun 2027 03:53:43.047           109.697         54848.500
       180   07 Jun 2027 03:54:52.465   07 Jun 2027 03:54:59.184             6.719          3359.500
       181   07 Jun 2027 03:55:50.239   07 Jun 2027 03:55:56.609             6.370          3185.000
       182   07 Jun 2027 05:15:31.298   07 Jun 2027 05:16:34.414            63.116         31558.000
       183   07 Jun 2027 05:16:43.198   07 Jun 2027 05:16:55.276            12.078          6039.000
       184   07 Jun 2027 05:17:53.260   07 Jun 2027 05:17:53.260             0.000             0.000
       185   07 Jun 2027 06:52:00.440   07 Jun 2027 06:53:40.440           100.000         50000.000
       186   07 Jun 2027 06:54:36.380   07 Jun 2027 06:54:40.316             3.936          1968.000
       187   07 Jun 2027 06:55:03.779   07 Jun 2027 06:55:12.092             8.313          4156.500
       188   07 Jun 2027 08:26:08.160   07 Jun 2027 08:26:34.338            26.178         11890.687
       189   07 Jun 2027 08:27:52.975   07 Jun 2027 08:27:57.338             4.363          2144.844
       190   07 Jun 2027 08:29:15.169   07 Jun 2027 08:29:20.196             5.027          2432.219
       191   07 Jun 2027 08:30:21.947   07 Jun 2027 08:30:25.306             3.359          1617.406
       192   07 Jun 2027 08:30:40.750   07 Jun 2027 08:30:41.476             0.726           363.000
       193   07 Jun 2027 08:31:53.569   07 Jun 2027 08:31:58.419             4.850          2305.844
       194   07 Jun 2027 08:32:03.635   07 Jun 2027 08:32:07.182             3.547           163.000
       195   07 Jun 2027 08:32:10.490   07 Jun 2027 08:32:16.950             6.460           103.375
       196   07 Jun 2027 08:32:47.085   07 Jun 2027 08:32:48.007             0.922           461.000
       197   07 Jun 2027 08:33:16.900   07 Jun 2027 08:33:20.355             3.455          1152.594
       198   07 Jun 2027 08:33:40.149   07 Jun 2027 08:33:40.149             0.000             0.000
       199   07 Jun 2027 08:33:43.601   07 Jun 2027 08:33:45.738             2.137           719.250
       200   07 Jun 2027 08:33:54.837   07 Jun 2027 08:33:55.306             0.469           234.500
       201   07 Jun 2027 10:03:06.642   07 Jun 2027 10:03:21.299            14.657          5783.687
       202   07 Jun 2027 10:04:39.990   07 Jun 2027 10:04:46.926             6.936          1489.563
       203   07 Jun 2027 10:05:32.794   07 Jun 2027 10:05:34.650             1.856           112.375
       204   07 Jun 2027 10:06:01.502   07 Jun 2027 10:06:04.498             2.996           527.906
       205   07 Jun 2027 10:06:26.569   07 Jun 2027 10:06:28.911             2.342           689.719
       206   07 Jun 2027 10:07:53.784   07 Jun 2027 10:07:58.047             4.263          1600.781
       207   07 Jun 2027 10:08:14.466   07 Jun 2027 10:08:15.546             1.080           230.406
       208   07 Jun 2027 10:08:45.684   07 Jun 2027 10:08:49.050             3.366           941.812
       209   07 Jun 2027 10:08:58.198   07 Jun 2027 10:09:02.847             4.649           285.875
       210   07 Jun 2027 10:09:20.555   07 Jun 2027 10:09:22.705             2.150           553.375
       211   07 Jun 2027 11:40:45.714   07 Jun 2027 11:40:56.104            10.390          5195.000
       212   07 Jun 2027 11:41:14.130   07 Jun 2027 11:41:21.760             7.630          3815.000
       213   07 Jun 2027 11:42:40.131   07 Jun 2027 11:42:46.415             6.284          2851.844
       214   07 Jun 2027 11:44:13.061   07 Jun 2027 11:44:18.582             5.521          2524.813
       215   07 Jun 2027 11:45:10.548   07 Jun 2027 11:45:13.316             2.768          1384.000
       216   08 Jun 2027 04:04:20.978   08 Jun 2027 04:04:44.222            23.244         11622.000
       217   08 Jun 2027 04:05:06.595   08 Jun 2027 04:06:15.469            68.874         34437.000
       218   08 Jun 2027 04:06:41.112   08 Jun 2027 04:06:53.212            12.100          6050.000
       219   08 Jun 2027 05:27:40.208   08 Jun 2027 05:29:12.285            92.077         46038.500
       220   08 Jun 2027 05:30:05.352   08 Jun 2027 05:30:05.352             0.000             0.000
       221   08 Jun 2027 07:04:10.691   08 Jun 2027 07:05:57.871           107.180         53590.000
       222   08 Jun 2027 07:06:06.590   08 Jun 2027 07:06:17.887            11.297          5606.875
       223   08 Jun 2027 08:39:20.798   08 Jun 2027 08:39:36.813            16.015          7640.125
       224   08 Jun 2027 08:39:42.426   08 Jun 2027 08:39:42.930             0.504           165.031
       225   08 Jun 2027 08:40:54.844   08 Jun 2027 08:40:59.397             4.553          2247.312
       226   08 Jun 2027 08:41:56.239   08 Jun 2027 08:42:03.616             7.377          1735.250
       227   08 Jun 2027 08:42:44.656   08 Jun 2027 08:42:49.300             4.644           798.656
       228   08 Jun 2027 08:43:22.922   08 Jun 2027 08:43:22.922             0.000             0.000
       229   08 Jun 2027 08:44:38.065   08 Jun 2027 08:44:46.927             8.862          3364.000
       230   08 Jun 2027 08:44:57.829   08 Jun 2027 08:44:59.575             1.746           340.688
       231   08 Jun 2027 08:45:29.527   08 Jun 2027 08:45:29.527             0.000             0.000
       232   08 Jun 2027 08:45:40.968   08 Jun 2027 08:45:47.635             6.667          1293.531
       233   08 Jun 2027 10:15:42.874   08 Jun 2027 10:15:58.331            15.457          7483.031
       234   08 Jun 2027 10:17:02.270   08 Jun 2027 10:17:11.139             8.869          1985.594
       235   08 Jun 2027 10:17:32.964   08 Jun 2027 10:17:39.781             6.817           235.594
       236   08 Jun 2027 10:17:47.239   08 Jun 2027 10:17:47.891             0.652           233.062
       237   08 Jun 2027 10:18:00.967   08 Jun 2027 10:18:02.847             1.880           408.625
       238   08 Jun 2027 10:19:26.137   08 Jun 2027 10:19:31.981             5.844          2602.813
       239   08 Jun 2027 10:19:58.167   08 Jun 2027 10:20:08.395            10.228           747.063
       240   08 Jun 2027 11:53:00.375   08 Jun 2027 11:53:13.561            13.186          6592.219
       241   08 Jun 2027 11:53:22.126   08 Jun 2027 11:53:22.126             0.000             0.000
       242   08 Jun 2027 11:53:47.673   08 Jun 2027 11:53:50.974             3.301           882.969
       243   08 Jun 2027 11:54:11.829   08 Jun 2027 11:54:25.664            13.835           526.719
       244   08 Jun 2027 11:55:20.460   08 Jun 2027 11:55:23.971             3.511          1669.531
       245   08 Jun 2027 11:55:30.497   08 Jun 2027 11:55:32.442             1.945           203.937
       246   08 Jun 2027 11:56:20.671   08 Jun 2027 11:56:25.959             5.288          1507.156
       247   08 Jun 2027 11:57:05.182   08 Jun 2027 11:57:09.160             3.978          1061.406
       248   08 Jun 2027 11:57:12.820   08 Jun 2027 11:57:15.255             2.435           114.375
       249   08 Jun 2027 11:57:34.425   08 Jun 2027 11:57:36.071             1.646           599.063
       250   09 Jun 2027 04:16:14.622   09 Jun 2027 04:16:51.869            37.247         18623.500
       251   09 Jun 2027 04:17:21.548   09 Jun 2027 04:18:24.053            62.505         31252.500
       252   09 Jun 2027 04:19:38.002   09 Jun 2027 04:19:38.002             0.000             0.000
       253   09 Jun 2027 05:40:20.174   09 Jun 2027 05:41:49.083            88.909         44454.500
       254   09 Jun 2027 07:16:05.802   09 Jun 2027 07:18:18.674           132.872         64376.750
       255   09 Jun 2027 08:51:03.068   09 Jun 2027 08:51:20.848            17.780          7636.656
       256   09 Jun 2027 08:52:55.791   09 Jun 2027 08:53:04.460             8.669          2702.844
       257   09 Jun 2027 08:53:31.926   09 Jun 2027 08:53:34.077             2.151           858.312
       258   09 Jun 2027 08:54:07.827   09 Jun 2027 08:54:09.761             1.934           420.656
       259   09 Jun 2027 08:54:52.814   09 Jun 2027 08:54:58.568             5.754          1180.094
       260   09 Jun 2027 08:55:28.910   09 Jun 2027 08:55:35.065             6.155           151.563
       261   09 Jun 2027 08:55:36.166   09 Jun 2027 08:55:36.934             0.768            34.406
       262   09 Jun 2027 08:55:53.692   09 Jun 2027 08:55:55.404             1.712           523.687
       263   09 Jun 2027 08:56:23.292   09 Jun 2027 08:56:24.436             1.144           436.219
       264   09 Jun 2027 08:56:39.751   09 Jun 2027 08:56:44.728             4.977           444.406
       265   09 Jun 2027 08:56:49.087   09 Jun 2027 08:56:49.893             0.806           131.625
       266   09 Jun 2027 08:57:14.480   09 Jun 2027 08:57:16.945             2.465           768.344
       267   09 Jun 2027 08:57:29.165   09 Jun 2027 08:57:31.867             2.702           381.875
       268   09 Jun 2027 10:27:15.591   09 Jun 2027 10:27:30.870            15.279          7427.156
       269   09 Jun 2027 10:27:58.893   09 Jun 2027 10:27:59.718             0.825           199.719
       270   09 Jun 2027 10:28:30.403   09 Jun 2027 10:28:36.251             5.848           671.906
       271   09 Jun 2027 10:29:29.127   09 Jun 2027 10:29:35.296             6.169          1577.812
       272   09 Jun 2027 10:29:49.641   09 Jun 2027 10:29:50.671             1.030           448.281
       273   09 Jun 2027 10:30:11.996   09 Jun 2027 10:30:16.222             4.226           666.406
       274   09 Jun 2027 10:30:22.012   09 Jun 2027 10:30:22.079             0.067            33.500
       275   09 Jun 2027 10:30:23.288   09 Jun 2027 10:30:26.185             2.897           168.719
       276   09 Jun 2027 10:31:01.336   09 Jun 2027 10:31:01.336             0.000             0.000
       277   09 Jun 2027 10:31:23.857   09 Jun 2027 10:31:26.662             2.805          1312.531
       278   09 Jun 2027 10:31:35.195   09 Jun 2027 10:31:37.269             2.074           221.000
       279   09 Jun 2027 10:31:41.448   09 Jun 2027 10:31:41.890             0.442           130.594
       280   09 Jun 2027 10:31:58.126   09 Jun 2027 10:31:59.228             1.102           507.375
       281   09 Jun 2027 10:32:37.779   09 Jun 2027 10:32:38.628             0.849           413.687
       282   09 Jun 2027 10:32:52.045   09 Jun 2027 10:32:56.589             4.544           375.125
       283   09 Jun 2027 10:33:36.107   09 Jun 2027 10:33:40.620             4.513          1234.938
       284   10 Jun 2027 04:17:06.893   10 Jun 2027 04:17:46.792            39.899         19949.500
       285   10 Jun 2027 04:28:10.633   10 Jun 2027 04:29:12.016            61.383         30691.500
       286   10 Jun 2027 04:29:40.933   10 Jun 2027 04:29:44.628             3.695          1847.500
       287   10 Jun 2027 04:30:18.061   10 Jun 2027 04:30:38.051            19.990          9995.000
       288   10 Jun 2027 04:31:10.048   10 Jun 2027 04:31:10.048             0.000             0.000
       289   10 Jun 2027 05:51:09.498   10 Jun 2027 05:52:37.580            88.082         44041.000
       290   10 Jun 2027 05:55:03.417   10 Jun 2027 05:55:03.417             0.000             0.000
       291   10 Jun 2027 07:26:41.852   10 Jun 2027 07:26:49.101             7.249          3624.500
       292   10 Jun 2027 07:27:51.699   10 Jun 2027 07:29:33.337           101.638         50819.000
       293   10 Jun 2027 07:29:42.878   10 Jun 2027 07:29:53.036            10.158          3764.437
       294   10 Jun 2027 07:30:22.406   10 Jun 2027 07:30:28.756             6.350           596.938
       295   10 Jun 2027 07:31:24.245   10 Jun 2027 07:31:27.209             2.964          1482.000
       296   10 Jun 2027 07:31:40.409   10 Jun 2027 07:31:43.585             3.176           558.062
       297   10 Jun 2027 09:02:36.805   10 Jun 2027 09:02:51.310            14.505          6497.844
       298   10 Jun 2027 09:06:09.498   10 Jun 2027 09:06:11.023             1.525           762.500
       299   10 Jun 2027 09:06:32.585   10 Jun 2027 09:06:42.285             9.700          4850.000
       300   10 Jun 2027 09:07:14.823   10 Jun 2027 09:07:21.326             6.503          1680.250
       301   10 Jun 2027 09:07:39.399   10 Jun 2027 09:07:44.253             4.854           282.406
       302   10 Jun 2027 09:08:05.695   10 Jun 2027 09:08:06.921             1.226           495.219
       303   10 Jun 2027 09:08:41.123   10 Jun 2027 09:08:42.618             1.495           747.500
       304   10 Jun 2027 09:08:53.150   10 Jun 2027 09:08:55.031             1.881           416.094
       305   10 Jun 2027 09:09:42.617   10 Jun 2027 09:09:46.471             3.854          1200.687
       306   10 Jun 2027 09:10:06.769   10 Jun 2027 09:10:06.769             0.000             0.000
       307   10 Jun 2027 10:39:37.376   10 Jun 2027 10:39:56.932            19.556          9610.781
       308   10 Jun 2027 10:40:04.717   10 Jun 2027 10:40:10.122             5.405           243.281
       309   10 Jun 2027 10:41:34.495   10 Jun 2027 10:41:38.516             4.021          1972.188
       310   10 Jun 2027 10:41:51.446   10 Jun 2027 10:41:52.934             1.488           234.563
       311   10 Jun 2027 10:42:27.392   10 Jun 2027 10:42:29.018             1.626           813.000
       312   10 Jun 2027 10:42:48.618   10 Jun 2027 10:42:51.490             2.872           876.312
       313   10 Jun 2027 10:43:41.567   10 Jun 2027 10:43:47.215             5.648          1436.406
       314   10 Jun 2027 10:43:49.810   10 Jun 2027 10:43:50.450             0.640            81.094
       315   10 Jun 2027 10:44:32.610   10 Jun 2027 10:44:38.811             6.201          1206.062
       316   10 Jun 2027 10:45:18.801   10 Jun 2027 10:45:19.983             1.182           591.000
       317   11 Jun 2027 03:03:31.832   11 Jun 2027 03:03:49.076            17.244          8622.000
       318   11 Jun 2027 03:03:51.614   11 Jun 2027 03:03:51.635             0.021            10.500
       319   11 Jun 2027 03:04:24.594   11 Jun 2027 03:04:34.165             9.571          4785.500
       320   11 Jun 2027 03:04:59.455   11 Jun 2027 03:05:09.092             9.637          4818.500
       321   11 Jun 2027 03:06:46.005   11 Jun 2027 03:06:56.902            10.897          5448.500
       322   11 Jun 2027 03:07:03.143   11 Jun 2027 03:07:22.551            19.408          9704.000
       323   11 Jun 2027 03:08:24.378   11 Jun 2027 03:08:41.030            16.652          8326.000
       324   11 Jun 2027 03:09:14.317   11 Jun 2027 03:09:21.847             7.530          3765.000
       325   11 Jun 2027 04:28:30.065   11 Jun 2027 04:28:53.268            23.203         11601.500
       326   11 Jun 2027 04:40:12.273   11 Jun 2027 04:41:29.082            76.809         38404.500
       327   11 Jun 2027 06:02:25.675   11 Jun 2027 06:03:28.592            62.917         31458.500
       328   11 Jun 2027 06:04:28.993   11 Jun 2027 06:04:43.380            14.387          7193.500
       329   11 Jun 2027 06:05:15.999   11 Jun 2027 06:05:26.449            10.450          5225.000
       330   11 Jun 2027 06:07:04.493   11 Jun 2027 06:07:06.181             1.688           844.000
       331   11 Jun 2027 07:37:33.411   11 Jun 2027 07:39:13.212            99.801         49900.500
       332   11 Jun 2027 07:42:52.154   11 Jun 2027 07:43:09.909            17.755          7267.250
       333   11 Jun 2027 07:43:24.599   11 Jun 2027 07:43:30.862             6.263           459.062
       334   11 Jun 2027 07:43:50.188   11 Jun 2027 07:43:50.478             0.290           145.000
       335   11 Jun 2027 09:15:00.686   11 Jun 2027 09:15:13.244            12.558          5880.375
       336   11 Jun 2027 09:16:56.171   11 Jun 2027 09:16:56.171             0.000             0.000
       337   11 Jun 2027 09:18:02.009   11 Jun 2027 09:18:11.467             9.458          4525.531
       338   11 Jun 2027 09:18:56.788   11 Jun 2027 09:19:05.934             9.146          1409.719
       339   11 Jun 2027 09:19:35.548   11 Jun 2027 09:19:39.210             3.662           734.312
       340   11 Jun 2027 09:19:55.273   11 Jun 2027 09:19:59.181             3.908           501.969
       341   11 Jun 2027 09:20:15.739   11 Jun 2027 09:20:21.061             5.322           467.344
       342   11 Jun 2027 09:20:34.041   11 Jun 2027 09:20:34.753             0.712           356.000
       343   11 Jun 2027 09:21:13.578   11 Jun 2027 09:21:17.909             4.331          1262.906
       344   11 Jun 2027 09:21:23.339   11 Jun 2027 09:21:26.596             3.257            56.094
       345   11 Jun 2027 09:21:56.580   11 Jun 2027 09:22:00.773             4.193           937.000
       346   11 Jun 2027 10:51:43.000   11 Jun 2027 10:52:02.186            19.186          9229.281
       347   11 Jun 2027 10:53:01.239   11 Jun 2027 10:53:04.362             3.123           627.531
       348   11 Jun 2027 10:53:51.640   11 Jun 2027 10:53:54.434             2.794          1186.406
       349   11 Jun 2027 10:53:59.637   11 Jun 2027 10:54:00.350             0.713           156.031
       350   11 Jun 2027 10:54:16.239   11 Jun 2027 10:54:18.646             2.407           487.031
       351   11 Jun 2027 10:54:22.223   11 Jun 2027 10:54:26.802             4.579           111.781
       352   11 Jun 2027 10:55:15.654   11 Jun 2027 10:55:20.294             4.640          1284.563
       353   11 Jun 2027 10:56:01.218   11 Jun 2027 10:56:09.166             7.948          1072.469
       354   11 Jun 2027 10:56:28.059   11 Jun 2027 10:56:29.387             1.328           521.906
       355   11 Jun 2027 10:56:59.670   11 Jun 2027 10:57:09.632             9.962           880.281
       356   11 Jun 2027 10:57:20.840   11 Jun 2027 10:57:21.463             0.623           311.500
       357   11 Jun 2027 10:57:25.758   11 Jun 2027 10:57:29.689             3.931           172.969
       358   11 Jun 2027 10:57:48.702   11 Jun 2027 10:57:51.508             2.806           187.625
       359   12 Jun 2027 03:15:50.502   12 Jun 2027 03:17:25.972            95.470         47735.000
       360   12 Jun 2027 03:18:47.191   12 Jun 2027 03:19:10.870            23.679         11839.500
       361   12 Jun 2027 03:20:15.248   12 Jun 2027 03:20:28.517            13.269          6634.500
       362   12 Jun 2027 04:39:57.233   12 Jun 2027 04:40:41.970            44.737         22368.500
       363   12 Jun 2027 04:52:09.112   12 Jun 2027 04:52:48.138            39.026         19513.000
       364   12 Jun 2027 06:14:10.875   12 Jun 2027 06:14:50.414            39.539         19769.500
       365   12 Jun 2027 06:14:58.966   12 Jun 2027 06:15:22.461            23.495         11747.500
       366   12 Jun 2027 06:17:57.046   12 Jun 2027 06:18:07.187            10.141          5070.500
       367   12 Jun 2027 06:19:05.311   12 Jun 2027 06:19:17.559            12.248          6124.000
       368   12 Jun 2027 07:49:03.023   12 Jun 2027 07:50:09.358            66.335         33045.375
       369   12 Jun 2027 07:51:06.908   12 Jun 2027 07:51:10.963             4.055          1035.063
       370   12 Jun 2027 07:51:43.294   12 Jun 2027 07:51:45.267             1.973           924.531
       371   12 Jun 2027 07:52:08.658   12 Jun 2027 07:52:10.466             1.808           580.781
       372   12 Jun 2027 07:52:35.806   12 Jun 2027 07:52:46.035            10.229           723.656
       373   12 Jun 2027 07:54:00.461   12 Jun 2027 07:54:05.269             4.808          2201.500
       374   12 Jun 2027 07:54:49.955   12 Jun 2027 07:54:56.869             6.914          1396.437
       375   12 Jun 2027 07:55:44.851   12 Jun 2027 07:55:44.851             0.000             0.000
       376   12 Jun 2027 07:55:52.685   12 Jun 2027 07:55:58.635             5.950          1744.250
       377   12 Jun 2027 07:56:51.381   12 Jun 2027 07:56:53.308             1.927           963.500
       378   12 Jun 2027 09:26:47.586   12 Jun 2027 09:27:03.017            15.431          6552.719
       379   12 Jun 2027 09:28:55.425   12 Jun 2027 09:29:02.770             7.345          3512.750
       380   12 Jun 2027 09:29:38.515   12 Jun 2027 09:29:44.483             5.968          1110.375
       381   12 Jun 2027 09:30:53.840   12 Jun 2027 09:30:54.551             0.711           355.500
       382   12 Jun 2027 09:30:58.265   12 Jun 2027 09:31:03.996             5.731          1695.094
       383   12 Jun 2027 09:31:09.014   12 Jun 2027 09:31:17.526             8.512           120.531
       384   12 Jun 2027 09:31:29.475   12 Jun 2027 09:31:32.178             2.703            79.375
       385   12 Jun 2027 09:32:51.494   12 Jun 2027 09:32:57.086             5.592          1919.188
       386   12 Jun 2027 09:33:55.499   12 Jun 2027 09:34:01.024             5.525          1825.406
       387   12 Jun 2027 09:34:07.148   12 Jun 2027 09:34:08.424             1.276           191.375
       388   12 Jun 2027 11:03:35.452   12 Jun 2027 11:03:50.792            15.340          7670.000
       389   12 Jun 2027 11:04:29.560   12 Jun 2027 11:04:37.867             8.307          1963.406
       390   12 Jun 2027 11:04:51.519   12 Jun 2027 11:04:53.300             1.781           426.625
       391   12 Jun 2027 11:04:58.780   12 Jun 2027 11:05:12.715            13.935           171.250
       392   12 Jun 2027 11:06:20.763   12 Jun 2027 11:06:23.707             2.944          1472.000
       393   12 Jun 2027 11:06:35.131   12 Jun 2027 11:06:36.501             1.370           685.000
       394   12 Jun 2027 11:06:55.563   12 Jun 2027 11:06:59.733             4.170           825.219
       395   12 Jun 2027 11:07:26.542   12 Jun 2027 11:07:28.830             2.288           784.312
       396   12 Jun 2027 11:07:52.805   12 Jun 2027 11:07:55.955             3.150           522.813
       397   12 Jun 2027 11:08:26.228   12 Jun 2027 11:08:29.438             3.210           911.875
       398   12 Jun 2027 11:09:03.022   12 Jun 2027 11:09:05.264             2.242           985.906
       399   12 Jun 2027 11:09:17.724   12 Jun 2027 11:09:19.720             1.996           389.375
       400   12 Jun 2027 11:10:12.146   12 Jun 2027 11:10:17.243             5.097          1628.906
       401   13 Jun 2027 03:27:54.929   13 Jun 2027 03:29:43.135           108.206         54103.000
       402   13 Jun 2027 03:30:58.916   13 Jun 2027 03:31:08.904             9.988          4994.000
       403   13 Jun 2027 04:52:00.708   13 Jun 2027 04:52:43.470            42.762         21381.000
       404   13 Jun 2027 06:27:57.906   13 Jun 2027 06:29:30.036            92.130         46065.000
       405   13 Jun 2027 06:29:45.146   13 Jun 2027 06:30:03.772            18.626          9313.000
       406   13 Jun 2027 08:01:47.649   13 Jun 2027 08:02:50.914            63.265         31304.938
       407   13 Jun 2027 08:03:11.087   13 Jun 2027 08:03:14.923             3.836           326.250
       408   13 Jun 2027 08:03:23.168   13 Jun 2027 08:03:23.930             0.762           235.406
       409   13 Jun 2027 08:03:49.553   13 Jun 2027 08:03:50.751             1.198           468.969
       410   13 Jun 2027 08:04:21.548   13 Jun 2027 08:04:22.031             0.483            65.344
       411   13 Jun 2027 08:06:28.026   13 Jun 2027 08:06:37.776             9.750          3909.625
       412   13 Jun 2027 08:07:46.130   13 Jun 2027 08:07:49.807             3.677          1838.500
       413   13 Jun 2027 08:07:53.679   13 Jun 2027 08:08:00.951             7.272           314.719
       414   13 Jun 2027 08:08:30.129   13 Jun 2027 08:08:33.336             3.207           902.875
       415   13 Jun 2027 08:08:59.917   13 Jun 2027 08:09:02.851             2.934           470.594
       416   13 Jun 2027 08:09:28.096   13 Jun 2027 08:09:30.052             1.956           788.906
       417   13 Jun 2027 09:38:50.767   13 Jun 2027 09:39:11.375            20.608          8590.125
       418   13 Jun 2027 09:40:03.732   13 Jun 2027 09:40:09.639             5.907           943.063
       419   13 Jun 2027 09:40:57.945   13 Jun 2027 09:41:00.268             2.323           910.906
       420   13 Jun 2027 09:41:39.324   13 Jun 2027 09:41:42.276             2.952          1220.500
       421   13 Jun 2027 09:42:35.345   13 Jun 2027 09:42:42.402             7.057          1339.625
       422   13 Jun 2027 09:43:01.357   13 Jun 2027 09:43:02.467             1.110           483.344
       423   13 Jun 2027 09:44:16.450   13 Jun 2027 09:44:22.801             6.351          1699.656
       424   13 Jun 2027 09:44:28.844   13 Jun 2027 09:44:30.192             1.348           188.844
       425   13 Jun 2027 09:45:23.496   13 Jun 2027 09:45:31.290             7.794          1549.250
       426   13 Jun 2027 11:15:45.244   13 Jun 2027 11:16:07.645            22.401          6512.594
       427   13 Jun 2027 11:16:18.758   13 Jun 2027 11:16:19.694             0.936           347.281
       428   13 Jun 2027 11:17:17.741   13 Jun 2027 11:17:23.795             6.054           905.469
       429   13 Jun 2027 11:17:59.053   13 Jun 2027 11:17:59.053             0.000             0.000
       430   13 Jun 2027 11:18:11.740   13 Jun 2027 11:18:13.441             1.701           476.625
       431   13 Jun 2027 11:18:33.318   13 Jun 2027 11:18:34.710             1.392           477.000
       432   13 Jun 2027 11:19:17.803   13 Jun 2027 11:19:21.147             3.344          1291.813
       433   13 Jun 2027 11:19:36.938   13 Jun 2027 11:19:37.253             0.315           157.500
       434   13 Jun 2027 11:20:18.899   13 Jun 2027 11:20:25.044             6.145          1438.031
       435   13 Jun 2027 11:20:27.850   13 Jun 2027 11:20:32.772             4.922            18.531
       436   13 Jun 2027 11:21:15.740   13 Jun 2027 11:21:19.625             3.885          1265.063
