uniorb/output/strategy_1/Camera/Camera_KinoSat_111004.txt

KinoSat_111004
-------------------------
    Access    *     Start Time (UTCG)     *     Stop Time (UTCG)  *   Duration (s) *   Data (Mbytes)
         1   01 Jun 2027 03:36:47.365   01 Jun 2027 03:38:03.974            76.609         38304.500
         2   01 Jun 2027 05:12:44.500   01 Jun 2027 05:14:31.492           106.992         53496.000
         3   01 Jun 2027 05:15:34.321   01 Jun 2027 05:16:19.398            45.077         22538.500
         4   01 Jun 2027 06:46:33.434   01 Jun 2027 06:48:12.711            99.277         49638.500
         5   01 Jun 2027 06:50:02.873   01 Jun 2027 06:50:10.825             7.952          3976.000
         6   01 Jun 2027 06:50:42.000   01 Jun 2027 06:50:42.000             0.000             0.000
         7   01 Jun 2027 06:52:43.292   01 Jun 2027 06:52:53.941            10.649          5324.500
         8   01 Jun 2027 06:53:14.196   01 Jun 2027 06:53:14.406             0.210           105.000
         9   01 Jun 2027 06:53:29.310   01 Jun 2027 06:53:29.310             0.000             0.000
        10   01 Jun 2027 06:54:05.018   01 Jun 2027 06:54:10.347             5.329          2664.500
        11   01 Jun 2027 06:54:33.853   01 Jun 2027 06:54:41.199             7.346          3673.000
        12   01 Jun 2027 08:23:42.628   01 Jun 2027 08:25:46.128           123.500         61750.000
        13   01 Jun 2027 08:28:51.498   01 Jun 2027 08:28:59.366             7.868          3934.000
        14   01 Jun 2027 08:30:57.359   01 Jun 2027 08:31:01.570             4.211          2105.500
        15   01 Jun 2027 10:00:45.341   01 Jun 2027 10:02:33.787           108.446         54223.000
        16   01 Jun 2027 10:03:01.546   01 Jun 2027 10:03:04.082             2.536          1268.000
        17   01 Jun 2027 10:03:40.515   01 Jun 2027 10:03:49.921             9.406          4703.000
        18   01 Jun 2027 10:05:54.094   01 Jun 2027 10:06:00.293             6.199          3099.500
        19   01 Jun 2027 11:37:41.359   01 Jun 2027 11:38:47.579            66.220         33110.000
        20   01 Jun 2027 11:40:21.329   01 Jun 2027 11:40:40.534            19.205          9602.500
        21   01 Jun 2027 11:41:12.378   01 Jun 2027 11:41:25.533            13.155          6577.500
        22   01 Jun 2027 11:42:31.923   01 Jun 2027 11:42:34.861             2.938          1469.000
        23   02 Jun 2027 03:48:40.149   02 Jun 2027 03:49:12.120            31.971         15985.500
        24   02 Jun 2027 03:50:04.952   02 Jun 2027 03:50:21.382            16.430          8215.000
        25   02 Jun 2027 05:25:02.729   02 Jun 2027 05:27:20.187           137.458         68729.000
        26   02 Jun 2027 05:28:05.021   02 Jun 2027 05:28:15.768            10.747          5373.500
        27   02 Jun 2027 06:58:53.956   02 Jun 2027 07:00:37.534           103.578         51789.000
        28   02 Jun 2027 07:01:21.704   02 Jun 2027 07:01:34.355            12.651          6325.500
        29   02 Jun 2027 07:03:11.073   02 Jun 2027 07:03:13.914             2.841          1420.500
        30   02 Jun 2027 07:04:30.717   02 Jun 2027 07:04:38.404             7.687          3843.500
        31   02 Jun 2027 07:05:01.582   02 Jun 2027 07:05:12.539            10.957          5478.500
        32   02 Jun 2027 08:36:08.966   02 Jun 2027 08:38:25.253           136.287         68143.500
        33   02 Jun 2027 08:38:28.522   02 Jun 2027 08:38:33.756             5.234          2617.000
        34   02 Jun 2027 08:40:57.474   02 Jun 2027 08:41:10.224            12.750          6375.000
        35   02 Jun 2027 10:13:09.745   02 Jun 2027 10:14:33.438            83.693         41846.500
        36   02 Jun 2027 10:16:03.487   02 Jun 2027 10:16:40.964            37.477         18738.500
        37   02 Jun 2027 10:17:20.298   02 Jun 2027 10:17:27.036             6.738          3369.000
        38   02 Jun 2027 10:17:28.941   02 Jun 2027 10:17:30.651             1.710           855.000
        39   02 Jun 2027 10:17:55.482   02 Jun 2027 10:17:55.482             0.000             0.000
        40   02 Jun 2027 11:49:54.978   02 Jun 2027 11:51:50.290           115.312         57656.000
        41   03 Jun 2027 04:00:28.652   03 Jun 2027 04:01:30.320            61.668         30834.000
        42   03 Jun 2027 05:37:06.161   03 Jun 2027 05:39:12.575           126.414         63207.000
        43   03 Jun 2027 07:12:08.531   03 Jun 2027 07:14:20.448           131.917         65958.500
        44   03 Jun 2027 07:14:30.700   03 Jun 2027 07:14:35.569             4.869          2434.500
        45   03 Jun 2027 07:14:50.133   03 Jun 2027 07:15:01.058            10.925          5462.500
        46   03 Jun 2027 07:17:08.803   03 Jun 2027 07:17:13.587             4.784          2392.000
        47   03 Jun 2027 07:17:34.351   03 Jun 2027 07:17:39.591             5.240          2620.000
        48   03 Jun 2027 07:18:54.827   03 Jun 2027 07:18:55.464             0.637           318.500
        49   03 Jun 2027 08:48:18.250   03 Jun 2027 08:50:49.391           151.141         75570.500
        50   03 Jun 2027 08:52:12.336   03 Jun 2027 08:52:21.000             8.664          4332.000
        51   03 Jun 2027 10:26:01.569   03 Jun 2027 10:26:46.265            44.696         22348.000
        52   03 Jun 2027 10:27:22.739   03 Jun 2027 10:27:47.759            25.020         12510.000
        53   03 Jun 2027 10:27:58.619   03 Jun 2027 10:27:59.986             1.367           637.717
        54   03 Jun 2027 10:28:41.506   03 Jun 2027 10:28:42.598             1.092           546.000
        55   03 Jun 2027 10:29:12.786   03 Jun 2027 10:29:15.794             3.008          1504.000
        56   03 Jun 2027 10:29:57.204   03 Jun 2027 10:30:02.785             5.581          1467.375
        57   04 Jun 2027 04:12:42.707   04 Jun 2027 04:13:32.484            49.777         24888.500
        58   04 Jun 2027 04:15:30.089   04 Jun 2027 04:15:36.536             6.447          3223.500
        59   04 Jun 2027 05:49:15.489   04 Jun 2027 05:51:08.618           113.129         56564.500
        60   04 Jun 2027 05:52:37.449   04 Jun 2027 05:52:46.038             8.589          4294.500
        61   04 Jun 2027 07:24:25.936   04 Jun 2027 07:26:42.888           136.952         68476.000
        62   04 Jun 2027 07:29:17.362   04 Jun 2027 07:29:23.890             6.528          3264.000
        63   04 Jun 2027 07:30:37.003   04 Jun 2027 07:30:40.303             3.300          1650.000
        64   04 Jun 2027 07:31:01.157   04 Jun 2027 07:31:01.767             0.610           305.000
        65   04 Jun 2027 09:00:47.806   04 Jun 2027 09:01:15.038            27.232         13343.500
        66   04 Jun 2027 09:02:14.596   04 Jun 2027 09:02:21.186             6.590          1539.344
        67   04 Jun 2027 09:03:42.727   04 Jun 2027 09:03:44.769             2.042          1021.000
        68   04 Jun 2027 09:04:04.028   04 Jun 2027 09:04:10.082             6.054          1400.250
        69   04 Jun 2027 09:04:52.856   04 Jun 2027 09:04:58.695             5.839           958.719
        70   04 Jun 2027 09:05:10.843   04 Jun 2027 09:05:10.843             0.000             0.000
        71   04 Jun 2027 09:05:36.844   04 Jun 2027 09:05:39.985             3.141          1192.156
        72   04 Jun 2027 09:06:04.408   04 Jun 2027 09:06:06.749             2.341           763.219
        73   04 Jun 2027 09:06:14.325   04 Jun 2027 09:06:18.005             3.680             5.000
        74   04 Jun 2027 10:38:05.739   04 Jun 2027 10:38:22.777            17.038          7906.969
        75   04 Jun 2027 10:38:59.500   04 Jun 2027 10:39:00.910             1.410           546.563
        76   04 Jun 2027 10:39:31.938   04 Jun 2027 10:39:35.933             3.995           461.719
        77   04 Jun 2027 10:40:23.996   04 Jun 2027 10:40:29.568             5.572          1501.969
        78   04 Jun 2027 10:40:44.628   04 Jun 2027 10:40:45.679             1.051           334.781
        79   04 Jun 2027 10:41:10.486   04 Jun 2027 10:41:13.310             2.824           688.719
        80   04 Jun 2027 10:41:52.630   04 Jun 2027 10:41:58.557             5.927          1228.750
        81   04 Jun 2027 10:42:00.519   04 Jun 2027 10:42:11.822            11.303            61.312
        82   04 Jun 2027 10:42:35.362   04 Jun 2027 10:42:36.875             1.513           650.313
        83   05 Jun 2027 03:01:17.624   05 Jun 2027 03:01:47.552            29.928         14964.000
        84   05 Jun 2027 03:02:33.773   05 Jun 2027 03:02:40.480             6.707          3353.500
        85   05 Jun 2027 03:03:30.677   05 Jun 2027 03:03:58.024            27.347         13673.500
        86   05 Jun 2027 03:04:35.379   05 Jun 2027 03:04:35.379             0.000             0.000
        87   05 Jun 2027 04:25:12.260   05 Jun 2027 04:25:35.552            23.292         11646.000
        88   05 Jun 2027 04:27:28.979   05 Jun 2027 04:27:56.064            27.085         13542.500
        89   05 Jun 2027 06:01:07.142   05 Jun 2027 06:02:46.072            98.930         49465.000
        90   05 Jun 2027 06:03:34.602   05 Jun 2027 06:03:40.769             6.167          3083.500
        91   05 Jun 2027 06:04:34.599   05 Jun 2027 06:04:43.869             9.270          4635.000
        92   05 Jun 2027 07:36:01.621   05 Jun 2027 07:37:41.726           100.105         50052.500
        93   05 Jun 2027 07:39:06.031   05 Jun 2027 07:39:09.008             2.977          1488.500
        94   05 Jun 2027 07:39:48.815   05 Jun 2027 07:40:00.353            11.538          5769.000
        95   05 Jun 2027 07:41:22.412   05 Jun 2027 07:41:23.476             1.064           532.000
        96   05 Jun 2027 07:41:46.710   05 Jun 2027 07:41:57.930            11.220          4078.625
        97   05 Jun 2027 09:12:23.061   05 Jun 2027 09:12:48.989            25.928         12149.125
        98   05 Jun 2027 09:13:15.809   05 Jun 2027 09:13:16.793             0.984           288.281
        99   05 Jun 2027 09:14:16.796   05 Jun 2027 09:14:20.627             3.831          1721.156
       100   05 Jun 2027 09:15:07.126   05 Jun 2027 09:15:13.471             6.345          1449.250
       101   05 Jun 2027 09:15:40.361   05 Jun 2027 09:15:41.769             1.408           648.500
       102   05 Jun 2027 09:16:12.497   05 Jun 2027 09:16:14.682             2.185           960.250
       103   05 Jun 2027 09:17:41.382   05 Jun 2027 09:17:45.300             3.918          1899.406
       104   05 Jun 2027 10:50:39.945   05 Jun 2027 10:51:00.577            20.632         10316.000
       105   05 Jun 2027 10:51:44.942   05 Jun 2027 10:51:51.865             6.923          1492.563
       106   05 Jun 2027 10:52:20.980   05 Jun 2027 10:52:22.599             1.619           241.094
       107   05 Jun 2027 10:52:58.504   05 Jun 2027 10:53:03.403             4.899          1122.031
       108   05 Jun 2027 10:53:26.650   05 Jun 2027 10:53:27.370             0.720           360.000
       109   05 Jun 2027 10:53:29.830   05 Jun 2027 10:53:33.781             3.951           123.531
       110   05 Jun 2027 10:54:28.473   05 Jun 2027 10:54:31.897             3.424          1634.094
       111   06 Jun 2027 03:01:57.821   06 Jun 2027 03:02:19.039            21.218         10609.000
       112   06 Jun 2027 03:13:13.899   06 Jun 2027 03:14:26.799            72.900         36450.000
       113   06 Jun 2027 03:16:04.706   06 Jun 2027 03:16:04.706             0.000             0.000
       114   06 Jun 2027 04:35:49.762   06 Jun 2027 04:36:30.768            41.006         20503.000
       115   06 Jun 2027 04:39:31.975   06 Jun 2027 04:39:35.575             3.600          1800.000
       116   06 Jun 2027 06:11:24.483   06 Jun 2027 06:12:07.595            43.112         21556.000
       117   06 Jun 2027 06:12:50.918   06 Jun 2027 06:13:04.934            14.016          7008.000
       118   06 Jun 2027 06:13:12.015   06 Jun 2027 06:14:05.606            53.591         26795.500
       119   06 Jun 2027 06:15:14.358   06 Jun 2027 06:15:31.693            17.335          8667.500
       120   06 Jun 2027 06:16:13.455   06 Jun 2027 06:16:22.438             8.983          4491.500
       121   06 Jun 2027 06:17:25.556   06 Jun 2027 06:17:26.039             0.483           241.500
       122   06 Jun 2027 07:47:36.819   06 Jun 2027 07:48:49.263            72.444         35432.626
       123   06 Jun 2027 07:49:57.670   06 Jun 2027 07:50:02.405             4.735          1727.031
       124   06 Jun 2027 07:51:06.747   06 Jun 2027 07:51:09.630             2.883          1296.531
       125   06 Jun 2027 07:52:10.687   06 Jun 2027 07:52:13.859             3.172           802.125
       126   06 Jun 2027 07:52:57.388   06 Jun 2027 07:52:59.991             2.603          1244.906
       127   06 Jun 2027 07:53:17.800   06 Jun 2027 07:53:18.745             0.945           472.500
       128   06 Jun 2027 07:53:36.868   06 Jun 2027 07:53:40.090             3.222           650.375
       129   06 Jun 2027 07:54:19.135   06 Jun 2027 07:54:23.631             4.496          1070.281
       130   06 Jun 2027 07:55:08.415   06 Jun 2027 07:55:11.291             2.876          1397.625
       131   06 Jun 2027 09:24:43.199   06 Jun 2027 09:25:00.529            17.330          8661.344
       132   06 Jun 2027 09:25:31.338   06 Jun 2027 09:25:34.620             3.282           771.563
       133   06 Jun 2027 09:26:42.791   06 Jun 2027 09:26:44.544             1.753           420.750
       134   06 Jun 2027 09:27:27.197   06 Jun 2027 09:27:28.876             1.679           719.094
       135   06 Jun 2027 09:27:44.528   06 Jun 2027 09:27:49.416             4.888           146.063
       136   06 Jun 2027 09:28:13.235   06 Jun 2027 09:28:18.406             5.171           744.344
       137   06 Jun 2027 09:28:50.725   06 Jun 2027 09:28:53.237             2.512           915.687
       138   06 Jun 2027 09:29:07.984   06 Jun 2027 09:29:09.370             1.386           456.000
       139   06 Jun 2027 09:29:13.694   06 Jun 2027 09:29:16.377             2.683           135.125
       140   06 Jun 2027 09:30:13.763   06 Jun 2027 09:30:19.497             5.734          1752.406
       141   06 Jun 2027 11:02:41.258   06 Jun 2027 11:02:56.237            14.979          7008.031
       142   06 Jun 2027 11:03:55.780   06 Jun 2027 11:04:03.143             7.363          1855.469
       143   06 Jun 2027 11:04:46.987   06 Jun 2027 11:04:47.846             0.859           429.500
       144   06 Jun 2027 11:04:50.497   06 Jun 2027 11:04:51.938             1.441           445.187
       145   06 Jun 2027 11:06:06.273   06 Jun 2027 11:06:10.779             4.506          2253.000
       146   06 Jun 2027 11:06:13.002   06 Jun 2027 11:06:14.090             1.088           139.437
       147   06 Jun 2027 11:06:34.062   06 Jun 2027 11:06:37.544             3.482           315.969
       148   07 Jun 2027 03:13:32.738   07 Jun 2027 03:14:19.132            46.394         23197.000
       149   07 Jun 2027 03:25:16.663   07 Jun 2027 03:26:24.935            68.272         34136.000
       150   07 Jun 2027 04:47:31.639   07 Jun 2027 04:48:09.327            37.688         18844.000
       151   07 Jun 2027 04:51:55.558   07 Jun 2027 04:51:58.742             3.184          1592.000
       152   07 Jun 2027 06:22:31.297   07 Jun 2027 06:24:24.071           112.774         56387.000
       153   07 Jun 2027 06:26:17.154   07 Jun 2027 06:26:17.154             0.000             0.000
       154   07 Jun 2027 06:26:26.347   07 Jun 2027 06:26:57.754            31.407         15703.500
       155   07 Jun 2027 07:59:56.787   07 Jun 2027 08:00:57.756            60.969         29515.156
       156   07 Jun 2027 08:01:53.253   07 Jun 2027 08:01:58.164             4.911          1734.281
       157   07 Jun 2027 08:02:48.643   07 Jun 2027 08:02:52.244             3.601          1577.469
       158   07 Jun 2027 08:04:10.122   07 Jun 2027 08:04:16.113             5.991          2433.688
       159   07 Jun 2027 08:04:52.455   07 Jun 2027 08:05:06.023            13.568          1026.594
       160   07 Jun 2027 08:05:40.228   07 Jun 2027 08:05:44.785             4.557           990.531
       161   07 Jun 2027 08:06:08.502   07 Jun 2027 08:06:08.502             0.000             0.000
       162   07 Jun 2027 08:06:44.611   07 Jun 2027 08:06:49.021             4.410          1832.625
       163   07 Jun 2027 09:36:44.053   07 Jun 2027 09:37:05.653            21.600         10513.219
       164   07 Jun 2027 09:37:56.021   07 Jun 2027 09:37:58.522             2.501           923.062
       165   07 Jun 2027 09:38:42.049   07 Jun 2027 09:38:44.917             2.868          1206.781
       166   07 Jun 2027 09:39:16.480   07 Jun 2027 09:39:22.463             5.983            45.219
       167   07 Jun 2027 09:39:25.513   07 Jun 2027 09:39:29.943             4.430            81.844
       168   07 Jun 2027 09:39:52.474   07 Jun 2027 09:39:58.417             5.943           642.938
       169   07 Jun 2027 09:40:19.482   07 Jun 2027 09:40:23.584             4.102           612.875
       170   07 Jun 2027 09:40:55.748   07 Jun 2027 09:41:00.815             5.067          1005.125
       171   07 Jun 2027 09:41:36.752   07 Jun 2027 09:41:41.657             4.905           625.094
       172   07 Jun 2027 09:42:06.390   07 Jun 2027 09:42:06.390             0.000             0.000
       173   07 Jun 2027 09:42:30.011   07 Jun 2027 09:42:33.449             3.438          1511.062
       174   07 Jun 2027 09:43:11.020   07 Jun 2027 09:43:13.407             2.387          1163.062
       175   07 Jun 2027 11:14:41.659   07 Jun 2027 11:14:57.237            15.578          6998.094
       176   07 Jun 2027 11:15:08.532   07 Jun 2027 11:15:14.323             5.791           320.937
       177   07 Jun 2027 11:15:33.176   07 Jun 2027 11:15:33.758             0.582           227.250
       178   07 Jun 2027 11:16:42.304   07 Jun 2027 11:16:46.610             4.306          1860.656
       179   07 Jun 2027 11:17:06.919   07 Jun 2027 11:17:09.759             2.840           634.656
       180   07 Jun 2027 11:17:15.970   07 Jun 2027 11:17:19.726             3.756           174.563
       181   07 Jun 2027 11:17:38.074   07 Jun 2027 11:17:38.074             0.000             0.000
       182   07 Jun 2027 11:18:03.515   07 Jun 2027 11:18:09.667             6.152          1368.406
       183   07 Jun 2027 11:18:32.622   07 Jun 2027 11:18:35.203             2.581           535.437
       184   07 Jun 2027 11:18:47.592   07 Jun 2027 11:18:48.846             1.254           387.156
       185   08 Jun 2027 03:25:04.901   08 Jun 2027 03:25:41.508            36.607         18303.500
       186   08 Jun 2027 03:25:58.018   08 Jun 2027 03:26:07.701             9.683          4841.500
       187   08 Jun 2027 03:37:17.502   08 Jun 2027 03:37:49.211            31.709         15854.500
       188   08 Jun 2027 04:59:11.703   08 Jun 2027 05:00:25.076            73.373         36686.500
       189   08 Jun 2027 05:01:14.661   08 Jun 2027 05:01:16.568             1.907           953.500
       190   08 Jun 2027 05:02:08.549   08 Jun 2027 05:02:31.830            23.281         11640.500
       191   08 Jun 2027 05:03:22.835   08 Jun 2027 05:03:37.642            14.807          7403.500
       192   08 Jun 2027 05:04:20.143   08 Jun 2027 05:04:20.143             0.000             0.000
       193   08 Jun 2027 06:34:00.099   08 Jun 2027 06:35:48.005           107.906         53953.000
       194   08 Jun 2027 06:40:42.087   08 Jun 2027 06:40:45.066             2.979          1489.500
       195   08 Jun 2027 06:41:42.388   08 Jun 2027 06:41:59.601            17.213          8606.500
       196   08 Jun 2027 06:42:50.413   08 Jun 2027 06:42:53.980             3.567          1783.500
       197   08 Jun 2027 08:11:50.789   08 Jun 2027 08:12:29.463            38.674         18549.937
       198   08 Jun 2027 08:13:41.193   08 Jun 2027 08:13:50.797             9.604          2001.937
       199   08 Jun 2027 08:14:58.477   08 Jun 2027 08:15:02.518             4.041          1965.969
       200   08 Jun 2027 08:16:20.715   08 Jun 2027 08:16:27.455             6.740          2351.219
       201   08 Jun 2027 08:17:09.328   08 Jun 2027 08:17:12.956             3.628          1308.531
       202   08 Jun 2027 08:18:20.526   08 Jun 2027 08:18:31.512            10.986          2041.594
       203   08 Jun 2027 08:18:51.494   08 Jun 2027 08:18:53.717             2.223           624.437
       204   08 Jun 2027 09:48:35.489   08 Jun 2027 09:48:53.913            18.424          8706.625
       205   08 Jun 2027 09:49:06.933   08 Jun 2027 09:49:08.044             1.111           279.500
       206   08 Jun 2027 09:49:34.718   08 Jun 2027 09:49:35.664             0.946           127.594
       207   08 Jun 2027 09:49:49.100   08 Jun 2027 09:49:52.175             3.075            52.656
       208   08 Jun 2027 09:51:14.827   08 Jun 2027 09:51:19.530             4.703          2294.188
       209   08 Jun 2027 09:51:43.519   08 Jun 2027 09:51:47.103             3.584           749.656
       210   08 Jun 2027 09:52:22.133   08 Jun 2027 09:52:22.984             0.851           332.375
       211   08 Jun 2027 09:52:27.604   08 Jun 2027 09:52:36.197             8.593           144.375
       212   08 Jun 2027 09:52:52.920   08 Jun 2027 09:52:54.505             1.585           456.063
       213   08 Jun 2027 09:53:48.049   08 Jun 2027 09:53:53.428             5.379          1628.375
       214   08 Jun 2027 09:54:34.602   08 Jun 2027 09:54:38.291             3.689          1273.094
       215   08 Jun 2027 09:55:10.202   08 Jun 2027 09:55:17.220             7.018           997.219
       216   08 Jun 2027 11:26:44.218   08 Jun 2027 11:26:58.410            14.192          7096.000
       217   08 Jun 2027 11:27:10.323   08 Jun 2027 11:27:11.449             1.126           471.219
       218   08 Jun 2027 11:28:00.997   08 Jun 2027 11:28:04.650             3.653          1347.625
       219   08 Jun 2027 11:28:43.140   08 Jun 2027 11:28:47.819             4.679           694.594
       220   08 Jun 2027 11:29:11.661   08 Jun 2027 11:29:12.866             1.205           241.312
       221   08 Jun 2027 11:29:38.542   08 Jun 2027 11:29:42.586             4.044           802.375
       222   08 Jun 2027 11:29:45.299   08 Jun 2027 11:29:47.271             1.972            84.781
       223   08 Jun 2027 11:29:50.402   08 Jun 2027 11:30:03.168            12.766            97.844
       224   08 Jun 2027 11:30:34.118   08 Jun 2027 11:30:36.024             1.906           948.406
       225   08 Jun 2027 11:30:47.660   08 Jun 2027 11:30:48.805             1.145           363.625
       226   09 Jun 2027 03:37:02.549   09 Jun 2027 03:37:35.316            32.767         16383.500
       227   09 Jun 2027 03:37:42.758   09 Jun 2027 03:37:46.816             4.058          2029.000
       228   09 Jun 2027 03:38:19.111   09 Jun 2027 03:38:20.310             1.199           599.500
       229   09 Jun 2027 03:38:52.346   09 Jun 2027 03:38:52.346             0.000             0.000
       230   09 Jun 2027 05:12:59.996   09 Jun 2027 05:15:42.922           162.926         81463.000
       231   09 Jun 2027 05:15:48.124   09 Jun 2027 05:15:50.622             2.498          1249.000
       232   09 Jun 2027 06:46:48.431   09 Jun 2027 06:48:27.475            99.044         49522.000
       233   09 Jun 2027 06:50:17.875   09 Jun 2027 06:50:19.056             1.181           590.500
       234   09 Jun 2027 06:52:22.192   09 Jun 2027 06:52:22.192             0.000             0.000
       235   09 Jun 2027 06:52:35.904   09 Jun 2027 06:52:46.017            10.113          5056.500
       236   09 Jun 2027 06:54:33.889   09 Jun 2027 06:54:48.532            14.643          7321.500
       237   09 Jun 2027 06:54:54.615   09 Jun 2027 06:54:55.758             1.143           571.500
       238   09 Jun 2027 08:23:57.943   09 Jun 2027 08:24:27.526            29.583         13582.375
       239   09 Jun 2027 08:25:39.651   09 Jun 2027 08:25:43.884             4.233          1216.000
       240   09 Jun 2027 08:26:09.112   09 Jun 2027 08:26:13.782             4.670           788.375
       241   09 Jun 2027 08:26:15.721   09 Jun 2027 08:26:16.478             0.757             3.875
       242   09 Jun 2027 08:26:42.767   09 Jun 2027 08:26:45.466             2.699           426.094
       243   09 Jun 2027 08:27:22.306   09 Jun 2027 08:27:29.799             7.493           849.500
       244   09 Jun 2027 08:27:47.080   09 Jun 2027 08:27:49.822             2.742           359.094
       245   09 Jun 2027 08:28:34.457   09 Jun 2027 08:28:38.391             3.934          1207.031
       246   09 Jun 2027 08:29:14.803   09 Jun 2027 08:29:16.849             2.046           891.938
       247   09 Jun 2027 08:29:44.655   09 Jun 2027 08:29:47.683             3.028           868.938
       248   09 Jun 2027 08:30:37.514   09 Jun 2027 08:30:37.514             0.000             0.000
       249   09 Jun 2027 10:01:01.076   09 Jun 2027 10:01:16.633            15.557          7584.438
       250   09 Jun 2027 10:01:48.180   09 Jun 2027 10:01:51.201             3.021           802.906
       251   09 Jun 2027 10:02:34.591   09 Jun 2027 10:02:38.987             4.396          1000.438
       252   09 Jun 2027 10:02:50.398   09 Jun 2027 10:02:56.652             6.254           327.188
       253   09 Jun 2027 10:03:32.639   09 Jun 2027 10:03:35.313             2.674           467.688
       254   09 Jun 2027 10:04:05.154   09 Jun 2027 10:04:11.429             6.275           159.094
       255   09 Jun 2027 10:04:52.465   09 Jun 2027 10:04:55.702             3.237          1282.375
       256   09 Jun 2027 10:05:04.892   09 Jun 2027 10:05:05.788             0.896            62.687
       257   09 Jun 2027 10:05:22.021   09 Jun 2027 10:05:23.480             1.459           405.594
       258   09 Jun 2027 10:06:02.651   09 Jun 2027 10:06:04.582             1.931           965.500
       259   09 Jun 2027 10:06:08.728   09 Jun 2027 10:06:08.728             0.000             0.000
       260   09 Jun 2027 10:06:22.530   09 Jun 2027 10:06:25.987             3.457           640.656
       261   09 Jun 2027 10:06:40.143   09 Jun 2027 10:06:40.606             0.463           231.500
       262   09 Jun 2027 10:06:56.307   09 Jun 2027 10:07:02.609             6.302           519.094
       263   09 Jun 2027 11:37:55.680   09 Jun 2027 11:38:09.392            13.712          6429.250
       264   09 Jun 2027 11:38:17.823   09 Jun 2027 11:38:21.756             3.933           263.469
       265   09 Jun 2027 11:38:26.701   09 Jun 2027 11:38:27.070             0.369           154.531
       266   09 Jun 2027 11:38:50.500   09 Jun 2027 11:38:52.613             2.113           672.906
       267   09 Jun 2027 11:39:42.848   09 Jun 2027 11:39:44.595             1.747           429.031
       268   09 Jun 2027 11:40:21.062   09 Jun 2027 11:40:21.062             0.000             0.000
       269   09 Jun 2027 11:41:02.349   09 Jun 2027 11:41:05.119             2.770          1385.000
       270   09 Jun 2027 11:41:10.502   09 Jun 2027 11:41:10.502             0.000             0.000
       271   09 Jun 2027 11:41:38.587   09 Jun 2027 11:41:47.351             8.764          1904.125
       272   09 Jun 2027 11:42:19.638   09 Jun 2027 11:42:24.021             4.383           404.438
       273   09 Jun 2027 11:42:32.839   09 Jun 2027 11:42:33.910             1.071            85.938
       274   09 Jun 2027 11:42:48.080   09 Jun 2027 11:42:50.258             2.178           326.312
       275   10 Jun 2027 03:48:55.097   10 Jun 2027 03:49:44.557            49.460         24730.000
       276   10 Jun 2027 03:49:53.117   10 Jun 2027 03:50:03.908            10.791          5395.500
       277   10 Jun 2027 03:50:43.375   10 Jun 2027 03:50:43.911             0.536           268.000
       278   10 Jun 2027 03:51:01.929   10 Jun 2027 03:51:12.781            10.852          5426.000
       279   10 Jun 2027 05:25:17.435   10 Jun 2027 05:27:35.386           137.951         68975.500
       280   10 Jun 2027 06:59:09.458   10 Jun 2027 07:01:04.735           115.277         56201.031
       281   10 Jun 2027 07:01:26.321   10 Jun 2027 07:01:27.802             1.481           674.562
       282   10 Jun 2027 07:03:37.178   10 Jun 2027 07:03:47.303            10.125          3850.594
       283   10 Jun 2027 07:04:52.891   10 Jun 2027 07:04:56.674             3.783          1698.000
       284   10 Jun 2027 07:05:50.176   10 Jun 2027 07:05:51.227             1.051           525.500
       285   10 Jun 2027 07:06:47.501   10 Jun 2027 07:06:51.014             3.513          1756.500
       286   10 Jun 2027 08:36:24.643   10 Jun 2027 08:36:49.760            25.117         11513.812
       287   10 Jun 2027 08:38:08.916   10 Jun 2027 08:38:13.252             4.336          1762.813
       288   10 Jun 2027 08:39:13.609   10 Jun 2027 08:39:16.572             2.963          1442.719
       289   10 Jun 2027 08:40:04.041   10 Jun 2027 08:40:08.403             4.362           927.969
       290   10 Jun 2027 08:40:40.751   10 Jun 2027 08:40:48.243             7.492          1010.875
       291   10 Jun 2027 08:41:09.957   10 Jun 2027 08:41:12.795             2.838           586.500
       292   10 Jun 2027 08:42:19.071   10 Jun 2027 08:42:30.611            11.540          1876.750
       293   10 Jun 2027 10:13:25.862   10 Jun 2027 10:13:45.239            19.377          8648.906
       294   10 Jun 2027 10:14:58.280   10 Jun 2027 10:15:02.274             3.994           608.375
       295   10 Jun 2027 10:16:11.503   10 Jun 2027 10:16:19.084             7.581          1926.344
       296   10 Jun 2027 10:16:27.763   10 Jun 2027 10:16:28.725             0.962           252.563
       297   10 Jun 2027 10:16:30.929   10 Jun 2027 10:16:35.235             4.306            37.094
       298   10 Jun 2027 10:16:51.458   10 Jun 2027 10:16:52.572             1.114           312.625
       299   10 Jun 2027 10:17:03.180   10 Jun 2027 10:17:04.246             1.066           209.844
       300   10 Jun 2027 10:17:45.651   10 Jun 2027 10:17:46.641             0.990           495.000
       301   10 Jun 2027 10:18:04.543   10 Jun 2027 10:18:07.269             2.726          1058.344
       302   10 Jun 2027 10:18:48.223   10 Jun 2027 10:18:50.235             2.012          1006.000
       303   10 Jun 2027 11:50:10.049   10 Jun 2027 11:50:32.179            22.130          9263.625
       304   10 Jun 2027 11:50:37.924   10 Jun 2027 11:50:39.615             1.691           143.750
       305   10 Jun 2027 11:50:46.650   10 Jun 2027 11:50:48.321             1.671           201.938
       306   10 Jun 2027 11:51:40.900   10 Jun 2027 11:51:44.349             3.449          1643.094
       307   10 Jun 2027 11:52:45.145   10 Jun 2027 11:52:50.905             5.760          1899.875
       308   10 Jun 2027 11:53:17.248   10 Jun 2027 11:53:19.037             1.789           823.219
       309   11 Jun 2027 04:00:43.989   11 Jun 2027 04:01:46.770            62.781         31390.500
       310   11 Jun 2027 04:02:52.426   11 Jun 2027 04:02:52.426             0.000             0.000
       311   11 Jun 2027 05:37:20.835   11 Jun 2027 05:39:32.432           131.597         65798.500
       312   11 Jun 2027 07:12:27.144   11 Jun 2027 07:14:32.988           125.844         62922.000
       313   11 Jun 2027 07:16:33.423   11 Jun 2027 07:16:43.998            10.575          5287.500
       314   11 Jun 2027 07:17:23.468   11 Jun 2027 07:17:31.897             8.429          4150.687
       315   11 Jun 2027 07:18:43.795   11 Jun 2027 07:18:43.795             0.000             0.000
       316   11 Jun 2027 07:19:02.367   11 Jun 2027 07:19:08.403             6.036          2582.562
       317   11 Jun 2027 08:48:47.866   11 Jun 2027 08:49:12.431            24.565         11250.531
       318   11 Jun 2027 08:50:16.387   11 Jun 2027 08:50:20.633             4.246           539.906
       319   11 Jun 2027 08:50:57.722   11 Jun 2027 08:51:00.573             2.851           290.031
       320   11 Jun 2027 08:51:28.789   11 Jun 2027 08:51:30.574             1.785           742.000
       321   11 Jun 2027 08:52:06.370   11 Jun 2027 08:52:08.841             2.471          1102.250
       322   11 Jun 2027 08:53:16.148   11 Jun 2027 08:53:20.736             4.588          2040.437
       323   11 Jun 2027 08:54:18.891   11 Jun 2027 08:54:22.454             3.563          1436.469
       324   11 Jun 2027 08:54:57.413   11 Jun 2027 08:55:00.146             2.733          1092.469
       325   11 Jun 2027 10:26:17.796   11 Jun 2027 10:26:40.012            22.216          7586.438
       326   11 Jun 2027 10:27:28.071   11 Jun 2027 10:27:33.992             5.921          1420.906
       327   11 Jun 2027 10:28:03.315   11 Jun 2027 10:28:09.521             6.206           730.625
       328   11 Jun 2027 10:28:27.360   11 Jun 2027 10:28:28.828             1.468           463.125
       329   11 Jun 2027 10:28:41.030   11 Jun 2027 10:28:41.981             0.951           381.312
       330   11 Jun 2027 10:29:31.750   11 Jun 2027 10:29:34.806             3.056          1486.875
       331   11 Jun 2027 10:29:43.593   11 Jun 2027 10:29:43.593             0.000             0.000
       332   11 Jun 2027 10:29:54.791   11 Jun 2027 10:29:56.746             1.955           484.906
       333   11 Jun 2027 10:30:11.614   11 Jun 2027 10:30:11.614             0.000             0.000
       334   12 Jun 2027 04:12:57.552   12 Jun 2027 04:13:47.381            49.829         24914.500
       335   12 Jun 2027 04:14:33.230   12 Jun 2027 04:14:33.230             0.000             0.000
       336   12 Jun 2027 04:15:53.563   12 Jun 2027 04:15:54.894             1.331           665.500
       337   12 Jun 2027 05:49:31.181   12 Jun 2027 05:51:57.457           146.276         73138.000
       338   12 Jun 2027 07:24:41.145   12 Jun 2027 07:26:39.755           118.610         59305.000
       339   12 Jun 2027 07:30:58.404   12 Jun 2027 07:31:01.062             2.658          1329.000
       340   12 Jun 2027 07:31:04.648   12 Jun 2027 07:31:15.793            11.145          5572.500
       341   12 Jun 2027 07:31:16.940   12 Jun 2027 07:31:16.994             0.054            27.000
       342   12 Jun 2027 09:01:02.596   12 Jun 2027 09:01:25.858            23.262         11149.000
       343   12 Jun 2027 09:01:40.264   12 Jun 2027 09:01:47.451             7.187           450.187
       344   12 Jun 2027 09:02:46.331   12 Jun 2027 09:02:51.349             5.018          1530.250
       345   12 Jun 2027 09:03:35.196   12 Jun 2027 09:03:38.681             3.485          1028.531
       346   12 Jun 2027 09:03:58.061   12 Jun 2027 09:03:59.439             1.378           384.406
       347   12 Jun 2027 09:04:21.219   12 Jun 2027 09:04:24.475             3.256           680.625
       348   12 Jun 2027 09:05:03.283   12 Jun 2027 09:05:03.283             0.000             0.000
       349   12 Jun 2027 09:05:25.889   12 Jun 2027 09:05:29.681             3.792          1867.906
       350   12 Jun 2027 09:06:46.088   12 Jun 2027 09:06:51.273             5.185          2346.781
       351   12 Jun 2027 10:38:20.977   12 Jun 2027 10:38:39.495            18.518          7901.406
       352   12 Jun 2027 10:38:52.873   12 Jun 2027 10:38:54.350             1.477           218.594
       353   12 Jun 2027 10:39:32.397   12 Jun 2027 10:39:39.007             6.610          1115.750
       354   12 Jun 2027 10:39:51.993   12 Jun 2027 10:39:58.448             6.455           405.125
       355   12 Jun 2027 10:40:57.354   12 Jun 2027 10:41:01.813             4.459          1840.813
       356   12 Jun 2027 10:41:25.968   12 Jun 2027 10:41:26.956             0.988            48.094
       357   12 Jun 2027 10:41:44.242   12 Jun 2027 10:41:44.542             0.300           150.000
       358   12 Jun 2027 10:41:56.555   12 Jun 2027 10:41:57.863             1.308           654.000
       359   12 Jun 2027 10:42:32.921   12 Jun 2027 10:42:36.036             3.115          1207.156
       360   13 Jun 2027 03:01:32.961   13 Jun 2027 03:01:49.982            17.021          8510.500
       361   13 Jun 2027 03:02:10.847   13 Jun 2027 03:02:10.847             0.000             0.000
       362   13 Jun 2027 03:02:42.130   13 Jun 2027 03:02:50.356             8.226          4113.000
       363   13 Jun 2027 03:03:45.587   13 Jun 2027 03:04:13.700            28.113         14056.500
       364   13 Jun 2027 03:04:49.908   13 Jun 2027 03:04:52.270             2.362          1181.000
       365   13 Jun 2027 04:25:27.233   13 Jun 2027 04:25:52.014            24.781         12390.500
       366   13 Jun 2027 04:26:02.321   13 Jun 2027 04:26:02.321             0.000             0.000
       367   13 Jun 2027 04:26:56.504   13 Jun 2027 04:27:41.526            45.022         22511.000
       368   13 Jun 2027 06:01:21.894   13 Jun 2027 06:02:39.559            77.665         38832.500
       369   13 Jun 2027 06:03:00.782   13 Jun 2027 06:03:20.319            19.537          9768.500
       370   13 Jun 2027 07:36:15.647   13 Jun 2027 07:38:09.758           114.111         57055.500
       371   13 Jun 2027 07:38:16.674   13 Jun 2027 07:38:23.748             7.074          3537.000
       372   13 Jun 2027 07:38:54.227   13 Jun 2027 07:38:54.227             0.000             0.000
       373   13 Jun 2027 07:39:22.578   13 Jun 2027 07:39:28.970             6.392          2783.813
       374   13 Jun 2027 07:41:18.375   13 Jun 2027 07:41:26.400             8.025          2912.687
       375   13 Jun 2027 07:41:30.982   13 Jun 2027 07:41:35.646             4.664           124.906
       376   13 Jun 2027 07:42:15.045   13 Jun 2027 07:42:21.270             6.225          1188.281
       377   13 Jun 2027 07:43:05.737   13 Jun 2027 07:43:09.449             3.712          1389.594
       378   13 Jun 2027 09:12:39.014   13 Jun 2027 09:13:03.847            24.833         11253.687
       379   13 Jun 2027 09:13:36.609   13 Jun 2027 09:13:40.067             3.458           130.750
       380   13 Jun 2027 09:14:47.879   13 Jun 2027 09:14:53.087             5.208          1727.562
       381   13 Jun 2027 09:15:52.455   13 Jun 2027 09:15:55.003             2.548           946.219
       382   13 Jun 2027 09:16:28.018   13 Jun 2027 09:16:34.933             6.915           981.406
       383   13 Jun 2027 09:17:07.895   13 Jun 2027 09:17:10.688             2.793           944.375
       384   13 Jun 2027 09:17:26.046   13 Jun 2027 09:17:27.694             1.648           270.406
       385   13 Jun 2027 09:18:01.658   13 Jun 2027 09:18:03.454             1.796           524.031
       386   13 Jun 2027 10:50:55.467   13 Jun 2027 10:51:10.047            14.580          7290.000
       387   13 Jun 2027 10:51:48.503   13 Jun 2027 10:51:50.516             2.013          1006.500
       388   13 Jun 2027 10:52:37.780   13 Jun 2027 10:52:42.035             4.255          1975.469
       389   13 Jun 2027 10:53:03.568   13 Jun 2027 10:53:07.173             3.605           130.250
       390   13 Jun 2027 10:53:35.538   13 Jun 2027 10:53:37.965             2.427           886.406
       391   13 Jun 2027 10:54:14.827   13 Jun 2027 10:54:32.082            17.255          1151.938
       392   13 Jun 2027 10:54:35.489   13 Jun 2027 10:54:38.113             2.624            69.656
