uniorb/output/strategy_1/Camera/Camera_KinoSat_111109.txt

KinoSat_111109
-------------------------
    Access    *     Start Time (UTCG)     *     Stop Time (UTCG)  *   Duration (s) *   Data (Mbytes)
         1   01 Jun 2027 03:00:00.000   01 Jun 2027 03:00:02.111             2.111          1055.500
         2   01 Jun 2027 03:00:47.489   01 Jun 2027 03:01:08.841            21.352         10676.000
         3   01 Jun 2027 03:01:21.229   01 Jun 2027 03:01:36.061            14.832          7416.000
         4   01 Jun 2027 03:01:51.327   01 Jun 2027 03:01:51.331             0.004             2.000
         5   01 Jun 2027 04:20:39.042   01 Jun 2027 04:22:04.633            85.591         42795.500
         6   01 Jun 2027 04:22:37.746   01 Jun 2027 04:22:43.954             6.208          3104.000
         7   01 Jun 2027 05:57:03.374   01 Jun 2027 05:58:38.593            95.219         47609.500
         8   01 Jun 2027 05:59:21.899   01 Jun 2027 06:00:16.963            55.064         27532.000
         9   01 Jun 2027 07:31:09.125   01 Jun 2027 07:33:39.679           150.554         75277.000
        10   01 Jun 2027 07:34:34.633   01 Jun 2027 07:34:34.810             0.177            88.500
        11   01 Jun 2027 07:37:28.246   01 Jun 2027 07:37:28.334             0.088            44.000
        12   01 Jun 2027 07:38:18.255   01 Jun 2027 07:38:28.861            10.606          5303.000
        13   01 Jun 2027 07:38:51.985   01 Jun 2027 07:38:57.762             5.777          2888.500
        14   01 Jun 2027 07:39:01.379   01 Jun 2027 07:39:03.843             2.464          1232.000
        15   01 Jun 2027 09:08:09.282   01 Jun 2027 09:10:30.427           141.145         70572.500
        16   01 Jun 2027 10:45:10.738   01 Jun 2027 10:46:54.866           104.128         52064.000
        17   01 Jun 2027 10:47:30.207   01 Jun 2027 10:47:58.794            28.587         14293.500
        18   01 Jun 2027 10:48:47.110   01 Jun 2027 10:48:49.807             2.697          1348.500
        19   02 Jun 2027 03:09:02.127   02 Jun 2027 03:09:06.926             4.799          2399.500
        20   02 Jun 2027 03:10:10.605   02 Jun 2027 03:11:17.772            67.167         33583.500
        21   02 Jun 2027 03:11:58.482   02 Jun 2027 03:12:15.888            17.406          8703.000
        22   02 Jun 2027 03:12:31.938   02 Jun 2027 03:12:31.938             0.000             0.000
        23   02 Jun 2027 03:12:38.920   02 Jun 2027 03:12:40.810             1.890           945.000
        24   02 Jun 2027 04:32:44.298   02 Jun 2027 04:33:19.445            35.147         17573.500
        25   02 Jun 2027 06:09:13.324   02 Jun 2027 06:11:07.860           114.536         57268.000
        26   02 Jun 2027 07:44:20.718   02 Jun 2027 07:46:30.649           129.931         64965.500
        27   02 Jun 2027 07:47:55.029   02 Jun 2027 07:47:55.255             0.226           113.000
        28   02 Jun 2027 07:48:51.074   02 Jun 2027 07:48:59.093             8.019          4009.500
        29   02 Jun 2027 07:50:31.776   02 Jun 2027 07:50:32.420             0.644           322.000
        30   02 Jun 2027 09:20:42.086   02 Jun 2027 09:22:53.321           131.235         65617.500
        31   02 Jun 2027 09:22:59.590   02 Jun 2027 09:23:06.142             6.552          3276.000
        32   02 Jun 2027 09:23:42.926   02 Jun 2027 09:23:53.011            10.085          5042.500
        33   02 Jun 2027 10:58:08.461   02 Jun 2027 10:59:34.788            86.327         43163.500
        34   02 Jun 2027 11:00:07.798   02 Jun 2027 11:00:36.976            29.178         14589.000
        35   02 Jun 2027 11:01:51.375   02 Jun 2027 11:02:12.488            21.113         10556.500
        36   03 Jun 2027 03:21:19.637   03 Jun 2027 03:21:57.226            37.589         18794.500
        37   03 Jun 2027 03:22:09.661   03 Jun 2027 03:22:52.175            42.514         21257.000
        38   03 Jun 2027 03:23:59.461   03 Jun 2027 03:23:59.461             0.000             0.000
        39   03 Jun 2027 03:24:24.250   03 Jun 2027 03:24:41.094            16.844          8422.000
        40   03 Jun 2027 04:44:47.572   03 Jun 2027 04:45:23.515            35.943         17971.500
        41   03 Jun 2027 04:46:32.508   03 Jun 2027 04:46:32.508             0.000             0.000
        42   03 Jun 2027 04:46:41.230   03 Jun 2027 04:46:45.553             4.323          2161.500
        43   03 Jun 2027 06:21:16.503   03 Jun 2027 06:22:37.309            80.806         40403.000
        44   03 Jun 2027 07:56:27.683   03 Jun 2027 07:58:35.735           128.052         64026.000
        45   03 Jun 2027 08:01:33.855   03 Jun 2027 08:01:48.661            14.806          7403.000
        46   03 Jun 2027 09:32:24.323   03 Jun 2027 09:34:27.974           123.651         61825.500
        47   03 Jun 2027 09:35:36.677   03 Jun 2027 09:35:44.189             7.512          3756.000
        48   03 Jun 2027 09:38:28.591   03 Jun 2027 09:38:33.073             4.482          2241.000
        49   03 Jun 2027 11:10:15.391   03 Jun 2027 11:11:21.262            65.871         29526.874
        50   03 Jun 2027 11:12:24.774   03 Jun 2027 11:12:31.038             6.264          1981.687
        51   03 Jun 2027 11:12:36.628   03 Jun 2027 11:12:37.118             0.490            80.719
        52   03 Jun 2027 11:13:08.480   03 Jun 2027 11:13:11.234             2.754           974.781
        53   03 Jun 2027 11:13:20.726   03 Jun 2027 11:13:23.084             2.358           273.937
        54   03 Jun 2027 11:13:25.853   03 Jun 2027 11:13:27.538             1.685            51.750
        55   03 Jun 2027 11:14:37.328   03 Jun 2027 11:14:42.548             5.220          2088.875
        56   04 Jun 2027 03:22:24.574   04 Jun 2027 03:22:29.840             5.266          2633.000
        57   04 Jun 2027 03:33:16.959   04 Jun 2027 03:34:44.675            87.716         43858.000
        58   04 Jun 2027 03:35:27.250   04 Jun 2027 03:35:34.450             7.200          3600.000
        59   04 Jun 2027 03:36:05.519   04 Jun 2027 03:36:07.014             1.495           747.500
        60   04 Jun 2027 04:57:14.279   04 Jun 2027 04:57:46.131            31.852         15926.000
        61   04 Jun 2027 04:58:20.872   04 Jun 2027 04:58:36.858            15.986          7993.000
        62   04 Jun 2027 06:33:00.808   04 Jun 2027 06:35:03.365           122.557         61278.500
        63   04 Jun 2027 06:35:40.138   04 Jun 2027 06:35:40.138             0.000             0.000
        64   04 Jun 2027 06:36:30.098   04 Jun 2027 06:36:32.235             2.137          1068.500
        65   04 Jun 2027 06:37:11.351   04 Jun 2027 06:37:14.879             3.528          1764.000
        66   04 Jun 2027 08:07:43.745   04 Jun 2027 08:08:57.103            73.358         33402.344
        67   04 Jun 2027 08:09:13.413   04 Jun 2027 08:09:14.500             1.087           428.594
        68   04 Jun 2027 08:10:57.249   04 Jun 2027 08:10:57.249             0.000             0.000
        69   04 Jun 2027 08:11:05.123   04 Jun 2027 08:11:11.580             6.457          2252.750
        70   04 Jun 2027 08:11:59.069   04 Jun 2027 08:11:59.544             0.475           237.500
        71   04 Jun 2027 08:13:33.091   04 Jun 2027 08:13:33.091             0.000             0.000
        72   04 Jun 2027 08:13:52.211   04 Jun 2027 08:13:59.160             6.949          3474.500
        73   04 Jun 2027 08:14:07.754   04 Jun 2027 08:14:07.754             0.000             0.000
        74   04 Jun 2027 08:14:23.964   04 Jun 2027 08:14:26.991             3.027          1513.500
        75   04 Jun 2027 08:14:29.549   04 Jun 2027 08:14:31.400             1.851           634.437
        76   04 Jun 2027 08:15:11.842   04 Jun 2027 08:15:14.581             2.739          1169.719
        77   04 Jun 2027 09:44:29.433   04 Jun 2027 09:44:48.901            19.468          8607.156
        78   04 Jun 2027 09:45:28.841   04 Jun 2027 09:45:31.457             2.616          1138.438
        79   04 Jun 2027 09:46:34.874   04 Jun 2027 09:46:35.478             0.604            34.187
        80   04 Jun 2027 09:47:04.470   04 Jun 2027 09:47:06.286             1.816           856.812
        81   04 Jun 2027 09:47:22.347   04 Jun 2027 09:47:25.530             3.183           326.000
        82   04 Jun 2027 09:47:48.391   04 Jun 2027 09:47:52.727             4.336           513.781
        83   04 Jun 2027 09:48:48.022   04 Jun 2027 09:48:51.054             3.032          1451.250
        84   04 Jun 2027 09:49:22.393   04 Jun 2027 09:49:26.739             4.346           933.375
        85   04 Jun 2027 09:49:53.433   04 Jun 2027 09:49:55.540             2.107           827.531
        86   04 Jun 2027 11:22:45.597   04 Jun 2027 11:23:01.248            15.651          7536.094
        87   04 Jun 2027 11:24:23.607   04 Jun 2027 11:24:29.825             6.218          2573.719
        88   04 Jun 2027 11:24:54.273   04 Jun 2027 11:24:56.733             2.460           589.875
        89   04 Jun 2027 11:25:17.843   04 Jun 2027 11:25:20.318             2.475           659.688
        90   04 Jun 2027 11:26:30.127   04 Jun 2027 11:26:34.709             4.582          2135.594
        91   05 Jun 2027 03:33:39.938   05 Jun 2027 03:34:17.772            37.834         18917.000
        92   05 Jun 2027 03:45:15.220   05 Jun 2027 03:46:43.328            88.108         44054.000
        93   05 Jun 2027 05:07:52.013   05 Jun 2027 05:08:40.673            48.660         24330.000
        94   05 Jun 2027 05:10:22.538   05 Jun 2027 05:10:35.850            13.312          6656.000
        95   05 Jun 2027 06:43:01.389   05 Jun 2027 06:44:15.398            74.009         37004.500
        96   05 Jun 2027 06:44:43.978   05 Jun 2027 06:45:07.748            23.770         11885.000
        97   05 Jun 2027 06:47:36.259   05 Jun 2027 06:47:41.781             5.522          2761.000
        98   05 Jun 2027 06:47:58.444   05 Jun 2027 06:48:20.096            21.652         10826.000
        99   05 Jun 2027 08:19:48.833   05 Jun 2027 08:20:26.496            37.663         18611.375
       100   05 Jun 2027 08:21:06.007   05 Jun 2027 08:21:08.231             2.224           851.000
       101   05 Jun 2027 08:22:10.305   05 Jun 2027 08:22:17.550             7.245          1860.719
       102   05 Jun 2027 08:22:31.443   05 Jun 2027 08:22:36.422             4.979           434.156
       103   05 Jun 2027 08:22:42.917   05 Jun 2027 08:22:43.457             0.540            99.469
       104   05 Jun 2027 08:23:05.164   05 Jun 2027 08:23:05.164             0.000             0.000
       105   05 Jun 2027 08:24:01.388   05 Jun 2027 08:24:05.991             4.603          2092.750
       106   05 Jun 2027 08:24:47.855   05 Jun 2027 08:24:49.843             1.988           871.656
       107   05 Jun 2027 08:25:11.106   05 Jun 2027 08:25:13.458             2.352           622.313
       108   05 Jun 2027 08:25:35.597   05 Jun 2027 08:25:36.985             1.388           691.844
       109   05 Jun 2027 08:26:07.281   05 Jun 2027 08:26:11.738             4.457           946.750
       110   05 Jun 2027 09:56:49.881   05 Jun 2027 09:57:05.216            15.335          7667.500
       111   05 Jun 2027 09:57:11.597   05 Jun 2027 09:57:14.184             2.587          1089.656
       112   05 Jun 2027 09:59:21.191   05 Jun 2027 09:59:26.067             4.876          2064.469
       113   05 Jun 2027 09:59:37.249   05 Jun 2027 09:59:38.056             0.807           329.562
       114   05 Jun 2027 09:59:55.869   05 Jun 2027 09:59:57.538             1.669           547.312
       115   05 Jun 2027 10:00:17.001   05 Jun 2027 10:00:22.461             5.460           607.094
       116   05 Jun 2027 10:00:49.747   05 Jun 2027 10:00:51.562             1.815           595.719
       117   05 Jun 2027 10:01:18.822   05 Jun 2027 10:01:21.118             2.296           838.625
       118   05 Jun 2027 10:01:34.221   05 Jun 2027 10:01:37.671             3.450           400.844
       119   05 Jun 2027 10:02:20.899   05 Jun 2027 10:02:27.543             6.644          1350.875
       120   05 Jun 2027 11:34:43.358   05 Jun 2027 11:34:57.182            13.824          6620.625
       121   05 Jun 2027 11:36:22.865   05 Jun 2027 11:36:28.710             5.845          2677.594
       122   05 Jun 2027 11:37:53.606   05 Jun 2027 11:37:57.894             4.288          2144.000
       123   05 Jun 2027 11:38:14.473   05 Jun 2027 11:38:18.520             4.047          1027.094
       124   06 Jun 2027 03:45:00.566   06 Jun 2027 03:45:53.610            53.044         26522.000
       125   06 Jun 2027 03:46:30.447   06 Jun 2027 03:46:39.771             9.324          4662.000
       126   06 Jun 2027 03:57:14.308   06 Jun 2027 03:58:12.239            57.931         28965.500
       127   06 Jun 2027 05:19:27.912   06 Jun 2027 05:20:36.059            68.147         34073.500
       128   06 Jun 2027 05:21:24.279   06 Jun 2027 05:21:54.132            29.853         14926.500
       129   06 Jun 2027 05:22:29.284   06 Jun 2027 05:22:29.284             0.000             0.000
       130   06 Jun 2027 05:24:22.707   06 Jun 2027 05:24:29.150             6.443          3221.500
       131   06 Jun 2027 06:54:21.441   06 Jun 2027 06:55:52.381            90.940         45470.000
       132   06 Jun 2027 06:56:47.114   06 Jun 2027 06:56:59.255            12.141          6070.500
       133   06 Jun 2027 06:57:37.878   06 Jun 2027 06:57:41.195             3.317          1658.500
       134   06 Jun 2027 07:00:56.596   06 Jun 2027 07:01:12.569            15.973          7986.500
       135   06 Jun 2027 08:31:56.122   06 Jun 2027 08:32:14.638            18.516          9258.000
       136   06 Jun 2027 08:32:44.795   06 Jun 2027 08:32:50.456             5.661           985.656
       137   06 Jun 2027 08:32:53.961   06 Jun 2027 08:32:58.376             4.415           109.531
       138   06 Jun 2027 08:33:08.650   06 Jun 2027 08:33:09.519             0.869           283.906
       139   06 Jun 2027 08:34:32.681   06 Jun 2027 08:34:37.256             4.575          2287.500
       140   06 Jun 2027 08:34:50.701   06 Jun 2027 08:34:53.779             3.078           655.969
       141   06 Jun 2027 08:36:02.899   06 Jun 2027 08:36:09.104             6.205          2082.656
       142   06 Jun 2027 08:36:19.329   06 Jun 2027 08:36:20.507             1.178           229.344
       143   06 Jun 2027 08:36:42.495   06 Jun 2027 08:36:44.696             2.201           425.500
       144   06 Jun 2027 08:37:57.806   06 Jun 2027 08:38:04.011             6.205          2284.687
       145   06 Jun 2027 08:38:47.990   06 Jun 2027 08:38:51.445             3.455          1322.063
       146   06 Jun 2027 08:39:05.464   06 Jun 2027 08:39:06.064             0.600            42.969
       147   06 Jun 2027 08:39:18.159   06 Jun 2027 08:39:18.668             0.509           254.500
       148   06 Jun 2027 10:08:39.260   06 Jun 2027 10:08:58.980            19.720          7872.375
       149   06 Jun 2027 10:09:40.214   06 Jun 2027 10:09:43.149             2.935          1136.063
       150   06 Jun 2027 10:10:11.971   06 Jun 2027 10:10:21.462             9.491           622.438
       151   06 Jun 2027 10:11:21.258   06 Jun 2027 10:11:29.261             8.003          1584.969
       152   06 Jun 2027 10:12:23.037   06 Jun 2027 10:12:28.128             5.091          1680.500
       153   06 Jun 2027 10:12:29.432   06 Jun 2027 10:12:35.029             5.597            40.750
       154   06 Jun 2027 10:13:58.146   06 Jun 2027 10:14:08.526            10.380          2519.000
       155   06 Jun 2027 10:14:31.374   06 Jun 2027 10:14:33.748             2.374           110.438
       156   06 Jun 2027 10:14:42.636   06 Jun 2027 10:14:47.222             4.586           260.937
       157   06 Jun 2027 10:15:02.379   06 Jun 2027 10:15:07.437             5.058           473.656
       158   06 Jun 2027 11:46:42.983   06 Jun 2027 11:46:55.258            12.275          5980.594
       159   06 Jun 2027 11:47:11.606   06 Jun 2027 11:47:12.050             0.444             3.406
       160   06 Jun 2027 11:47:53.210   06 Jun 2027 11:48:00.124             6.914          1003.844
       161   06 Jun 2027 11:48:26.611   06 Jun 2027 11:48:28.715             2.104           627.906
       162   06 Jun 2027 11:48:34.841   06 Jun 2027 11:48:34.841             0.000             0.000
       163   06 Jun 2027 11:48:56.435   06 Jun 2027 11:49:01.351             4.916           820.844
       164   06 Jun 2027 11:49:22.718   06 Jun 2027 11:49:25.166             2.448           528.500
       165   06 Jun 2027 11:50:25.567   06 Jun 2027 11:50:29.967             4.400          1566.437
       166   07 Jun 2027 03:57:06.185   07 Jun 2027 03:57:56.361            50.176         25088.000
       167   07 Jun 2027 04:09:30.038   07 Jun 2027 04:09:46.654            16.616          8308.000
       168   07 Jun 2027 05:30:56.926   07 Jun 2027 05:33:23.382           146.456         73228.000
       169   07 Jun 2027 07:05:51.354   07 Jun 2027 07:07:50.333           118.979         59193.750
       170   07 Jun 2027 07:09:33.838   07 Jun 2027 07:09:40.314             6.476          3030.656
       171   07 Jun 2027 07:09:54.380   07 Jun 2027 07:09:54.380             0.000             0.000
       172   07 Jun 2027 07:12:48.930   07 Jun 2027 07:12:52.641             3.711          1855.500
       173   07 Jun 2027 07:13:56.306   07 Jun 2027 07:13:56.306             0.000             0.000
       174   07 Jun 2027 07:14:48.069   07 Jun 2027 07:14:57.308             9.239          4619.500
       175   07 Jun 2027 08:43:51.497   07 Jun 2027 08:44:13.176            21.679         10333.375
       176   07 Jun 2027 08:44:50.641   07 Jun 2027 08:45:00.607             9.966          1062.000
       177   07 Jun 2027 08:46:07.377   07 Jun 2027 08:46:11.556             4.179           842.969
       178   07 Jun 2027 08:46:36.854   07 Jun 2027 08:46:42.953             6.099           748.687
       179   07 Jun 2027 08:48:01.718   07 Jun 2027 08:48:01.718             0.000             0.000
       180   07 Jun 2027 08:48:04.020   07 Jun 2027 08:48:10.732             6.712          2492.750
       181   07 Jun 2027 08:48:37.735   07 Jun 2027 08:48:40.047             2.312           842.125
       182   07 Jun 2027 08:49:05.108   07 Jun 2027 08:49:06.868             1.760           323.719
       183   07 Jun 2027 08:49:24.715   07 Jun 2027 08:49:25.627             0.912           456.000
       184   07 Jun 2027 08:49:34.299   07 Jun 2027 08:49:35.100             0.801           372.719
       185   07 Jun 2027 08:50:39.462   07 Jun 2027 08:50:43.915             4.453          2011.313
       186   07 Jun 2027 08:50:59.940   07 Jun 2027 08:51:02.431             2.491           311.906
       187   07 Jun 2027 08:51:09.422   07 Jun 2027 08:51:09.957             0.535           207.438
       188   07 Jun 2027 10:20:46.542   07 Jun 2027 10:21:06.557            20.015          7748.562
       189   07 Jun 2027 10:21:27.729   07 Jun 2027 10:21:28.862             1.133           393.687
       190   07 Jun 2027 10:22:11.977   07 Jun 2027 10:22:18.109             6.132           876.375
       191   07 Jun 2027 10:23:28.897   07 Jun 2027 10:23:32.723             3.826          1513.344
       192   07 Jun 2027 10:25:02.982   07 Jun 2027 10:25:06.577             3.595          1797.500
       193   07 Jun 2027 10:25:07.530   07 Jun 2027 10:25:10.263             2.733           940.750
       194   07 Jun 2027 10:26:36.282   07 Jun 2027 10:26:43.461             7.179          2677.094
       195   07 Jun 2027 10:27:06.538   07 Jun 2027 10:27:08.878             2.340           721.156
       196   07 Jun 2027 10:27:13.326   07 Jun 2027 10:27:15.968             2.642           139.000
       197   07 Jun 2027 11:58:20.499   07 Jun 2027 11:58:36.321            15.822          6913.781
       198   07 Jun 2027 11:59:46.546   07 Jun 2027 11:59:51.791             5.245          2157.125
       199   08 Jun 2027 04:09:02.679   08 Jun 2027 04:10:12.344            69.665         34832.500
       200   08 Jun 2027 05:45:14.870   08 Jun 2027 05:47:12.601           117.731         58865.500
       201   08 Jun 2027 07:18:47.610   08 Jun 2027 07:20:48.378           120.768         60384.000
       202   08 Jun 2027 07:21:04.460   08 Jun 2027 07:21:04.460             0.000             0.000
       203   08 Jun 2027 07:21:28.356   08 Jun 2027 07:21:35.786             7.430          3715.000
       204   08 Jun 2027 07:22:17.300   08 Jun 2027 07:22:25.773             8.473          4236.500
       205   08 Jun 2027 07:22:32.844   08 Jun 2027 07:22:37.603             4.759          2312.407
       206   08 Jun 2027 07:23:01.936   08 Jun 2027 07:23:03.841             1.905           522.969
       207   08 Jun 2027 07:26:31.709   08 Jun 2027 07:26:31.709             0.000             0.000
       208   08 Jun 2027 07:26:32.978   08 Jun 2027 07:26:38.704             5.726          2863.000
       209   08 Jun 2027 07:27:00.145   08 Jun 2027 07:27:07.748             7.603          3801.500
       210   08 Jun 2027 08:56:13.592   08 Jun 2027 08:56:35.464            21.872         10008.938
       211   08 Jun 2027 08:58:05.396   08 Jun 2027 08:58:05.396             0.000             0.000
       212   08 Jun 2027 08:58:27.714   08 Jun 2027 08:58:31.216             3.502          1231.562
       213   08 Jun 2027 08:58:49.278   08 Jun 2027 08:58:53.082             3.804           512.281
       214   08 Jun 2027 08:59:29.671   08 Jun 2027 08:59:32.579             2.908           680.000
       215   08 Jun 2027 08:59:38.258   08 Jun 2027 08:59:39.322             1.064           177.469
       216   08 Jun 2027 09:00:30.882   08 Jun 2027 09:00:37.307             6.425          1318.344
       217   08 Jun 2027 09:00:54.713   08 Jun 2027 09:00:56.283             1.570           361.969
       218   08 Jun 2027 09:01:23.720   08 Jun 2027 09:01:27.487             3.767           571.875
       219   08 Jun 2027 09:02:21.619   08 Jun 2027 09:02:23.221             1.602           801.000
       220   08 Jun 2027 09:02:45.690   08 Jun 2027 09:02:45.690             0.000             0.000
       221   08 Jun 2027 10:33:15.823   08 Jun 2027 10:33:34.502            18.679          8058.906
       222   08 Jun 2027 10:34:15.240   08 Jun 2027 10:34:19.421             4.181           886.406
       223   08 Jun 2027 10:35:15.480   08 Jun 2027 10:35:18.756             3.276          1638.000
       224   08 Jun 2027 10:36:10.890   08 Jun 2027 10:36:14.365             3.475          1737.500
       225   08 Jun 2027 10:36:41.984   08 Jun 2027 10:36:45.477             3.493           868.625
       226   08 Jun 2027 10:37:14.002   08 Jun 2027 10:37:15.767             1.765           880.594
       227   08 Jun 2027 10:37:43.766   08 Jun 2027 10:37:45.240             1.474           392.094
       228   08 Jun 2027 10:38:56.825   08 Jun 2027 10:39:03.094             6.269          2150.250
       229   09 Jun 2027 03:00:00.000   09 Jun 2027 03:00:17.823            17.823          8911.500
       230   09 Jun 2027 03:01:23.640   09 Jun 2027 03:01:30.134             6.494          3247.000
       231   09 Jun 2027 03:02:03.535   09 Jun 2027 03:02:05.680             2.145          1072.500
       232   09 Jun 2027 04:20:53.879   09 Jun 2027 04:22:22.402            88.523         44261.500
       233   09 Jun 2027 05:57:21.104   09 Jun 2027 05:58:36.595            75.491         37745.500
       234   09 Jun 2027 05:59:12.791   09 Jun 2027 05:59:40.855            28.064         14032.000
       235   09 Jun 2027 07:29:30.923   09 Jun 2027 07:29:38.569             7.646          3823.000
       236   09 Jun 2027 07:31:26.404   09 Jun 2027 07:33:09.445           103.041         51520.500
       237   09 Jun 2027 07:36:09.820   09 Jun 2027 07:36:24.584            14.764          7382.000
       238   09 Jun 2027 07:37:37.362   09 Jun 2027 07:37:43.418             6.056          2639.625
       239   09 Jun 2027 07:38:37.790   09 Jun 2027 07:38:43.826             6.036          1699.125
       240   09 Jun 2027 07:39:16.636   09 Jun 2027 07:39:18.790             2.154           960.313
       241   09 Jun 2027 09:08:24.596   09 Jun 2027 09:08:45.116            20.520          9322.625
       242   09 Jun 2027 09:10:09.069   09 Jun 2027 09:10:13.527             4.458           891.406
       243   09 Jun 2027 09:10:19.017   09 Jun 2027 09:10:22.508             3.491           118.219
       244   09 Jun 2027 09:10:54.478   09 Jun 2027 09:10:57.477             2.999           999.062
       245   09 Jun 2027 09:11:25.905   09 Jun 2027 09:11:31.291             5.386           445.813
       246   09 Jun 2027 09:12:06.698   09 Jun 2027 09:12:08.895             2.197          1053.844
       247   09 Jun 2027 09:12:35.363   09 Jun 2027 09:12:39.437             4.074           304.063
       248   09 Jun 2027 09:13:10.638   09 Jun 2027 09:13:13.177             2.539           749.750
       249   09 Jun 2027 09:13:24.119   09 Jun 2027 09:13:25.236             1.117           341.938
       250   09 Jun 2027 09:14:24.563   09 Jun 2027 09:14:26.757             2.194          1097.000
       251   09 Jun 2027 09:15:02.314   09 Jun 2027 09:15:08.214             5.900          1745.281
       252   09 Jun 2027 10:45:30.855   09 Jun 2027 10:45:47.154            16.299          7313.531
       253   09 Jun 2027 10:46:24.094   09 Jun 2027 10:46:24.972             0.878            69.781
       254   09 Jun 2027 10:46:49.746   09 Jun 2027 10:46:50.769             1.023           440.000
       255   09 Jun 2027 10:47:33.624   09 Jun 2027 10:47:35.909             2.285          1098.406
       256   09 Jun 2027 10:48:43.918   09 Jun 2027 10:48:47.846             3.928          1516.875
       257   09 Jun 2027 10:49:42.113   09 Jun 2027 10:49:45.929             3.816          1574.594
       258   09 Jun 2027 10:49:58.542   09 Jun 2027 10:50:01.701             3.159           275.656
       259   10 Jun 2027 03:10:03.520   10 Jun 2027 03:11:28.100            84.580         42290.000
       260   10 Jun 2027 03:12:05.413   10 Jun 2027 03:12:06.242             0.829           414.500
       261   10 Jun 2027 03:12:53.541   10 Jun 2027 03:12:53.541             0.000             0.000
       262   10 Jun 2027 03:12:56.309   10 Jun 2027 03:12:58.212             1.903           951.500
       263   10 Jun 2027 03:13:20.611   10 Jun 2027 03:13:29.551             8.940          4470.000
       264   10 Jun 2027 03:13:42.082   10 Jun 2027 03:14:00.682            18.600          9300.000
       265   10 Jun 2027 04:33:00.153   10 Jun 2027 04:33:34.761            34.608         17304.000
       266   10 Jun 2027 06:09:28.737   10 Jun 2027 06:11:01.143            92.406         46203.000
       267   10 Jun 2027 06:11:07.946   10 Jun 2027 06:11:23.786            15.840          7920.000
       268   10 Jun 2027 07:44:36.677   10 Jun 2027 07:46:08.001            91.324         45662.000
       269   10 Jun 2027 07:47:35.905   10 Jun 2027 07:47:44.511             8.606          4149.250
       270   10 Jun 2027 07:50:04.005   10 Jun 2027 07:50:17.345            13.340          4328.094
       271   10 Jun 2027 07:51:05.572   10 Jun 2027 07:51:10.819             5.247          1410.687
       272   10 Jun 2027 09:20:58.367   10 Jun 2027 09:21:15.527            17.160          7589.000
       273   10 Jun 2027 09:21:39.085   10 Jun 2027 09:21:39.848             0.763           147.813
       274   10 Jun 2027 09:22:58.713   10 Jun 2027 09:23:05.536             6.823          2073.250
       275   10 Jun 2027 09:23:28.200   10 Jun 2027 09:23:30.812             2.612           670.031
       276   10 Jun 2027 09:24:11.371   10 Jun 2027 09:24:14.903             3.532          1121.438
       277   10 Jun 2027 09:24:47.063   10 Jun 2027 09:24:50.881             3.818          1003.562
       278   10 Jun 2027 09:25:08.161   10 Jun 2027 09:25:09.412             1.251           466.781
       279   10 Jun 2027 09:25:14.464   10 Jun 2027 09:25:16.068             1.604            59.250
       280   10 Jun 2027 09:25:31.429   10 Jun 2027 09:25:33.628             2.199           314.531
       281   10 Jun 2027 09:26:14.141   10 Jun 2027 09:26:16.412             2.271           790.594
       282   10 Jun 2027 09:26:28.193   10 Jun 2027 09:26:30.624             2.431           368.156
       283   10 Jun 2027 09:26:58.380   10 Jun 2027 09:27:01.914             3.534           827.625
       284   10 Jun 2027 10:58:23.505   10 Jun 2027 10:58:43.173            19.668          8460.937
       285   10 Jun 2027 10:59:27.455   10 Jun 2027 10:59:32.620             5.165          1237.125
       286   10 Jun 2027 11:00:01.371   10 Jun 2027 11:00:05.113             3.742           898.469
       287   10 Jun 2027 11:00:06.156   10 Jun 2027 11:00:17.359            11.203            32.594
       288   10 Jun 2027 11:00:41.794   10 Jun 2027 11:00:43.035             1.241           597.438
       289   10 Jun 2027 11:00:45.528   10 Jun 2027 11:00:46.539             1.011            77.906
       290   10 Jun 2027 11:01:06.654   10 Jun 2027 11:01:07.612             0.958           463.813
       291   10 Jun 2027 11:01:37.277   10 Jun 2027 11:01:40.823             3.546           619.344
       292   10 Jun 2027 11:02:07.696   10 Jun 2027 11:02:11.265             3.569           753.500
       293   10 Jun 2027 11:02:47.901   10 Jun 2027 11:02:51.376             3.475           519.625
       294   11 Jun 2027 03:21:34.893   11 Jun 2027 03:22:12.716            37.823         18911.500
       295   11 Jun 2027 03:22:25.132   11 Jun 2027 03:23:08.561            43.429         21714.500
       296   11 Jun 2027 03:24:15.478   11 Jun 2027 03:24:38.853            23.375         11687.500
       297   11 Jun 2027 04:45:02.820   11 Jun 2027 04:45:38.378            35.558         17779.000
       298   11 Jun 2027 04:46:56.255   11 Jun 2027 04:47:01.760             5.505          2752.500
       299   11 Jun 2027 06:21:31.520   11 Jun 2027 06:23:23.472           111.952         55976.000
       300   11 Jun 2027 07:56:43.661   11 Jun 2027 07:57:56.791            73.130         36454.843
       301   11 Jun 2027 07:58:25.153   11 Jun 2027 07:58:26.535             1.382           661.437
       302   11 Jun 2027 08:00:14.526   11 Jun 2027 08:00:21.033             6.507          3197.656
       303   11 Jun 2027 08:00:42.428   11 Jun 2027 08:00:47.409             4.981           668.594
       304   11 Jun 2027 08:01:00.025   11 Jun 2027 08:01:01.900             1.875           394.250
       305   11 Jun 2027 08:01:20.162   11 Jun 2027 08:01:21.613             1.451           472.031
       306   11 Jun 2027 08:02:03.455   11 Jun 2027 08:02:07.150             3.695           662.750
       307   11 Jun 2027 08:02:57.098   11 Jun 2027 08:02:59.755             2.657          1328.500
       308   11 Jun 2027 09:32:38.889   11 Jun 2027 09:33:02.914            24.025          9344.437
       309   11 Jun 2027 09:33:36.424   11 Jun 2027 09:33:38.769             2.345           901.406
       310   11 Jun 2027 09:34:48.333   11 Jun 2027 09:34:48.719             0.386            98.500
       311   11 Jun 2027 09:34:59.286   11 Jun 2027 09:35:00.851             1.565           330.219
       312   11 Jun 2027 09:35:24.894   11 Jun 2027 09:35:25.408             0.514           176.844
       313   11 Jun 2027 09:36:19.468   11 Jun 2027 09:36:25.144             5.676          1320.844
       314   11 Jun 2027 09:37:09.504   11 Jun 2027 09:37:13.495             3.991          1307.156
       315   11 Jun 2027 09:37:14.483   11 Jun 2027 09:37:16.728             2.245            30.875
       316   11 Jun 2027 09:37:34.745   11 Jun 2027 09:37:36.397             1.652           560.281
       317   11 Jun 2027 09:38:43.727   11 Jun 2027 09:38:50.208             6.481          2104.063
       318   11 Jun 2027 11:10:31.555   11 Jun 2027 11:10:48.545            16.990          7364.344
       319   11 Jun 2027 11:11:18.898   11 Jun 2027 11:11:21.697             2.799           552.937
       320   11 Jun 2027 11:12:40.179   11 Jun 2027 11:12:45.239             5.060          2442.187
       321   11 Jun 2027 11:13:28.077   11 Jun 2027 11:13:34.680             6.603          1338.688
       322   11 Jun 2027 11:14:00.090   11 Jun 2027 11:14:01.545             1.455           658.156
       323   11 Jun 2027 11:14:40.281   11 Jun 2027 11:14:43.777             3.496          1210.500
       324   11 Jun 2027 11:14:49.090   11 Jun 2027 11:14:49.734             0.644           166.031
       325   12 Jun 2027 03:22:38.485   12 Jun 2027 03:23:02.744            24.259         12129.500
       326   12 Jun 2027 03:33:32.438   12 Jun 2027 03:35:10.379            97.941         48970.500
       327   12 Jun 2027 04:57:29.491   12 Jun 2027 04:58:22.514            53.023         26511.500
       328   12 Jun 2027 04:59:32.747   12 Jun 2027 04:59:55.314            22.567         11283.500
       329   12 Jun 2027 06:33:15.286   12 Jun 2027 06:34:59.156           103.870         51935.000
       330   12 Jun 2027 06:36:21.491   12 Jun 2027 06:36:31.733            10.242          5121.000
       331   12 Jun 2027 08:07:58.485   12 Jun 2027 08:08:23.865            25.380         12312.625
       332   12 Jun 2027 08:08:39.694   12 Jun 2027 08:08:43.806             4.112           381.406
       333   12 Jun 2027 08:10:09.625   12 Jun 2027 08:10:15.827             6.202          2240.750
       334   12 Jun 2027 08:10:20.149   12 Jun 2027 08:10:23.372             3.223           116.219
       335   12 Jun 2027 08:11:24.664   12 Jun 2027 08:11:27.270             2.606          1303.000
       336   12 Jun 2027 08:12:16.854   12 Jun 2027 08:12:26.949            10.095          1881.125
       337   12 Jun 2027 08:13:49.291   12 Jun 2027 08:13:57.658             8.367          1985.500
       338   12 Jun 2027 08:14:15.453   12 Jun 2027 08:14:18.375             2.922           485.688
       339   12 Jun 2027 08:14:31.613   12 Jun 2027 08:14:38.632             7.019           392.844
       340   12 Jun 2027 09:44:45.109   12 Jun 2027 09:45:05.211            20.102          9329.344
       341   12 Jun 2027 09:45:43.648   12 Jun 2027 09:45:47.380             3.732          1093.313
       342   12 Jun 2027 09:46:37.256   12 Jun 2027 09:46:41.364             4.108          1558.625
       343   12 Jun 2027 09:46:50.362   12 Jun 2027 09:46:53.049             2.687            45.906
       344   12 Jun 2027 09:47:19.176   12 Jun 2027 09:47:21.892             2.716           781.156
       345   12 Jun 2027 09:47:38.058   12 Jun 2027 09:47:40.300             2.242           256.406
       346   12 Jun 2027 09:48:14.907   12 Jun 2027 09:48:16.950             2.043           682.219
       347   12 Jun 2027 09:49:03.897   12 Jun 2027 09:49:07.270             3.373          1367.844
       348   12 Jun 2027 09:49:38.875   12 Jun 2027 09:49:41.739             2.864           987.656
       349   12 Jun 2027 09:49:55.019   12 Jun 2027 09:49:56.593             1.574           415.000
       350   12 Jun 2027 09:50:34.902   12 Jun 2027 09:50:38.065             3.163          1197.156
       351   12 Jun 2027 09:50:58.455   12 Jun 2027 09:51:06.522             8.067           401.531
       352   12 Jun 2027 11:23:00.619   12 Jun 2027 11:23:13.437            12.818          6352.969
       353   12 Jun 2027 11:24:39.021   12 Jun 2027 11:24:44.333             5.312          2553.312
       354   12 Jun 2027 11:25:09.972   12 Jun 2027 11:25:13.414             3.442           732.281
       355   12 Jun 2027 11:25:38.819   12 Jun 2027 11:25:43.179             4.360           793.906
       356   12 Jun 2027 11:26:50.575   12 Jun 2027 11:26:53.204             2.629          1314.500
       357   13 Jun 2027 03:33:53.656   13 Jun 2027 03:34:33.008            39.352         19676.000
       358   13 Jun 2027 03:45:30.807   13 Jun 2027 03:46:37.702            66.895         33447.500
       359   13 Jun 2027 03:46:38.937   13 Jun 2027 03:46:44.230             5.293          2646.500
       360   13 Jun 2027 05:08:06.346   13 Jun 2027 05:08:58.197            51.851         25925.500
       361   13 Jun 2027 05:09:45.460   13 Jun 2027 05:09:53.508             8.048          4024.000
       362   13 Jun 2027 05:12:10.574   13 Jun 2027 05:12:10.574             0.000             0.000
       363   13 Jun 2027 05:12:42.658   13 Jun 2027 05:12:44.941             2.283          1141.500
       364   13 Jun 2027 06:43:10.916   13 Jun 2027 06:44:30.742            79.826         39913.000
       365   13 Jun 2027 06:44:59.047   13 Jun 2027 06:45:47.610            48.563         24281.500
       366   13 Jun 2027 06:48:37.535   13 Jun 2027 06:48:41.286             3.751          1875.500
       367   13 Jun 2027 06:49:27.552   13 Jun 2027 06:49:45.182            17.630          8815.000
       368   13 Jun 2027 08:20:04.972   13 Jun 2027 08:20:29.992            25.020         12510.000
       369   13 Jun 2027 08:20:58.856   13 Jun 2027 08:21:01.702             2.846          1210.750
       370   13 Jun 2027 08:22:32.381   13 Jun 2027 08:22:35.253             2.872          1295.813
       371   13 Jun 2027 08:22:42.698   13 Jun 2027 08:22:46.156             3.458           232.656
       372   13 Jun 2027 08:23:09.170   13 Jun 2027 08:23:10.814             1.644           719.188
       373   13 Jun 2027 08:23:20.532   13 Jun 2027 08:23:21.191             0.659           281.219
       374   13 Jun 2027 08:24:36.541   13 Jun 2027 08:24:42.516             5.975          2091.062
       375   13 Jun 2027 08:25:01.073   13 Jun 2027 08:25:02.512             1.439           421.438
       376   13 Jun 2027 08:25:08.072   13 Jun 2027 08:25:09.649             1.577           173.750
       377   13 Jun 2027 08:25:51.385   13 Jun 2027 08:25:52.402             1.017           508.500
       378   13 Jun 2027 08:26:23.017   13 Jun 2027 08:26:26.439             3.422          1217.313
       379   13 Jun 2027 09:57:05.497   13 Jun 2027 09:57:26.605            21.108          8565.594
       380   13 Jun 2027 09:57:52.607   13 Jun 2027 09:57:54.461             1.854           812.563
       381   13 Jun 2027 09:59:37.983   13 Jun 2027 09:59:43.539             5.556          2088.375
       382   13 Jun 2027 10:00:10.505   13 Jun 2027 10:00:12.173             1.668           497.094
       383   13 Jun 2027 10:00:35.247   13 Jun 2027 10:00:41.427             6.180           704.531
       384   13 Jun 2027 10:00:53.540   13 Jun 2027 10:00:54.587             1.047           214.187
       385   13 Jun 2027 10:00:55.388   13 Jun 2027 10:00:55.792             0.404            25.031
       386   13 Jun 2027 10:01:15.583   13 Jun 2027 10:01:18.021             2.438           477.625
       387   13 Jun 2027 10:01:33.955   13 Jun 2027 10:01:36.002             2.047           497.938
       388   13 Jun 2027 10:03:02.326   13 Jun 2027 10:03:10.694             8.368          2569.781
       389   13 Jun 2027 11:34:59.182   13 Jun 2027 11:35:07.921             8.739          4369.500
       390   13 Jun 2027 11:35:26.142   13 Jun 2027 11:35:31.483             5.341          2662.000
       391   13 Jun 2027 11:35:33.430   13 Jun 2027 11:35:34.545             1.115            59.313
       392   13 Jun 2027 11:36:48.674   13 Jun 2027 11:36:56.478             7.804          2316.531
       393   13 Jun 2027 11:37:10.118   13 Jun 2027 11:37:10.118             0.000             0.000
       394   13 Jun 2027 11:37:26.297   13 Jun 2027 11:37:32.077             5.780           751.594
       395   13 Jun 2027 11:37:37.773   13 Jun 2027 11:37:44.932             7.159            36.750
       396   13 Jun 2027 11:38:01.487   13 Jun 2027 11:38:02.926             1.439           508.844
       397   13 Jun 2027 11:38:13.938   13 Jun 2027 11:38:16.708             2.770           174.562
       398   13 Jun 2027 11:38:37.036   13 Jun 2027 11:38:41.155             4.119           635.250
       399   13 Jun 2027 11:38:52.918   13 Jun 2027 11:38:54.403             1.485           194.156
