uniorb/output/strategy_1/Camera/Camera_KinoSat_110106.txt

KinoSat_110106
-------------------------
    Access    *     Start Time (UTCG)     *     Stop Time (UTCG)  *   Duration (s) *   Data (Mbytes)
         1   01 Jun 2027 03:57:03.768   01 Jun 2027 03:59:23.560           139.792         69896.000
         2   01 Jun 2027 03:59:48.571   01 Jun 2027 03:59:52.612             4.041          2020.500
         3   01 Jun 2027 04:00:30.734   01 Jun 2027 04:00:48.752            18.018          9009.000
         4   01 Jun 2027 04:01:16.044   01 Jun 2027 04:01:18.655             2.611          1305.500
         5   01 Jun 2027 04:01:34.439   01 Jun 2027 04:01:44.472            10.033          5016.500
         6   01 Jun 2027 04:02:29.136   01 Jun 2027 04:02:40.091            10.955          5477.500
         7   01 Jun 2027 04:03:20.289   01 Jun 2027 04:03:24.154             3.865          1932.500
         8   01 Jun 2027 05:35:20.218   01 Jun 2027 05:38:43.675           203.457        101728.500
         9   01 Jun 2027 05:38:59.162   01 Jun 2027 05:39:11.740            12.578          6289.000
        10   01 Jun 2027 07:10:43.462   01 Jun 2027 07:13:43.001           179.539         89769.500
        11   01 Jun 2027 07:14:00.887   01 Jun 2027 07:14:00.887             0.000             0.000
        12   01 Jun 2027 07:14:08.278   01 Jun 2027 07:14:21.725            13.447          6723.500
        13   01 Jun 2027 07:14:47.150   01 Jun 2027 07:14:49.003             1.853           926.500
        14   01 Jun 2027 07:15:46.345   01 Jun 2027 07:16:03.513            17.168          8584.000
        15   02 Jun 2027 04:09:23.281   02 Jun 2027 04:15:45.365           382.084        191042.000
        16   02 Jun 2027 05:47:21.192   02 Jun 2027 05:50:51.173           209.981        104990.500
        17   02 Jun 2027 05:51:13.964   02 Jun 2027 05:51:18.426             4.462          2231.000
        18   02 Jun 2027 07:20:28.411   02 Jun 2027 07:23:26.989           178.578         89289.000
        19   02 Jun 2027 07:25:07.516   02 Jun 2027 07:25:23.329            15.813          7906.500
        20   02 Jun 2027 07:26:19.041   02 Jun 2027 07:26:21.807             2.766          1383.000
        21   02 Jun 2027 07:27:41.806   02 Jun 2027 07:28:12.380            30.574         15287.000
        22   03 Jun 2027 04:21:23.610   03 Jun 2027 04:27:54.126           390.516        195258.000
        23   03 Jun 2027 05:59:21.696   03 Jun 2027 06:03:26.484           244.788        122394.000
        24   03 Jun 2027 07:32:59.246   03 Jun 2027 07:35:14.796           135.550         67775.000
        25   03 Jun 2027 07:36:00.288   03 Jun 2027 07:36:27.268            26.980         13490.000
        26   03 Jun 2027 07:36:59.012   03 Jun 2027 07:37:03.604             4.592          2296.000
        27   03 Jun 2027 07:38:25.167   03 Jun 2027 07:39:02.480            37.313         18656.500
        28   04 Jun 2027 03:00:00.000   04 Jun 2027 03:03:55.632           235.632        117816.000
        29   04 Jun 2027 04:33:15.295   04 Jun 2027 04:36:53.616           218.321        109160.500
        30   04 Jun 2027 04:37:21.260   04 Jun 2027 04:37:25.997             4.737          2368.500
        31   04 Jun 2027 04:38:08.716   04 Jun 2027 04:38:17.940             9.224          4612.000
        32   04 Jun 2027 04:39:14.447   04 Jun 2027 04:39:37.102            22.655         11327.500
        33   04 Jun 2027 06:11:24.601   04 Jun 2027 06:14:07.342           162.741         81370.500
        34   04 Jun 2027 06:15:17.746   04 Jun 2027 06:15:20.700             2.954          1477.000
        35   04 Jun 2027 07:45:16.407   04 Jun 2027 07:47:20.564           124.157         62078.500
        36   04 Jun 2027 07:48:28.076   04 Jun 2027 07:48:49.614            21.538         10769.000
        37   04 Jun 2027 07:50:17.782   04 Jun 2027 07:50:29.439            11.657          5828.500
        38   04 Jun 2027 07:51:10.243   04 Jun 2027 07:51:29.094            18.851          9425.500
        39   05 Jun 2027 03:08:37.886   05 Jun 2027 03:12:56.692           258.806        129403.000
        40   05 Jun 2027 03:13:21.569   05 Jun 2027 03:13:21.569             0.000             0.000
        41   05 Jun 2027 03:13:41.310   05 Jun 2027 03:14:47.013            65.703         32851.500
        42   05 Jun 2027 03:15:37.448   05 Jun 2027 03:15:40.809             3.361          1680.500
        43   05 Jun 2027 04:45:41.923   05 Jun 2027 04:48:15.590           153.667         76833.500
        44   05 Jun 2027 04:48:26.048   05 Jun 2027 04:48:37.442            11.394          5697.000
        45   05 Jun 2027 04:49:59.126   05 Jun 2027 04:50:25.299            26.173         13086.500
        46   05 Jun 2027 04:50:34.960   05 Jun 2027 04:50:39.653             4.693          2346.500
        47   05 Jun 2027 04:51:03.302   05 Jun 2027 04:51:04.242             0.940           470.000
        48   05 Jun 2027 06:22:35.025   05 Jun 2027 06:25:32.117           177.092         88546.000
        49   05 Jun 2027 06:25:52.498   05 Jun 2027 06:25:58.717             6.219          3109.500
        50   05 Jun 2027 06:26:41.506   05 Jun 2027 06:26:44.370             2.864          1432.000
        51   05 Jun 2027 06:27:05.244   05 Jun 2027 06:27:14.331             9.087          4543.500
        52   05 Jun 2027 07:57:46.017   05 Jun 2027 07:58:04.649            18.632          9316.000
        53   05 Jun 2027 07:59:20.268   05 Jun 2027 08:00:11.790            51.522         25761.000
        54   05 Jun 2027 08:01:28.253   05 Jun 2027 08:01:36.973             8.720          4360.000
        55   05 Jun 2027 08:02:08.351   05 Jun 2027 08:02:17.378             9.027          4513.500
        56   05 Jun 2027 08:02:20.668   05 Jun 2027 08:02:31.225            10.557          5278.500
        57   06 Jun 2027 03:21:04.163   06 Jun 2027 03:27:03.286           359.123        179561.500
        58   06 Jun 2027 03:27:40.383   06 Jun 2027 03:27:44.375             3.992          1996.000
        59   06 Jun 2027 04:58:06.169   06 Jun 2027 05:00:29.883           143.714         71857.000
        60   06 Jun 2027 05:01:22.135   06 Jun 2027 05:01:36.058            13.923          6961.500
        61   06 Jun 2027 05:02:42.552   06 Jun 2027 05:03:06.755            24.203         12101.500
        62   06 Jun 2027 06:34:50.060   06 Jun 2027 06:37:30.597           160.537         80268.500
        63   06 Jun 2027 06:37:56.561   06 Jun 2027 06:38:01.750             5.189          2594.500
        64   06 Jun 2027 06:38:30.115   06 Jun 2027 06:38:31.719             1.604           802.000
        65   06 Jun 2027 06:38:49.314   06 Jun 2027 06:39:00.872            11.558          5779.000
        66   06 Jun 2027 08:12:59.245   06 Jun 2027 08:14:07.216            67.971         33985.500
        67   07 Jun 2027 03:33:28.055   07 Jun 2027 03:39:51.357           383.302        191651.000
        68   07 Jun 2027 05:10:58.508   07 Jun 2027 05:13:54.553           176.045         88022.500
        69   07 Jun 2027 05:14:25.717   07 Jun 2027 05:14:28.563             2.846          1423.000
        70   07 Jun 2027 05:15:21.908   07 Jun 2027 05:15:22.396             0.488           244.000
        71   07 Jun 2027 06:47:03.890   07 Jun 2027 06:49:23.895           140.005         70002.500
        72   07 Jun 2027 06:49:24.606   07 Jun 2027 06:49:30.368             5.762          2881.000
        73   07 Jun 2027 06:49:45.610   07 Jun 2027 06:49:50.635             5.025          2512.500
        74   07 Jun 2027 06:50:19.326   07 Jun 2027 06:50:26.860             7.534          3767.000
        75   07 Jun 2027 06:50:48.598   07 Jun 2027 06:50:50.910             2.312          1156.000
        76   07 Jun 2027 06:51:13.734   07 Jun 2027 06:51:19.225             5.491          2745.500
        77   08 Jun 2027 03:45:42.168   08 Jun 2027 03:51:52.395           370.227        185113.500
        78   08 Jun 2027 05:22:59.923   08 Jun 2027 05:25:19.991           140.068         70034.000
        79   08 Jun 2027 05:26:46.496   08 Jun 2027 05:27:38.847            52.351         26175.500
        80   08 Jun 2027 06:59:11.955   08 Jun 2027 07:01:35.182           143.227         71613.500
        81   08 Jun 2027 07:02:10.894   08 Jun 2027 07:02:35.785            24.891         12445.500
        82   08 Jun 2027 07:02:47.423   08 Jun 2027 07:02:49.125             1.702           851.000
        83   08 Jun 2027 07:03:00.922   08 Jun 2027 07:03:06.011             5.089          2544.500
        84   09 Jun 2027 03:57:18.855   09 Jun 2027 04:03:34.782           375.927        187963.500
        85   09 Jun 2027 04:03:40.069   09 Jun 2027 04:03:44.253             4.184          2092.000
        86   09 Jun 2027 05:35:35.575   09 Jun 2027 05:38:48.561           192.986         96493.000
        87   09 Jun 2027 05:39:18.227   09 Jun 2027 05:39:26.630             8.403          4201.500
        88   09 Jun 2027 07:11:01.686   09 Jun 2027 07:13:31.449           149.763         74881.500
        89   09 Jun 2027 07:13:57.570   09 Jun 2027 07:14:17.111            19.541          9770.500
        90   09 Jun 2027 07:15:26.765   09 Jun 2027 07:15:31.640             4.875          2437.500
        91   09 Jun 2027 07:15:57.167   09 Jun 2027 07:16:01.207             4.040          2020.000
        92   09 Jun 2027 07:16:07.677   09 Jun 2027 07:16:18.033            10.356          5178.000
        93   10 Jun 2027 04:09:38.385   10 Jun 2027 04:16:00.304           381.919        190959.500
        94   10 Jun 2027 05:47:36.207   10 Jun 2027 05:51:06.567           210.360        105180.000
        95   10 Jun 2027 05:51:32.635   10 Jun 2027 05:51:33.792             1.157           578.500
        96   10 Jun 2027 07:20:41.829   10 Jun 2027 07:23:07.057           145.228         72614.000
        97   10 Jun 2027 07:24:05.886   10 Jun 2027 07:24:37.529            31.643         15821.500
        98   10 Jun 2027 07:26:20.023   10 Jun 2027 07:26:30.424            10.401          5200.500
        99   10 Jun 2027 07:27:56.724   10 Jun 2027 07:28:13.388            16.664          8332.000
       100   11 Jun 2027 04:21:38.491   11 Jun 2027 04:27:49.854           371.363        185681.500
       101   11 Jun 2027 05:59:36.736   11 Jun 2027 06:03:15.070           218.334        109167.000
       102   11 Jun 2027 07:33:14.150   11 Jun 2027 07:35:06.006           111.856         55928.000
       103   11 Jun 2027 07:36:18.417   11 Jun 2027 07:37:06.725            48.308         24154.000
       104   11 Jun 2027 07:39:51.470   11 Jun 2027 07:39:55.021             3.551          1775.500
       105   11 Jun 2027 07:40:19.685   11 Jun 2027 07:40:32.978            13.293          6646.500
       106   12 Jun 2027 03:00:00.000   12 Jun 2027 03:04:10.444           250.444        125222.000
       107   12 Jun 2027 04:33:30.212   12 Jun 2027 04:36:23.932           173.720         86860.000
       108   12 Jun 2027 04:36:47.051   12 Jun 2027 04:36:52.102             5.051          2525.500
       109   12 Jun 2027 04:37:43.499   12 Jun 2027 04:37:58.045            14.546          7273.000
       110   12 Jun 2027 04:39:29.385   12 Jun 2027 04:39:44.929            15.544          7772.000
       111   12 Jun 2027 06:11:40.099   12 Jun 2027 06:13:52.127           132.028         66014.000
       112   12 Jun 2027 06:13:56.798   12 Jun 2027 06:14:32.965            36.167         18083.500
       113   12 Jun 2027 06:14:38.207   12 Jun 2027 06:15:06.768            28.561         14280.500
       114   12 Jun 2027 07:47:18.340   12 Jun 2027 07:48:41.639            83.299         41649.500
       115   12 Jun 2027 07:49:33.436   12 Jun 2027 07:49:47.500            14.064          7032.000
       116   12 Jun 2027 07:50:32.589   12 Jun 2027 07:50:44.276            11.687          5843.500
       117   12 Jun 2027 07:50:53.325   12 Jun 2027 07:51:10.963            17.638          8819.000
       118   13 Jun 2027 03:08:52.947   13 Jun 2027 03:13:14.589           261.642        130821.000
       119   13 Jun 2027 03:13:27.366   13 Jun 2027 03:13:36.273             8.907          4453.500
       120   13 Jun 2027 03:13:57.071   13 Jun 2027 03:14:34.429            37.358         18679.000
       121   13 Jun 2027 03:14:40.698   13 Jun 2027 03:14:50.324             9.626          4813.000
       122   13 Jun 2027 03:15:43.794   13 Jun 2027 03:15:52.261             8.467          4233.500
       123   13 Jun 2027 04:46:03.683   13 Jun 2027 04:48:31.354           147.671         73835.500
       124   13 Jun 2027 04:48:57.731   13 Jun 2027 04:49:16.550            18.819          9409.500
       125   13 Jun 2027 04:50:10.493   13 Jun 2027 04:50:13.534             3.041          1520.500
       126   13 Jun 2027 04:50:25.289   13 Jun 2027 04:50:27.621             2.332          1166.000
       127   13 Jun 2027 04:50:38.593   13 Jun 2027 04:50:39.843             1.250           625.000
       128   13 Jun 2027 04:51:41.963   13 Jun 2027 04:52:00.806            18.843          9421.500
       129   13 Jun 2027 06:22:49.943   13 Jun 2027 06:25:46.731           176.788         88394.000
       130   13 Jun 2027 06:26:07.621   13 Jun 2027 06:26:15.928             8.307          4153.500
       131   13 Jun 2027 06:26:55.916   13 Jun 2027 06:27:13.539            17.623          8811.500
       132   13 Jun 2027 06:27:19.459   13 Jun 2027 06:27:24.846             5.387          2693.500
       133   13 Jun 2027 07:58:01.132   13 Jun 2027 07:58:17.953            16.821          8410.500
       134   13 Jun 2027 07:59:35.217   13 Jun 2027 08:00:30.009            54.792         27396.000
       135   13 Jun 2027 08:01:09.046   13 Jun 2027 08:01:36.635            27.589         13794.500
