uniorb/output/strategy_1/Camera/Camera_KinoSat_110206.txt

KinoSat_110206
-------------------------
    Access    *     Start Time (UTCG)     *     Stop Time (UTCG)  *   Duration (s) *   Data (Mbytes)
         1   01 Jun 2027 03:51:37.468   01 Jun 2027 03:53:35.042           117.574         58787.000
         2   01 Jun 2027 03:54:12.440   01 Jun 2027 03:54:12.440             0.000             0.000
         3   01 Jun 2027 03:54:36.146   01 Jun 2027 03:55:05.690            29.544         14772.000
         4   01 Jun 2027 03:56:36.886   01 Jun 2027 03:57:25.103            48.217         24108.500
         5   01 Jun 2027 03:57:42.865   01 Jun 2027 03:57:42.865             0.000             0.000
         6   01 Jun 2027 05:28:52.045   01 Jun 2027 05:32:25.045           213.000        106500.000
         7   01 Jun 2027 05:33:11.846   01 Jun 2027 05:33:12.766             0.920           460.000
         8   01 Jun 2027 05:34:19.890   01 Jun 2027 05:34:44.389            24.499         12249.500
         9   01 Jun 2027 07:05:33.894   01 Jun 2027 07:08:01.626           147.732         73866.000
        10   01 Jun 2027 07:08:49.891   01 Jun 2027 07:09:17.391            27.500         13750.000
        11   01 Jun 2027 08:40:45.760   01 Jun 2027 08:40:59.749            13.989          6994.500
        12   01 Jun 2027 08:42:20.653   01 Jun 2027 08:44:00.799           100.146         50073.000
        13   01 Jun 2027 08:44:47.271   01 Jun 2027 08:45:07.918            20.647         10323.500
        14   01 Jun 2027 08:45:14.006   01 Jun 2027 08:45:22.554             8.548          4274.000
        15   02 Jun 2027 04:04:02.808   02 Jun 2027 04:10:44.890           402.082        201041.000
        16   02 Jun 2027 05:41:02.042   02 Jun 2027 05:43:54.739           172.697         86348.500
        17   02 Jun 2027 05:44:59.216   02 Jun 2027 05:45:15.075            15.859          7929.500
        18   02 Jun 2027 07:17:48.670   02 Jun 2027 07:20:24.825           156.155         78077.500
        19   02 Jun 2027 07:21:29.023   02 Jun 2027 07:21:49.022            19.999          9999.500
        20   02 Jun 2027 07:22:06.971   02 Jun 2027 07:22:12.211             5.240          2620.000
        21   02 Jun 2027 08:55:59.032   02 Jun 2027 08:57:02.171            63.139         31569.500
        22   03 Jun 2027 04:16:28.777   03 Jun 2027 04:22:50.942           382.165        191082.500
        23   03 Jun 2027 05:54:02.977   03 Jun 2027 05:57:45.027           222.050        111025.000
        24   03 Jun 2027 07:30:06.026   03 Jun 2027 07:33:03.012           176.986         88493.000
        25   03 Jun 2027 07:33:42.112   03 Jun 2027 07:33:55.872            13.760          6880.000
        26   04 Jun 2027 04:28:41.026   04 Jun 2027 04:34:24.027           343.001        171500.500
        27   04 Jun 2027 04:34:26.412   04 Jun 2027 04:34:44.353            17.941          8970.500
        28   04 Jun 2027 06:05:57.719   04 Jun 2027 06:09:45.711           227.992        113996.000
        29   04 Jun 2027 06:10:20.039   04 Jun 2027 06:10:32.513            12.474          6237.000
        30   04 Jun 2027 07:42:10.256   04 Jun 2027 07:44:34.227           143.971         71985.500
        31   04 Jun 2027 07:44:46.402   04 Jun 2027 07:44:51.105             4.703          2351.500
        32   04 Jun 2027 07:46:01.585   04 Jun 2027 07:46:30.869            29.284         14642.000
        33   05 Jun 2027 03:03:50.296   05 Jun 2027 03:07:50.284           239.988        119994.000
        34   05 Jun 2027 03:08:43.155   05 Jun 2027 03:09:03.835            20.680         10340.000
        35   05 Jun 2027 03:10:32.690   05 Jun 2027 03:11:04.961            32.271         16135.500
        36   05 Jun 2027 04:40:19.854   05 Jun 2027 04:43:06.191           166.337         83168.500
        37   05 Jun 2027 04:44:03.852   05 Jun 2027 04:44:28.030            24.178         12089.000
        38   05 Jun 2027 04:44:59.325   05 Jun 2027 04:45:04.900             5.575          2787.500
        39   05 Jun 2027 04:45:34.232   05 Jun 2027 04:46:10.917            36.685         18342.500
        40   05 Jun 2027 04:46:36.183   05 Jun 2027 04:46:36.183             0.000             0.000
        41   05 Jun 2027 06:18:37.518   05 Jun 2027 06:21:10.942           153.424         76712.000
        42   05 Jun 2027 07:54:04.043   05 Jun 2027 07:56:03.045           119.002         59501.000
        43   05 Jun 2027 07:57:37.287   05 Jun 2027 07:57:42.173             4.886          2443.000
        44   05 Jun 2027 07:57:59.777   05 Jun 2027 07:58:03.257             3.480          1740.000
        45   05 Jun 2027 07:58:40.049   05 Jun 2027 07:58:53.691            13.642          6821.000
        46   05 Jun 2027 07:58:57.791   05 Jun 2027 07:58:59.665             1.874           937.000
        47   06 Jun 2027 03:15:33.348   06 Jun 2027 03:19:45.575           252.227        126113.500
        48   06 Jun 2027 03:20:49.935   06 Jun 2027 03:20:59.567             9.632          4816.000
        49   06 Jun 2027 03:21:06.583   06 Jun 2027 03:21:29.676            23.093         11546.500
        50   06 Jun 2027 03:22:19.778   06 Jun 2027 03:22:59.988            40.210         20105.000
        51   06 Jun 2027 04:52:39.858   06 Jun 2027 04:54:21.200           101.342         50671.000
        52   06 Jun 2027 04:54:34.670   06 Jun 2027 04:55:54.846            80.176         40088.000
        53   06 Jun 2027 04:56:25.795   06 Jun 2027 04:56:50.703            24.908         12454.000
        54   06 Jun 2027 04:57:27.790   06 Jun 2027 04:57:39.726            11.936          5968.000
        55   06 Jun 2027 04:58:02.944   06 Jun 2027 04:58:07.082             4.138          2069.000
        56   06 Jun 2027 04:58:17.667   06 Jun 2027 04:58:26.378             8.711          4355.500
        57   06 Jun 2027 04:58:57.309   06 Jun 2027 04:58:58.944             1.635           817.500
        58   06 Jun 2027 06:30:35.198   06 Jun 2027 06:33:16.394           161.196         80598.000
        59   06 Jun 2027 06:34:09.254   06 Jun 2027 06:34:33.272            24.018         12009.000
        60   06 Jun 2027 08:03:40.354   06 Jun 2027 08:04:42.952            62.598         31299.000
        61   06 Jun 2027 08:05:15.350   06 Jun 2027 08:05:18.346             2.996          1498.000
        62   06 Jun 2027 08:06:11.815   06 Jun 2027 08:06:30.767            18.952          9476.000
        63   06 Jun 2027 08:07:15.166   06 Jun 2027 08:07:42.987            27.821         13910.500
        64   06 Jun 2027 08:09:14.215   06 Jun 2027 08:09:16.691             2.476          1238.000
        65   06 Jun 2027 08:09:29.545   06 Jun 2027 08:09:32.068             2.523          1261.500
        66   06 Jun 2027 08:09:54.892   06 Jun 2027 08:10:00.986             6.094          3047.000
        67   06 Jun 2027 08:10:50.634   06 Jun 2027 08:10:59.084             8.450          4225.000
        68   06 Jun 2027 08:11:21.477   06 Jun 2027 08:11:39.285            17.808          8904.000
        69   07 Jun 2027 03:27:51.309   07 Jun 2027 03:32:24.354           273.045        136522.500
        70   07 Jun 2027 03:33:09.273   07 Jun 2027 03:33:19.266             9.993          4996.500
        71   07 Jun 2027 03:34:01.941   07 Jun 2027 03:34:21.825            19.884          9942.000
        72   07 Jun 2027 03:34:50.192   07 Jun 2027 03:35:09.755            19.563          9781.500
        73   07 Jun 2027 05:04:35.901   07 Jun 2027 05:07:19.409           163.508         81754.000
        74   07 Jun 2027 05:07:39.904   07 Jun 2027 05:07:49.055             9.151          4575.500
        75   07 Jun 2027 05:08:33.801   07 Jun 2027 05:08:35.025             1.224           612.000
        76   07 Jun 2027 05:10:03.489   07 Jun 2027 05:10:40.288            36.799         18399.500
        77   07 Jun 2027 05:11:06.756   07 Jun 2027 05:11:08.862             2.106          1053.000
        78   07 Jun 2027 06:42:34.453   07 Jun 2027 06:45:07.319           152.866         76433.000
        79   07 Jun 2027 06:45:35.881   07 Jun 2027 06:45:48.800            12.919          6459.500
        80   07 Jun 2027 06:46:36.117   07 Jun 2027 06:46:45.399             9.282          4641.000
        81   07 Jun 2027 08:16:12.192   07 Jun 2027 08:17:10.743            58.551         29275.500
        82   07 Jun 2027 08:19:03.496   07 Jun 2027 08:20:00.506            57.010         28505.000
        83   08 Jun 2027 03:39:44.683   08 Jun 2027 03:44:59.334           314.651        157325.500
        84   08 Jun 2027 03:45:11.880   08 Jun 2027 03:46:33.910            82.030         41015.000
        85   08 Jun 2027 05:16:28.725   08 Jun 2027 05:19:54.891           206.166        103083.000
        86   08 Jun 2027 05:20:30.822   08 Jun 2027 05:20:41.610            10.788          5394.000
        87   08 Jun 2027 05:21:11.371   08 Jun 2027 05:21:21.581            10.210          5105.000
        88   08 Jun 2027 05:22:04.872   08 Jun 2027 05:22:12.776             7.904          3952.000
        89   08 Jun 2027 05:22:48.564   08 Jun 2027 05:22:55.639             7.075          3537.500
        90   08 Jun 2027 06:54:22.181   08 Jun 2027 06:57:01.166           158.985         79492.500
        91   08 Jun 2027 06:57:29.146   08 Jun 2027 06:57:45.844            16.698          8349.000
        92   08 Jun 2027 08:30:19.828   08 Jun 2027 08:30:52.234            32.406         16203.000
        93   08 Jun 2027 08:30:59.509   08 Jun 2027 08:30:59.509             0.000             0.000
        94   08 Jun 2027 08:31:56.481   08 Jun 2027 08:32:20.740            24.259         12129.500
        95   08 Jun 2027 08:33:26.278   08 Jun 2027 08:33:31.937             5.659          2829.500
        96   08 Jun 2027 08:33:42.713   08 Jun 2027 08:33:49.611             6.898          3449.000
        97   08 Jun 2027 08:34:07.342   08 Jun 2027 08:34:11.803             4.461          2230.500
        98   08 Jun 2027 08:34:40.723   08 Jun 2027 08:34:40.723             0.000             0.000
        99   09 Jun 2027 03:51:52.694   09 Jun 2027 03:58:29.992           397.298        198649.000
       100   09 Jun 2027 03:59:06.572   09 Jun 2027 03:59:09.906             3.334          1667.000
       101   09 Jun 2027 05:29:07.254   09 Jun 2027 05:32:02.405           175.151         87575.500
       102   09 Jun 2027 05:33:52.130   09 Jun 2027 05:34:23.503            31.373         15686.500
       103   09 Jun 2027 05:34:32.850   09 Jun 2027 05:34:33.866             1.016           508.000
       104   09 Jun 2027 05:34:40.038   09 Jun 2027 05:34:49.542             9.504          4752.000
       105   09 Jun 2027 07:05:48.496   09 Jun 2027 07:08:18.998           150.502         75251.000
       106   09 Jun 2027 07:08:22.695   09 Jun 2027 07:08:27.698             5.003          2501.500
       107   09 Jun 2027 07:08:32.515   09 Jun 2027 07:08:33.888             1.373           686.500
       108   09 Jun 2027 07:09:32.427   09 Jun 2027 07:09:44.227            11.800          5900.000
       109   09 Jun 2027 07:10:28.136   09 Jun 2027 07:10:37.229             9.093          4546.500
       110   09 Jun 2027 08:41:00.823   09 Jun 2027 08:41:14.729            13.906          6953.000
       111   09 Jun 2027 08:42:41.639   09 Jun 2027 08:43:14.463            32.824         16412.000
       112   09 Jun 2027 08:45:02.793   09 Jun 2027 08:45:10.183             7.390          3695.000
       113   09 Jun 2027 08:45:16.345   09 Jun 2027 08:45:16.345             0.000             0.000
       114   10 Jun 2027 04:04:17.816   10 Jun 2027 04:10:59.864           402.048        201024.000
       115   10 Jun 2027 05:41:16.315   10 Jun 2027 05:44:26.539           190.224         95112.000
       116   10 Jun 2027 05:46:00.267   10 Jun 2027 05:46:10.203             9.936          4968.000
       117   10 Jun 2027 05:46:21.709   10 Jun 2027 05:46:27.547             5.838          2919.000
       118   10 Jun 2027 07:18:03.310   10 Jun 2027 07:20:23.835           140.525         70262.500
       119   10 Jun 2027 07:20:51.267   10 Jun 2027 07:21:05.539            14.272          7136.000
       120   10 Jun 2027 07:21:56.265   10 Jun 2027 07:22:19.650            23.385         11692.500
       121   10 Jun 2027 08:56:13.823   10 Jun 2027 08:56:38.633            24.810         12405.000
       122   10 Jun 2027 08:57:07.115   10 Jun 2027 08:57:16.565             9.450          4725.000
       123   11 Jun 2027 04:16:43.724   11 Jun 2027 04:22:30.789           347.065        173532.500
       124   11 Jun 2027 05:54:17.742   11 Jun 2027 05:57:24.470           186.728         93364.000
       125   11 Jun 2027 07:30:21.049   11 Jun 2027 07:32:49.921           148.872         74436.000
       126   11 Jun 2027 07:33:00.025   11 Jun 2027 07:33:04.616             4.591          2295.500
       127   12 Jun 2027 04:28:55.282   12 Jun 2027 04:34:38.893           343.611        171805.500
       128   12 Jun 2027 04:34:41.879   12 Jun 2027 04:34:58.695            16.816          8408.000
       129   12 Jun 2027 06:06:21.345   12 Jun 2027 06:09:06.232           164.887         82443.500
       130   12 Jun 2027 06:10:34.277   12 Jun 2027 06:10:54.047            19.770          9885.000
       131   12 Jun 2027 07:42:25.115   12 Jun 2027 07:44:50.872           145.757         72878.500
       132   12 Jun 2027 07:46:05.545   12 Jun 2027 07:46:20.036            14.491          7245.500
       133   13 Jun 2027 03:04:04.619   13 Jun 2027 03:08:21.988           257.369        128684.500
       134   13 Jun 2027 03:08:57.981   13 Jun 2027 03:08:57.981             0.000             0.000
       135   13 Jun 2027 03:09:05.767   13 Jun 2027 03:09:18.910            13.143          6571.500
       136   13 Jun 2027 03:10:47.341   13 Jun 2027 03:11:19.923            32.582         16291.000
       137   13 Jun 2027 04:40:34.838   13 Jun 2027 04:43:38.279           183.441         91720.500
       138   13 Jun 2027 04:45:15.741   13 Jun 2027 04:45:19.931             4.190          2095.000
       139   13 Jun 2027 04:45:48.924   13 Jun 2027 04:46:27.785            38.861         19430.500
       140   13 Jun 2027 06:18:52.520   13 Jun 2027 06:21:25.955           153.435         76717.500
       141   13 Jun 2027 06:22:13.328   13 Jun 2027 06:22:23.261             9.933          4966.500
       142   13 Jun 2027 07:54:18.337   13 Jun 2027 07:56:17.890           119.553         59776.500
       143   13 Jun 2027 07:57:52.377   13 Jun 2027 07:57:57.807             5.430          2715.000
       144   13 Jun 2027 07:58:14.851   13 Jun 2027 07:58:17.476             2.625          1312.500
       145   13 Jun 2027 07:58:41.584   13 Jun 2027 07:58:57.901            16.317          8158.500
