uniorb/output/strategy_1/Camera/Camera_KinoSat_111005.txt

KinoSat_111005
-------------------------
    Access    *     Start Time (UTCG)     *     Stop Time (UTCG)  *   Duration (s) *   Data (Mbytes)
         1   01 Jun 2027 03:27:16.157   01 Jun 2027 03:28:29.002            72.845         36422.500
         2   01 Jun 2027 03:39:32.066   01 Jun 2027 03:39:59.617            27.551         13775.500
         3   01 Jun 2027 05:01:12.965   01 Jun 2027 05:02:32.554            79.589         39794.500
         4   01 Jun 2027 05:03:20.746   01 Jun 2027 05:03:29.125             8.379          4189.500
         5   01 Jun 2027 05:04:18.701   01 Jun 2027 05:04:23.419             4.718          2359.000
         6   01 Jun 2027 05:04:43.307   01 Jun 2027 05:04:52.072             8.765          4382.500
         7   01 Jun 2027 05:06:09.064   01 Jun 2027 05:06:09.064             0.000             0.000
         8   01 Jun 2027 06:36:06.414   01 Jun 2027 06:37:58.030           111.616         55808.000
         9   01 Jun 2027 06:38:28.452   01 Jun 2027 06:38:29.649             1.197           598.500
        10   01 Jun 2027 06:39:18.686   01 Jun 2027 06:39:33.506            14.820          7410.000
        11   01 Jun 2027 06:42:47.786   01 Jun 2027 06:42:50.744             2.958          1479.000
        12   01 Jun 2027 06:43:22.453   01 Jun 2027 06:43:28.787             6.334          3167.000
        13   01 Jun 2027 06:43:46.511   01 Jun 2027 06:43:46.511             0.000             0.000
        14   01 Jun 2027 06:44:05.726   01 Jun 2027 06:44:11.000             5.274          2637.000
        15   01 Jun 2027 06:44:43.313   01 Jun 2027 06:44:45.557             2.244          1122.000
        16   01 Jun 2027 08:14:01.597   01 Jun 2027 08:15:53.806           112.209         56104.500
        17   01 Jun 2027 08:17:28.826   01 Jun 2027 08:17:48.910            20.084         10042.000
        18   01 Jun 2027 08:19:23.830   01 Jun 2027 08:19:26.705             2.875          1437.500
        19   01 Jun 2027 08:19:51.125   01 Jun 2027 08:19:57.644             6.519          3259.500
        20   01 Jun 2027 09:50:46.857   01 Jun 2027 09:52:48.645           121.788         60894.000
        21   01 Jun 2027 09:54:33.634   01 Jun 2027 09:54:36.941             3.307          1653.500
        22   01 Jun 2027 09:55:54.414   01 Jun 2027 09:55:54.414             0.000             0.000
        23   01 Jun 2027 09:56:40.810   01 Jun 2027 09:56:47.881             7.071          3535.500
        24   01 Jun 2027 09:57:21.199   01 Jun 2027 09:57:28.873             7.674          3837.000
        25   01 Jun 2027 11:28:39.096   01 Jun 2027 11:30:47.510           128.414         64207.000
        26   01 Jun 2027 11:31:54.756   01 Jun 2027 11:31:59.634             4.878          2439.000
        27   01 Jun 2027 11:32:15.004   01 Jun 2027 11:32:16.286             1.282           641.000
        28   02 Jun 2027 03:39:11.695   02 Jun 2027 03:39:39.730            28.035         14017.500
        29   02 Jun 2027 03:40:12.299   02 Jun 2027 03:40:12.299             0.000             0.000
        30   02 Jun 2027 03:40:34.322   02 Jun 2027 03:40:34.844             0.522           261.000
        31   02 Jun 2027 05:15:11.490   02 Jun 2027 05:17:47.365           155.875         77937.500
        32   02 Jun 2027 05:18:09.867   02 Jun 2027 05:18:29.369            19.502          9751.000
        33   02 Jun 2027 06:48:59.663   02 Jun 2027 06:50:35.067            95.404         47702.000
        34   02 Jun 2027 06:50:38.724   02 Jun 2027 06:50:43.645             4.921          2460.500
        35   02 Jun 2027 06:51:05.980   02 Jun 2027 06:51:21.628            15.648          7824.000
        36   02 Jun 2027 06:55:00.114   02 Jun 2027 06:55:00.114             0.000             0.000
        37   02 Jun 2027 06:56:39.895   02 Jun 2027 06:56:47.677             7.782          3891.000
        38   02 Jun 2027 06:57:09.731   02 Jun 2027 06:57:17.240             7.509          3754.500
        39   02 Jun 2027 08:26:11.691   02 Jun 2027 08:28:38.308           146.617         73308.500
        40   02 Jun 2027 08:31:04.473   02 Jun 2027 08:31:10.594             6.121          3060.500
        41   02 Jun 2027 08:31:22.411   02 Jun 2027 08:31:22.411             0.000             0.000
        42   02 Jun 2027 08:32:30.317   02 Jun 2027 08:32:34.640             4.323          2161.500
        43   02 Jun 2027 10:03:25.248   02 Jun 2027 10:05:21.405           116.157         58078.500
        44   02 Jun 2027 10:06:35.215   02 Jun 2027 10:06:44.271             9.056          4528.000
        45   02 Jun 2027 10:07:41.972   02 Jun 2027 10:07:44.845             2.873          1436.500
        46   02 Jun 2027 10:08:56.385   02 Jun 2027 10:09:11.469            15.084          7542.000
        47   02 Jun 2027 11:40:05.769   02 Jun 2027 11:41:51.319           105.550         52775.000
        48   02 Jun 2027 11:42:23.103   02 Jun 2027 11:42:31.430             8.327          4163.500
        49   02 Jun 2027 11:44:29.304   02 Jun 2027 11:44:33.053             3.749          1874.500
        50   03 Jun 2027 03:51:03.706   03 Jun 2027 03:51:47.066            43.360         21680.000
        51   03 Jun 2027 05:27:25.012   03 Jun 2027 05:29:36.802           131.790         65895.000
        52   03 Jun 2027 05:29:55.453   03 Jun 2027 05:30:00.370             4.917          2458.500
        53   03 Jun 2027 07:01:28.174   03 Jun 2027 07:03:35.401           127.227         63613.500
        54   03 Jun 2027 07:04:03.998   03 Jun 2027 07:04:03.998             0.000             0.000
        55   03 Jun 2027 07:04:34.375   03 Jun 2027 07:04:38.477             4.102          2051.000
        56   03 Jun 2027 07:05:12.531   03 Jun 2027 07:05:18.487             5.956          2978.000
        57   03 Jun 2027 07:07:51.733   03 Jun 2027 07:08:02.117            10.384          5192.000
        58   03 Jun 2027 07:08:03.691   03 Jun 2027 07:08:03.692             0.001             0.500
        59   03 Jun 2027 07:08:10.295   03 Jun 2027 07:08:24.269            13.974          6987.000
        60   03 Jun 2027 08:38:34.766   03 Jun 2027 08:40:42.764           127.998         63999.000
        61   03 Jun 2027 08:44:57.869   03 Jun 2027 08:45:16.858            18.989          9494.500
        62   03 Jun 2027 10:15:32.353   03 Jun 2027 10:16:47.062            74.709         37354.500
        63   03 Jun 2027 10:17:15.524   03 Jun 2027 10:17:16.771             1.247           623.500
        64   03 Jun 2027 10:18:27.888   03 Jun 2027 10:18:37.715             9.827          3749.657
        65   03 Jun 2027 10:18:45.337   03 Jun 2027 10:18:46.539             1.202           132.375
        66   03 Jun 2027 10:18:56.529   03 Jun 2027 10:19:00.695             4.166           118.875
        67   03 Jun 2027 10:19:18.080   03 Jun 2027 10:19:21.537             3.457           349.781
        68   03 Jun 2027 10:19:34.263   03 Jun 2027 10:19:36.973             2.710           344.312
        69   03 Jun 2027 11:52:19.675   03 Jun 2027 11:52:38.019            18.344          8183.344
        70   03 Jun 2027 11:53:49.264   03 Jun 2027 11:53:55.600             6.336          1938.156
        71   03 Jun 2027 11:54:40.916   03 Jun 2027 11:54:41.418             0.502           251.000
        72   03 Jun 2027 11:54:59.687   03 Jun 2027 11:55:01.054             1.367           683.500
        73   03 Jun 2027 11:55:26.670   03 Jun 2027 11:55:31.061             4.391          1847.156
        74   04 Jun 2027 04:03:05.927   04 Jun 2027 04:03:56.445            50.518         25259.000
        75   04 Jun 2027 04:05:29.599   04 Jun 2027 04:05:29.599             0.000             0.000
        76   04 Jun 2027 05:39:31.505   04 Jun 2027 05:41:36.016           124.511         62255.500
        77   04 Jun 2027 05:42:56.445   04 Jun 2027 05:43:04.326             7.881          3940.500
        78   04 Jun 2027 07:14:39.691   04 Jun 2027 07:17:02.618           142.927         71463.500
        79   04 Jun 2027 07:17:43.284   04 Jun 2027 07:17:48.436             5.152          2576.000
        80   04 Jun 2027 07:19:47.848   04 Jun 2027 07:19:49.404             1.556           778.000
        81   04 Jun 2027 07:21:20.849   04 Jun 2027 07:21:22.082             1.233           616.500
        82   04 Jun 2027 08:51:00.425   04 Jun 2027 08:51:28.864            28.439         13239.844
        83   04 Jun 2027 08:52:27.562   04 Jun 2027 08:52:31.803             4.241           552.125
        84   04 Jun 2027 08:53:16.881   04 Jun 2027 08:53:20.123             3.242           692.156
        85   04 Jun 2027 08:54:17.281   04 Jun 2027 08:54:18.459             1.178           147.406
        86   04 Jun 2027 08:55:26.657   04 Jun 2027 08:55:37.988            11.331          2128.719
        87   04 Jun 2027 08:55:42.876   04 Jun 2027 08:55:44.677             1.801           152.750
        88   04 Jun 2027 10:28:34.308   04 Jun 2027 10:28:50.312            16.004          7165.062
        89   04 Jun 2027 10:29:03.595   04 Jun 2027 10:29:08.557             4.962           354.500
        90   04 Jun 2027 10:29:29.786   04 Jun 2027 10:29:31.241             1.455           663.406
        91   04 Jun 2027 10:30:39.102   04 Jun 2027 10:30:42.978             3.876          1860.063
        92   04 Jun 2027 10:30:44.643   04 Jun 2027 10:30:45.653             1.010            52.031
        93   04 Jun 2027 10:31:45.979   04 Jun 2027 10:31:55.332             9.353          1718.969
        94   04 Jun 2027 10:32:31.161   04 Jun 2027 10:32:40.737             9.576          1119.656
        95   04 Jun 2027 10:32:55.191   04 Jun 2027 10:32:57.426             2.235           324.156
        96   05 Jun 2027 04:15:04.999   05 Jun 2027 04:15:53.103            48.104         24052.000
        97   05 Jun 2027 04:17:56.206   05 Jun 2027 04:18:04.151             7.945          3972.500
        98   05 Jun 2027 05:51:41.642   05 Jun 2027 05:53:23.984           102.342         51171.000
        99   05 Jun 2027 05:54:59.837   05 Jun 2027 05:55:08.486             8.649          4324.500
       100   05 Jun 2027 07:26:51.784   05 Jun 2027 07:29:05.146           133.362         66681.000
       101   05 Jun 2027 07:32:08.036   05 Jun 2027 07:32:28.539            20.503         10251.500
       102   05 Jun 2027 09:03:09.072   05 Jun 2027 09:03:30.487            21.415         10484.781
       103   05 Jun 2027 09:04:30.294   05 Jun 2027 09:04:33.657             3.363          1252.344
       104   05 Jun 2027 09:05:12.793   05 Jun 2027 09:05:18.383             5.590           676.969
       105   05 Jun 2027 09:05:46.610   05 Jun 2027 09:05:48.015             1.405           494.781
       106   05 Jun 2027 09:06:26.340   05 Jun 2027 09:06:28.694             2.354          1152.344
       107   05 Jun 2027 09:07:12.021   05 Jun 2027 09:07:14.647             2.626          1215.281
       108   05 Jun 2027 09:07:35.675   05 Jun 2027 09:07:36.118             0.443           118.625
       109   05 Jun 2027 09:07:39.880   05 Jun 2027 09:07:40.746             0.866            25.844
       110   05 Jun 2027 09:08:29.928   05 Jun 2027 09:08:34.120             4.192           853.344
       111   05 Jun 2027 09:08:41.314   05 Jun 2027 09:08:44.954             3.640           224.813
       112   05 Jun 2027 10:40:39.071   05 Jun 2027 10:40:54.486            15.415          7707.500
       113   05 Jun 2027 10:41:43.360   05 Jun 2027 10:41:46.395             3.035          1517.500
       114   05 Jun 2027 10:42:49.198   05 Jun 2027 10:42:58.810             9.612          2198.844
       115   05 Jun 2027 10:43:10.389   05 Jun 2027 10:43:11.440             1.051           219.625
       116   05 Jun 2027 10:43:54.463   05 Jun 2027 10:43:56.554             2.091           648.719
       117   05 Jun 2027 10:44:01.845   05 Jun 2027 10:44:03.329             1.484            37.438
       118   05 Jun 2027 10:44:23.186   05 Jun 2027 10:44:24.345             1.159           579.500
       119   05 Jun 2027 10:44:32.962   05 Jun 2027 10:44:32.962             0.000             0.000
       120   05 Jun 2027 10:44:50.994   05 Jun 2027 10:44:55.339             4.345           858.250
       121   06 Jun 2027 03:03:42.414   06 Jun 2027 03:03:54.210            11.796          5898.000
       122   06 Jun 2027 03:04:02.872   06 Jun 2027 03:04:22.737            19.865          9932.500
       123   06 Jun 2027 03:04:40.114   06 Jun 2027 03:04:49.524             9.410          4705.000
       124   06 Jun 2027 03:05:49.625   06 Jun 2027 03:06:25.067            35.442         17721.000
       125   06 Jun 2027 04:27:41.081   06 Jun 2027 04:28:01.763            20.682         10341.000
       126   06 Jun 2027 04:29:07.526   06 Jun 2027 04:29:25.532            18.006          9003.000
       127   06 Jun 2027 06:03:25.828   06 Jun 2027 06:05:07.915           102.087         51043.500
       128   06 Jun 2027 06:07:04.460   06 Jun 2027 06:07:38.514            34.054         17027.000
       129   06 Jun 2027 07:38:20.496   06 Jun 2027 07:39:51.160            90.664         45332.000
       130   06 Jun 2027 07:40:02.083   06 Jun 2027 07:40:07.475             5.392          2696.000
       131   06 Jun 2027 07:40:31.795   06 Jun 2027 07:40:35.265             3.470           787.062
       132   06 Jun 2027 07:41:51.251   06 Jun 2027 07:41:56.573             5.322          2133.719
       133   06 Jun 2027 07:42:14.929   06 Jun 2027 07:42:17.036             2.107           573.625
       134   06 Jun 2027 07:42:28.105   06 Jun 2027 07:42:28.139             0.034            17.000
       135   06 Jun 2027 07:43:21.388   06 Jun 2027 07:43:25.802             4.414          1759.406
       136   06 Jun 2027 07:43:53.664   06 Jun 2027 07:43:58.556             4.892           595.312
       137   06 Jun 2027 07:44:28.843   06 Jun 2027 07:44:33.979             5.136           616.187
       138   06 Jun 2027 09:14:51.524   06 Jun 2027 09:15:14.815            23.291         10071.781
       139   06 Jun 2027 09:16:40.461   06 Jun 2027 09:16:45.742             5.281          1692.500
       140   06 Jun 2027 09:17:32.908   06 Jun 2027 09:17:37.002             4.094          1396.062
       141   06 Jun 2027 09:18:22.556   06 Jun 2027 09:18:24.404             1.848           800.719
       142   06 Jun 2027 09:20:05.317   06 Jun 2027 09:20:11.761             6.444          3096.688
       143   06 Jun 2027 10:53:09.680   06 Jun 2027 10:53:26.749            17.069          7309.313
       144   06 Jun 2027 10:53:26.965   06 Jun 2027 10:53:28.382             1.417             6.750
       145   06 Jun 2027 10:54:48.588   06 Jun 2027 10:54:55.273             6.685          2470.969
       146   06 Jun 2027 10:55:24.114   06 Jun 2027 10:55:25.548             1.434           415.625
       147   06 Jun 2027 10:55:38.817   06 Jun 2027 10:55:41.408             2.591           122.219
       148   06 Jun 2027 10:56:06.897   06 Jun 2027 10:56:10.450             3.553           796.531
       149   06 Jun 2027 10:56:42.462   06 Jun 2027 10:56:45.522             3.060           647.500
       150   07 Jun 2027 03:04:13.890   07 Jun 2027 03:04:44.657            30.767         15383.500
       151   07 Jun 2027 03:15:38.767   07 Jun 2027 03:16:46.759            67.992         33996.000
       152   07 Jun 2027 03:17:54.440   07 Jun 2027 03:18:09.808            15.368          7684.000
       153   07 Jun 2027 04:38:15.512   07 Jun 2027 04:38:33.815            18.303          9151.500
       154   07 Jun 2027 04:40:36.337   07 Jun 2027 04:41:01.210            24.873         12436.500
       155   07 Jun 2027 06:13:41.279   07 Jun 2027 06:14:35.824            54.545         27272.500
       156   07 Jun 2027 06:15:11.795   07 Jun 2027 06:16:05.250            53.455         26727.500
       157   07 Jun 2027 06:18:12.758   07 Jun 2027 06:18:13.027             0.269           134.500
       158   07 Jun 2027 06:19:04.121   07 Jun 2027 06:19:20.147            16.026          8013.000
       159   07 Jun 2027 06:19:46.539   07 Jun 2027 06:19:48.093             1.554           777.000
       160   07 Jun 2027 07:50:05.830   07 Jun 2027 07:51:27.452            81.622         40811.000
       161   07 Jun 2027 07:51:32.248   07 Jun 2027 07:51:37.372             5.124          2531.250
       162   07 Jun 2027 07:52:09.091   07 Jun 2027 07:52:15.003             5.912           737.906
       163   07 Jun 2027 07:53:03.878   07 Jun 2027 07:53:06.900             3.022          1325.875
       164   07 Jun 2027 07:53:37.118   07 Jun 2027 07:53:40.738             3.620           944.313
       165   07 Jun 2027 07:53:53.455   07 Jun 2027 07:53:55.536             2.081           173.094
       166   07 Jun 2027 07:55:42.037   07 Jun 2027 07:55:45.659             3.622          1811.000
       167   07 Jun 2027 07:56:10.713   07 Jun 2027 07:56:15.955             5.242          2008.188
       168   07 Jun 2027 07:56:50.656   07 Jun 2027 07:56:53.571             2.915          1084.406
       169   07 Jun 2027 07:57:03.687   07 Jun 2027 07:57:08.865             5.178           197.375
       170   07 Jun 2027 07:57:34.022   07 Jun 2027 07:57:36.203             2.181           291.938
       171   07 Jun 2027 09:27:11.860   07 Jun 2027 09:27:33.631            21.771         10754.313
       172   07 Jun 2027 09:28:32.869   07 Jun 2027 09:28:35.611             2.742          1101.938
       173   07 Jun 2027 09:29:02.385   07 Jun 2027 09:29:06.433             4.048           181.094
       174   07 Jun 2027 09:29:33.185   07 Jun 2027 09:29:34.765             1.580           527.688
       175   07 Jun 2027 09:30:27.834   07 Jun 2027 09:30:32.172             4.338          1658.406
       176   07 Jun 2027 09:30:50.762   07 Jun 2027 09:30:51.040             0.278            52.906
       177   07 Jun 2027 09:31:13.335   07 Jun 2027 09:31:18.576             5.241           693.531
       178   07 Jun 2027 09:31:23.447   07 Jun 2027 09:31:24.005             0.558           152.219
       179   07 Jun 2027 09:31:31.250   07 Jun 2027 09:31:32.942             1.692           194.687
       180   07 Jun 2027 09:31:43.502   07 Jun 2027 09:31:44.855             1.353           321.906
       181   07 Jun 2027 09:33:05.645   07 Jun 2027 09:33:09.820             4.175          1870.250
       182   07 Jun 2027 11:05:07.259   07 Jun 2027 11:05:22.150            14.891          6622.000
       183   07 Jun 2027 11:05:52.809   07 Jun 2027 11:05:58.559             5.750           945.937
       184   07 Jun 2027 11:06:47.027   07 Jun 2027 11:06:49.043             2.016           669.688
       185   07 Jun 2027 11:07:11.547   07 Jun 2027 11:07:16.436             4.889           703.250
       186   07 Jun 2027 11:08:15.820   07 Jun 2027 11:08:19.566             3.746          1807.844
       187   07 Jun 2027 11:08:48.868   07 Jun 2027 11:08:50.468             1.600           676.625
       188   08 Jun 2027 03:15:58.566   08 Jun 2027 03:16:44.825            46.259         23129.500
       189   08 Jun 2027 03:27:42.176   08 Jun 2027 03:28:40.658            58.482         29241.000
       190   08 Jun 2027 04:49:55.711   08 Jun 2027 04:50:48.753            53.042         26521.000
       191   08 Jun 2027 04:52:20.137   08 Jun 2027 04:52:22.790             2.653          1326.500
       192   08 Jun 2027 04:53:17.090   08 Jun 2027 04:53:23.267             6.177          3088.500
       193   08 Jun 2027 04:54:08.744   08 Jun 2027 04:54:08.744             0.000             0.000
       194   08 Jun 2027 04:54:26.553   08 Jun 2027 04:54:37.991            11.438          5719.000
       195   08 Jun 2027 06:24:51.000   08 Jun 2027 06:26:12.698            81.698         40849.000
       196   08 Jun 2027 06:26:18.614   08 Jun 2027 06:26:26.665             8.051          4025.500
       197   08 Jun 2027 06:27:48.018   08 Jun 2027 06:27:52.072             4.054          2027.000
       198   08 Jun 2027 06:27:58.919   08 Jun 2027 06:28:03.145             4.226          2113.000
       199   08 Jun 2027 06:28:06.676   08 Jun 2027 06:28:14.040             7.364          3682.000
       200   08 Jun 2027 06:29:53.784   08 Jun 2027 06:29:58.622             4.838          2419.000
       201   08 Jun 2027 06:31:31.434   08 Jun 2027 06:31:52.507            21.073         10536.500
       202   08 Jun 2027 08:02:21.945   08 Jun 2027 08:03:20.236            58.291         26616.781
       203   08 Jun 2027 08:04:19.228   08 Jun 2027 08:04:21.433             2.205          1102.500
       204   08 Jun 2027 08:05:23.799   08 Jun 2027 08:05:27.187             3.388          1694.000
       205   08 Jun 2027 08:05:27.754   08 Jun 2027 08:05:31.904             4.150           927.531
       206   08 Jun 2027 08:07:12.868   08 Jun 2027 08:07:25.913            13.045          2920.375
       207   08 Jun 2027 08:07:49.789   08 Jun 2027 08:07:51.117             1.328           559.031
       208   08 Jun 2027 08:08:32.407   08 Jun 2027 08:08:36.592             4.185          1181.219
       209   08 Jun 2027 08:09:40.164   08 Jun 2027 08:09:41.424             1.260           630.000
       210   08 Jun 2027 09:39:07.521   08 Jun 2027 09:39:31.177            23.656         10582.968
       211   08 Jun 2027 09:40:17.034   08 Jun 2027 09:40:19.324             2.290           750.344
       212   08 Jun 2027 09:41:31.002   08 Jun 2027 09:41:35.896             4.894          1957.531
       213   08 Jun 2027 09:42:40.399   08 Jun 2027 09:42:43.262             2.863          1431.500
       214   08 Jun 2027 09:43:18.720   08 Jun 2027 09:43:21.943             3.223          1611.500
       215   08 Jun 2027 09:43:31.108   08 Jun 2027 09:43:37.923             6.815           367.188
       216   08 Jun 2027 09:44:12.712   08 Jun 2027 09:44:21.114             8.402           932.281
       217   08 Jun 2027 09:44:57.057   08 Jun 2027 09:44:59.485             2.428           883.469
       218   08 Jun 2027 09:45:07.703   08 Jun 2027 09:45:08.056             0.353           176.500
       219   08 Jun 2027 09:45:23.404   08 Jun 2027 09:45:24.730             1.326           537.938
       220   08 Jun 2027 09:45:40.257   08 Jun 2027 09:45:40.953             0.696           297.219
       221   08 Jun 2027 11:17:06.743   08 Jun 2027 11:17:23.818            17.075          8417.219
       222   08 Jun 2027 11:18:21.408   08 Jun 2027 11:18:25.562             4.154          1440.344
       223   08 Jun 2027 11:18:46.557   08 Jun 2027 11:18:48.563             2.006           349.812
       224   08 Jun 2027 11:19:34.847   08 Jun 2027 11:19:40.376             5.529          1446.375
       225   08 Jun 2027 11:19:44.052   08 Jun 2027 11:19:51.883             7.831           114.875
       226   08 Jun 2027 11:20:29.307   08 Jun 2027 11:20:31.526             2.219           801.187
       227   08 Jun 2027 11:21:03.091   08 Jun 2027 11:21:05.109             2.018           853.531
       228   09 Jun 2027 03:27:31.415   09 Jun 2027 03:28:24.726            53.311         26655.500
       229   09 Jun 2027 03:29:26.180   09 Jun 2027 03:29:30.726             4.546          2273.000
       230   09 Jun 2027 03:39:47.163   09 Jun 2027 03:40:14.807            27.644         13822.000
       231   09 Jun 2027 05:01:27.610   09 Jun 2027 05:02:47.522            79.912         39956.000
       232   09 Jun 2027 05:03:35.755   09 Jun 2027 05:04:10.683            34.928         17464.000
       233   09 Jun 2027 05:04:26.378   09 Jun 2027 05:04:26.378             0.000             0.000
       234   09 Jun 2027 05:05:57.726   09 Jun 2027 05:05:59.880             2.154          1077.000
       235   09 Jun 2027 05:06:06.661   09 Jun 2027 05:06:06.661             0.000             0.000
       236   09 Jun 2027 05:06:11.496   09 Jun 2027 05:06:25.032            13.536          6768.000
       237   09 Jun 2027 06:36:21.126   09 Jun 2027 06:37:55.750            94.624         47312.000
       238   09 Jun 2027 06:42:35.458   09 Jun 2027 06:42:51.030            15.572          7786.000
       239   09 Jun 2027 06:42:56.917   09 Jun 2027 06:42:59.943             3.026          1513.000
       240   09 Jun 2027 06:44:12.167   09 Jun 2027 06:44:12.167             0.000             0.000
       241   09 Jun 2027 06:44:46.346   09 Jun 2027 06:44:54.455             8.109          4054.500
       242   09 Jun 2027 06:45:30.311   09 Jun 2027 06:45:40.020             9.709          4854.500
       243   09 Jun 2027 08:14:16.701   09 Jun 2027 08:14:57.252            40.551         19922.093
       244   09 Jun 2027 08:16:06.568   09 Jun 2027 08:16:08.834             2.266          1133.000
       245   09 Jun 2027 08:17:10.207   09 Jun 2027 08:17:17.283             7.076          2739.844
       246   09 Jun 2027 08:17:31.886   09 Jun 2027 08:17:32.481             0.595           208.312
       247   09 Jun 2027 08:17:57.773   09 Jun 2027 08:18:02.404             4.631           417.156
       248   09 Jun 2027 08:18:19.669   09 Jun 2027 08:18:19.835             0.166            83.000
       249   09 Jun 2027 08:18:23.329   09 Jun 2027 08:18:24.834             1.505           451.719
       250   09 Jun 2027 08:19:06.065   09 Jun 2027 08:19:20.929            14.864          1288.469
       251   09 Jun 2027 08:19:38.502   09 Jun 2027 08:19:38.502             0.000             0.000
       252   09 Jun 2027 08:20:12.369   09 Jun 2027 08:20:14.096             1.727           863.500
       253   09 Jun 2027 08:20:45.769   09 Jun 2027 08:20:45.769             0.000             0.000
       254   09 Jun 2027 08:21:36.233   09 Jun 2027 08:21:42.437             6.204          3102.000
       255   09 Jun 2027 09:51:04.029   09 Jun 2027 09:51:10.289             6.260          3130.000
       256   09 Jun 2027 09:51:36.858   09 Jun 2027 09:51:48.371            11.513          5679.500
       257   09 Jun 2027 09:52:23.005   09 Jun 2027 09:52:25.233             2.228          1029.344
       258   09 Jun 2027 09:53:39.887   09 Jun 2027 09:53:45.866             5.979          2278.187
       259   09 Jun 2027 09:54:52.262   09 Jun 2027 09:55:01.492             9.230          1518.625
       260   09 Jun 2027 09:55:17.744   09 Jun 2027 09:55:20.634             2.890           437.969
       261   09 Jun 2027 09:55:32.729   09 Jun 2027 09:55:33.778             1.049           357.312
       262   09 Jun 2027 09:57:02.618   09 Jun 2027 09:57:05.743             3.125          1562.500
       263   09 Jun 2027 09:57:34.397   09 Jun 2027 09:57:41.423             7.026          2016.375
       264   09 Jun 2027 11:28:54.442   09 Jun 2027 11:29:07.654            13.212          5980.187
       265   09 Jun 2027 11:29:11.484   09 Jun 2027 11:29:13.594             2.110           119.687
       266   09 Jun 2027 11:29:40.523   09 Jun 2027 11:29:43.015             2.492           726.500
       267   09 Jun 2027 11:30:24.379   09 Jun 2027 11:30:28.237             3.858          1202.250
       268   09 Jun 2027 11:30:49.339   09 Jun 2027 11:30:49.339             0.000             0.000
       269   09 Jun 2027 11:31:13.916   09 Jun 2027 11:31:18.502             4.586           858.563
       270   09 Jun 2027 11:31:50.970   09 Jun 2027 11:31:52.217             1.247           623.500
       271   09 Jun 2027 11:32:09.484   09 Jun 2027 11:32:11.271             1.787           625.437
       272   09 Jun 2027 11:33:13.161   09 Jun 2027 11:33:16.153             2.992          1496.000
       273   10 Jun 2027 03:39:27.064   10 Jun 2027 03:40:27.366            60.302         30151.000
       274   10 Jun 2027 05:15:26.682   10 Jun 2027 05:17:26.783           120.101         60050.500
       275   10 Jun 2027 05:18:08.913   10 Jun 2027 05:18:14.434             5.521          2760.500
       276   10 Jun 2027 05:18:19.185   10 Jun 2027 05:18:44.585            25.400         12700.000
       277   10 Jun 2027 06:49:14.529   10 Jun 2027 06:50:58.580           104.051         52025.500
       278   10 Jun 2027 06:51:40.575   10 Jun 2027 06:51:46.798             6.223          3111.500
       279   10 Jun 2027 06:54:43.639   10 Jun 2027 06:54:58.555            14.916          7458.000
       280   10 Jun 2027 06:55:52.062   10 Jun 2027 06:56:00.318             8.256          3360.688
       281   10 Jun 2027 06:57:07.118   10 Jun 2027 06:57:07.118             0.000             0.000
       282   10 Jun 2027 06:57:45.424   10 Jun 2027 06:57:46.009             0.585           292.500
       283   10 Jun 2027 08:26:28.243   10 Jun 2027 08:26:51.210            22.967         10087.187
       284   10 Jun 2027 08:27:27.450   10 Jun 2027 08:27:33.454             6.004           399.094
       285   10 Jun 2027 08:28:04.852   10 Jun 2027 08:28:08.839             3.987           558.906
       286   10 Jun 2027 08:28:39.991   10 Jun 2027 08:28:42.787             2.796           973.500
       287   10 Jun 2027 08:30:20.483   10 Jun 2027 08:30:27.536             7.053          2729.563
       288   10 Jun 2027 08:30:38.998   10 Jun 2027 08:30:39.705             0.707           303.563
       289   10 Jun 2027 08:31:03.902   10 Jun 2027 08:31:05.545             1.643           170.875
       290   10 Jun 2027 08:31:37.853   10 Jun 2027 08:31:41.476             3.623           889.094
       291   10 Jun 2027 08:32:09.237   10 Jun 2027 08:32:12.840             3.603           634.687
       292   10 Jun 2027 08:32:15.830   10 Jun 2027 08:32:22.153             6.323            88.906
       293   10 Jun 2027 08:32:30.537   10 Jun 2027 08:32:32.949             2.412           262.000
       294   10 Jun 2027 08:33:39.734   10 Jun 2027 08:33:41.522             1.788           894.000
       295   10 Jun 2027 10:03:40.840   10 Jun 2027 10:03:58.013            17.173          8500.250
       296   10 Jun 2027 10:04:28.814   10 Jun 2027 10:04:33.054             4.240           892.813
       297   10 Jun 2027 10:05:17.891   10 Jun 2027 10:05:17.891             0.000             0.000
       298   10 Jun 2027 10:05:24.308   10 Jun 2027 10:05:29.610             5.302           324.844
       299   10 Jun 2027 10:05:59.328   10 Jun 2027 10:06:01.280             1.952           892.281
       300   10 Jun 2027 10:06:35.401   10 Jun 2027 10:06:38.733             3.332           220.375
       301   10 Jun 2027 10:07:23.578   10 Jun 2027 10:07:28.411             4.833          1401.406
       302   10 Jun 2027 10:07:31.711   10 Jun 2027 10:07:32.075             0.364           103.125
       303   10 Jun 2027 10:07:46.265   10 Jun 2027 10:07:47.379             1.114           422.812
       304   10 Jun 2027 10:08:53.792   10 Jun 2027 10:08:55.762             1.970           985.000
       305   10 Jun 2027 11:40:23.510   10 Jun 2027 11:40:38.571            15.061          6676.812
       306   10 Jun 2027 11:41:54.784   10 Jun 2027 11:41:59.845             5.061          2137.844
       307   10 Jun 2027 11:42:06.108   10 Jun 2027 11:42:06.108             0.000             0.000
       308   10 Jun 2027 11:42:39.823   10 Jun 2027 11:42:45.468             5.645          1249.312
       309   10 Jun 2027 11:43:25.305   10 Jun 2027 11:43:27.321             2.016          1008.000
       310   10 Jun 2027 11:43:41.800   10 Jun 2027 11:43:41.800             0.000             0.000
       311   10 Jun 2027 11:44:04.006   10 Jun 2027 11:44:06.753             2.747          1346.406
       312   10 Jun 2027 11:44:44.974   10 Jun 2027 11:44:45.956             0.982           391.094
       313   10 Jun 2027 11:44:51.400   10 Jun 2027 11:44:53.040             1.640           120.406
       314   10 Jun 2027 11:45:01.945   10 Jun 2027 11:45:02.589             0.644           180.813
       315   10 Jun 2027 11:45:09.383   10 Jun 2027 11:45:13.010             3.627           212.312
       316   11 Jun 2027 03:51:18.893   11 Jun 2027 03:52:10.615            51.722         25861.000
       317   11 Jun 2027 05:27:40.463   11 Jun 2027 05:30:04.753           144.290         72145.000
       318   11 Jun 2027 07:01:45.735   11 Jun 2027 07:03:36.536           110.801         55400.500
       319   11 Jun 2027 07:03:48.087   11 Jun 2027 07:03:58.304            10.217          5108.500
       320   11 Jun 2027 07:04:15.622   11 Jun 2027 07:04:20.365             4.743          2371.500
       321   11 Jun 2027 07:04:50.655   11 Jun 2027 07:04:50.655             0.000             0.000
       322   11 Jun 2027 07:05:58.961   11 Jun 2027 07:06:05.859             6.898          3449.000
       323   11 Jun 2027 07:09:06.597   11 Jun 2027 07:09:15.600             9.003          4501.500
       324   11 Jun 2027 07:09:34.616   11 Jun 2027 07:09:36.598             1.982           991.000
       325   11 Jun 2027 07:09:41.365   11 Jun 2027 07:09:44.261             2.896          1448.000
       326   11 Jun 2027 08:38:49.958   11 Jun 2027 08:39:18.039            28.081         13253.687
       327   11 Jun 2027 08:40:02.426   11 Jun 2027 08:40:07.190             4.764           752.500
       328   11 Jun 2027 08:41:09.065   11 Jun 2027 08:41:18.250             9.185          1182.500
       329   11 Jun 2027 08:41:36.863   11 Jun 2027 08:41:38.819             1.956           400.750
       330   11 Jun 2027 08:41:44.933   11 Jun 2027 08:41:45.892             0.959           159.625
       331   11 Jun 2027 08:41:52.118   11 Jun 2027 08:41:52.296             0.178            45.625
       332   11 Jun 2027 08:42:33.251   11 Jun 2027 08:42:38.017             4.766          1269.844
       333   11 Jun 2027 08:43:44.531   11 Jun 2027 08:43:49.316             4.785          1472.688
       334   11 Jun 2027 08:44:04.595   11 Jun 2027 08:44:06.020             1.425           477.469
       335   11 Jun 2027 08:44:57.597   11 Jun 2027 08:45:08.576            10.979          1344.969
       336   11 Jun 2027 08:45:15.136   11 Jun 2027 08:45:16.229             1.093           205.000
       337   11 Jun 2027 10:15:47.613   11 Jun 2027 10:16:04.402            16.789          7655.781
       338   11 Jun 2027 10:17:22.216   11 Jun 2027 10:17:27.462             5.246          2431.687
       339   11 Jun 2027 10:17:52.041   11 Jun 2027 10:17:55.057             3.016           675.563
       340   11 Jun 2027 10:18:29.184   11 Jun 2027 10:18:30.467             1.283           252.781
       341   11 Jun 2027 10:19:10.175   11 Jun 2027 10:19:12.580             2.405          1111.375
       342   11 Jun 2027 10:19:33.329   11 Jun 2027 10:19:37.437             4.108           342.094
       343   11 Jun 2027 10:19:45.134   11 Jun 2027 10:19:46.630             1.496           240.531
       344   11 Jun 2027 10:20:07.541   11 Jun 2027 10:20:11.123             3.582           580.031
       345   11 Jun 2027 10:20:28.006   11 Jun 2027 10:20:28.006             0.000             0.000
       346   11 Jun 2027 11:52:33.649   11 Jun 2027 11:52:47.301            13.652          6221.312
       347   11 Jun 2027 11:53:22.513   11 Jun 2027 11:53:23.612             1.099           549.500
       348   11 Jun 2027 11:54:12.275   11 Jun 2027 11:54:15.763             3.488          1744.000
       349   11 Jun 2027 11:54:31.035   11 Jun 2027 11:54:38.398             7.363           804.844
       350   11 Jun 2027 11:54:56.141   11 Jun 2027 11:55:01.929             5.788           541.938
       351   11 Jun 2027 11:56:02.620   11 Jun 2027 11:56:03.373             0.753           376.500
       352   11 Jun 2027 11:56:12.393   11 Jun 2027 11:56:26.855            14.462          1658.187
       353   11 Jun 2027 11:56:42.666   11 Jun 2027 11:56:43.983             1.317           274.875
       354   12 Jun 2027 04:03:22.041   12 Jun 2027 04:04:12.897            50.856         25428.000
       355   12 Jun 2027 04:04:32.327   12 Jun 2027 04:04:37.395             5.068          2534.000
       356   12 Jun 2027 04:05:14.566   12 Jun 2027 04:05:20.679             6.113          3056.500
       357   12 Jun 2027 05:39:47.206   12 Jun 2027 05:41:50.674           123.468         61734.000
       358   12 Jun 2027 05:42:38.633   12 Jun 2027 05:42:40.741             2.108          1054.000
       359   12 Jun 2027 07:14:55.117   12 Jun 2027 07:17:06.215           131.098         65549.000
       360   12 Jun 2027 07:19:06.547   12 Jun 2027 07:19:09.054             2.507          1253.500
       361   12 Jun 2027 07:19:45.002   12 Jun 2027 07:19:59.837            14.835          6868.282
       362   12 Jun 2027 07:20:11.079   12 Jun 2027 07:20:13.255             2.176           351.313
       363   12 Jun 2027 07:20:58.339   12 Jun 2027 07:21:06.270             7.931          1408.875
       364   12 Jun 2027 08:51:16.124   12 Jun 2027 08:51:38.221            22.097         10985.281
       365   12 Jun 2027 08:52:28.233   12 Jun 2027 08:52:35.514             7.281           641.469
       366   12 Jun 2027 08:53:34.592   12 Jun 2027 08:53:36.597             2.005           745.563
       367   12 Jun 2027 08:53:40.234   12 Jun 2027 08:53:41.544             1.310           113.656
       368   12 Jun 2027 08:54:08.081   12 Jun 2027 08:54:11.491             3.410           548.250
       369   12 Jun 2027 08:54:33.101   12 Jun 2027 08:54:33.716             0.615           182.719
       370   12 Jun 2027 08:55:42.907   12 Jun 2027 08:55:48.622             5.715          2156.906
       371   12 Jun 2027 08:55:59.755   12 Jun 2027 08:56:07.081             7.326           219.656
       372   12 Jun 2027 08:56:34.317   12 Jun 2027 08:56:35.802             1.485           609.281
       373   12 Jun 2027 08:56:54.841   12 Jun 2027 08:56:58.038             3.197           594.969
       374   12 Jun 2027 08:57:13.994   12 Jun 2027 08:57:15.143             1.149           118.469
       375   12 Jun 2027 10:28:49.347   12 Jun 2027 10:29:05.373            16.026          7777.750
       376   12 Jun 2027 10:29:54.364   12 Jun 2027 10:29:58.534             4.170          1439.437
       377   12 Jun 2027 10:30:24.393   12 Jun 2027 10:30:32.531             8.138           557.687
       378   12 Jun 2027 10:30:54.273   12 Jun 2027 10:30:56.076             1.803           679.438
       379   12 Jun 2027 10:31:00.036   12 Jun 2027 10:31:01.141             1.105            40.344
       380   12 Jun 2027 10:32:02.430   12 Jun 2027 10:32:06.172             3.742          1759.281
       381   12 Jun 2027 10:32:13.964   12 Jun 2027 10:32:15.437             1.473           104.250
       382   12 Jun 2027 10:32:18.421   12 Jun 2027 10:32:19.847             1.426            93.250
       383   13 Jun 2027 04:15:19.750   13 Jun 2027 04:16:07.952            48.202         24101.000
       384   13 Jun 2027 04:16:15.460   13 Jun 2027 04:16:33.760            18.300          9150.000
       385   13 Jun 2027 04:17:17.716   13 Jun 2027 04:17:21.344             3.628          1814.000
       386   13 Jun 2027 05:51:56.829   13 Jun 2027 05:54:14.285           137.456         68728.000
       387   13 Jun 2027 07:27:06.822   13 Jun 2027 07:29:06.474           119.652         59826.000
       388   13 Jun 2027 07:32:22.907   13 Jun 2027 07:32:27.751             4.844          2422.000
       389   13 Jun 2027 07:33:17.752   13 Jun 2027 07:33:20.115             2.363          1181.500
       390   13 Jun 2027 09:03:24.087   13 Jun 2027 09:03:47.936            23.849         11581.969
       391   13 Jun 2027 09:04:05.140   13 Jun 2027 09:04:06.790             1.650           382.187
       392   13 Jun 2027 09:05:06.552   13 Jun 2027 09:05:12.152             5.600           696.844
       393   13 Jun 2027 09:05:45.833   13 Jun 2027 09:05:49.148             3.315          1013.812
       394   13 Jun 2027 09:05:56.726   13 Jun 2027 09:05:57.427             0.701            84.156
       395   13 Jun 2027 09:07:18.093   13 Jun 2027 09:07:23.829             5.736          1862.406
       396   13 Jun 2027 09:08:17.353   13 Jun 2027 09:08:20.823             3.470          1586.812
       397   13 Jun 2027 09:08:44.550   13 Jun 2027 09:08:46.033             1.483           741.469
       398   13 Jun 2027 09:08:57.666   13 Jun 2027 09:09:00.275             2.609           276.969
       399   13 Jun 2027 10:40:55.695   13 Jun 2027 10:41:15.570            19.875          8067.969
       400   13 Jun 2027 10:41:39.729   13 Jun 2027 10:41:41.022             1.293           508.500
       401   13 Jun 2027 10:42:53.741   13 Jun 2027 10:42:58.094             4.353          1737.687
       402   13 Jun 2027 10:43:44.327   13 Jun 2027 10:43:49.911             5.584          1389.938
       403   13 Jun 2027 10:44:09.435   13 Jun 2027 10:44:12.398             2.963           601.687
       404   13 Jun 2027 10:44:38.980   13 Jun 2027 10:44:42.871             3.891           737.563
       405   13 Jun 2027 10:45:10.117   13 Jun 2027 10:45:11.821             1.704           851.437
