uniorb/output/strategy_1/Camera/Camera_KinoSat_110808.txt

KinoSat_110808
-------------------------
    Access    *     Start Time (UTCG)     *     Stop Time (UTCG)  *   Duration (s) *   Data (Mbytes)
         1   01 Jun 2027 03:06:20.817   01 Jun 2027 03:07:14.108            53.291         26645.500
         2   01 Jun 2027 03:08:01.172   01 Jun 2027 03:08:01.172             0.000             0.000
         3   01 Jun 2027 04:42:49.844   01 Jun 2027 04:44:58.744           128.900         64450.000
         4   01 Jun 2027 06:17:54.840   01 Jun 2027 06:19:25.482            90.642         45321.000
         5   01 Jun 2027 06:20:44.539   01 Jun 2027 06:20:51.347             6.808          3404.000
         6   01 Jun 2027 06:22:54.263   01 Jun 2027 06:23:22.079            27.816         13908.000
         7   01 Jun 2027 06:23:26.879   01 Jun 2027 06:23:31.559             4.680          2340.000
         8   01 Jun 2027 06:24:10.521   01 Jun 2027 06:24:14.210             3.689          1844.500
         9   01 Jun 2027 06:24:33.069   01 Jun 2027 06:24:37.607             4.538          2269.000
        10   01 Jun 2027 07:54:16.838   01 Jun 2027 07:56:22.469           125.631         62815.500
        11   01 Jun 2027 07:56:53.852   01 Jun 2027 07:57:21.536            27.684         13842.000
        12   01 Jun 2027 09:31:46.999   01 Jun 2027 09:33:34.295           107.296         53648.000
        13   01 Jun 2027 09:34:11.268   01 Jun 2027 09:34:18.042             6.774          3387.000
        14   01 Jun 2027 09:35:43.491   01 Jun 2027 09:36:10.707            27.216         13608.000
        15   01 Jun 2027 11:07:51.708   01 Jun 2027 11:09:58.642           126.934         63467.000
        16   01 Jun 2027 11:10:58.356   01 Jun 2027 11:11:18.058            19.702          9851.000
        17   02 Jun 2027 03:18:16.657   02 Jun 2027 03:18:40.664            24.007         12003.500
        18   02 Jun 2027 03:20:52.138   02 Jun 2027 03:20:59.045             6.907          3453.500
        19   02 Jun 2027 03:21:22.396   02 Jun 2027 03:21:24.031             1.635           817.500
        20   02 Jun 2027 04:54:54.384   02 Jun 2027 04:57:01.613           127.229         63614.500
        21   02 Jun 2027 06:30:04.880   02 Jun 2027 06:31:41.139            96.259         48129.500
        22   02 Jun 2027 06:32:03.609   02 Jun 2027 06:32:13.276             9.667          4833.500
        23   02 Jun 2027 06:32:20.606   02 Jun 2027 06:32:28.218             7.612          3806.000
        24   02 Jun 2027 06:35:37.160   02 Jun 2027 06:35:46.967             9.807          4903.500
        25   02 Jun 2027 06:36:25.448   02 Jun 2027 06:36:27.398             1.950           975.000
        26   02 Jun 2027 08:06:19.191   02 Jun 2027 08:08:13.214           114.023         57011.500
        27   02 Jun 2027 08:08:43.283   02 Jun 2027 08:09:06.811            23.528         11764.000
        28   02 Jun 2027 08:10:21.306   02 Jun 2027 08:10:38.033            16.727          8363.500
        29   02 Jun 2027 08:10:51.556   02 Jun 2027 08:10:51.835             0.279           139.500
        30   02 Jun 2027 09:43:52.610   02 Jun 2027 09:45:49.276           116.666         58333.000
        31   02 Jun 2027 09:46:02.331   02 Jun 2027 09:46:02.331             0.000             0.000
        32   02 Jun 2027 09:46:25.193   02 Jun 2027 09:46:35.877            10.684          5342.000
        33   02 Jun 2027 09:48:22.001   02 Jun 2027 09:48:24.049             2.048          1024.000
        34   02 Jun 2027 11:19:53.925   02 Jun 2027 11:21:44.760           110.835         55417.500
        35   02 Jun 2027 11:21:46.941   02 Jun 2027 11:21:57.146            10.205          5102.500
        36   03 Jun 2027 03:30:52.314   03 Jun 2027 03:31:10.752            18.438          9219.000
        37   03 Jun 2027 03:32:16.866   03 Jun 2027 03:32:16.866             0.000             0.000
        38   03 Jun 2027 03:32:42.694   03 Jun 2027 03:33:01.738            19.044          9522.000
        39   03 Jun 2027 03:33:11.812   03 Jun 2027 03:33:20.548             8.736          4368.000
        40   03 Jun 2027 05:06:38.150   03 Jun 2027 05:08:24.259           106.109         53054.500
        41   03 Jun 2027 05:09:56.303   03 Jun 2027 05:10:21.600            25.297         12648.500
        42   03 Jun 2027 05:10:43.170   03 Jun 2027 05:10:45.940             2.770          1385.000
        43   03 Jun 2027 06:41:29.091   03 Jun 2027 06:43:08.115            99.024         49512.000
        44   03 Jun 2027 06:44:03.097   03 Jun 2027 06:44:19.807            16.710          8355.000
        45   03 Jun 2027 06:44:52.211   03 Jun 2027 06:44:52.211             0.000             0.000
        46   03 Jun 2027 06:45:18.617   03 Jun 2027 06:45:22.061             3.444          1722.000
        47   03 Jun 2027 06:47:26.449   03 Jun 2027 06:47:30.857             4.408          2204.000
        48   03 Jun 2027 06:48:15.297   03 Jun 2027 06:48:27.638            12.341          6170.500
        49   03 Jun 2027 08:18:04.921   03 Jun 2027 08:20:34.678           149.757         74878.500
        50   03 Jun 2027 08:22:04.338   03 Jun 2027 08:22:20.944            16.606          8303.000
        51   03 Jun 2027 09:56:22.592   03 Jun 2027 09:57:47.496            84.904         42452.000
        52   03 Jun 2027 09:58:19.600   03 Jun 2027 09:58:26.570             6.970          2650.970
        53   03 Jun 2027 09:58:57.183   03 Jun 2027 09:58:57.400             0.217           108.500
        54   03 Jun 2027 09:59:24.031   03 Jun 2027 09:59:29.510             5.479          1680.375
        55   03 Jun 2027 11:29:43.219   03 Jun 2027 11:29:53.026             9.807          4903.500
        56   03 Jun 2027 11:31:42.451   03 Jun 2027 11:31:52.733            10.282          5048.250
        57   03 Jun 2027 11:32:10.949   03 Jun 2027 11:32:13.322             2.373           411.781
        58   03 Jun 2027 11:32:40.062   03 Jun 2027 11:32:40.168             0.106            53.000
        59   03 Jun 2027 11:32:42.172   03 Jun 2027 11:32:48.322             6.150           550.531
        60   03 Jun 2027 11:33:39.933   03 Jun 2027 11:33:41.875             1.942           971.000
        61   03 Jun 2027 11:33:48.069   03 Jun 2027 11:33:48.069             0.000             0.000
        62   03 Jun 2027 11:34:27.424   03 Jun 2027 11:34:30.345             2.921          1460.500
        63   03 Jun 2027 11:35:42.369   03 Jun 2027 11:35:48.567             6.198          2538.813
        64   03 Jun 2027 11:36:14.312   03 Jun 2027 11:36:16.483             2.171           451.500
        65   03 Jun 2027 11:36:43.433   03 Jun 2027 11:36:46.539             3.106           778.938
        66   04 Jun 2027 03:41:31.235   04 Jun 2027 03:41:52.366            21.131         10565.500
        67   04 Jun 2027 03:43:06.687   04 Jun 2027 03:43:18.048            11.361          5680.500
        68   04 Jun 2027 03:43:48.061   04 Jun 2027 03:43:51.004             2.943          1471.500
        69   04 Jun 2027 03:44:00.438   04 Jun 2027 03:44:10.587            10.149          5074.500
        70   04 Jun 2027 03:45:44.070   04 Jun 2027 03:45:44.070             0.000             0.000
        71   04 Jun 2027 05:16:50.482   04 Jun 2027 05:17:50.399            59.917         29958.500
        72   04 Jun 2027 05:18:22.783   04 Jun 2027 05:19:32.955            70.172         35086.000
        73   04 Jun 2027 05:20:08.000   04 Jun 2027 05:20:09.866             1.866           933.000
        74   04 Jun 2027 05:20:43.201   04 Jun 2027 05:20:43.201             0.000             0.000
        75   04 Jun 2027 05:21:53.083   04 Jun 2027 05:22:06.232            13.149          6574.500
        76   04 Jun 2027 05:22:17.803   04 Jun 2027 05:22:18.772             0.969           484.500
        77   04 Jun 2027 05:22:49.950   04 Jun 2027 05:22:49.950             0.000             0.000
        78   04 Jun 2027 05:23:08.473   04 Jun 2027 05:23:10.828             2.355          1177.500
        79   04 Jun 2027 06:53:21.912   04 Jun 2027 06:54:28.753            66.841         33420.500
        80   04 Jun 2027 06:54:48.657   04 Jun 2027 06:55:08.400            19.743          9871.500
        81   04 Jun 2027 06:56:01.275   04 Jun 2027 06:56:35.233            33.958         16979.000
        82   04 Jun 2027 06:57:57.944   04 Jun 2027 06:58:16.253            18.309          9154.500
        83   04 Jun 2027 06:58:50.976   04 Jun 2027 06:58:54.002             3.026          1513.000
        84   04 Jun 2027 08:30:26.006   04 Jun 2027 08:31:17.783            51.777         23293.625
        85   04 Jun 2027 08:32:03.707   04 Jun 2027 08:32:06.045             2.338           317.844
        86   04 Jun 2027 08:32:45.417   04 Jun 2027 08:32:48.452             3.035          1230.375
        87   04 Jun 2027 08:32:59.656   04 Jun 2027 08:33:03.285             3.629           121.125
        88   04 Jun 2027 08:33:29.996   04 Jun 2027 08:33:29.996             0.000             0.000
        89   04 Jun 2027 08:33:52.691   04 Jun 2027 08:33:59.524             6.833          1543.938
        90   04 Jun 2027 08:34:21.930   04 Jun 2027 08:34:24.358             2.428           679.844
        91   04 Jun 2027 08:34:25.684   04 Jun 2027 08:34:25.813             0.129            41.437
        92   04 Jun 2027 08:35:23.119   04 Jun 2027 08:35:26.402             3.283          1551.687
        93   04 Jun 2027 10:08:20.288   04 Jun 2027 10:08:41.113            20.825          9209.375
        94   04 Jun 2027 10:09:21.300   04 Jun 2027 10:09:24.286             2.986          1241.844
        95   04 Jun 2027 10:09:45.172   04 Jun 2027 10:09:47.151             1.979           112.562
        96   04 Jun 2027 10:10:11.836   04 Jun 2027 10:10:13.477             1.641           565.750
        97   04 Jun 2027 10:10:16.923   04 Jun 2027 10:10:19.503             2.580           107.688
        98   04 Jun 2027 10:11:02.660   04 Jun 2027 10:11:06.249             3.589           964.813
        99   04 Jun 2027 10:11:21.075   04 Jun 2027 10:11:22.025             0.950           351.656
       100   04 Jun 2027 10:11:31.184   04 Jun 2027 10:11:32.577             1.393           286.219
       101   04 Jun 2027 10:11:55.783   04 Jun 2027 10:11:56.957             1.174           515.781
       102   04 Jun 2027 11:41:32.575   04 Jun 2027 11:41:46.823            14.248          6294.000
       103   04 Jun 2027 11:42:57.784   04 Jun 2027 11:43:01.661             3.877           934.031
       104   04 Jun 2027 11:43:25.929   04 Jun 2027 11:43:27.332             1.403           248.875
       105   04 Jun 2027 11:43:31.523   04 Jun 2027 11:43:31.523             0.000             0.000
       106   04 Jun 2027 11:44:05.147   04 Jun 2027 11:44:08.342             3.195          1181.719
       107   04 Jun 2027 11:44:33.732   04 Jun 2027 11:44:43.843            10.111           528.125
       108   04 Jun 2027 11:45:39.556   04 Jun 2027 11:45:43.323             3.767          1741.031
       109   04 Jun 2027 11:46:26.306   04 Jun 2027 11:46:31.312             5.006          1154.563
       110   04 Jun 2027 11:47:31.911   04 Jun 2027 11:47:35.744             3.833          1893.719
       111   04 Jun 2027 11:48:39.681   04 Jun 2027 11:48:50.577            10.896          1640.844
       112   05 Jun 2027 03:53:06.966   05 Jun 2027 03:54:13.396            66.430         33215.000
       113   05 Jun 2027 03:56:43.783   05 Jun 2027 03:56:57.850            14.067          7033.500
       114   05 Jun 2027 05:28:00.467   05 Jun 2027 05:30:01.706           121.239         60619.500
       115   05 Jun 2027 05:31:13.833   05 Jun 2027 05:31:13.833             0.000             0.000
       116   05 Jun 2027 05:32:07.182   05 Jun 2027 05:32:35.707            28.525         14262.500
       117   05 Jun 2027 07:05:34.421   05 Jun 2027 07:07:37.012           122.591         60956.187
       118   05 Jun 2027 07:09:09.158   05 Jun 2027 07:09:24.909            15.751          2650.844
       119   05 Jun 2027 07:11:00.212   05 Jun 2027 07:11:06.699             6.487          2868.062
       120   05 Jun 2027 07:12:29.569   05 Jun 2027 07:12:33.648             4.079          2039.500
       121   05 Jun 2027 08:42:17.087   05 Jun 2027 08:42:47.003            29.916         14346.938
       122   05 Jun 2027 08:43:17.620   05 Jun 2027 08:43:23.395             5.775           147.219
       123   05 Jun 2027 08:45:00.659   05 Jun 2027 08:45:05.284             4.625          2237.844
       124   05 Jun 2027 08:45:32.698   05 Jun 2027 08:45:36.263             3.565           856.687
       125   05 Jun 2027 08:45:41.441   05 Jun 2027 08:45:43.907             2.466           104.312
       126   05 Jun 2027 08:46:02.884   05 Jun 2027 08:46:03.885             1.001           500.500
       127   05 Jun 2027 08:46:25.680   05 Jun 2027 08:46:28.864             3.184           714.906
       128   05 Jun 2027 08:47:06.900   05 Jun 2027 08:47:11.998             5.098          1188.625
       129   05 Jun 2027 08:47:44.611   05 Jun 2027 08:47:49.643             5.032           921.906
       130   05 Jun 2027 08:48:18.187   05 Jun 2027 08:48:20.957             2.770           681.312
       131   05 Jun 2027 10:20:20.125   05 Jun 2027 10:20:36.514            16.389          7304.000
       132   05 Jun 2027 10:20:39.950   05 Jun 2027 10:20:40.214             0.264           107.375
       133   05 Jun 2027 10:21:28.902   05 Jun 2027 10:21:33.287             4.385          1272.719
       134   05 Jun 2027 10:22:26.998   05 Jun 2027 10:22:30.050             3.052          1349.594
       135   05 Jun 2027 10:23:43.310   05 Jun 2027 10:23:46.825             3.515          1431.594
       136   05 Jun 2027 10:24:01.870   05 Jun 2027 10:24:04.428             2.558           464.344
       137   05 Jun 2027 10:24:25.530   05 Jun 2027 10:24:26.572             1.042           244.094
       138   05 Jun 2027 11:53:57.804   05 Jun 2027 11:54:02.435             4.631          1623.437
       139   05 Jun 2027 11:54:30.518   05 Jun 2027 11:54:34.532             4.014           274.812
       140   05 Jun 2027 11:55:31.378   05 Jun 2027 11:55:31.378             0.000             0.000
       141   05 Jun 2027 11:55:37.393   05 Jun 2027 11:55:43.628             6.235          1608.531
       142   05 Jun 2027 11:55:51.553   05 Jun 2027 11:55:52.349             0.796           202.125
       143   05 Jun 2027 11:56:28.158   05 Jun 2027 11:56:30.125             1.967           756.906
       144   05 Jun 2027 11:56:47.485   05 Jun 2027 11:56:48.288             0.803           119.687
       145   05 Jun 2027 11:57:18.546   05 Jun 2027 11:57:24.373             5.827           106.250
       146   05 Jun 2027 11:57:50.792   05 Jun 2027 11:57:54.098             3.306           406.844
       147   05 Jun 2027 11:58:00.177   05 Jun 2027 11:58:00.359             0.182             0.781
       148   05 Jun 2027 11:59:33.327   05 Jun 2027 11:59:39.779             6.452          2447.969
       149   06 Jun 2027 04:04:35.915   06 Jun 2027 04:05:30.016            54.101         27050.500
       150   06 Jun 2027 04:05:40.152   06 Jun 2027 04:05:57.451            17.299          8649.500
       151   06 Jun 2027 04:06:45.996   06 Jun 2027 04:06:47.895             1.899           949.500
       152   06 Jun 2027 04:09:01.941   06 Jun 2027 04:09:09.213             7.272          3636.000
       153   06 Jun 2027 05:39:31.185   06 Jun 2027 05:41:58.740           147.555         73777.500
       154   06 Jun 2027 05:44:06.312   06 Jun 2027 05:44:26.452            20.140         10070.000
       155   06 Jun 2027 05:44:41.334   06 Jun 2027 05:44:45.047             3.713          1856.500
       156   06 Jun 2027 07:17:28.359   06 Jun 2027 07:19:19.545           111.186         55593.000
       157   06 Jun 2027 07:20:58.147   06 Jun 2027 07:21:04.504             6.357          3178.500
       158   06 Jun 2027 07:22:31.226   06 Jun 2027 07:22:38.302             7.076          3534.250
       159   06 Jun 2027 07:23:13.931   06 Jun 2027 07:23:16.830             2.899          1052.094
       160   06 Jun 2027 07:24:22.653   06 Jun 2027 07:24:28.025             5.372          2056.969
       161   06 Jun 2027 08:54:22.960   06 Jun 2027 08:54:49.846            26.886         12050.562
       162   06 Jun 2027 08:55:42.955   06 Jun 2027 08:55:45.397             2.442          1103.938
       163   06 Jun 2027 08:57:00.821   06 Jun 2027 08:57:07.695             6.874          2236.312
       164   06 Jun 2027 08:57:12.374   06 Jun 2027 08:57:15.101             2.727           146.219
       165   06 Jun 2027 08:58:00.181   06 Jun 2027 08:58:03.737             3.556          1142.219
       166   06 Jun 2027 08:58:20.189   06 Jun 2027 08:58:22.306             2.117           144.625
       167   06 Jun 2027 08:58:31.276   06 Jun 2027 08:58:38.424             7.148           280.313
       168   06 Jun 2027 08:59:02.447   06 Jun 2027 08:59:05.092             2.645           748.250
       169   06 Jun 2027 09:00:03.822   06 Jun 2027 09:00:07.055             3.233          1203.656
       170   06 Jun 2027 09:00:52.679   06 Jun 2027 09:00:54.416             1.737           868.500
       171   06 Jun 2027 10:32:06.361   06 Jun 2027 10:32:19.846            13.485          6706.656
       172   06 Jun 2027 10:33:06.259   06 Jun 2027 10:33:16.152             9.893          1450.406
       173   06 Jun 2027 10:33:39.294   06 Jun 2027 10:33:39.294             0.000             0.000
       174   06 Jun 2027 10:33:56.340   06 Jun 2027 10:33:59.510             3.170          1255.875
       175   06 Jun 2027 10:34:18.521   06 Jun 2027 10:34:20.095             1.574           594.094
       176   06 Jun 2027 10:35:13.562   06 Jun 2027 10:35:20.092             6.530          1594.219
       177   06 Jun 2027 10:35:32.844   06 Jun 2027 10:35:34.232             1.388           367.188
       178   06 Jun 2027 10:35:42.973   06 Jun 2027 10:35:45.442             2.469           252.156
       179   06 Jun 2027 10:35:59.928   06 Jun 2027 10:36:01.661             1.733           168.469
       180   06 Jun 2027 10:36:26.059   06 Jun 2027 10:36:26.889             0.830           335.406
       181   07 Jun 2027 04:18:39.958   07 Jun 2027 04:19:49.581            69.623         34811.500
       182   07 Jun 2027 04:21:52.303   07 Jun 2027 04:21:57.594             5.291          2645.500
       183   07 Jun 2027 05:52:24.480   07 Jun 2027 05:54:20.359           115.879         57939.500
       184   07 Jun 2027 05:54:24.777   07 Jun 2027 05:54:45.901            21.124         10562.000
       185   07 Jun 2027 05:59:14.009   07 Jun 2027 05:59:15.897             1.888           944.000
       186   07 Jun 2027 06:00:39.245   07 Jun 2027 06:00:54.741            15.496          7748.000
       187   07 Jun 2027 06:00:57.795   07 Jun 2027 06:00:58.780             0.985           492.500
       188   07 Jun 2027 07:29:49.377   07 Jun 2027 07:31:33.832           104.455         52227.500
       189   07 Jun 2027 07:32:50.913   07 Jun 2027 07:33:02.112            11.199          5599.500
       190   07 Jun 2027 07:33:22.360   07 Jun 2027 07:33:40.093            17.733          8471.874
       191   07 Jun 2027 07:35:08.554   07 Jun 2027 07:35:18.285             9.731          2700.656
       192   07 Jun 2027 07:36:03.758   07 Jun 2027 07:36:03.758             0.000             0.000
       193   07 Jun 2027 09:06:53.032   07 Jun 2027 09:07:20.672            27.640         12995.031
       194   07 Jun 2027 09:07:55.553   07 Jun 2027 09:07:57.674             2.121           647.562
       195   07 Jun 2027 09:08:38.066   07 Jun 2027 09:08:39.813             1.747           433.344
       196   07 Jun 2027 09:08:57.251   07 Jun 2027 09:08:59.162             1.911           544.938
       197   07 Jun 2027 09:09:34.041   07 Jun 2027 09:09:34.201             0.160            80.000
       198   07 Jun 2027 09:10:13.320   07 Jun 2027 09:10:18.761             5.441          2199.344
       199   07 Jun 2027 09:10:43.546   07 Jun 2027 09:10:44.060             0.514           257.000
       200   07 Jun 2027 09:11:09.862   07 Jun 2027 09:11:14.721             4.859          1198.875
       201   07 Jun 2027 09:12:10.250   07 Jun 2027 09:12:14.389             4.139          1679.656
       202   07 Jun 2027 10:43:38.005   07 Jun 2027 10:43:53.648            15.643          6590.094
       203   07 Jun 2027 10:44:44.297   07 Jun 2027 10:44:47.646             3.349          1365.594
       204   07 Jun 2027 10:45:29.271   07 Jun 2027 10:45:34.255             4.984          1207.781
       205   07 Jun 2027 10:46:33.864   07 Jun 2027 10:46:44.539            10.675          1509.781
       206   07 Jun 2027 10:46:50.903   07 Jun 2027 10:46:50.903             0.000             0.000
       207   07 Jun 2027 10:47:39.659   07 Jun 2027 10:47:45.198             5.539          1722.500
       208   08 Jun 2027 04:30:54.362   08 Jun 2027 04:32:14.825            80.463         40231.500
       209   08 Jun 2027 04:33:16.802   08 Jun 2027 04:33:21.447             4.645          2322.500
       210   08 Jun 2027 04:34:25.917   08 Jun 2027 04:34:29.259             3.342          1671.000
       211   08 Jun 2027 06:04:58.408   08 Jun 2027 06:06:47.285           108.877         54438.500
       212   08 Jun 2027 06:09:50.875   08 Jun 2027 06:10:13.560            22.685         11342.500
       213   08 Jun 2027 06:10:35.797   08 Jun 2027 06:10:35.797             0.000             0.000
       214   08 Jun 2027 06:12:25.054   08 Jun 2027 06:12:42.059            17.005          8502.500
       215   08 Jun 2027 07:42:02.814   08 Jun 2027 07:43:33.054            90.240         45120.000
       216   08 Jun 2027 07:44:33.877   08 Jun 2027 07:44:57.208            23.331         11160.281
       217   08 Jun 2027 07:47:11.306   08 Jun 2027 07:47:16.892             5.586          2793.000
       218   08 Jun 2027 07:47:27.803   08 Jun 2027 07:47:31.871             4.068          1702.594
       219   08 Jun 2027 07:48:32.235   08 Jun 2027 07:48:36.819             4.584          1747.281
       220   08 Jun 2027 09:18:58.668   08 Jun 2027 09:19:02.805             4.137          2068.500
       221   08 Jun 2027 09:19:22.781   08 Jun 2027 09:19:43.284            20.503          9295.438
       222   08 Jun 2027 09:20:05.917   08 Jun 2027 09:20:08.592             2.675           660.813
       223   08 Jun 2027 09:20:35.268   08 Jun 2027 09:20:37.958             2.690           833.625
       224   08 Jun 2027 09:21:38.686   08 Jun 2027 09:21:43.055             4.369          1731.687
       225   08 Jun 2027 09:21:50.200   08 Jun 2027 09:21:53.899             3.699           203.969
       226   08 Jun 2027 09:22:13.914   08 Jun 2027 09:22:13.988             0.074            37.000
       227   08 Jun 2027 09:23:10.642   08 Jun 2027 09:23:16.099             5.457          1916.844
       228   08 Jun 2027 09:23:27.506   08 Jun 2027 09:23:29.311             1.805           356.469
       229   08 Jun 2027 10:55:45.121   08 Jun 2027 10:56:09.994            24.873          9075.781
       230   08 Jun 2027 10:56:46.190   08 Jun 2027 10:56:50.897             4.707          1067.344
       231   08 Jun 2027 10:56:52.055   08 Jun 2027 10:56:53.697             1.642            36.188
       232   08 Jun 2027 10:57:28.684   08 Jun 2027 10:57:34.664             5.980          1052.000
       233   08 Jun 2027 10:57:59.412   08 Jun 2027 10:58:00.148             0.736           368.000
       234   08 Jun 2027 10:58:49.604   08 Jun 2027 10:58:52.917             3.313          1656.500
       235   08 Jun 2027 10:59:25.169   08 Jun 2027 10:59:28.180             3.011          1302.250
       236   08 Jun 2027 11:00:08.489   08 Jun 2027 11:00:15.136             6.647           935.969
       237   09 Jun 2027 03:06:35.808   09 Jun 2027 03:06:54.262            18.454          9227.000
       238   09 Jun 2027 03:07:57.661   09 Jun 2027 03:08:04.348             6.687          3343.500
       239   09 Jun 2027 04:43:04.742   09 Jun 2027 04:45:15.155           130.413         65206.500
       240   09 Jun 2027 04:45:53.860   09 Jun 2027 04:45:53.860             0.000             0.000
       241   09 Jun 2027 06:18:10.048   09 Jun 2027 06:19:41.175            91.127         45563.500
       242   09 Jun 2027 06:20:09.854   09 Jun 2027 06:20:14.617             4.763          2381.500
       243   09 Jun 2027 06:21:18.652   09 Jun 2027 06:21:22.132             3.480          1740.000
       244   09 Jun 2027 06:23:36.471   09 Jun 2027 06:23:45.492             9.021          4510.500
       245   09 Jun 2027 06:24:40.058   09 Jun 2027 06:24:44.018             3.960          1980.000
       246   09 Jun 2027 07:54:32.163   09 Jun 2027 07:55:51.625            79.462         38939.094
       247   09 Jun 2027 07:56:37.033   09 Jun 2027 07:56:41.587             4.554           704.531
       248   09 Jun 2027 07:57:06.786   09 Jun 2027 07:57:08.614             1.828           347.594
       249   09 Jun 2027 07:59:32.903   09 Jun 2027 07:59:44.774            11.871          4509.031
       250   09 Jun 2027 08:00:21.461   09 Jun 2027 08:00:27.666             6.205           917.125
       251   09 Jun 2027 08:00:42.765   09 Jun 2027 08:00:43.916             1.151           292.375
       252   09 Jun 2027 09:32:01.400   09 Jun 2027 09:32:28.722            27.322         11081.937
       253   09 Jun 2027 09:32:41.565   09 Jun 2027 09:32:46.198             4.633           393.812
       254   09 Jun 2027 09:33:51.950   09 Jun 2027 09:33:57.551             5.601          2051.719
       255   09 Jun 2027 09:34:18.917   09 Jun 2027 09:34:21.431             2.514           412.438
       256   09 Jun 2027 09:35:01.482   09 Jun 2027 09:35:04.043             2.561          1251.594
       257   09 Jun 2027 09:35:12.929   09 Jun 2027 09:35:19.542             6.613           147.219
       258   09 Jun 2027 09:35:56.645   09 Jun 2027 09:36:01.793             5.148           998.313
       259   09 Jun 2027 11:08:06.776   09 Jun 2027 11:08:22.275            15.499          6389.500
       260   09 Jun 2027 11:09:11.375   09 Jun 2027 11:09:15.703             4.328          1023.500
       261   09 Jun 2027 11:09:44.443   09 Jun 2027 11:09:46.213             1.770           279.937
       262   09 Jun 2027 11:10:07.124   09 Jun 2027 11:10:09.339             2.215           452.937
       263   09 Jun 2027 11:10:43.809   09 Jun 2027 11:10:49.723             5.914           897.531
       264   09 Jun 2027 11:10:59.735   09 Jun 2027 11:11:04.262             4.527           312.875
       265   09 Jun 2027 11:11:59.538   09 Jun 2027 11:12:03.368             3.830          1456.875
       266   10 Jun 2027 03:18:31.490   10 Jun 2027 03:19:01.436            29.946         14973.000
       267   10 Jun 2027 03:19:21.119   10 Jun 2027 03:19:31.052             9.933          4966.500
       268   10 Jun 2027 03:20:06.030   10 Jun 2027 03:20:16.066            10.036          5018.000
       269   10 Jun 2027 03:21:36.249   10 Jun 2027 03:21:36.249             0.000             0.000
       270   10 Jun 2027 04:55:09.088   10 Jun 2027 04:57:13.453           124.365         62182.500
       271   10 Jun 2027 04:58:24.119   10 Jun 2027 04:58:24.119             0.000             0.000
       272   10 Jun 2027 06:30:19.553   10 Jun 2027 06:31:39.313            79.760         39880.000
       273   10 Jun 2027 06:32:36.485   10 Jun 2027 06:32:48.632            12.147          6073.500
       274   10 Jun 2027 06:33:06.381   10 Jun 2027 06:33:06.381             0.000             0.000
       275   10 Jun 2027 06:33:09.206   10 Jun 2027 06:33:18.895             9.689          4844.500
       276   10 Jun 2027 06:36:03.002   10 Jun 2027 06:36:29.485            26.483         13241.500
       277   10 Jun 2027 08:06:33.186   10 Jun 2027 08:07:28.065            54.879         27439.500
       278   10 Jun 2027 08:07:59.715   10 Jun 2027 08:08:04.227             4.512          1873.594
       279   10 Jun 2027 08:08:17.658   10 Jun 2027 08:08:18.357             0.699           134.469
       280   10 Jun 2027 08:09:11.128   10 Jun 2027 08:09:17.389             6.261          1649.094
       281   10 Jun 2027 08:09:58.368   10 Jun 2027 08:10:02.285             3.917          1148.406
       282   10 Jun 2027 08:10:20.150   10 Jun 2027 08:10:22.205             2.055           232.531
       283   10 Jun 2027 08:11:53.207   10 Jun 2027 08:11:59.140             5.933          2754.500
       284   10 Jun 2027 09:44:07.565   10 Jun 2027 09:44:30.033            22.468          9951.125
       285   10 Jun 2027 09:44:52.024   10 Jun 2027 09:44:52.652             0.628           257.625
       286   10 Jun 2027 09:45:52.646   10 Jun 2027 09:45:55.907             3.261          1626.187
       287   10 Jun 2027 09:46:07.141   10 Jun 2027 09:46:11.284             4.143           351.063
       288   10 Jun 2027 09:46:22.835   10 Jun 2027 09:46:22.835             0.000             0.000
       289   10 Jun 2027 09:46:41.261   10 Jun 2027 09:46:44.109             2.848           753.438
       290   10 Jun 2027 09:47:33.691   10 Jun 2027 09:47:36.563             2.872          1279.344
       291   10 Jun 2027 09:47:37.369   10 Jun 2027 09:47:38.670             1.301            25.187
       292   10 Jun 2027 09:47:43.739   10 Jun 2027 09:47:50.262             6.523           126.656
       293   10 Jun 2027 09:48:07.059   10 Jun 2027 09:48:07.261             0.202            46.750
       294   10 Jun 2027 11:20:08.892   10 Jun 2027 11:20:26.727            17.835          8183.313
       295   10 Jun 2027 11:20:55.184   10 Jun 2027 11:20:58.305             3.121           889.281
       296   10 Jun 2027 11:21:53.698   10 Jun 2027 11:21:57.721             4.023          1731.031
       297   10 Jun 2027 11:22:29.421   10 Jun 2027 11:22:32.957             3.536           900.094
       298   10 Jun 2027 11:22:45.364   10 Jun 2027 11:22:46.417             1.053           183.437
       299   10 Jun 2027 11:24:04.483   10 Jun 2027 11:24:14.871            10.388          1699.875
       300   10 Jun 2027 11:24:28.306   10 Jun 2027 11:24:29.283             0.977           206.500
       301   11 Jun 2027 03:31:06.879   11 Jun 2027 03:31:44.443            37.564         18782.000
       302   11 Jun 2027 03:32:09.627   11 Jun 2027 03:32:15.845             6.218          3109.000
       303   11 Jun 2027 03:33:40.229   11 Jun 2027 03:33:51.571            11.342          5671.000
       304   11 Jun 2027 05:06:53.180   11 Jun 2027 05:08:43.786           110.606         55303.000
       305   11 Jun 2027 05:10:10.673   11 Jun 2027 05:10:36.534            25.861         12930.500
       306   11 Jun 2027 05:10:51.607   11 Jun 2027 05:10:58.687             7.080          3540.000
       307   11 Jun 2027 06:41:43.628   11 Jun 2027 06:43:11.449            87.821         43910.500
       308   11 Jun 2027 06:43:30.232   11 Jun 2027 06:43:42.744            12.512          6256.000
       309   11 Jun 2027 06:45:15.242   11 Jun 2027 06:45:25.540            10.298          5149.000
       310   11 Jun 2027 06:46:36.944   11 Jun 2027 06:46:51.989            15.045          7522.500
       311   11 Jun 2027 06:48:29.902   11 Jun 2027 06:48:42.596            12.694          6347.000
       312   11 Jun 2027 08:18:19.716   11 Jun 2027 08:19:01.655            41.939         20600.594
       313   11 Jun 2027 08:20:13.765   11 Jun 2027 08:20:23.462             9.697          1614.719
       314   11 Jun 2027 08:21:00.182   11 Jun 2027 08:21:04.137             3.955          1131.938
       315   11 Jun 2027 08:22:19.082   11 Jun 2027 08:22:22.882             3.800          1900.000
       316   11 Jun 2027 08:23:47.231   11 Jun 2027 08:23:55.258             8.027          2797.313
       317   11 Jun 2027 08:24:35.364   11 Jun 2027 08:24:36.459             1.095           547.500
       318   11 Jun 2027 09:56:37.556   11 Jun 2027 09:56:55.811            18.255          8279.187
       319   11 Jun 2027 09:57:25.374   11 Jun 2027 09:57:25.374             0.000             0.000
       320   11 Jun 2027 09:58:02.241   11 Jun 2027 09:58:07.245             5.004          1910.125
       321   11 Jun 2027 09:58:29.096   11 Jun 2027 09:58:31.099             2.003           414.000
       322   11 Jun 2027 09:59:23.580   11 Jun 2027 09:59:32.408             8.828           886.969
       323   11 Jun 2027 09:59:45.271   11 Jun 2027 09:59:47.746             2.475           207.750
       324   11 Jun 2027 09:59:48.100   11 Jun 2027 09:59:48.221             0.121            11.063
       325   11 Jun 2027 10:00:09.940   11 Jun 2027 10:00:11.104             1.164           563.750
       326   11 Jun 2027 11:29:57.642   11 Jun 2027 11:30:09.289            11.647          5823.500
       327   11 Jun 2027 11:31:57.247   11 Jun 2027 11:32:00.900             3.653           998.156
       328   11 Jun 2027 11:33:19.421   11 Jun 2027 11:33:31.637            12.216          2453.781
       329   11 Jun 2027 11:34:32.507   11 Jun 2027 11:34:36.358             3.851          1651.938
       330   11 Jun 2027 11:35:03.937   11 Jun 2027 11:35:11.237             7.300           861.844
       331   11 Jun 2027 11:35:36.780   11 Jun 2027 11:35:36.780             0.000             0.000
       332   11 Jun 2027 11:36:29.598   11 Jun 2027 11:36:53.371            23.773          2016.875
       333   11 Jun 2027 11:37:22.475   11 Jun 2027 11:37:24.413             1.938           857.250
       334   12 Jun 2027 03:41:46.013   12 Jun 2027 03:42:17.414            31.401         15700.500
       335   12 Jun 2027 03:43:21.498   12 Jun 2027 03:43:33.808            12.310          6155.000
       336   12 Jun 2027 03:44:03.515   12 Jun 2027 03:44:08.103             4.588          2294.000
       337   12 Jun 2027 03:45:37.782   12 Jun 2027 03:45:37.782             0.000             0.000
       338   12 Jun 2027 03:45:59.915   12 Jun 2027 03:46:09.287             9.372          4686.000
       339   12 Jun 2027 05:17:03.143   12 Jun 2027 05:18:05.676            62.533         31266.500
       340   12 Jun 2027 05:18:37.106   12 Jun 2027 05:19:54.366            77.260         38630.000
       341   12 Jun 2027 05:20:59.231   12 Jun 2027 05:21:06.234             7.003          3501.500
       342   12 Jun 2027 05:22:04.986   12 Jun 2027 05:22:04.986             0.000             0.000
       343   12 Jun 2027 05:23:00.859   12 Jun 2027 05:23:01.699             0.840           420.000
       344   12 Jun 2027 06:54:43.328   12 Jun 2027 06:56:45.706           122.378         61189.000
       345   12 Jun 2027 07:00:16.118   12 Jun 2027 07:00:18.873             2.755          1377.500
       346   12 Jun 2027 07:00:35.905   12 Jun 2027 07:00:50.607            14.702          7161.344
       347   12 Jun 2027 08:30:40.847   12 Jun 2027 08:31:11.787            30.940         14574.188
       348   12 Jun 2027 08:31:54.129   12 Jun 2027 08:31:56.454             2.325           474.094
       349   12 Jun 2027 08:32:18.188   12 Jun 2027 08:32:19.280             1.092           315.125
       350   12 Jun 2027 08:33:00.407   12 Jun 2027 08:33:11.741            11.334          1172.937
       351   12 Jun 2027 08:34:28.598   12 Jun 2027 08:34:36.966             8.368          2360.500
       352   12 Jun 2027 08:34:41.240   12 Jun 2027 08:34:41.476             0.236            57.281
       353   12 Jun 2027 08:35:40.151   12 Jun 2027 08:35:45.750             5.599          1630.313
       354   12 Jun 2027 08:36:24.121   12 Jun 2027 08:36:27.152             3.031          1095.906
       355   12 Jun 2027 08:36:40.628   12 Jun 2027 08:36:42.403             1.775           304.906
       356   12 Jun 2027 10:08:35.121   12 Jun 2027 10:08:52.188            17.067          8327.188
       357   12 Jun 2027 10:09:57.646   12 Jun 2027 10:10:02.063             4.417          1911.750
       358   12 Jun 2027 10:10:26.813   12 Jun 2027 10:10:28.789             1.976           515.500
       359   12 Jun 2027 10:10:33.088   12 Jun 2027 10:10:36.757             3.669           134.344
       360   12 Jun 2027 10:11:25.143   12 Jun 2027 10:11:33.198             8.055          1183.469
       361   12 Jun 2027 10:11:56.769   12 Jun 2027 10:11:59.462             2.693           733.469
       362   12 Jun 2027 10:12:19.363   12 Jun 2027 10:12:20.681             1.318           571.844
       363   12 Jun 2027 11:41:47.958   12 Jun 2027 11:42:02.294            14.336          6230.188
       364   12 Jun 2027 11:42:58.610   12 Jun 2027 11:43:02.887             4.277           753.812
       365   12 Jun 2027 11:43:46.959   12 Jun 2027 11:43:50.826             3.867          1031.500
       366   12 Jun 2027 11:44:12.087   12 Jun 2027 11:44:13.466             1.379           605.531
       367   12 Jun 2027 11:44:31.891   12 Jun 2027 11:44:33.584             1.693           377.937
       368   12 Jun 2027 11:45:15.537   12 Jun 2027 11:45:24.930             9.393          1311.031
       369   12 Jun 2027 11:45:35.435   12 Jun 2027 11:45:41.669             6.234           312.281
       370   12 Jun 2027 11:46:56.927   12 Jun 2027 11:46:59.146             2.219          1109.500
       371   12 Jun 2027 11:47:27.564   12 Jun 2027 11:47:33.947             6.383          1699.375
       372   12 Jun 2027 11:48:27.419   12 Jun 2027 11:48:31.654             4.235          1236.750
       373   12 Jun 2027 11:49:25.267   12 Jun 2027 11:49:30.413             5.146          1639.719
       374   12 Jun 2027 11:49:33.445   12 Jun 2027 11:49:35.703             2.258            93.531
       375   13 Jun 2027 03:53:21.749   13 Jun 2027 03:53:56.862            35.113         17556.500
       376   13 Jun 2027 03:55:29.542   13 Jun 2027 03:55:31.170             1.628           814.000
       377   13 Jun 2027 03:56:00.300   13 Jun 2027 03:56:04.875             4.575          2287.500
       378   13 Jun 2027 03:56:57.543   13 Jun 2027 03:57:02.781             5.238          2619.000
       379   13 Jun 2027 03:57:21.906   13 Jun 2027 03:57:28.738             6.832          3416.000
       380   13 Jun 2027 03:57:44.809   13 Jun 2027 03:57:45.510             0.701           350.500
       381   13 Jun 2027 05:28:14.800   13 Jun 2027 05:30:18.283           123.483         61741.500
       382   13 Jun 2027 05:30:45.193   13 Jun 2027 05:31:08.471            23.278         11639.000
       383   13 Jun 2027 05:33:32.544   13 Jun 2027 05:33:34.119             1.575           787.500
       384   13 Jun 2027 05:34:40.852   13 Jun 2027 05:34:49.631             8.779          4389.500
       385   13 Jun 2027 05:35:10.167   13 Jun 2027 05:35:10.167             0.000             0.000
       386   13 Jun 2027 05:35:37.945   13 Jun 2027 05:35:37.945             0.000             0.000
       387   13 Jun 2027 07:05:49.054   13 Jun 2027 07:07:51.683           122.629         61314.500
       388   13 Jun 2027 07:08:33.311   13 Jun 2027 07:08:35.403             2.092          1046.000
       389   13 Jun 2027 07:08:54.554   13 Jun 2027 07:08:56.777             2.223          1111.500
       390   13 Jun 2027 07:10:29.281   13 Jun 2027 07:10:37.459             8.178          4089.000
       391   13 Jun 2027 07:11:09.020   13 Jun 2027 07:11:12.576             3.556          1778.000
       392   13 Jun 2027 08:42:31.889   13 Jun 2027 08:42:39.095             7.206          3603.000
       393   13 Jun 2027 08:42:43.725   13 Jun 2027 08:43:08.569            24.844         11797.343
       394   13 Jun 2027 08:43:27.868   13 Jun 2027 08:43:29.410             1.542           603.094
       395   13 Jun 2027 08:44:32.024   13 Jun 2027 08:44:36.259             4.235          1847.437
       396   13 Jun 2027 08:45:22.249   13 Jun 2027 08:45:23.920             1.671           835.500
       397   13 Jun 2027 08:46:19.119   13 Jun 2027 08:46:24.710             5.591          1858.813
       398   13 Jun 2027 08:46:40.188   13 Jun 2027 08:46:40.208             0.020            10.000
       399   13 Jun 2027 08:46:46.251   13 Jun 2027 08:46:50.694             4.443           430.219
       400   13 Jun 2027 08:47:32.057   13 Jun 2027 08:47:37.087             5.030           760.031
       401   13 Jun 2027 08:48:30.658   13 Jun 2027 08:48:35.496             4.838          1500.875
       402   13 Jun 2027 10:20:34.954   13 Jun 2027 10:20:52.449            17.495          7713.344
       403   13 Jun 2027 10:20:57.230   13 Jun 2027 10:21:02.831             5.601            57.375
       404   13 Jun 2027 10:21:45.491   13 Jun 2027 10:21:48.269             2.778          1333.125
       405   13 Jun 2027 10:22:06.132   13 Jun 2027 10:22:08.406             2.274           558.219
       406   13 Jun 2027 10:22:26.955   13 Jun 2027 10:22:30.866             3.911           389.656
       407   13 Jun 2027 10:23:12.147   13 Jun 2027 10:23:18.633             6.486           989.656
       408   13 Jun 2027 10:23:50.761   13 Jun 2027 10:23:55.791             5.030           924.906
       409   13 Jun 2027 11:54:15.906   13 Jun 2027 11:54:19.531             3.625          1549.313
       410   13 Jun 2027 11:55:31.828   13 Jun 2027 11:55:33.944             2.116          1058.000
       411   13 Jun 2027 11:56:06.508   13 Jun 2027 11:56:09.731             3.223          1441.500
       412   13 Jun 2027 11:56:27.176   13 Jun 2027 11:56:29.308             2.132           210.125
       413   13 Jun 2027 11:57:53.699   13 Jun 2027 11:58:00.110             6.411          2156.000
       414   13 Jun 2027 11:58:29.479   13 Jun 2027 11:58:30.589             1.110           555.000
       415   13 Jun 2027 11:58:54.789   13 Jun 2027 11:58:58.858             4.069           945.812
       416   13 Jun 2027 11:59:38.457   13 Jun 2027 11:59:38.457             0.000             0.000
       417   13 Jun 2027 11:59:46.373   13 Jun 2027 11:59:49.077             2.704          1276.906
