uniorb/output/strategy_1/Camera/Camera_KinoSat_110802.txt

KinoSat_110802
-------------------------
    Access    *     Start Time (UTCG)     *     Stop Time (UTCG)  *   Duration (s) *   Data (Mbytes)
         1   01 Jun 2027 04:02:09.879   01 Jun 2027 04:03:29.335            79.456         39728.000
         2   01 Jun 2027 04:04:17.954   01 Jun 2027 04:04:47.319            29.365         14682.500
         3   01 Jun 2027 04:05:15.332   01 Jun 2027 04:05:15.332             0.000             0.000
         4   01 Jun 2027 04:06:45.248   01 Jun 2027 04:06:50.606             5.358          2679.000
         5   01 Jun 2027 04:07:21.802   01 Jun 2027 04:07:25.521             3.719          1859.500
         6   01 Jun 2027 04:07:54.083   01 Jun 2027 04:08:02.408             8.325          4162.500
         7   01 Jun 2027 05:37:02.910   01 Jun 2027 05:38:41.224            98.314         49157.000
         8   01 Jun 2027 05:39:31.668   01 Jun 2027 05:40:07.460            35.792         17896.000
         9   01 Jun 2027 05:40:23.503   01 Jun 2027 05:40:30.946             7.443          3721.500
        10   01 Jun 2027 05:45:56.453   01 Jun 2027 05:46:03.162             6.709          3354.500
        11   01 Jun 2027 07:14:56.535   01 Jun 2027 07:17:03.774           127.239         63619.500
        12   01 Jun 2027 07:18:02.507   01 Jun 2027 07:18:12.662            10.155          5077.500
        13   01 Jun 2027 07:18:36.706   01 Jun 2027 07:18:51.370            14.664          7332.000
        14   01 Jun 2027 07:21:50.716   01 Jun 2027 07:21:57.645             6.929          3464.500
        15   01 Jun 2027 08:51:40.471   01 Jun 2027 08:53:47.742           127.271         63635.500
        16   01 Jun 2027 08:54:10.367   01 Jun 2027 08:54:26.429            16.062          8031.000
        17   01 Jun 2027 08:55:37.142   01 Jun 2027 08:55:41.038             3.896          1948.000
        18   01 Jun 2027 08:58:22.516   01 Jun 2027 08:58:22.516             0.000             0.000
        19   01 Jun 2027 10:29:46.729   01 Jun 2027 10:31:41.511           114.782         57391.000
        20   01 Jun 2027 10:32:42.055   01 Jun 2027 10:32:58.402            16.347          8173.500
        21   02 Jun 2027 04:16:07.965   02 Jun 2027 04:16:54.313            46.348         23174.000
        22   02 Jun 2027 04:18:32.273   02 Jun 2027 04:18:37.951             5.678          2839.000
        23   02 Jun 2027 04:18:48.177   02 Jun 2027 04:18:48.177             0.000             0.000
        24   02 Jun 2027 05:49:55.353   02 Jun 2027 05:52:11.057           135.704         67852.000
        25   02 Jun 2027 05:53:46.084   02 Jun 2027 05:53:54.254             8.170          4085.000
        26   02 Jun 2027 05:54:51.939   02 Jun 2027 05:54:56.718             4.779          2389.500
        27   02 Jun 2027 05:55:20.318   02 Jun 2027 05:55:39.300            18.982          9491.000
        28   02 Jun 2027 05:58:01.291   02 Jun 2027 05:58:08.955             7.664          3832.000
        29   02 Jun 2027 05:58:25.636   02 Jun 2027 05:58:25.779             0.143            71.500
        30   02 Jun 2027 07:27:04.158   02 Jun 2027 07:29:01.037           116.879         58439.500
        31   02 Jun 2027 07:30:17.069   02 Jun 2027 07:30:32.378            15.309          7654.500
        32   02 Jun 2027 07:31:12.545   02 Jun 2027 07:31:18.984             6.439          3219.500
        33   02 Jun 2027 07:32:47.623   02 Jun 2027 07:32:55.003             7.380          3690.000
        34   02 Jun 2027 09:04:18.740   02 Jun 2027 09:06:28.209           129.469         64734.500
        35   02 Jun 2027 09:07:00.641   02 Jun 2027 09:07:06.571             5.930          2965.000
        36   02 Jun 2027 09:08:45.434   02 Jun 2027 09:08:48.160             2.726          1363.000
        37   02 Jun 2027 09:09:02.362   02 Jun 2027 09:09:02.362             0.000             0.000
        38   02 Jun 2027 09:09:28.058   02 Jun 2027 09:09:49.069            21.011         10505.500
        39   02 Jun 2027 10:41:00.653   02 Jun 2027 10:43:12.719           132.066         66033.000
        40   02 Jun 2027 10:44:02.151   02 Jun 2027 10:44:07.945             5.794          2897.000
        41   03 Jun 2027 04:28:20.742   03 Jun 2027 04:29:27.353            66.611         33305.500
        42   03 Jun 2027 04:29:30.921   03 Jun 2027 04:29:34.502             3.581          1790.500
        43   03 Jun 2027 04:29:41.167   03 Jun 2027 04:30:14.498            33.331         16665.500
        44   03 Jun 2027 06:02:19.207   03 Jun 2027 06:03:42.374            83.167         41583.500
        45   03 Jun 2027 06:03:56.816   03 Jun 2027 06:03:59.932             3.116          1558.000
        46   03 Jun 2027 06:04:27.611   03 Jun 2027 06:04:37.854            10.243          5121.500
        47   03 Jun 2027 06:09:03.411   03 Jun 2027 06:09:18.519            15.108          7554.000
        48   03 Jun 2027 07:39:29.518   03 Jun 2027 07:42:18.541           169.023         84511.500
        49   03 Jun 2027 07:43:24.849   03 Jun 2027 07:43:28.685             3.836          1918.000
        50   03 Jun 2027 07:44:34.318   03 Jun 2027 07:44:43.087             8.769          4384.500
        51   03 Jun 2027 09:16:28.848   03 Jun 2027 09:18:03.377            94.529         47264.500
        52   03 Jun 2027 09:18:56.460   03 Jun 2027 09:19:20.613            24.153         12076.500
        53   03 Jun 2027 09:19:43.186   03 Jun 2027 09:20:00.290            17.104          8552.000
        54   03 Jun 2027 09:21:11.110   03 Jun 2027 09:21:17.808             6.698          3349.000
        55   03 Jun 2027 10:53:15.433   03 Jun 2027 10:54:15.274            59.841         29920.500
        56   03 Jun 2027 10:55:12.722   03 Jun 2027 10:55:21.119             8.397          3507.376
        57   03 Jun 2027 10:56:23.344   03 Jun 2027 10:56:26.878             3.534          1767.000
        58   03 Jun 2027 10:57:01.947   03 Jun 2027 10:57:05.070             3.123          1273.437
        59   04 Jun 2027 03:03:54.059   04 Jun 2027 03:03:56.654             2.595          1297.500
        60   04 Jun 2027 03:04:37.102   04 Jun 2027 03:04:39.652             2.550          1275.000
        61   04 Jun 2027 03:05:20.560   04 Jun 2027 03:05:33.776            13.216          6608.000
        62   04 Jun 2027 04:40:26.457   04 Jun 2027 04:41:57.446            90.989         45494.500
        63   04 Jun 2027 06:15:35.287   04 Jun 2027 06:17:01.327            86.040         43020.000
        64   04 Jun 2027 06:17:34.382   04 Jun 2027 06:17:50.834            16.452          8226.000
        65   04 Jun 2027 06:18:03.575   04 Jun 2027 06:18:10.444             6.869          3434.500
        66   04 Jun 2027 06:21:07.833   04 Jun 2027 06:21:20.287            12.454          6227.000
        67   04 Jun 2027 06:21:21.082   04 Jun 2027 06:21:25.943             4.861          2430.500
        68   04 Jun 2027 06:21:38.602   04 Jun 2027 06:21:40.008             1.406           703.000
        69   04 Jun 2027 07:51:55.480   04 Jun 2027 07:53:41.842           106.362         53181.000
        70   04 Jun 2027 07:54:08.354   04 Jun 2027 07:54:23.604            15.250          7087.031
        71   04 Jun 2027 09:29:29.715   04 Jun 2027 09:29:57.476            27.761         13237.000
        72   04 Jun 2027 09:31:19.353   04 Jun 2027 09:31:22.194             2.841          1420.500
        73   04 Jun 2027 09:32:25.444   04 Jun 2027 09:32:30.979             5.535          2504.781
        74   04 Jun 2027 09:32:41.523   04 Jun 2027 09:32:41.523             0.000             0.000
        75   04 Jun 2027 09:33:08.350   04 Jun 2027 09:33:11.188             2.838          1167.844
        76   04 Jun 2027 09:33:12.157   04 Jun 2027 09:33:13.320             1.163            30.281
        77   04 Jun 2027 09:33:28.499   04 Jun 2027 09:33:29.606             1.107            57.125
        78   04 Jun 2027 11:05:32.733   04 Jun 2027 11:05:48.915            16.182          7916.406
        79   04 Jun 2027 11:06:05.001   04 Jun 2027 11:06:07.066             2.065           428.750
        80   04 Jun 2027 11:06:20.470   04 Jun 2027 11:06:21.537             1.067           418.875
        81   04 Jun 2027 11:07:27.793   04 Jun 2027 11:07:31.363             3.570          1785.000
        82   04 Jun 2027 11:07:43.700   04 Jun 2027 11:07:47.077             3.377           671.031
        83   04 Jun 2027 11:08:03.438   04 Jun 2027 11:08:06.506             3.068           465.062
        84   04 Jun 2027 11:09:08.955   04 Jun 2027 11:09:13.632             4.677          1902.250
        85   04 Jun 2027 11:09:40.805   04 Jun 2027 11:09:43.109             2.304           779.813
        86   05 Jun 2027 03:16:01.280   05 Jun 2027 03:16:22.525            21.245         10622.500
        87   05 Jun 2027 03:16:41.353   05 Jun 2027 03:16:50.366             9.013          4506.500
        88   05 Jun 2027 03:17:43.234   05 Jun 2027 03:17:43.234             0.000             0.000
        89   05 Jun 2027 04:52:36.784   05 Jun 2027 04:54:43.352           126.568         63284.000
        90   05 Jun 2027 04:55:36.631   05 Jun 2027 04:55:43.646             7.015          3507.500
        91   05 Jun 2027 04:56:03.070   05 Jun 2027 04:56:04.267             1.197           598.500
        92   05 Jun 2027 06:27:46.990   05 Jun 2027 06:29:14.804            87.814         43907.000
        93   05 Jun 2027 06:30:16.313   05 Jun 2027 06:30:16.313             0.000             0.000
        94   05 Jun 2027 06:32:19.085   05 Jun 2027 06:32:33.895            14.810          7405.000
        95   05 Jun 2027 06:33:31.213   05 Jun 2027 06:33:34.863             3.650          1825.000
        96   05 Jun 2027 06:34:11.249   05 Jun 2027 06:34:22.501            11.252          5626.000
        97   05 Jun 2027 08:04:07.768   05 Jun 2027 08:05:15.461            67.693         32571.094
        98   05 Jun 2027 08:05:43.603   05 Jun 2027 08:05:46.812             3.209           653.906
        99   05 Jun 2027 08:06:37.810   05 Jun 2027 08:06:42.002             4.192          1521.688
       100   05 Jun 2027 08:07:35.891   05 Jun 2027 08:07:38.344             2.453          1099.344
       101   05 Jun 2027 08:09:06.137   05 Jun 2027 08:09:13.461             7.324          2723.562
       102   05 Jun 2027 08:09:22.701   05 Jun 2027 08:09:23.886             1.185           288.750
       103   05 Jun 2027 08:09:56.662   05 Jun 2027 08:10:01.476             4.814          1024.250
       104   05 Jun 2027 08:10:09.021   05 Jun 2027 08:10:11.094             2.073           164.844
       105   05 Jun 2027 09:41:24.457   05 Jun 2027 09:41:46.092            21.635         10399.187
       106   05 Jun 2027 09:41:58.064   05 Jun 2027 09:42:01.512             3.448           365.844
       107   05 Jun 2027 09:43:18.205   05 Jun 2027 09:43:22.758             4.553          2114.469
       108   05 Jun 2027 09:43:54.041   05 Jun 2027 09:43:59.341             5.300           977.594
       109   05 Jun 2027 09:44:06.775   05 Jun 2027 09:44:10.098             3.323           194.937
       110   05 Jun 2027 09:44:32.125   05 Jun 2027 09:44:34.258             2.133           688.344
       111   05 Jun 2027 09:44:38.450   05 Jun 2027 09:44:42.249             3.799           131.000
       112   05 Jun 2027 09:45:10.387   05 Jun 2027 09:45:12.842             2.455           812.344
       113   05 Jun 2027 09:45:35.016   05 Jun 2027 09:45:35.810             0.794            60.063
       114   05 Jun 2027 11:17:36.990   05 Jun 2027 11:17:55.064            18.074          8561.625
       115   05 Jun 2027 11:18:13.310   05 Jun 2027 11:18:14.481             1.171           570.187
       116   05 Jun 2027 11:19:27.751   05 Jun 2027 11:19:35.356             7.605          2052.750
       117   05 Jun 2027 11:19:58.071   05 Jun 2027 11:20:01.616             3.545           665.594
       118   05 Jun 2027 11:20:10.298   05 Jun 2027 11:20:11.168             0.870           240.719
       119   05 Jun 2027 11:21:04.421   05 Jun 2027 11:21:09.233             4.812           864.031
       120   05 Jun 2027 11:21:51.913   05 Jun 2027 11:21:55.145             3.232          1265.500
       121   05 Jun 2027 11:22:00.839   05 Jun 2027 11:22:07.593             6.754           129.656
       122   06 Jun 2027 03:28:34.609   06 Jun 2027 03:29:28.522            53.913         26956.500
       123   06 Jun 2027 03:30:43.234   06 Jun 2027 03:30:49.561             6.327          3163.500
       124   06 Jun 2027 05:04:24.016   06 Jun 2027 05:06:01.264            97.248         48624.000
       125   06 Jun 2027 05:07:42.372   06 Jun 2027 05:08:09.688            27.316         13658.000
       126   06 Jun 2027 05:08:14.574   06 Jun 2027 05:08:24.919            10.345          5172.500
       127   06 Jun 2027 06:39:17.082   06 Jun 2027 06:41:07.382           110.300         55150.000
       128   06 Jun 2027 06:42:04.633   06 Jun 2027 06:42:09.661             5.028          2514.000
       129   06 Jun 2027 06:42:44.773   06 Jun 2027 06:42:54.122             9.349          4674.500
       130   06 Jun 2027 06:46:27.925   06 Jun 2027 06:46:31.695             3.770          1885.000
       131   06 Jun 2027 08:15:46.558   06 Jun 2027 08:16:24.906            38.348         18724.906
       132   06 Jun 2027 08:17:35.748   06 Jun 2027 08:17:39.030             3.282           578.687
       133   06 Jun 2027 08:18:12.424   06 Jun 2027 08:18:15.510             3.086          1043.563
       134   06 Jun 2027 08:18:33.584   06 Jun 2027 08:18:34.064             0.480           205.187
       135   06 Jun 2027 08:19:44.717   06 Jun 2027 08:19:49.344             4.627          2025.031
       136   06 Jun 2027 08:20:02.911   06 Jun 2027 08:20:03.095             0.184            39.250
       137   06 Jun 2027 08:20:23.326   06 Jun 2027 08:20:24.647             1.321           632.219
       138   06 Jun 2027 08:21:14.233   06 Jun 2027 08:21:17.503             3.270          1549.563
       139   06 Jun 2027 08:21:36.646   06 Jun 2027 08:21:39.633             2.987           459.437
       140   06 Jun 2027 09:54:04.236   06 Jun 2027 09:54:25.515            21.279          9834.000
       141   06 Jun 2027 09:55:27.268   06 Jun 2027 09:55:29.321             2.053          1026.500
       142   06 Jun 2027 09:55:54.394   06 Jun 2027 09:55:57.848             3.454          1602.812
       143   06 Jun 2027 09:56:23.459   06 Jun 2027 09:56:23.459             0.000             0.000
       144   06 Jun 2027 09:56:52.204   06 Jun 2027 09:57:02.379            10.175          1698.625
       145   06 Jun 2027 09:57:11.494   06 Jun 2027 09:57:13.818             2.324           167.062
       146   06 Jun 2027 09:57:49.856   06 Jun 2027 09:57:52.329             2.473          1126.188
       147   06 Jun 2027 11:29:30.843   06 Jun 2027 11:29:43.520            12.677          6309.719
       148   06 Jun 2027 11:30:06.082   06 Jun 2027 11:30:10.699             4.617           705.062
       149   06 Jun 2027 11:30:23.705   06 Jun 2027 11:30:23.998             0.293           146.500
       150   06 Jun 2027 11:31:24.755   06 Jun 2027 11:31:29.042             4.287          2019.594
       151   06 Jun 2027 11:32:06.629   06 Jun 2027 11:32:09.524             2.895          1151.594
       152   06 Jun 2027 11:33:22.261   06 Jun 2027 11:33:31.189             8.928          2196.437
       153   06 Jun 2027 11:33:53.296   06 Jun 2027 11:33:55.212             1.916           435.375
       154   07 Jun 2027 03:39:09.048   07 Jun 2027 03:40:02.269            53.221         26610.500
       155   07 Jun 2027 03:41:00.064   07 Jun 2027 03:41:03.586             3.522          1761.000
       156   07 Jun 2027 03:41:30.276   07 Jun 2027 03:41:30.276             0.000             0.000
       157   07 Jun 2027 03:42:32.604   07 Jun 2027 03:42:32.604             0.000             0.000
       158   07 Jun 2027 03:43:12.083   07 Jun 2027 03:43:16.517             4.434          2217.000
       159   07 Jun 2027 03:43:20.187   07 Jun 2027 03:43:29.432             9.245          4622.500
       160   07 Jun 2027 05:14:40.495   07 Jun 2027 05:15:31.263            50.768         25384.000
       161   07 Jun 2027 05:16:09.399   07 Jun 2027 05:17:19.697            70.298         35149.000
       162   07 Jun 2027 05:17:53.260   07 Jun 2027 05:18:14.060            20.800         10400.000
       163   07 Jun 2027 05:20:27.132   07 Jun 2027 05:20:29.727             2.595          1297.500
       164   07 Jun 2027 06:51:00.068   07 Jun 2027 06:52:11.211            71.143         35571.500
       165   07 Jun 2027 06:52:46.430   07 Jun 2027 06:53:21.536            35.106         17553.000
       166   07 Jun 2027 06:53:32.845   07 Jun 2027 06:53:37.823             4.978          2489.000
       167   07 Jun 2027 06:54:20.458   07 Jun 2027 06:54:29.619             9.161          4580.500
       168   07 Jun 2027 06:55:06.207   07 Jun 2027 06:55:17.579            11.372          4289.563
       169   07 Jun 2027 08:28:06.605   07 Jun 2027 08:28:45.778            39.173         19088.844
       170   07 Jun 2027 08:29:07.438   07 Jun 2027 08:29:09.209             1.771           676.875
       171   07 Jun 2027 08:29:46.770   07 Jun 2027 08:29:50.629             3.859           619.063
       172   07 Jun 2027 08:30:28.796   07 Jun 2027 08:30:33.985             5.189          1158.437
       173   07 Jun 2027 08:30:41.476   07 Jun 2027 08:30:46.772             5.296           199.906
       174   07 Jun 2027 08:31:12.061   07 Jun 2027 08:31:14.418             2.357           761.062
       175   07 Jun 2027 08:31:48.534   07 Jun 2027 08:31:52.558             4.024           686.500
       176   07 Jun 2027 08:33:16.035   07 Jun 2027 08:33:21.575             5.540          2577.062
       177   07 Jun 2027 08:33:26.845   07 Jun 2027 08:33:27.896             1.051           164.687
       178   07 Jun 2027 08:33:50.429   07 Jun 2027 08:33:53.193             2.764           482.156
       179   07 Jun 2027 10:06:01.939   07 Jun 2027 10:06:18.230            16.291          7532.250
       180   07 Jun 2027 10:07:26.726   07 Jun 2027 10:07:31.334             4.608          1806.719
       181   07 Jun 2027 10:07:59.823   07 Jun 2027 10:08:04.443             4.620           819.688
       182   07 Jun 2027 10:08:49.050   07 Jun 2027 10:08:55.229             6.179          1107.688
       183   07 Jun 2027 10:09:04.350   07 Jun 2027 10:09:07.151             2.801           192.250
       184   07 Jun 2027 10:09:45.400   07 Jun 2027 10:09:47.884             2.484          1007.875
       185   07 Jun 2027 11:39:07.085   07 Jun 2027 11:39:20.772            13.687          6081.562
       186   07 Jun 2027 11:39:43.183   07 Jun 2027 11:39:46.967             3.784           647.719
       187   07 Jun 2027 11:40:28.680   07 Jun 2027 11:40:32.789             4.109           593.562
       188   07 Jun 2027 11:40:54.981   07 Jun 2027 11:40:57.213             2.232           679.375
       189   07 Jun 2027 11:41:58.090   07 Jun 2027 11:41:59.945             1.855           927.500
       190   07 Jun 2027 11:42:17.534   07 Jun 2027 11:42:21.784             4.250          1524.562
       191   07 Jun 2027 11:43:22.337   07 Jun 2027 11:43:28.386             6.049          1780.062
       192   07 Jun 2027 11:44:20.946   07 Jun 2027 11:44:21.887             0.941           470.500
       193   07 Jun 2027 11:45:16.160   07 Jun 2027 11:45:23.987             7.827          2785.250
       194   07 Jun 2027 11:46:22.122   07 Jun 2027 11:46:31.664             9.542          1675.188
       195   08 Jun 2027 03:50:51.672   08 Jun 2027 03:51:21.808            30.136         15068.000
       196   08 Jun 2027 03:53:01.551   08 Jun 2027 03:53:31.292            29.741         14870.500
       197   08 Jun 2027 03:54:29.913   08 Jun 2027 03:54:48.381            18.468          9234.000
       198   08 Jun 2027 03:55:43.563   08 Jun 2027 03:55:43.563             0.000             0.000
       199   08 Jun 2027 05:25:49.016   08 Jun 2027 05:27:43.242           114.226         57113.000
       200   08 Jun 2027 05:28:56.006   08 Jun 2027 05:29:08.686            12.680          6340.000
       201   08 Jun 2027 05:29:38.633   08 Jun 2027 05:29:50.265            11.632          5816.000
       202   08 Jun 2027 05:31:19.062   08 Jun 2027 05:31:19.062             0.000             0.000
       203   08 Jun 2027 05:32:42.896   08 Jun 2027 05:32:56.457            13.561          6780.500
       204   08 Jun 2027 07:03:18.054   08 Jun 2027 07:05:14.138           116.084         58042.000
       205   08 Jun 2027 07:08:29.006   08 Jun 2027 07:08:39.340            10.334          5167.000
       206   08 Jun 2027 07:09:32.913   08 Jun 2027 07:09:39.725             6.812          3406.000
       207   08 Jun 2027 08:40:02.648   08 Jun 2027 08:40:32.722            30.074         14960.250
       208   08 Jun 2027 08:40:59.891   08 Jun 2027 08:41:06.435             6.544           692.406
       209   08 Jun 2027 08:41:56.755   08 Jun 2027 08:41:58.976             2.221           576.125
       210   08 Jun 2027 08:42:49.300   08 Jun 2027 08:42:51.287             1.987           944.563
       211   08 Jun 2027 08:43:43.516   08 Jun 2027 08:43:47.311             3.795          1586.094
       212   08 Jun 2027 08:44:02.908   08 Jun 2027 08:44:04.400             1.492           365.719
       213   08 Jun 2027 08:44:10.507   08 Jun 2027 08:44:14.273             3.766           190.844
       214   08 Jun 2027 08:44:59.575   08 Jun 2027 08:45:05.725             6.150          1415.687
       215   08 Jun 2027 10:18:01.193   08 Jun 2027 10:18:20.530            19.337          8432.687
       216   08 Jun 2027 10:18:50.577   08 Jun 2027 10:18:52.858             2.281           938.969
       217   08 Jun 2027 10:19:34.261   08 Jun 2027 10:19:40.619             6.358           253.875
       218   08 Jun 2027 10:19:52.771   08 Jun 2027 10:19:55.846             3.075           379.750
       219   08 Jun 2027 10:20:49.136   08 Jun 2027 10:20:53.744             4.608          1664.406
       220   08 Jun 2027 10:21:04.307   08 Jun 2027 10:21:06.428             2.121            92.938
       221   08 Jun 2027 10:21:23.683   08 Jun 2027 10:21:25.121             1.438           273.469
       222   08 Jun 2027 10:22:07.512   08 Jun 2027 10:22:10.672             3.160          1302.000
       223   08 Jun 2027 11:51:38.948   08 Jun 2027 11:51:42.112             3.164          1329.719
       224   08 Jun 2027 11:52:23.217   08 Jun 2027 11:52:23.217             0.000             0.000
       225   08 Jun 2027 11:53:00.682   08 Jun 2027 11:53:10.524             9.842          1551.562
       226   08 Jun 2027 11:53:19.418   08 Jun 2027 11:53:21.498             2.080           183.031
       227   08 Jun 2027 11:53:47.673   08 Jun 2027 11:53:47.673             0.000             0.000
       228   08 Jun 2027 11:53:54.974   08 Jun 2027 11:53:58.865             3.891          1026.500
       229   08 Jun 2027 11:54:27.035   08 Jun 2027 11:54:27.035             0.000             0.000
       230   08 Jun 2027 11:55:20.460   08 Jun 2027 11:55:30.497            10.037          2144.719
       231   08 Jun 2027 11:56:20.671   08 Jun 2027 11:56:25.959             5.288          1507.156
       232   08 Jun 2027 11:57:05.182   08 Jun 2027 11:57:05.182             0.000             0.000
       233   08 Jun 2027 11:57:19.798   08 Jun 2027 11:57:20.635             0.837           418.500
       234   08 Jun 2027 11:57:48.583   08 Jun 2027 11:57:53.649             5.066          1973.031
       235   09 Jun 2027 04:02:23.784   09 Jun 2027 04:03:11.885            48.101         24050.500
       236   09 Jun 2027 04:04:32.131   09 Jun 2027 04:04:33.250             1.119           559.500
       237   09 Jun 2027 04:04:54.594   09 Jun 2027 04:05:02.399             7.805          3902.500
       238   09 Jun 2027 04:06:30.809   09 Jun 2027 04:06:41.137            10.328          5164.000
       239   09 Jun 2027 04:07:28.716   09 Jun 2027 04:07:28.716             0.000             0.000
       240   09 Jun 2027 04:07:33.618   09 Jun 2027 04:07:37.624             4.006          2003.000
       241   09 Jun 2027 05:37:17.384   09 Jun 2027 05:38:55.484            98.100         49050.000
       242   09 Jun 2027 05:39:46.913   09 Jun 2027 05:40:22.956            36.043         18021.500
       243   09 Jun 2027 05:40:39.297   09 Jun 2027 05:40:47.666             8.369          4184.500
       244   09 Jun 2027 05:43:54.598   09 Jun 2027 05:44:03.767             9.169          4584.500
       245   09 Jun 2027 05:44:47.043   09 Jun 2027 05:44:56.589             9.546          4773.000
       246   09 Jun 2027 07:15:11.410   09 Jun 2027 07:17:15.384           123.974         61987.000
       247   09 Jun 2027 07:18:35.193   09 Jun 2027 07:18:39.214             4.021          2010.500
       248   09 Jun 2027 07:18:45.727   09 Jun 2027 07:18:47.036             1.309           654.500
       249   09 Jun 2027 07:21:02.462   09 Jun 2027 07:21:18.112            15.650          6489.782
       250   09 Jun 2027 08:51:55.459   09 Jun 2027 08:52:07.561            12.102          6051.000
       251   09 Jun 2027 08:52:30.087   09 Jun 2027 08:52:54.467            24.380          9577.937
       252   09 Jun 2027 08:53:26.134   09 Jun 2027 08:53:29.760             3.626           859.875
       253   09 Jun 2027 08:53:50.027   09 Jun 2027 08:53:54.366             4.339           616.125
       254   09 Jun 2027 08:54:13.860   09 Jun 2027 08:54:15.051             1.191           477.531
       255   09 Jun 2027 08:54:43.387   09 Jun 2027 08:54:44.935             1.548           664.062
       256   09 Jun 2027 08:55:36.934   09 Jun 2027 08:55:37.911             0.977            24.000
       257   09 Jun 2027 08:56:02.928   09 Jun 2027 08:56:06.644             3.716           290.750
       258   09 Jun 2027 08:56:50.773   09 Jun 2027 08:56:52.926             2.153          1076.500
       259   09 Jun 2027 08:58:01.509   09 Jun 2027 08:58:07.044             5.535          2337.656
       260   09 Jun 2027 08:58:16.195   09 Jun 2027 08:58:17.325             1.130           155.750
       261   09 Jun 2027 10:29:48.904   09 Jun 2027 10:30:11.178            22.274          8782.812
       262   09 Jun 2027 10:30:22.079   09 Jun 2027 10:30:23.288             1.209           315.094
       263   09 Jun 2027 10:31:45.465   09 Jun 2027 10:31:53.036             7.571          2568.031
       264   09 Jun 2027 10:32:06.211   09 Jun 2027 10:32:11.630             5.419           262.781
       265   09 Jun 2027 10:33:23.672   09 Jun 2027 10:33:28.061             4.389          1486.375
       266   09 Jun 2027 10:33:44.603   09 Jun 2027 10:33:46.412             1.809           516.938
       267   09 Jun 2027 10:33:53.467   09 Jun 2027 10:33:54.360             0.893            60.625
       268   10 Jun 2027 04:16:22.221   10 Jun 2027 04:17:32.425            70.204         35102.000
       269   10 Jun 2027 04:19:07.533   10 Jun 2027 04:19:09.812             2.279          1139.500
       270   10 Jun 2027 04:19:34.980   10 Jun 2027 04:19:38.802             3.822          1911.000
       271   10 Jun 2027 05:50:10.277   10 Jun 2027 05:52:20.536           130.259         65129.500
       272   10 Jun 2027 05:53:02.824   10 Jun 2027 05:53:05.056             2.232          1116.000
       273   10 Jun 2027 05:55:53.890   10 Jun 2027 05:56:06.124            12.234          6117.000
       274   10 Jun 2027 05:56:56.112   10 Jun 2027 05:57:00.329             4.217          2108.500
       275   10 Jun 2027 05:57:40.111   10 Jun 2027 05:57:47.890             7.779          3889.500
       276   10 Jun 2027 05:58:02.163   10 Jun 2027 05:58:07.962             5.799          2899.500
       277   10 Jun 2027 07:27:19.412   10 Jun 2027 07:29:11.636           112.224         56112.000
       278   10 Jun 2027 07:30:43.267   10 Jun 2027 07:30:53.592            10.325          4951.156
       279   10 Jun 2027 07:31:32.327   10 Jun 2027 07:31:33.346             1.019           509.500
       280   10 Jun 2027 07:33:00.867   10 Jun 2027 07:33:07.778             6.911          2946.531
       281   10 Jun 2027 09:04:33.975   10 Jun 2027 09:04:56.172            22.197         10950.469
       282   10 Jun 2027 09:05:50.917   10 Jun 2027 09:05:57.246             6.329          1698.563
       283   10 Jun 2027 09:06:09.736   10 Jun 2027 09:06:11.023             1.287           289.812
       284   10 Jun 2027 09:06:51.596   10 Jun 2027 09:06:54.952             3.356          1249.812
       285   10 Jun 2027 09:08:04.304   10 Jun 2027 09:08:06.574             2.270          1131.531
       286   10 Jun 2027 09:08:10.952   10 Jun 2027 09:08:10.952             0.000             0.000
       287   10 Jun 2027 09:08:41.101   10 Jun 2027 09:08:41.101             0.000             0.000
       288   10 Jun 2027 09:09:04.195   10 Jun 2027 09:09:05.042             0.847           423.500
       289   10 Jun 2027 09:09:14.953   10 Jun 2027 09:09:17.868             2.915          1377.156
       290   10 Jun 2027 09:09:42.617   10 Jun 2027 09:09:42.617             0.000             0.000
       291   10 Jun 2027 09:09:57.911   10 Jun 2027 09:10:02.290             4.379          1251.344
       292   10 Jun 2027 10:41:15.241   10 Jun 2027 10:41:34.495            19.254          8691.375
       293   10 Jun 2027 10:41:42.434   10 Jun 2027 10:41:43.940             1.506           184.594
       294   10 Jun 2027 10:41:52.934   10 Jun 2027 10:41:53.307             0.373            46.500
       295   10 Jun 2027 10:42:29.018   10 Jun 2027 10:42:31.930             2.912          1081.281
       296   10 Jun 2027 10:43:13.717   10 Jun 2027 10:43:19.363             5.646          1297.000
       297   10 Jun 2027 10:44:16.924   10 Jun 2027 10:44:20.351             3.427          1549.438
       298   10 Jun 2027 10:45:15.024   10 Jun 2027 10:45:18.510             3.486          1708.531
       299   10 Jun 2027 10:45:40.612   10 Jun 2027 10:45:42.048             1.436           681.594
       300   10 Jun 2027 10:46:05.183   10 Jun 2027 10:46:07.436             2.253           722.969
       301   11 Jun 2027 04:28:35.290   11 Jun 2027 04:29:32.678            57.388         28694.000
       302   11 Jun 2027 04:29:46.625   11 Jun 2027 04:30:30.637            44.012         22006.000
       303   11 Jun 2027 06:02:35.826   11 Jun 2027 06:04:31.915           116.089         58044.500
       304   11 Jun 2027 06:05:03.039   11 Jun 2027 06:05:15.999            12.960          6480.000
       305   11 Jun 2027 06:07:06.181   11 Jun 2027 06:07:21.195            15.014          7507.000
       306   11 Jun 2027 07:39:44.545   11 Jun 2027 07:41:38.151           113.606         56595.875
       307   11 Jun 2027 07:43:47.723   11 Jun 2027 07:43:53.108             5.385          2692.500
       308   11 Jun 2027 07:45:00.387   11 Jun 2027 07:45:10.986            10.599          2882.031
       309   11 Jun 2027 07:45:45.072   11 Jun 2027 07:45:47.450             2.378          1037.156
       310   11 Jun 2027 07:46:19.580   11 Jun 2027 07:46:22.272             2.692           899.250
       311   11 Jun 2027 09:16:43.067   11 Jun 2027 09:17:08.271            25.204         11562.969
       312   11 Jun 2027 09:17:09.993   11 Jun 2027 09:17:10.292             0.299            53.813
       313   11 Jun 2027 09:18:17.826   11 Jun 2027 09:18:21.598             3.772          1216.625
       314   11 Jun 2027 09:18:42.359   11 Jun 2027 09:18:45.421             3.062           484.781
       315   11 Jun 2027 09:19:07.966   11 Jun 2027 09:19:12.050             4.084           704.531
       316   11 Jun 2027 09:19:24.053   11 Jun 2027 09:19:25.194             1.141           346.719
       317   11 Jun 2027 09:20:01.489   11 Jun 2027 09:20:04.550             3.061          1134.219
       318   11 Jun 2027 09:21:10.195   11 Jun 2027 09:21:14.506             4.311          1701.750
       319   11 Jun 2027 09:21:51.486   11 Jun 2027 09:21:54.251             2.765           879.594
       320   11 Jun 2027 10:53:30.055   11 Jun 2027 10:53:45.778            15.723          7755.469
       321   11 Jun 2027 10:54:04.743   11 Jun 2027 10:54:10.623             5.880           271.812
       322   11 Jun 2027 10:54:29.863   11 Jun 2027 10:54:33.621             3.758            95.656
       323   11 Jun 2027 10:54:45.632   11 Jun 2027 10:54:51.658             6.026           375.344
       324   11 Jun 2027 10:55:41.977   11 Jun 2027 10:55:45.875             3.898          1178.156
       325   11 Jun 2027 10:56:31.633   11 Jun 2027 10:56:37.771             6.138          1311.531
       326   11 Jun 2027 10:57:17.757   11 Jun 2027 10:57:20.797             3.040          1121.656
       327   12 Jun 2027 03:04:14.492   12 Jun 2027 03:04:36.183            21.691         10845.500
       328   12 Jun 2027 03:04:47.413   12 Jun 2027 03:04:51.679             4.266          2133.000
       329   12 Jun 2027 04:40:41.263   12 Jun 2027 04:42:28.683           107.420         53710.000
       330   12 Jun 2027 06:15:50.107   12 Jun 2027 06:17:42.918           112.811         56405.500
       331   12 Jun 2027 06:18:41.966   12 Jun 2027 06:18:41.966             0.000             0.000
       332   12 Jun 2027 06:19:17.559   12 Jun 2027 06:19:17.873             0.314           157.000
       333   12 Jun 2027 06:19:21.666   12 Jun 2027 06:19:33.077            11.411          5705.500
       334   12 Jun 2027 06:21:40.312   12 Jun 2027 06:21:40.617             0.305           152.500
       335   12 Jun 2027 06:21:54.595   12 Jun 2027 06:21:55.946             1.351           675.500
       336   12 Jun 2027 06:22:28.335   12 Jun 2027 06:22:38.895            10.560          5280.000
       337   12 Jun 2027 07:52:10.466   12 Jun 2027 07:53:31.522            81.056         39888.750
       338   12 Jun 2027 07:54:22.748   12 Jun 2027 07:54:31.499             8.751          1366.937
       339   12 Jun 2027 07:55:25.441   12 Jun 2027 07:55:28.980             3.539          1461.875
       340   12 Jun 2027 07:57:02.189   12 Jun 2027 07:57:12.932            10.743          2685.000
       341   12 Jun 2027 07:57:38.403   12 Jun 2027 07:57:39.537             1.134           567.000
       342   12 Jun 2027 07:58:14.556   12 Jun 2027 07:58:16.095             1.539           769.500
       343   12 Jun 2027 07:58:21.176   12 Jun 2027 07:58:23.128             1.952           709.844
       344   12 Jun 2027 09:29:44.483   12 Jun 2027 09:30:05.052            20.569         10126.844
       345   12 Jun 2027 09:30:29.864   12 Jun 2027 09:30:35.723             5.859           775.375
       346   12 Jun 2027 09:30:47.526   12 Jun 2027 09:30:52.171             4.645           280.437
       347   12 Jun 2027 09:31:26.935   12 Jun 2027 09:31:29.475             2.540           826.906
       348   12 Jun 2027 09:31:32.178   12 Jun 2027 09:31:33.676             1.498            84.469
       349   12 Jun 2027 09:32:40.804   12 Jun 2027 09:32:46.369             5.565          2097.750
       350   12 Jun 2027 09:33:22.931   12 Jun 2027 09:33:27.820             4.889          1142.562
       351   12 Jun 2027 09:33:38.884   12 Jun 2027 09:33:43.043             4.159           273.781
       352   12 Jun 2027 11:05:47.788   12 Jun 2027 11:06:03.476            15.688          6905.688
       353   12 Jun 2027 11:07:01.444   12 Jun 2027 11:07:26.542            25.098          1309.156
       354   12 Jun 2027 11:07:38.234   12 Jun 2027 11:07:39.382             1.148           365.375
       355   12 Jun 2027 11:08:31.473   12 Jun 2027 11:08:44.276            12.803          1525.844
       356   12 Jun 2027 11:09:41.942   12 Jun 2027 11:09:46.071             4.129          1254.563
       357   13 Jun 2027 03:16:15.798   13 Jun 2027 03:16:38.355            22.557         11278.500
       358   13 Jun 2027 03:16:56.190   13 Jun 2027 03:16:59.592             3.402          1701.000
       359   13 Jun 2027 03:17:01.806   13 Jun 2027 03:17:05.938             4.132          2066.000
       360   13 Jun 2027 03:19:18.688   13 Jun 2027 03:19:18.688             0.000             0.000
       361   13 Jun 2027 04:52:51.606   13 Jun 2027 04:54:42.129           110.523         55261.500
       362   13 Jun 2027 04:54:56.879   13 Jun 2027 04:55:02.294             5.415          2707.500
       363   13 Jun 2027 06:28:01.884   13 Jun 2027 06:29:20.450            78.566         39283.000
       364   13 Jun 2027 06:30:36.040   13 Jun 2027 06:30:54.272            18.232          9116.000
       365   13 Jun 2027 06:32:34.513   13 Jun 2027 06:32:50.992            16.479          8239.500
       366   13 Jun 2027 06:33:47.221   13 Jun 2027 06:33:53.109             5.888          2944.000
       367   13 Jun 2027 06:34:16.180   13 Jun 2027 06:34:37.443            21.263         10631.500
       368   13 Jun 2027 08:04:22.031   13 Jun 2027 08:05:10.662            48.631         24315.500
       369   13 Jun 2027 08:05:39.756   13 Jun 2027 08:06:03.267            23.511         10051.875
       370   13 Jun 2027 08:06:52.563   13 Jun 2027 08:06:55.899             3.336          1526.250
       371   13 Jun 2027 08:07:49.807   13 Jun 2027 08:07:53.610             3.803          1090.250
       372   13 Jun 2027 08:08:01.237   13 Jun 2027 08:08:02.300             1.063           236.187
       373   13 Jun 2027 08:08:13.847   13 Jun 2027 08:08:16.959             3.112           335.250
       374   13 Jun 2027 08:09:21.862   13 Jun 2027 08:09:25.202             3.340          1616.656
       375   13 Jun 2027 08:10:03.892   13 Jun 2027 08:10:05.641             1.749           874.500
       376   13 Jun 2027 08:10:08.669   13 Jun 2027 08:10:09.496             0.827           244.125
       377   13 Jun 2027 09:41:48.084   13 Jun 2027 09:42:06.212            18.128          8373.969
       378   13 Jun 2027 09:42:26.602   13 Jun 2027 09:42:28.020             1.418           637.188
       379   13 Jun 2027 09:42:53.898   13 Jun 2027 09:42:58.543             4.645           808.688
       380   13 Jun 2027 09:43:39.427   13 Jun 2027 09:43:43.823             4.396          1155.000
       381   13 Jun 2027 09:43:59.394   13 Jun 2027 09:44:00.346             0.952           419.281
       382   13 Jun 2027 09:44:26.159   13 Jun 2027 09:44:27.710             1.551           571.125
       383   13 Jun 2027 09:44:39.255   13 Jun 2027 09:44:41.001             1.746           325.344
       384   13 Jun 2027 09:45:21.644   13 Jun 2027 09:45:23.496             1.852           926.000
       385   13 Jun 2027 09:45:24.827   13 Jun 2027 09:45:25.754             0.927           385.687
       386   13 Jun 2027 09:45:55.978   13 Jun 2027 09:45:58.042             2.064           944.500
       387   13 Jun 2027 09:46:05.934   13 Jun 2027 09:46:08.310             2.376           246.625
       388   13 Jun 2027 11:17:51.858   13 Jun 2027 11:18:07.311            15.453          7700.656
       389   13 Jun 2027 11:18:58.632   13 Jun 2027 11:19:02.008             3.376          1490.062
       390   13 Jun 2027 11:19:21.147   13 Jun 2027 11:19:24.865             3.718           404.875
       391   13 Jun 2027 11:19:54.838   13 Jun 2027 11:19:58.303             3.465           936.656
       392   13 Jun 2027 11:21:06.266   13 Jun 2027 11:21:12.862             6.596          1789.781
       393   13 Jun 2027 11:22:07.465   13 Jun 2027 11:22:10.935             3.470          1474.406
