uniorb/output/strategy_1/Camera/Camera_KinoSat_111709.txt

KinoSat_111709
-------------------------
    Access    *     Start Time (UTCG)     *     Stop Time (UTCG)  *   Duration (s) *   Data (Mbytes)
         1   01 Jun 2027 04:08:14.426   01 Jun 2027 04:09:15.652            61.226         30613.000
         2   01 Jun 2027 04:09:22.339   01 Jun 2027 04:10:50.835            88.496         44248.000
         3   01 Jun 2027 04:11:36.993   01 Jun 2027 04:11:49.777            12.784          6392.000
         4   01 Jun 2027 04:13:04.118   01 Jun 2027 04:13:04.118             0.000             0.000
         5   01 Jun 2027 04:13:53.393   01 Jun 2027 04:13:58.769             5.376          2688.000
         6   01 Jun 2027 05:46:31.810   01 Jun 2027 05:47:06.283            34.473         17236.500
         7   01 Jun 2027 05:47:20.512   01 Jun 2027 05:48:24.567            64.055         32027.500
         8   01 Jun 2027 05:48:52.112   01 Jun 2027 05:49:10.108            17.996          8998.000
         9   01 Jun 2027 07:09:54.516   01 Jun 2027 07:11:45.918           111.402         55701.000
        10   01 Jun 2027 08:46:27.833   01 Jun 2027 08:47:35.088            67.255         33627.500
        11   01 Jun 2027 08:47:41.186   01 Jun 2027 08:48:12.554            31.368         15684.000
        12   01 Jun 2027 08:49:57.313   01 Jun 2027 08:49:58.849             1.536           768.000
        13   01 Jun 2027 10:21:37.955   01 Jun 2027 10:22:57.023            79.068         39534.000
        14   01 Jun 2027 10:23:09.762   01 Jun 2027 10:23:34.345            24.583         12291.500
        15   01 Jun 2027 10:26:33.636   01 Jun 2027 10:26:33.636             0.000             0.000
        16   01 Jun 2027 10:27:56.304   01 Jun 2027 10:28:14.037            17.733          8866.500
        17   01 Jun 2027 11:57:59.303   01 Jun 2027 11:59:36.949            97.646         48823.000
        18   02 Jun 2027 04:21:21.099   02 Jun 2027 04:22:44.116            83.017         41508.500
        19   02 Jun 2027 04:23:05.865   02 Jun 2027 04:23:32.029            26.164         13082.000
        20   02 Jun 2027 04:24:44.135   02 Jun 2027 04:25:02.048            17.913          8956.500
        21   02 Jun 2027 04:26:22.829   02 Jun 2027 04:26:24.487             1.658           829.000
        22   02 Jun 2027 04:28:17.783   02 Jun 2027 04:28:54.757            36.974         18487.000
        23   02 Jun 2027 05:58:28.754   02 Jun 2027 05:59:09.208            40.454         20227.000
        24   02 Jun 2027 05:59:26.758   02 Jun 2027 06:00:02.877            36.119         18059.500
        25   02 Jun 2027 06:00:13.056   02 Jun 2027 06:00:35.293            22.237         11118.500
        26   02 Jun 2027 06:01:54.212   02 Jun 2027 06:01:54.212             0.000             0.000
        27   02 Jun 2027 07:21:56.340   02 Jun 2027 07:23:44.580           108.240         54120.000
        28   02 Jun 2027 08:58:18.943   02 Jun 2027 08:59:34.092            75.149         37574.500
        29   02 Jun 2027 09:00:23.403   02 Jun 2027 09:00:28.142             4.739          2369.500
        30   02 Jun 2027 10:33:12.121   02 Jun 2027 10:35:25.097           132.976         66488.000
        31   02 Jun 2027 10:36:02.049   02 Jun 2027 10:36:02.049             0.000             0.000
        32   02 Jun 2027 10:36:11.609   02 Jun 2027 10:36:11.609             0.000             0.000
        33   02 Jun 2027 10:39:53.782   02 Jun 2027 10:40:22.394            28.612         14306.000
        34   03 Jun 2027 03:00:00.000   03 Jun 2027 03:00:14.780            14.780          7390.000
        35   03 Jun 2027 03:00:18.443   03 Jun 2027 03:00:18.443             0.000             0.000
        36   03 Jun 2027 04:33:25.217   03 Jun 2027 04:34:54.442            89.225         44612.500
        37   03 Jun 2027 04:36:00.165   03 Jun 2027 04:36:00.222             0.057            28.500
        38   03 Jun 2027 04:36:06.565   03 Jun 2027 04:36:20.158            13.593          6796.500
        39   03 Jun 2027 04:37:36.997   03 Jun 2027 04:37:37.435             0.438           219.000
        40   03 Jun 2027 04:39:12.171   03 Jun 2027 04:39:27.042            14.871          7435.500
        41   03 Jun 2027 04:39:38.653   03 Jun 2027 04:39:52.386            13.733          6866.500
        42   03 Jun 2027 04:40:28.005   03 Jun 2027 04:40:59.222            31.217         15608.500
        43   03 Jun 2027 05:59:10.253   03 Jun 2027 05:59:56.429            46.176         23088.000
        44   03 Jun 2027 06:10:25.479   03 Jun 2027 06:10:54.536            29.057         14528.500
        45   03 Jun 2027 07:33:01.676   03 Jun 2027 07:35:11.589           129.913         64956.500
        46   03 Jun 2027 09:08:36.613   03 Jun 2027 09:09:23.246            46.633         23316.500
        47   03 Jun 2027 09:10:03.096   03 Jun 2027 09:10:45.262            42.166         21083.000
        48   03 Jun 2027 09:11:29.412   03 Jun 2027 09:11:55.494            26.082         13041.000
        49   03 Jun 2027 09:12:57.382   03 Jun 2027 09:13:08.696            11.314          5657.000
        50   03 Jun 2027 10:47:57.685   03 Jun 2027 10:48:21.614            23.929         11964.500
        51   03 Jun 2027 10:49:07.270   03 Jun 2027 10:49:33.669            26.399         13199.500
        52   03 Jun 2027 10:51:41.628   03 Jun 2027 10:52:25.541            43.913         21956.500
        53   04 Jun 2027 03:06:50.519   04 Jun 2027 03:07:51.113            60.594         30297.000
        54   04 Jun 2027 03:10:19.452   04 Jun 2027 03:10:19.452             0.000             0.000
        55   04 Jun 2027 03:10:25.322   04 Jun 2027 03:10:44.077            18.755          9377.500
        56   04 Jun 2027 03:11:41.289   04 Jun 2027 03:11:50.536             9.247          4623.500
        57   04 Jun 2027 03:12:14.908   04 Jun 2027 03:12:15.285             0.377           188.500
        58   04 Jun 2027 04:45:55.291   04 Jun 2027 04:47:09.452            74.161         37080.500
        59   04 Jun 2027 04:49:12.329   04 Jun 2027 04:49:27.890            15.561          7780.500
        60   04 Jun 2027 04:50:33.203   04 Jun 2027 04:50:33.203             0.000             0.000
        61   04 Jun 2027 04:52:03.527   04 Jun 2027 04:53:02.026            58.499         29249.500
        62   04 Jun 2027 06:10:45.416   04 Jun 2027 06:11:16.041            30.625         15312.500
        63   04 Jun 2027 06:22:26.479   04 Jun 2027 06:23:23.470            56.991         28495.500
        64   04 Jun 2027 07:44:44.421   04 Jun 2027 07:45:50.705            66.284         33142.000
        65   04 Jun 2027 07:46:41.388   04 Jun 2027 07:47:04.735            23.347         11658.688
        66   04 Jun 2027 09:19:43.077   04 Jun 2027 09:19:58.844            15.767          7440.781
        67   04 Jun 2027 09:20:42.844   04 Jun 2027 09:20:47.914             5.070          1025.000
        68   04 Jun 2027 09:22:23.443   04 Jun 2027 09:22:25.917             2.474          1237.000
        69   04 Jun 2027 09:23:21.277   04 Jun 2027 09:23:27.084             5.807          2903.500
        70   04 Jun 2027 09:24:54.859   04 Jun 2027 09:25:03.195             8.336          2781.656
        71   04 Jun 2027 10:57:10.255   04 Jun 2027 10:57:25.233            14.978          6036.375
        72   04 Jun 2027 10:58:07.645   04 Jun 2027 10:58:08.846             1.201           600.500
        73   04 Jun 2027 10:58:11.047   04 Jun 2027 10:58:12.296             1.249           196.125
        74   04 Jun 2027 10:58:21.022   04 Jun 2027 10:58:21.626             0.604           111.969
        75   04 Jun 2027 10:59:16.699   04 Jun 2027 10:59:22.453             5.754           968.406
        76   04 Jun 2027 10:59:53.899   04 Jun 2027 10:59:57.051             3.152           713.687
        77   04 Jun 2027 11:00:18.253   04 Jun 2027 11:00:20.054             1.801           343.906
        78   04 Jun 2027 11:00:43.473   04 Jun 2027 11:00:45.551             2.078           703.562
        79   04 Jun 2027 11:01:20.218   04 Jun 2027 11:01:25.405             5.187           255.750
        80   04 Jun 2027 11:01:35.390   04 Jun 2027 11:01:36.542             1.152           312.031
        81   04 Jun 2027 11:01:56.619   04 Jun 2027 11:01:57.774             1.155           440.313
        82   04 Jun 2027 11:02:22.561   04 Jun 2027 11:02:25.317             2.756           567.969
        83   04 Jun 2027 11:04:11.912   04 Jun 2027 11:04:23.311            11.399          3331.094
        84   05 Jun 2027 03:19:10.623   05 Jun 2027 03:19:37.289            26.666         13333.000
        85   05 Jun 2027 03:19:42.604   05 Jun 2027 03:20:16.553            33.949         16974.500
        86   05 Jun 2027 03:20:20.423   05 Jun 2027 03:20:50.765            30.342         15171.000
        87   05 Jun 2027 03:21:28.082   05 Jun 2027 03:21:29.112             1.030           515.000
        88   05 Jun 2027 03:22:38.788   05 Jun 2027 03:22:45.070             6.282          3141.000
        89   05 Jun 2027 03:23:53.714   05 Jun 2027 03:23:56.648             2.934          1467.000
        90   05 Jun 2027 03:24:39.669   05 Jun 2027 03:24:39.953             0.284           142.000
        91   05 Jun 2027 04:57:57.485   05 Jun 2027 04:59:19.318            81.833         40916.500
        92   05 Jun 2027 04:59:57.047   05 Jun 2027 05:00:04.442             7.395          3697.500
        93   05 Jun 2027 05:00:55.082   05 Jun 2027 05:01:04.117             9.035          4517.500
        94   05 Jun 2027 05:02:01.104   05 Jun 2027 05:02:22.306            21.202         10601.000
        95   05 Jun 2027 05:04:55.547   05 Jun 2027 05:04:56.990             1.443           721.500
        96   05 Jun 2027 06:22:18.153   05 Jun 2027 06:23:23.016            64.863         32431.500
        97   05 Jun 2027 06:24:25.787   05 Jun 2027 06:24:26.973             1.186           593.000
        98   05 Jun 2027 06:34:34.208   05 Jun 2027 06:35:01.867            27.659         13829.500
        99   05 Jun 2027 07:56:21.973   05 Jun 2027 07:57:19.941            57.968         28867.219
       100   05 Jun 2027 07:58:26.916   05 Jun 2027 07:58:28.241             1.325           582.531
       101   05 Jun 2027 07:59:10.225   05 Jun 2027 07:59:10.225             0.000             0.000
       102   05 Jun 2027 07:59:52.099   05 Jun 2027 07:59:58.399             6.300          2283.656
       103   05 Jun 2027 09:31:10.933   05 Jun 2027 09:31:23.672            12.739          4866.656
       104   05 Jun 2027 09:33:06.504   05 Jun 2027 09:33:11.809             5.305          2093.750
       105   05 Jun 2027 09:33:14.423   05 Jun 2027 09:33:14.888             0.465            14.313
       106   05 Jun 2027 09:36:48.140   05 Jun 2027 09:36:55.104             6.964          3482.000
       107   05 Jun 2027 09:38:00.143   05 Jun 2027 09:38:08.203             8.060          4030.000
       108   05 Jun 2027 09:38:46.980   05 Jun 2027 09:38:56.317             9.337          2251.937
       109   05 Jun 2027 09:40:07.747   05 Jun 2027 09:40:13.063             5.316          2172.094
       110   05 Jun 2027 11:12:03.088   05 Jun 2027 11:12:03.088             0.000             0.000
       111   05 Jun 2027 11:12:46.896   05 Jun 2027 11:13:12.421            25.525         12761.625
       112   05 Jun 2027 11:13:32.225   05 Jun 2027 11:13:33.837             1.612           618.875
       113   05 Jun 2027 11:13:43.782   05 Jun 2027 11:13:45.058             1.276           310.781
       114   05 Jun 2027 11:14:28.185   05 Jun 2027 11:14:28.729             0.544           272.000
       115   05 Jun 2027 11:14:59.808   05 Jun 2027 11:15:04.097             4.289          1755.813
       116   05 Jun 2027 11:15:24.864   05 Jun 2027 11:15:24.943             0.079            39.500
       117   05 Jun 2027 11:15:39.685   05 Jun 2027 11:15:46.033             6.348          1070.156
       118   05 Jun 2027 11:16:21.024   05 Jun 2027 11:16:25.510             4.486           812.719
       119   06 Jun 2027 03:31:53.505   06 Jun 2027 03:32:08.418            14.913          7456.500
       120   06 Jun 2027 03:32:17.331   06 Jun 2027 03:33:29.217            71.886         35943.000
       121   06 Jun 2027 03:33:58.385   06 Jun 2027 03:34:20.755            22.370         11185.000
       122   06 Jun 2027 03:35:13.639   06 Jun 2027 03:35:16.280             2.641          1320.500
       123   06 Jun 2027 03:37:05.211   06 Jun 2027 03:37:11.945             6.734          3367.000
       124   06 Jun 2027 03:37:19.616   06 Jun 2027 03:37:29.055             9.439          4719.500
       125   06 Jun 2027 05:10:22.964   06 Jun 2027 05:11:44.777            81.813         40906.500
       126   06 Jun 2027 05:11:59.684   06 Jun 2027 05:12:02.476             2.792          1396.000
       127   06 Jun 2027 05:12:53.173   06 Jun 2027 05:13:04.520            11.347          5673.500
       128   06 Jun 2027 05:13:10.384   06 Jun 2027 05:13:29.075            18.691          9345.500
       129   06 Jun 2027 06:34:15.158   06 Jun 2027 06:35:18.534            63.376         31688.000
       130   06 Jun 2027 06:35:24.519   06 Jun 2027 06:35:54.984            30.465         15232.500
       131   06 Jun 2027 08:10:14.276   06 Jun 2027 08:10:42.291            28.015         13931.281
       132   06 Jun 2027 08:11:43.980   06 Jun 2027 08:11:48.086             4.106          1519.125
       133   06 Jun 2027 08:13:19.866   06 Jun 2027 08:13:28.400             8.534          2536.938
       134   06 Jun 2027 09:44:02.703   06 Jun 2027 09:44:12.111             9.408          3975.375
       135   06 Jun 2027 09:45:10.662   06 Jun 2027 09:45:12.804             2.142           590.719
       136   06 Jun 2027 09:46:01.628   06 Jun 2027 09:46:01.628             0.000             0.000
       137   06 Jun 2027 09:47:29.758   06 Jun 2027 09:47:41.057            11.299          3585.344
       138   06 Jun 2027 09:47:52.388   06 Jun 2027 09:47:55.127             2.739           215.500
       139   06 Jun 2027 09:48:50.284   06 Jun 2027 09:48:54.732             4.448          1700.375
       140   06 Jun 2027 09:49:59.278   06 Jun 2027 09:49:59.278             0.000             0.000
       141   06 Jun 2027 09:50:39.919   06 Jun 2027 09:50:48.746             8.827          3287.094
       142   06 Jun 2027 11:21:11.555   06 Jun 2027 11:21:28.214            16.659          7854.656
       143   06 Jun 2027 11:21:43.764   06 Jun 2027 11:21:44.467             0.703           235.438
       144   06 Jun 2027 11:22:09.658   06 Jun 2027 11:22:11.806             2.148           712.750
       145   06 Jun 2027 11:25:14.045   06 Jun 2027 11:25:26.210            12.165          5421.344
       146   06 Jun 2027 11:25:44.739   06 Jun 2027 11:25:46.372             1.633           277.594
       147   06 Jun 2027 11:25:55.805   06 Jun 2027 11:25:56.047             0.242            58.469
       148   06 Jun 2027 11:26:22.124   06 Jun 2027 11:26:24.398             2.274           814.906
       149   06 Jun 2027 11:27:46.249   06 Jun 2027 11:27:50.243             3.994          1997.000
       150   07 Jun 2027 03:44:37.526   07 Jun 2027 03:44:56.674            19.148          9574.000
       151   07 Jun 2027 03:45:10.405   07 Jun 2027 03:46:05.648            55.243         27621.500
       152   07 Jun 2027 03:46:05.921   07 Jun 2027 03:47:03.021            57.100         28550.000
       153   07 Jun 2027 03:48:47.599   07 Jun 2027 03:48:53.841             6.242          3121.000
       154   07 Jun 2027 03:49:06.898   07 Jun 2027 03:49:06.898             0.000             0.000
       155   07 Jun 2027 05:22:45.107   07 Jun 2027 05:24:38.444           113.337         56668.500
       156   07 Jun 2027 05:25:23.495   07 Jun 2027 05:25:31.443             7.948          3974.000
       157   07 Jun 2027 05:26:13.788   07 Jun 2027 05:26:41.983            28.195         14097.500
       158   07 Jun 2027 06:46:08.417   07 Jun 2027 06:47:25.859            77.442         38721.000
       159   07 Jun 2027 08:22:31.175   07 Jun 2027 08:22:56.741            25.566         12529.906
       160   07 Jun 2027 08:23:27.365   07 Jun 2027 08:23:29.598             2.233           875.625
       161   07 Jun 2027 08:23:47.414   07 Jun 2027 08:23:48.346             0.932           199.156
       162   07 Jun 2027 08:24:18.419   07 Jun 2027 08:24:18.419             0.000             0.000
       163   07 Jun 2027 08:24:24.202   07 Jun 2027 08:24:26.363             2.161           941.844
       164   07 Jun 2027 08:24:31.389   07 Jun 2027 08:24:34.023             2.634           114.312
       165   07 Jun 2027 08:25:04.823   07 Jun 2027 08:25:07.152             2.329           962.500
       166   07 Jun 2027 09:56:26.241   07 Jun 2027 09:56:40.271            14.030          5017.250
       167   07 Jun 2027 09:57:10.513   07 Jun 2027 09:57:14.679             4.166           907.687
       168   07 Jun 2027 09:58:29.911   07 Jun 2027 09:58:29.911             0.000             0.000
       169   07 Jun 2027 09:59:05.463   07 Jun 2027 09:59:16.274            10.811          1806.688
       170   07 Jun 2027 10:02:28.209   07 Jun 2027 10:02:41.620            13.411          5545.719
       171   07 Jun 2027 10:03:11.276   07 Jun 2027 10:03:14.040             2.764           660.719
       172   07 Jun 2027 10:03:39.436   07 Jun 2027 10:03:43.977             4.541           753.250
       173   07 Jun 2027 10:03:48.307   07 Jun 2027 10:03:48.887             0.580           106.781
       174   07 Jun 2027 10:04:30.962   07 Jun 2027 10:04:32.230             1.268           634.000
       175   07 Jun 2027 11:33:37.449   07 Jun 2027 11:33:52.430            14.981          7034.687
       176   07 Jun 2027 11:33:57.844   07 Jun 2027 11:34:01.570             3.726            70.250
       177   07 Jun 2027 11:34:28.007   07 Jun 2027 11:34:31.116             3.109           707.125
       178   07 Jun 2027 11:35:40.626   07 Jun 2027 11:35:43.281             2.655          1097.219
       179   07 Jun 2027 11:36:46.021   07 Jun 2027 11:36:50.808             4.787          1881.094
       180   07 Jun 2027 11:37:56.595   07 Jun 2027 11:38:00.567             3.972          1986.000
       181   07 Jun 2027 11:38:25.792   07 Jun 2027 11:38:27.149             1.357           678.500
       182   07 Jun 2027 11:39:20.772   07 Jun 2027 11:39:22.367             1.595           797.500
       183   07 Jun 2027 11:39:44.388   07 Jun 2027 11:39:46.967             2.579          1289.500
       184   07 Jun 2027 11:40:09.686   07 Jun 2027 11:40:10.271             0.585           292.500
       185   08 Jun 2027 03:56:41.340   08 Jun 2027 03:57:37.478            56.138         28069.000
       186   08 Jun 2027 03:57:43.183   08 Jun 2027 03:58:18.376            35.193         17596.500
       187   08 Jun 2027 03:58:36.139   08 Jun 2027 03:59:04.592            28.453         14226.500
       188   08 Jun 2027 04:01:46.189   08 Jun 2027 04:02:06.475            20.286         10143.000
       189   08 Jun 2027 05:35:07.545   08 Jun 2027 05:36:41.203            93.658         46829.000
       190   08 Jun 2027 05:37:29.701   08 Jun 2027 05:37:40.143            10.442          5221.000
       191   08 Jun 2027 05:38:12.009   08 Jun 2027 05:38:33.092            21.083         10541.500
       192   08 Jun 2027 06:57:59.782   08 Jun 2027 06:59:26.981            87.199         43599.500
       193   08 Jun 2027 07:00:06.610   08 Jun 2027 07:00:08.856             2.246          1123.000
       194   08 Jun 2027 08:34:34.550   08 Jun 2027 08:34:55.223            20.673          8705.688
       195   08 Jun 2027 08:36:18.455   08 Jun 2027 08:36:23.760             5.305          2397.156
       196   08 Jun 2027 08:37:07.000   08 Jun 2027 08:37:17.909            10.909          1351.250
       197   08 Jun 2027 10:10:21.867   08 Jun 2027 10:10:38.504            16.637          7841.781
       198   08 Jun 2027 10:12:51.688   08 Jun 2027 10:13:00.033             8.345          3941.813
       199   08 Jun 2027 10:13:55.278   08 Jun 2027 10:14:00.497             5.219          1450.875
       200   08 Jun 2027 10:15:02.843   08 Jun 2027 10:15:09.558             6.715           867.312
       201   08 Jun 2027 10:15:43.220   08 Jun 2027 10:15:45.438             2.218           909.906
       202   08 Jun 2027 10:15:58.731   08 Jun 2027 10:16:02.457             3.726           388.469
       203   08 Jun 2027 10:16:26.014   08 Jun 2027 10:16:28.797             2.783           604.156
       204   08 Jun 2027 11:46:03.456   08 Jun 2027 11:46:20.022            16.566          7756.000
       205   08 Jun 2027 11:47:44.725   08 Jun 2027 11:47:49.931             5.206          1895.719
       206   08 Jun 2027 11:48:07.549   08 Jun 2027 11:48:08.529             0.980           275.250
       207   08 Jun 2027 11:48:48.665   08 Jun 2027 11:48:50.813             2.148          1000.812
       208   08 Jun 2027 11:49:54.275   08 Jun 2027 11:49:56.672             2.397          1158.719
       209   08 Jun 2027 11:50:06.576   08 Jun 2027 11:50:08.322             1.746           309.500
       210   08 Jun 2027 11:50:19.359   08 Jun 2027 11:50:19.359             0.000             0.000
       211   08 Jun 2027 11:50:44.270   08 Jun 2027 11:50:49.149             4.879          1123.375
       212   08 Jun 2027 11:51:04.502   08 Jun 2027 11:51:05.291             0.789           125.812
       213   08 Jun 2027 11:51:44.931   08 Jun 2027 11:51:58.406            13.475           969.219
       214   08 Jun 2027 11:52:17.583   08 Jun 2027 11:52:23.217             5.634           519.812
       215   09 Jun 2027 04:08:31.996   09 Jun 2027 04:09:30.816            58.820         29410.000
       216   09 Jun 2027 04:09:39.310   09 Jun 2027 04:10:41.961            62.651         31325.500
       217   09 Jun 2027 04:12:31.845   09 Jun 2027 04:12:47.753            15.908          7954.000
       218   09 Jun 2027 04:14:26.795   09 Jun 2027 04:14:29.877             3.082          1541.000
       219   09 Jun 2027 05:46:48.808   09 Jun 2027 05:48:28.709            99.901         49950.500
       220   09 Jun 2027 05:49:08.445   09 Jun 2027 05:49:28.273            19.828          9914.000
       221   09 Jun 2027 07:10:10.555   09 Jun 2027 07:11:49.702            99.147         49573.500
       222   09 Jun 2027 08:46:45.467   09 Jun 2027 08:46:56.131            10.664          5332.000
       223   09 Jun 2027 08:47:51.501   09 Jun 2027 08:47:58.224             6.723          3361.500
       224   09 Jun 2027 08:48:02.099   09 Jun 2027 08:48:03.753             1.654           546.094
       225   09 Jun 2027 08:49:18.886   09 Jun 2027 08:49:24.894             6.008          2327.781
       226   09 Jun 2027 10:21:55.481   09 Jun 2027 10:22:07.068            11.587          5355.094
       227   09 Jun 2027 10:24:48.688   09 Jun 2027 10:24:59.485            10.797          4928.469
       228   09 Jun 2027 10:26:51.556   09 Jun 2027 10:26:51.556             0.000             0.000
       229   09 Jun 2027 10:28:16.293   09 Jun 2027 10:28:28.677            12.384          5951.062
       230   09 Jun 2027 11:58:16.403   09 Jun 2027 11:58:38.977            22.574          6179.281
       231   10 Jun 2027 04:21:38.348   10 Jun 2027 04:23:01.961            83.613         41806.500
       232   10 Jun 2027 04:23:20.422   10 Jun 2027 04:23:47.984            27.562         13781.000
       233   10 Jun 2027 04:26:36.378   10 Jun 2027 04:26:40.518             4.140          2070.000
       234   10 Jun 2027 04:28:16.907   10 Jun 2027 04:28:19.199             2.292          1146.000
       235   10 Jun 2027 04:28:29.719   10 Jun 2027 04:29:10.604            40.885         20442.500
       236   10 Jun 2027 05:58:45.241   10 Jun 2027 05:59:26.695            41.454         20727.000
       237   10 Jun 2027 05:59:34.863   10 Jun 2027 06:00:25.020            50.157         25078.500
       238   10 Jun 2027 06:02:11.526   10 Jun 2027 06:02:11.526             0.000             0.000
       239   10 Jun 2027 07:22:42.225   10 Jun 2027 07:24:23.712           101.487         50633.468
       240   10 Jun 2027 08:58:33.757   10 Jun 2027 08:58:46.654            12.897          5872.406
       241   10 Jun 2027 09:00:28.673   10 Jun 2027 09:00:28.673             0.000             0.000
       242   10 Jun 2027 09:00:47.649   10 Jun 2027 09:00:59.288            11.639          3730.625
       243   10 Jun 2027 10:33:26.220   10 Jun 2027 10:33:44.376            18.156          6360.563
       244   10 Jun 2027 10:35:45.037   10 Jun 2027 10:35:53.658             8.621          3407.188
       245   10 Jun 2027 10:36:22.899   10 Jun 2027 10:36:22.899             0.000             0.000
       246   10 Jun 2027 10:36:24.693   10 Jun 2027 10:36:28.727             4.034           554.844
       247   10 Jun 2027 10:37:44.872   10 Jun 2027 10:37:50.807             5.935          1911.938
       248   10 Jun 2027 10:38:18.347   10 Jun 2027 10:38:20.490             2.143           500.906
       249   10 Jun 2027 10:38:55.316   10 Jun 2027 10:38:57.411             2.095           504.562
       250   10 Jun 2027 10:39:10.705   10 Jun 2027 10:39:16.692             5.987           415.437
       251   10 Jun 2027 10:39:34.383   10 Jun 2027 10:39:37.376             2.993           552.844
       252   10 Jun 2027 10:39:56.401   10 Jun 2027 10:39:57.535             1.134           479.094
       253   10 Jun 2027 10:40:31.385   10 Jun 2027 10:40:35.382             3.997          1039.719
       254   11 Jun 2027 03:00:00.000   11 Jun 2027 03:00:15.078            15.078          7539.000
       255   11 Jun 2027 03:00:28.870   11 Jun 2027 03:00:29.545             0.675           337.500
       256   11 Jun 2027 03:00:35.140   11 Jun 2027 03:00:44.759             9.619          4809.500
       257   11 Jun 2027 04:33:43.242   11 Jun 2027 04:35:09.110            85.868         42934.000
       258   11 Jun 2027 04:35:31.278   11 Jun 2027 04:35:32.681             1.403           701.500
       259   11 Jun 2027 04:36:23.423   11 Jun 2027 04:36:34.812            11.389          5694.500
       260   11 Jun 2027 04:38:14.345   11 Jun 2027 04:38:51.324            36.979         18489.500
       261   11 Jun 2027 05:59:23.835   11 Jun 2027 06:00:28.127            64.292         32146.000
       262   11 Jun 2027 06:10:42.820   11 Jun 2027 06:11:09.193            26.373         13186.500
       263   11 Jun 2027 06:12:07.107   11 Jun 2027 06:12:11.949             4.842          2421.000
       264   11 Jun 2027 07:33:18.089   11 Jun 2027 07:34:22.393            64.304         32152.000
       265   11 Jun 2027 07:34:53.311   11 Jun 2027 07:35:25.651            32.340         15719.156
       266   11 Jun 2027 07:37:34.572   11 Jun 2027 07:37:39.997             5.425          2712.500
       267   11 Jun 2027 09:08:49.642   11 Jun 2027 09:09:03.010            13.368          4952.875
       268   11 Jun 2027 09:11:47.000   11 Jun 2027 09:11:56.740             9.740          4683.781
       269   11 Jun 2027 10:45:09.315   11 Jun 2027 10:45:30.260            20.945          8642.875
       270   11 Jun 2027 10:45:35.215   11 Jun 2027 10:45:37.395             2.180           154.844
       271   11 Jun 2027 10:48:18.025   11 Jun 2027 10:48:23.607             5.582          2791.000
       272   11 Jun 2027 10:50:50.612   11 Jun 2027 10:51:03.737            13.125          6266.125
       273   11 Jun 2027 10:51:17.522   11 Jun 2027 10:51:22.076             4.554           255.219
       274   11 Jun 2027 10:51:40.602   11 Jun 2027 10:51:43.000             2.398           578.937
       275   11 Jun 2027 10:52:22.259   11 Jun 2027 10:52:26.719             4.460          1150.813
       276   12 Jun 2027 03:07:08.125   12 Jun 2027 03:08:12.250            64.125         32062.500
       277   12 Jun 2027 03:08:14.510   12 Jun 2027 03:08:14.510             0.000             0.000
       278   12 Jun 2027 03:08:16.404   12 Jun 2027 03:08:17.284             0.880           440.000
       279   12 Jun 2027 03:09:11.976   12 Jun 2027 03:09:13.015             1.039           519.500
       280   12 Jun 2027 03:09:51.090   12 Jun 2027 03:09:59.134             8.044          4022.000
       281   12 Jun 2027 03:10:08.449   12 Jun 2027 03:10:10.707             2.258          1129.000
       282   12 Jun 2027 03:10:14.628   12 Jun 2027 03:10:16.476             1.848           924.000
       283   12 Jun 2027 03:10:33.628   12 Jun 2027 03:10:34.296             0.668           334.000
       284   12 Jun 2027 03:10:42.602   12 Jun 2027 03:10:47.641             5.039          2519.500
       285   12 Jun 2027 03:10:58.798   12 Jun 2027 03:11:06.869             8.071          4035.500
       286   12 Jun 2027 03:12:15.309   12 Jun 2027 03:12:22.500             7.191          3595.500
       287   12 Jun 2027 04:46:12.734   12 Jun 2027 04:47:40.230            87.496         43748.000
       288   12 Jun 2027 04:49:25.420   12 Jun 2027 04:49:28.331             2.911          1455.500
       289   12 Jun 2027 04:49:42.365   12 Jun 2027 04:49:42.365             0.000             0.000
       290   12 Jun 2027 04:49:53.856   12 Jun 2027 04:49:53.856             0.000             0.000
       291   12 Jun 2027 04:50:48.205   12 Jun 2027 04:50:49.816             1.611           805.500
       292   12 Jun 2027 04:51:51.410   12 Jun 2027 04:51:54.333             2.923          1461.500
       293   12 Jun 2027 04:51:57.500   12 Jun 2027 04:52:11.884            14.384          7192.000
       294   12 Jun 2027 04:53:20.070   12 Jun 2027 04:53:20.486             0.416           208.000
       295   12 Jun 2027 06:11:02.240   12 Jun 2027 06:12:14.441            72.201         36100.500
       296   12 Jun 2027 06:22:42.410   12 Jun 2027 06:23:18.838            36.428         18214.000
       297   12 Jun 2027 07:45:01.115   12 Jun 2027 07:46:02.994            61.879         28221.125
       298   12 Jun 2027 07:48:47.645   12 Jun 2027 07:49:02.418            14.773          4859.562
       299   12 Jun 2027 09:19:57.824   12 Jun 2027 09:20:09.205            11.381          5130.781
       300   12 Jun 2027 09:20:45.429   12 Jun 2027 09:20:50.882             5.453           613.219
       301   12 Jun 2027 09:21:31.370   12 Jun 2027 09:21:31.370             0.000             0.000
       302   12 Jun 2027 09:23:28.342   12 Jun 2027 09:23:35.313             6.971          3485.500
       303   12 Jun 2027 09:25:12.329   12 Jun 2027 09:25:22.351            10.022          4453.375
       304   12 Jun 2027 09:27:58.013   12 Jun 2027 09:28:05.772             7.759          3539.500
       305   12 Jun 2027 09:28:07.098   12 Jun 2027 09:28:08.397             1.299            41.437
       306   12 Jun 2027 10:57:27.398   12 Jun 2027 10:57:36.918             9.520          4633.438
       307   12 Jun 2027 10:58:06.840   12 Jun 2027 10:58:11.627             4.787           711.062
       308   12 Jun 2027 10:58:32.987   12 Jun 2027 10:58:36.782             3.795           404.719
       309   12 Jun 2027 11:00:23.020   12 Jun 2027 11:00:26.958             3.938          1771.281
       310   12 Jun 2027 11:00:56.347   12 Jun 2027 11:00:59.364             3.017           810.719
       311   12 Jun 2027 11:01:50.602   12 Jun 2027 11:01:55.323             4.721           267.875
       312   12 Jun 2027 11:02:21.260   12 Jun 2027 11:02:21.757             0.497           218.719
       313   12 Jun 2027 11:03:04.785   12 Jun 2027 11:03:04.785             0.000             0.000
       314   12 Jun 2027 11:03:11.009   12 Jun 2027 11:03:15.785             4.776          1038.219
       315   12 Jun 2027 11:03:35.096   12 Jun 2027 11:03:36.668             1.572           377.750
       316   12 Jun 2027 11:04:16.397   12 Jun 2027 11:04:19.196             2.799          1122.219
       317   13 Jun 2027 03:19:28.625   13 Jun 2027 03:19:54.696            26.071         13035.500
       318   13 Jun 2027 03:20:01.588   13 Jun 2027 03:20:33.235            31.647         15823.500
       319   13 Jun 2027 03:20:37.316   13 Jun 2027 03:20:48.112            10.796          5398.000
       320   13 Jun 2027 03:21:41.828   13 Jun 2027 03:22:10.674            28.846         14423.000
       321   13 Jun 2027 03:23:05.521   13 Jun 2027 03:23:27.060            21.539         10769.500
       322   13 Jun 2027 03:25:19.506   13 Jun 2027 03:25:21.747             2.241          1120.500
       323   13 Jun 2027 04:58:15.915   13 Jun 2027 04:59:36.597            80.682         40341.000
       324   13 Jun 2027 05:01:57.789   13 Jun 2027 05:02:06.990             9.201          4600.500
       325   13 Jun 2027 05:02:57.767   13 Jun 2027 05:03:27.863            30.096         15048.000
       326   13 Jun 2027 06:22:35.794   13 Jun 2027 06:23:39.991            64.197         32098.500
       327   13 Jun 2027 06:24:39.504   13 Jun 2027 06:24:41.957             2.453          1226.500
       328   13 Jun 2027 06:34:51.533   13 Jun 2027 06:35:17.675            26.142         13071.000
       329   13 Jun 2027 07:56:33.165   13 Jun 2027 07:57:34.564            61.399         29883.187
       330   13 Jun 2027 07:58:27.807   13 Jun 2027 07:58:30.093             2.286           723.000
       331   13 Jun 2027 07:59:17.409   13 Jun 2027 07:59:21.072             3.663          1478.625
       332   13 Jun 2027 08:01:36.722   13 Jun 2027 08:01:42.390             5.668          2834.000
       333   13 Jun 2027 08:01:49.941   13 Jun 2027 08:01:59.392             9.451          1456.469
       334   13 Jun 2027 09:31:26.720   13 Jun 2027 09:31:38.076            11.356          5073.625
       335   13 Jun 2027 09:33:24.293   13 Jun 2027 09:33:29.012             4.719          2162.781
       336   13 Jun 2027 09:34:18.453   13 Jun 2027 09:34:26.323             7.870          1545.031
       337   13 Jun 2027 09:35:45.212   13 Jun 2027 09:35:47.328             2.116          1058.000
       338   13 Jun 2027 09:35:50.267   13 Jun 2027 09:35:52.255             1.988           546.875
       339   13 Jun 2027 09:36:05.279   13 Jun 2027 09:36:05.920             0.641           182.937
       340   13 Jun 2027 09:36:41.850   13 Jun 2027 09:36:42.496             0.646            41.719
       341   13 Jun 2027 09:38:15.264   13 Jun 2027 09:38:18.967             3.703          1851.500
       342   13 Jun 2027 09:39:05.069   13 Jun 2027 09:39:05.069             0.000             0.000
       343   13 Jun 2027 09:39:51.086   13 Jun 2027 09:39:57.722             6.636          3134.813
       344   13 Jun 2027 09:40:09.773   13 Jun 2027 09:40:10.394             0.621           301.344
       345   13 Jun 2027 09:40:20.958   13 Jun 2027 09:40:22.929             1.971           330.125
       346   13 Jun 2027 09:40:36.421   13 Jun 2027 09:40:38.094             1.673           233.625
       347   13 Jun 2027 11:09:21.388   13 Jun 2027 11:09:22.623             1.235           617.500
       348   13 Jun 2027 11:12:19.452   13 Jun 2027 11:12:39.835            20.383          9795.312
       349   13 Jun 2027 11:13:23.906   13 Jun 2027 11:13:26.561             2.655           890.344
       350   13 Jun 2027 11:13:48.021   13 Jun 2027 11:13:50.216             2.195           659.375
       351   13 Jun 2027 11:13:58.784   13 Jun 2027 11:14:01.023             2.239           267.750
       352   13 Jun 2027 11:14:41.916   13 Jun 2027 11:14:44.162             2.246           593.219
       353   13 Jun 2027 11:15:16.891   13 Jun 2027 11:15:20.689             3.798          1022.781
       354   13 Jun 2027 11:15:40.689   13 Jun 2027 11:15:40.689             0.000             0.000
       355   13 Jun 2027 11:16:11.268   13 Jun 2027 11:16:17.599             6.331          1580.594
       356   13 Jun 2027 11:16:31.410   13 Jun 2027 11:16:36.608             5.198           366.125
