uniorb/output/strategy_1/Camera/Camera_KinoSat_110305.txt

KinoSat_110305
-------------------------
    Access    *     Start Time (UTCG)     *     Stop Time (UTCG)  *   Duration (s) *   Data (Mbytes)
         1   01 Jun 2027 03:56:13.158   01 Jun 2027 03:58:07.571           114.413         57206.500
         2   01 Jun 2027 03:58:34.989   01 Jun 2027 03:58:58.603            23.614         11807.000
         3   01 Jun 2027 04:01:06.645   01 Jun 2027 04:01:58.770            52.125         26062.500
         4   01 Jun 2027 04:02:58.843   01 Jun 2027 04:03:11.332            12.489          6244.500
         5   01 Jun 2027 05:33:19.237   01 Jun 2027 05:36:56.489           217.252        108626.000
         6   01 Jun 2027 05:37:49.907   01 Jun 2027 05:38:07.247            17.340          8670.000
         7   01 Jun 2027 07:11:14.738   01 Jun 2027 07:13:54.153           159.415         79707.500
         8   01 Jun 2027 07:14:06.761   01 Jun 2027 07:14:13.144             6.383          3191.500
         9   01 Jun 2027 07:14:27.106   01 Jun 2027 07:14:34.245             7.139          3569.500
        10   01 Jun 2027 07:14:49.003   01 Jun 2027 07:15:02.269            13.266          6633.000
        11   01 Jun 2027 08:44:20.334   01 Jun 2027 08:47:06.629           166.295         83147.500
        12   01 Jun 2027 08:50:07.002   01 Jun 2027 08:50:27.123            20.121         10060.500
        13   01 Jun 2027 08:51:22.344   01 Jun 2027 08:51:34.897            12.553          6276.500
        14   01 Jun 2027 08:52:17.890   01 Jun 2027 08:52:21.881             3.991          1995.500
        15   02 Jun 2027 04:08:30.577   02 Jun 2027 04:14:19.653           349.076        174538.000
        16   02 Jun 2027 04:14:35.854   02 Jun 2027 04:15:39.404            63.550         31775.000
        17   02 Jun 2027 05:45:15.291   02 Jun 2027 05:48:36.045           200.754        100377.000
        18   02 Jun 2027 05:50:03.591   02 Jun 2027 05:50:33.243            29.652         14826.000
        19   02 Jun 2027 05:50:34.584   02 Jun 2027 05:50:47.786            13.202          6601.000
        20   02 Jun 2027 07:23:14.031   02 Jun 2027 07:25:55.946           161.915         80957.500
        21   02 Jun 2027 07:26:15.224   02 Jun 2027 07:26:15.653             0.429           214.500
        22   02 Jun 2027 07:26:21.807   02 Jun 2027 07:26:41.916            20.109         10054.500
        23   02 Jun 2027 07:27:09.529   02 Jun 2027 07:27:12.254             2.725          1362.500
        24   02 Jun 2027 08:56:51.543   02 Jun 2027 08:59:17.797           146.254         73127.000
        25   02 Jun 2027 09:00:35.336   02 Jun 2027 09:00:48.343            13.007          6503.500
        26   02 Jun 2027 09:01:13.393   02 Jun 2027 09:01:39.348            25.955         12977.500
        27   02 Jun 2027 09:03:07.168   02 Jun 2027 09:03:20.827            13.659          6829.500
        28   03 Jun 2027 04:20:24.463   03 Jun 2027 04:27:49.841           445.378        222689.000
        29   03 Jun 2027 05:57:08.732   03 Jun 2027 06:00:58.965           230.233        115116.500
        30   03 Jun 2027 06:01:24.734   03 Jun 2027 06:01:39.020            14.286          7143.000
        31   03 Jun 2027 06:03:27.020   03 Jun 2027 06:03:48.918            21.898         10949.000
        32   03 Jun 2027 07:35:02.152   03 Jun 2027 07:38:25.167           203.015        101507.500
        33   03 Jun 2027 07:39:15.127   03 Jun 2027 07:39:20.900             5.773          2886.500
        34   03 Jun 2027 09:11:00.043   03 Jun 2027 09:13:13.698           133.655         66827.500
        35   03 Jun 2027 09:14:22.813   03 Jun 2027 09:14:32.507             9.694          4847.000
        36   04 Jun 2027 03:00:00.000   04 Jun 2027 03:02:42.678           162.678         81339.000
        37   04 Jun 2027 03:02:44.848   04 Jun 2027 03:03:53.595            68.747         34373.500
        38   04 Jun 2027 04:32:33.364   04 Jun 2027 04:35:46.879           193.515         96757.500
        39   04 Jun 2027 04:35:56.453   04 Jun 2027 04:36:09.632            13.179          6589.500
        40   04 Jun 2027 04:37:42.553   04 Jun 2027 04:38:06.012            23.459         11729.500
        41   04 Jun 2027 04:39:00.346   04 Jun 2027 04:39:15.930            15.584          7792.000
        42   04 Jun 2027 04:39:20.273   04 Jun 2027 04:39:29.416             9.143          4571.500
        43   04 Jun 2027 06:09:47.471   04 Jun 2027 06:12:27.301           159.830         79915.000
        44   04 Jun 2027 06:13:42.946   04 Jun 2027 06:14:16.337            33.391         16695.500
        45   04 Jun 2027 06:15:27.027   04 Jun 2027 06:15:38.585            11.558          5779.000
        46   04 Jun 2027 07:46:28.061   04 Jun 2027 07:49:07.114           159.053         79526.500
        47   04 Jun 2027 07:49:32.572   04 Jun 2027 07:49:42.921            10.349          5174.500
        48   04 Jun 2027 07:49:55.503   04 Jun 2027 07:50:05.521            10.018          5009.000
        49   04 Jun 2027 09:21:40.807   04 Jun 2027 09:21:54.509            13.702          6851.000
        50   04 Jun 2027 09:25:03.195   04 Jun 2027 09:25:56.072            52.877         26438.500
        51   05 Jun 2027 03:06:08.801   05 Jun 2027 03:06:41.794            32.993         16496.500
        52   05 Jun 2027 03:07:50.415   05 Jun 2027 03:11:15.886           205.471        102735.500
        53   05 Jun 2027 03:11:20.957   05 Jun 2027 03:11:25.013             4.056          2028.000
        54   05 Jun 2027 03:11:57.799   05 Jun 2027 03:12:09.816            12.017          6008.500
        55   05 Jun 2027 03:12:56.692   05 Jun 2027 03:13:12.477            15.785          7892.500
        56   05 Jun 2027 03:13:21.569   05 Jun 2027 03:13:34.550            12.981          6490.500
        57   05 Jun 2027 03:14:26.739   05 Jun 2027 03:14:37.376            10.637          5318.500
        58   05 Jun 2027 03:15:49.011   05 Jun 2027 03:15:51.908             2.897          1448.500
        59   05 Jun 2027 04:44:57.582   05 Jun 2027 04:46:59.915           122.333         61166.500
        60   05 Jun 2027 04:47:13.214   05 Jun 2027 04:47:23.307            10.093          5046.500
        61   05 Jun 2027 04:48:37.442   05 Jun 2027 04:49:08.223            30.781         15390.500
        62   05 Jun 2027 04:49:49.808   05 Jun 2027 04:49:59.126             9.318          4659.000
        63   05 Jun 2027 04:50:09.687   05 Jun 2027 04:50:21.893            12.206          6103.000
        64   05 Jun 2027 04:50:32.017   05 Jun 2027 04:50:37.470             5.453          2726.500
        65   05 Jun 2027 04:51:24.151   05 Jun 2027 04:51:27.146             2.995          1497.500
        66   05 Jun 2027 04:51:34.584   05 Jun 2027 04:51:37.491             2.907          1453.500
        67   05 Jun 2027 06:21:55.423   05 Jun 2027 06:24:25.255           149.832         74916.000
        68   05 Jun 2027 06:24:44.945   05 Jun 2027 06:24:47.101             2.156          1078.000
        69   05 Jun 2027 06:25:24.471   05 Jun 2027 06:25:37.366            12.895          6447.500
        70   05 Jun 2027 07:58:42.780   05 Jun 2027 08:00:28.582           105.802         52901.000
        71   05 Jun 2027 08:00:54.281   05 Jun 2027 08:01:18.085            23.804         11902.000
        72   05 Jun 2027 08:02:50.887   05 Jun 2027 08:02:55.939             5.052          2526.000
        73   05 Jun 2027 08:03:04.258   05 Jun 2027 08:03:13.632             9.374          4687.000
        74   05 Jun 2027 09:36:53.164   05 Jun 2027 09:37:15.082            21.918         10959.000
        75   05 Jun 2027 09:37:43.738   05 Jun 2027 09:37:53.621             9.883          4941.500
        76   06 Jun 2027 03:21:02.584   06 Jun 2027 03:24:35.337           212.753        106376.500
        77   06 Jun 2027 03:24:56.869   06 Jun 2027 03:25:20.433            23.564         11782.000
        78   06 Jun 2027 03:25:30.212   06 Jun 2027 03:26:08.039            37.827         18913.500
        79   06 Jun 2027 03:27:43.514   06 Jun 2027 03:27:51.877             8.363          4181.500
        80   06 Jun 2027 04:57:23.093   06 Jun 2027 04:59:32.007           128.914         64457.000
        81   06 Jun 2027 05:00:41.101   06 Jun 2027 05:01:22.006            40.905         20452.500
        82   06 Jun 2027 05:02:28.068   06 Jun 2027 05:02:42.552            14.484          7242.000
        83   06 Jun 2027 05:03:17.265   06 Jun 2027 05:03:35.336            18.071          9035.500
        84   06 Jun 2027 06:34:57.153   06 Jun 2027 06:37:09.296           132.143         66071.500
        85   06 Jun 2027 06:37:53.182   06 Jun 2027 06:37:56.194             3.012          1506.000
        86   06 Jun 2027 06:38:17.743   06 Jun 2027 06:38:49.314            31.571         15785.500
        87   06 Jun 2027 08:11:00.505   06 Jun 2027 08:12:10.545            70.040         35020.000
        88   06 Jun 2027 08:13:01.745   06 Jun 2027 08:13:04.954             3.209          1604.500
        89   06 Jun 2027 08:14:07.216   06 Jun 2027 08:14:25.074            17.858          8929.000
        90   06 Jun 2027 08:14:31.636   06 Jun 2027 08:14:32.308             0.672           336.000
        91   06 Jun 2027 08:14:47.275   06 Jun 2027 08:14:56.929             9.654          4827.000
        92   07 Jun 2027 03:33:14.568   07 Jun 2027 03:37:41.666           267.098        133549.000
        93   07 Jun 2027 03:38:42.700   07 Jun 2027 03:38:42.993             0.293           146.500
        94   07 Jun 2027 03:39:36.192   07 Jun 2027 03:39:50.352            14.160          7080.000
        95   07 Jun 2027 05:09:32.831   07 Jun 2027 05:12:24.022           171.191         85595.500
        96   07 Jun 2027 05:13:59.001   07 Jun 2027 05:14:19.380            20.379         10189.500
        97   07 Jun 2027 05:14:41.344   07 Jun 2027 05:14:56.324            14.980          7490.000
        98   07 Jun 2027 06:47:01.272   07 Jun 2027 06:49:24.606           143.334         71667.000
        99   07 Jun 2027 06:50:50.910   07 Jun 2027 06:51:13.734            22.824         11412.000
       100   07 Jun 2027 08:23:04.656   07 Jun 2027 08:23:47.414            42.758         21379.000
       101   07 Jun 2027 08:24:00.347   07 Jun 2027 08:24:13.835            13.488          6744.000
       102   07 Jun 2027 08:25:37.297   07 Jun 2027 08:25:47.881            10.584          5292.000
       103   07 Jun 2027 08:26:23.336   07 Jun 2027 08:26:35.885            12.549          6274.500
       104   07 Jun 2027 08:27:11.081   07 Jun 2027 08:27:15.094             4.013          2006.500
       105   07 Jun 2027 08:27:19.998   07 Jun 2027 08:27:22.538             2.540          1270.000
       106   07 Jun 2027 08:27:47.027   07 Jun 2027 08:27:57.583            10.556          5278.000
       107   08 Jun 2027 03:44:43.493   08 Jun 2027 03:49:19.520           276.027        138013.500
       108   08 Jun 2027 03:49:56.072   08 Jun 2027 03:50:12.019            15.947          7973.500
       109   08 Jun 2027 03:51:08.439   08 Jun 2027 03:51:38.333            29.894         14947.000
       110   08 Jun 2027 03:51:55.738   08 Jun 2027 03:51:59.765             4.027          2013.500
       111   08 Jun 2027 05:21:14.048   08 Jun 2027 05:24:11.105           177.057         88528.500
       112   08 Jun 2027 05:25:19.991   08 Jun 2027 05:25:55.820            35.829         17914.500
       113   08 Jun 2027 05:26:06.800   08 Jun 2027 05:26:27.488            20.688         10344.000
       114   08 Jun 2027 05:27:16.996   08 Jun 2027 05:27:32.187            15.191          7595.500
       115   08 Jun 2027 06:59:32.313   08 Jun 2027 07:02:08.682           156.369         78184.500
       116   08 Jun 2027 07:02:11.368   08 Jun 2027 07:02:11.568             0.200           100.000
       117   08 Jun 2027 07:02:29.093   08 Jun 2027 07:02:37.908             8.815          4407.500
       118   08 Jun 2027 07:02:43.737   08 Jun 2027 07:02:46.624             2.887          1443.500
       119   08 Jun 2027 08:34:57.401   08 Jun 2027 08:35:57.359            59.958         29979.000
       120   08 Jun 2027 08:36:39.725   08 Jun 2027 08:36:47.585             7.860          3930.000
       121   08 Jun 2027 08:37:17.909   08 Jun 2027 08:37:28.317            10.408          5204.000
       122   08 Jun 2027 08:38:24.292   08 Jun 2027 08:38:32.753             8.461          4230.500
       123   08 Jun 2027 08:39:00.978   08 Jun 2027 08:39:01.257             0.279           139.500
       124   08 Jun 2027 08:39:21.371   08 Jun 2027 08:39:31.833            10.462          5231.000
       125   08 Jun 2027 08:40:18.251   08 Jun 2027 08:40:20.640             2.389          1194.500
       126   09 Jun 2027 03:56:27.962   09 Jun 2027 04:01:21.516           293.554        146777.000
       127   09 Jun 2027 04:02:35.978   09 Jun 2027 04:02:44.739             8.761          4380.500
       128   09 Jun 2027 04:02:48.499   09 Jun 2027 04:03:40.069            51.570         25785.000
       129   09 Jun 2027 05:33:33.980   09 Jun 2027 05:36:53.986           200.006        100003.000
       130   09 Jun 2027 05:36:59.594   09 Jun 2027 05:37:02.892             3.298          1649.000
       131   09 Jun 2027 05:38:48.561   09 Jun 2027 05:39:18.227            29.666         14833.000
       132   09 Jun 2027 07:11:29.526   09 Jun 2027 07:13:46.925           137.399         68699.500
       133   09 Jun 2027 07:14:09.051   09 Jun 2027 07:14:21.726            12.675          6337.500
       134   09 Jun 2027 07:15:03.216   09 Jun 2027 07:15:17.796            14.580          7290.000
       135   09 Jun 2027 08:44:35.420   09 Jun 2027 08:45:22.854            47.434         23717.000
       136   09 Jun 2027 08:45:37.743   09 Jun 2027 08:45:55.048            17.305          8652.500
       137   09 Jun 2027 08:48:43.296   09 Jun 2027 08:48:58.652            15.356          7678.000
       138   09 Jun 2027 08:49:27.999   09 Jun 2027 08:49:52.466            24.467         12233.500
       139   09 Jun 2027 08:50:20.738   09 Jun 2027 08:50:20.841             0.103            51.500
       140   09 Jun 2027 08:50:40.810   09 Jun 2027 08:50:41.723             0.913           456.500
       141   09 Jun 2027 08:52:08.243   09 Jun 2027 08:52:22.490            14.247          7123.500
       142   10 Jun 2027 04:08:45.102   10 Jun 2027 04:14:03.676           318.574        159287.000
       143   10 Jun 2027 04:14:34.544   10 Jun 2027 04:14:46.663            12.119          6059.500
       144   10 Jun 2027 04:14:55.225   10 Jun 2027 04:15:18.900            23.675         11837.500
       145   10 Jun 2027 04:15:46.925   10 Jun 2027 04:15:56.975            10.050          5025.000
       146   10 Jun 2027 05:45:29.936   10 Jun 2027 05:48:54.847           204.911        102455.500
       147   10 Jun 2027 05:49:11.053   10 Jun 2027 05:49:22.796            11.743          5871.500
       148   10 Jun 2027 05:49:44.808   10 Jun 2027 05:49:45.389             0.581           290.500
       149   10 Jun 2027 05:51:10.756   10 Jun 2027 05:51:32.635            21.879         10939.500
       150   10 Jun 2027 05:51:58.531   10 Jun 2027 05:52:03.491             4.960          2480.000
       151   10 Jun 2027 07:23:28.750   10 Jun 2027 07:25:47.742           138.992         69496.000
       152   10 Jun 2027 07:25:53.870   10 Jun 2027 07:25:55.678             1.808           904.000
       153   10 Jun 2027 07:26:30.424   10 Jun 2027 07:26:46.713            16.289          8144.500
       154   10 Jun 2027 08:57:06.322   10 Jun 2027 08:57:38.665            32.343         16171.500
       155   10 Jun 2027 08:58:34.826   10 Jun 2027 08:59:02.898            28.072         14036.000
       156   10 Jun 2027 09:00:53.978   10 Jun 2027 09:01:00.044             6.066          3033.000
       157   10 Jun 2027 09:01:28.014   10 Jun 2027 09:01:54.383            26.369         13184.500
       158   10 Jun 2027 09:03:21.760   10 Jun 2027 09:03:36.304            14.544          7272.000
       159   11 Jun 2027 04:20:39.217   11 Jun 2027 04:26:54.254           375.037        187518.500
       160   11 Jun 2027 04:27:54.865   11 Jun 2027 04:28:04.730             9.865          4932.500
       161   11 Jun 2027 05:57:23.825   11 Jun 2027 06:00:35.442           191.617         95808.500
       162   11 Jun 2027 06:00:43.512   11 Jun 2027 06:01:10.673            27.161         13580.500
       163   11 Jun 2027 06:02:47.142   11 Jun 2027 06:03:07.127            19.985          9992.500
       164   11 Jun 2027 06:03:18.641   11 Jun 2027 06:03:20.324             1.683           841.500
       165   11 Jun 2027 06:03:59.324   11 Jun 2027 06:04:03.525             4.201          2100.500
       166   11 Jun 2027 07:35:16.741   11 Jun 2027 07:37:37.254           140.513         70256.500
       167   11 Jun 2027 07:38:00.537   11 Jun 2027 07:38:15.135            14.598          7299.000
       168   11 Jun 2027 07:39:17.114   11 Jun 2027 07:39:29.156            12.042          6021.000
       169   11 Jun 2027 09:11:14.813   11 Jun 2027 09:11:41.227            26.414         13207.000
       170   11 Jun 2027 09:12:23.167   11 Jun 2027 09:12:31.016             7.849          3924.500
       171   11 Jun 2027 09:13:01.541   11 Jun 2027 09:13:06.628             5.087          2543.500
       172   11 Jun 2027 09:13:40.119   11 Jun 2027 09:13:59.997            19.878          9939.000
       173   11 Jun 2027 09:15:00.807   11 Jun 2027 09:15:05.840             5.033          2516.500
       174   12 Jun 2027 03:00:00.000   12 Jun 2027 03:02:57.620           177.620         88810.000
       175   12 Jun 2027 03:03:08.266   12 Jun 2027 03:04:08.338            60.072         30036.000
       176   12 Jun 2027 04:32:48.718   12 Jun 2027 04:35:22.628           153.910         76955.000
       177   12 Jun 2027 04:36:05.128   12 Jun 2027 04:36:11.420             6.292          3146.000
       178   12 Jun 2027 04:36:23.932   12 Jun 2027 04:36:47.051            23.119         11559.500
       179   12 Jun 2027 04:38:24.269   12 Jun 2027 04:38:43.930            19.661          9830.500
       180   12 Jun 2027 04:38:49.339   12 Jun 2027 04:38:50.555             1.216           608.000
       181   12 Jun 2027 04:39:34.725   12 Jun 2027 04:39:44.924            10.199          5099.500
       182   12 Jun 2027 06:10:02.534   12 Jun 2027 06:12:22.254           139.720         69860.000
       183   12 Jun 2027 06:13:03.773   12 Jun 2027 06:13:13.767             9.994          4997.000
       184   12 Jun 2027 06:13:54.385   12 Jun 2027 06:14:07.111            12.726          6363.000
       185   12 Jun 2027 06:14:10.887   12 Jun 2027 06:14:32.027            21.140         10570.000
       186   12 Jun 2027 06:15:34.807   12 Jun 2027 06:15:41.911             7.104          3552.000
       187   12 Jun 2027 07:46:42.992   12 Jun 2027 07:48:40.948           117.956         58978.000
       188   12 Jun 2027 07:49:02.538   12 Jun 2027 07:49:05.836             3.298          1649.000
       189   12 Jun 2027 07:49:09.110   12 Jun 2027 07:49:22.532            13.422          6711.000
       190   12 Jun 2027 07:50:32.589   12 Jun 2027 07:50:43.100            10.511          5255.500
       191   12 Jun 2027 09:21:55.806   12 Jun 2027 09:22:09.377            13.571          6785.500
       192   12 Jun 2027 09:23:42.149   12 Jun 2027 09:23:55.877            13.728          6864.000
       193   12 Jun 2027 09:25:03.128   12 Jun 2027 09:25:18.567            15.439          7719.500
       194   12 Jun 2027 09:26:11.322   12 Jun 2027 09:26:24.791            13.469          6734.500
       195   13 Jun 2027 03:06:24.292   13 Jun 2027 03:06:56.509            32.217         16108.500
       196   13 Jun 2027 03:08:05.357   13 Jun 2027 03:11:32.281           206.924        103462.000
       197   13 Jun 2027 03:12:41.793   13 Jun 2027 03:12:49.756             7.963          3981.500
       198   13 Jun 2027 03:13:14.589   13 Jun 2027 03:13:27.366            12.777          6388.500
       199   13 Jun 2027 03:13:36.273   13 Jun 2027 03:13:55.921            19.648          9824.000
       200   13 Jun 2027 03:16:03.657   13 Jun 2027 03:16:06.552             2.895          1447.500
       201   13 Jun 2027 04:45:12.288   13 Jun 2027 04:47:06.866           114.578         57289.000
       202   13 Jun 2027 04:47:14.709   13 Jun 2027 04:47:23.518             8.809          4404.500
       203   13 Jun 2027 04:47:38.078   13 Jun 2027 04:47:57.397            19.319          9659.500
       204   13 Jun 2027 04:48:30.097   13 Jun 2027 04:48:50.255            20.158         10079.000
       205   13 Jun 2027 04:49:58.039   13 Jun 2027 04:50:10.493            12.454          6227.000
       206   13 Jun 2027 04:51:08.214   13 Jun 2027 04:51:19.524            11.310          5655.000
       207   13 Jun 2027 06:22:09.973   13 Jun 2027 06:24:26.772           136.799         68399.500
       208   13 Jun 2027 06:24:28.711   13 Jun 2027 06:24:40.041            11.330          5665.000
       209   13 Jun 2027 06:24:59.612   13 Jun 2027 06:25:03.081             3.469          1734.500
       210   13 Jun 2027 06:25:38.846   13 Jun 2027 06:26:01.619            22.773         11386.500
       211   13 Jun 2027 06:26:15.928   13 Jun 2027 06:26:27.274            11.346          5673.000
       212   13 Jun 2027 06:26:47.497   13 Jun 2027 06:26:55.916             8.419          4209.500
       213   13 Jun 2027 07:58:57.646   13 Jun 2027 08:00:38.086           100.440         50220.000
       214   13 Jun 2027 08:01:25.249   13 Jun 2027 08:01:35.530            10.281          5140.500
       215   13 Jun 2027 08:02:36.384   13 Jun 2027 08:02:59.508            23.124         11562.000
       216   13 Jun 2027 09:37:07.789   13 Jun 2027 09:37:29.710            21.921         10960.500
