uniorb/output/strategy_1/Camera/Camera_KinoSat_110101.txt

KinoSat_110101
-------------------------
    Access    *     Start Time (UTCG)     *     Stop Time (UTCG)  *   Duration (s) *   Data (Mbytes)
         1   01 Jun 2027 03:08:30.346   01 Jun 2027 03:09:34.469            64.123         32061.500
         2   01 Jun 2027 03:10:44.954   01 Jun 2027 03:11:07.687            22.733         11366.500
         3   01 Jun 2027 03:12:25.598   01 Jun 2027 03:12:47.740            22.142         11071.000
         4   01 Jun 2027 03:13:34.003   01 Jun 2027 03:14:07.679            33.676         16838.000
         5   01 Jun 2027 03:14:39.544   01 Jun 2027 03:14:53.540            13.996          6998.000
         6   01 Jun 2027 03:15:07.808   01 Jun 2027 03:15:20.513            12.705          6352.500
         7   01 Jun 2027 04:45:33.998   01 Jun 2027 04:48:06.159           152.161         76080.500
         8   01 Jun 2027 04:48:18.692   01 Jun 2027 04:48:27.453             8.761          4380.500
         9   01 Jun 2027 04:48:58.277   01 Jun 2027 04:49:13.247            14.970          7485.000
        10   01 Jun 2027 04:51:15.365   01 Jun 2027 04:51:38.555            23.190         11595.000
        11   01 Jun 2027 06:22:27.659   01 Jun 2027 06:24:53.446           145.787         72893.500
        12   01 Jun 2027 06:25:09.069   01 Jun 2027 06:25:17.280             8.211          4105.500
        13   01 Jun 2027 06:25:39.225   01 Jun 2027 06:25:51.298            12.073          6036.500
        14   01 Jun 2027 06:26:02.298   01 Jun 2027 06:26:05.599             3.301          1650.500
        15   01 Jun 2027 06:27:05.600   01 Jun 2027 06:27:22.645            17.045          8522.500
        16   01 Jun 2027 07:57:37.871   01 Jun 2027 07:57:57.480            19.609          9804.500
        17   01 Jun 2027 07:59:12.904   01 Jun 2027 08:00:47.524            94.620         47310.000
        18   01 Jun 2027 08:01:20.359   01 Jun 2027 08:01:30.343             9.984          4992.000
        19   01 Jun 2027 08:01:50.563   01 Jun 2027 08:02:09.963            19.400          9700.000
        20   02 Jun 2027 03:20:56.823   02 Jun 2027 03:27:27.187           390.364        195182.000
        21   02 Jun 2027 04:57:58.741   02 Jun 2027 05:00:33.708           154.967         77483.500
        22   02 Jun 2027 05:02:34.690   02 Jun 2027 05:03:22.182            47.492         23746.000
        23   02 Jun 2027 06:34:42.465   02 Jun 2027 06:36:53.854           131.389         65694.500
        24   02 Jun 2027 06:37:06.675   02 Jun 2027 06:37:39.204            32.529         16264.500
        25   02 Jun 2027 06:38:54.045   02 Jun 2027 06:39:03.873             9.828          4914.000
        26   02 Jun 2027 08:12:51.545   02 Jun 2027 08:14:00.347            68.802         34401.000
        27   03 Jun 2027 03:33:20.380   03 Jun 2027 03:39:43.804           383.424        191712.000
        28   03 Jun 2027 05:10:50.595   03 Jun 2027 05:14:47.246           236.651        118325.500
        29   03 Jun 2027 06:46:55.220   03 Jun 2027 06:49:35.080           159.860         79930.000
        30   03 Jun 2027 06:50:09.709   03 Jun 2027 06:50:09.709             0.000             0.000
        31   03 Jun 2027 06:50:41.156   03 Jun 2027 06:50:46.760             5.604          2802.000
        32   04 Jun 2027 03:45:34.725   04 Jun 2027 03:51:44.972           370.247        185123.500
        33   04 Jun 2027 05:22:52.683   04 Jun 2027 05:25:57.272           184.589         92294.500
        34   04 Jun 2027 05:26:26.601   04 Jun 2027 05:26:46.339            19.738          9869.000
        35   04 Jun 2027 06:59:04.653   04 Jun 2027 07:01:54.002           169.349         84674.500
        36   04 Jun 2027 07:02:00.723   04 Jun 2027 07:02:03.409             2.686          1343.000
        37   04 Jun 2027 07:02:36.267   04 Jun 2027 07:02:40.062             3.795          1897.500
        38   04 Jun 2027 07:03:32.729   04 Jun 2027 07:03:48.786            16.057          8028.500
        39   05 Jun 2027 03:57:11.359   05 Jun 2027 04:03:36.645           385.286        192643.000
        40   05 Jun 2027 05:35:27.849   05 Jun 2027 05:38:45.249           197.400         98700.000
        41   05 Jun 2027 07:10:53.415   05 Jun 2027 07:13:39.548           166.133         83066.500
        42   05 Jun 2027 07:14:01.604   05 Jun 2027 07:14:09.633             8.029          4014.500
        43   05 Jun 2027 07:14:29.029   05 Jun 2027 07:14:32.516             3.487          1743.500
        44   05 Jun 2027 07:14:42.407   05 Jun 2027 07:14:42.608             0.201           100.500
        45   05 Jun 2027 07:14:56.110   05 Jun 2027 07:14:56.838             0.728           364.000
        46   05 Jun 2027 07:15:19.157   05 Jun 2027 07:15:24.334             5.177          2588.500
        47   05 Jun 2027 07:15:49.917   05 Jun 2027 07:15:58.747             8.830          4415.000
        48   06 Jun 2027 04:09:30.827   06 Jun 2027 04:15:48.183           377.356        188678.000
        49   06 Jun 2027 05:47:28.695   06 Jun 2027 05:50:55.313           206.618        103309.000
        50   06 Jun 2027 07:20:34.790   06 Jun 2027 07:22:59.067           144.277         72138.500
        51   06 Jun 2027 07:23:45.276   06 Jun 2027 07:23:58.126            12.850          6425.000
        52   06 Jun 2027 07:24:41.200   06 Jun 2027 07:24:53.988            12.788          6394.000
        53   06 Jun 2027 07:25:44.072   06 Jun 2027 07:25:48.307             4.235          2117.500
        54   06 Jun 2027 07:26:05.867   06 Jun 2027 07:26:08.259             2.392          1196.000
        55   06 Jun 2027 07:26:24.277   06 Jun 2027 07:26:24.373             0.096            48.000
        56   06 Jun 2027 07:26:30.047   06 Jun 2027 07:26:39.318             9.271          4635.500
        57   06 Jun 2027 07:27:39.879   06 Jun 2027 07:27:58.944            19.065          9532.500
        58   07 Jun 2027 04:21:31.020   07 Jun 2027 04:28:01.765           390.745        195372.500
        59   07 Jun 2027 05:59:29.200   07 Jun 2027 06:03:07.243           218.043        109021.500
        60   07 Jun 2027 07:33:06.727   07 Jun 2027 07:34:57.503           110.776         55388.000
        61   07 Jun 2027 07:35:21.868   07 Jun 2027 07:35:25.245             3.377          1688.500
        62   07 Jun 2027 07:35:44.253   07 Jun 2027 07:36:03.758            19.505          9752.500
        63   07 Jun 2027 07:37:43.478   07 Jun 2027 07:37:51.471             7.993          3996.500
        64   07 Jun 2027 07:38:26.236   07 Jun 2027 07:38:33.926             7.690          3845.000
        65   07 Jun 2027 07:39:22.145   07 Jun 2027 07:39:29.073             6.928          3464.000
        66   07 Jun 2027 07:39:42.944   07 Jun 2027 07:39:47.531             4.587          2293.500
        67   07 Jun 2027 07:40:10.712   07 Jun 2027 07:40:25.012            14.300          7150.000
        68   08 Jun 2027 03:00:00.000   08 Jun 2027 03:04:03.048           243.048        121524.000
        69   08 Jun 2027 04:33:22.755   08 Jun 2027 04:35:57.826           155.071         77535.500
        70   08 Jun 2027 04:36:21.193   08 Jun 2027 04:36:39.611            18.418          9209.000
        71   08 Jun 2027 04:37:42.298   08 Jun 2027 04:37:50.298             8.000          4000.000
        72   08 Jun 2027 04:38:25.126   08 Jun 2027 04:38:41.577            16.451          8225.500
        73   08 Jun 2027 04:39:22.419   08 Jun 2027 04:39:45.130            22.711         11355.500
        74   08 Jun 2027 06:11:32.665   08 Jun 2027 06:14:24.652           171.987         85993.500
        75   08 Jun 2027 06:14:59.380   08 Jun 2027 06:15:18.677            19.297          9648.500
        76   08 Jun 2027 07:47:10.763   08 Jun 2027 07:48:34.470            83.707         41853.500
        77   08 Jun 2027 07:49:26.279   08 Jun 2027 07:49:54.835            28.556         14278.000
        78   08 Jun 2027 07:50:44.864   08 Jun 2027 07:50:45.048             0.184            92.000
        79   09 Jun 2027 03:08:45.423   09 Jun 2027 03:13:05.642           260.219        130109.500
        80   09 Jun 2027 03:13:48.617   09 Jun 2027 03:15:10.131            81.514         40757.000
        81   09 Jun 2027 03:15:24.300   09 Jun 2027 03:15:36.493            12.193          6096.500
        82   09 Jun 2027 03:16:00.992   09 Jun 2027 03:16:04.199             3.207          1603.500
        83   09 Jun 2027 04:45:49.889   09 Jun 2027 04:48:22.124           152.235         76117.500
        84   09 Jun 2027 04:48:33.406   09 Jun 2027 04:48:44.811            11.405          5702.500
        85   09 Jun 2027 04:50:06.330   09 Jun 2027 04:50:30.244            23.914         11957.000
        86   09 Jun 2027 04:50:59.022   09 Jun 2027 04:51:00.778             1.756           878.000
        87   09 Jun 2027 04:51:15.584   09 Jun 2027 04:51:18.673             3.089          1544.500
        88   09 Jun 2027 04:51:45.981   09 Jun 2027 04:51:53.389             7.408          3704.000
        89   09 Jun 2027 06:22:42.468   09 Jun 2027 06:24:55.256           132.788         66394.000
        90   09 Jun 2027 06:25:31.658   09 Jun 2027 06:25:54.152            22.494         11247.000
        91   09 Jun 2027 06:26:48.712   09 Jun 2027 06:26:49.394             0.682           341.000
        92   09 Jun 2027 06:27:20.295   09 Jun 2027 06:27:37.618            17.323          8661.500
        93   09 Jun 2027 07:57:53.628   09 Jun 2027 07:58:11.604            17.976          8988.000
        94   09 Jun 2027 07:59:27.708   09 Jun 2027 08:00:20.900            53.192         26596.000
        95   09 Jun 2027 08:02:05.394   09 Jun 2027 08:02:15.784            10.390          5195.000
        96   10 Jun 2027 03:21:11.509   10 Jun 2027 03:27:37.398           385.889        192944.500
        97   10 Jun 2027 04:58:13.420   10 Jun 2027 05:00:37.295           143.875         71937.500
        98   10 Jun 2027 05:02:23.153   10 Jun 2027 05:02:30.217             7.064          3532.000
        99   10 Jun 2027 05:02:30.971   10 Jun 2027 05:02:43.769            12.798          6399.000
       100   10 Jun 2027 05:03:16.227   10 Jun 2027 05:03:36.803            20.576         10288.000
       101   10 Jun 2027 06:34:57.661   10 Jun 2027 06:37:06.113           128.452         64226.000
       102   10 Jun 2027 06:37:16.725   10 Jun 2027 06:37:37.912            21.187         10593.500
       103   10 Jun 2027 06:38:05.019   10 Jun 2027 06:38:09.280             4.261          2130.500
       104   10 Jun 2027 06:38:18.822   10 Jun 2027 06:38:19.938             1.116           558.000
       105   10 Jun 2027 06:38:33.661   10 Jun 2027 06:38:38.299             4.638          2319.000
       106   10 Jun 2027 06:39:08.814   10 Jun 2027 06:39:08.921             0.107            53.500
       107   10 Jun 2027 08:13:06.936   10 Jun 2027 08:14:14.568            67.632         33816.000
       108   11 Jun 2027 03:33:35.740   11 Jun 2027 03:39:58.902           383.162        191581.000
       109   11 Jun 2027 05:11:06.420   11 Jun 2027 05:14:03.219           176.799         88399.500
       110   11 Jun 2027 05:14:14.673   11 Jun 2027 05:14:26.647            11.974          5987.000
       111   11 Jun 2027 05:15:23.224   11 Jun 2027 05:15:30.188             6.964          3482.000
       112   11 Jun 2027 06:47:13.690   11 Jun 2027 06:49:51.638           157.948         78974.000
       113   11 Jun 2027 06:50:14.211   11 Jun 2027 06:50:19.021             4.810          2405.000
       114   12 Jun 2027 03:45:49.630   12 Jun 2027 03:51:47.287           357.657        178828.500
       115   12 Jun 2027 05:23:07.257   12 Jun 2027 05:25:27.079           139.822         69911.000
       116   12 Jun 2027 05:26:53.784   12 Jun 2027 05:27:46.444            52.660         26330.000
       117   12 Jun 2027 06:59:19.329   12 Jun 2027 07:01:46.214           146.885         73442.500
       118   12 Jun 2027 07:02:09.200   12 Jun 2027 07:02:18.379             9.179          4589.500
       119   12 Jun 2027 07:02:45.198   12 Jun 2027 07:02:54.603             9.405          4702.500
       120   12 Jun 2027 07:04:04.158   12 Jun 2027 07:04:08.793             4.635          2317.500
       121   13 Jun 2027 03:57:26.391   13 Jun 2027 04:03:51.843           385.452        192726.000
       122   13 Jun 2027 05:35:43.503   13 Jun 2027 05:38:29.206           165.703         82851.500
       123   13 Jun 2027 05:38:56.221   13 Jun 2027 05:39:35.389            39.168         19584.000
       124   13 Jun 2027 07:11:09.882   13 Jun 2027 07:14:04.857           174.975         87487.500
       125   13 Jun 2027 07:15:38.947   13 Jun 2027 07:16:01.852            22.905         11452.500
