uniorb/output/strategy_1/Camera/Camera_KinoSat_110703.txt

KinoSat_110703
-------------------------
    Access    *     Start Time (UTCG)     *     Stop Time (UTCG)  *   Duration (s) *   Data (Mbytes)
         1   01 Jun 2027 03:58:53.809   01 Jun 2027 04:00:26.507            92.698         46349.000
         2   01 Jun 2027 04:00:48.752   01 Jun 2027 04:01:05.015            16.263          8131.500
         3   01 Jun 2027 04:02:21.362   01 Jun 2027 04:02:27.943             6.581          3290.500
         4   01 Jun 2027 05:31:10.876   01 Jun 2027 05:31:30.243            19.367          9683.500
         5   01 Jun 2027 05:32:57.859   01 Jun 2027 05:34:44.484           106.625         53312.500
         6   01 Jun 2027 05:35:37.692   01 Jun 2027 05:35:56.655            18.963          9481.500
         7   01 Jun 2027 05:39:36.777   01 Jun 2027 05:39:40.690             3.913          1956.500
         8   01 Jun 2027 05:40:07.460   01 Jun 2027 05:40:23.503            16.043          8021.500
         9   01 Jun 2027 05:40:53.399   01 Jun 2027 05:40:56.015             2.616          1308.000
        10   01 Jun 2027 07:10:02.246   01 Jun 2027 07:12:22.200           139.954         69977.000
        11   01 Jun 2027 07:12:47.818   01 Jun 2027 07:12:56.290             8.472          4236.000
        12   01 Jun 2027 07:14:21.725   01 Jun 2027 07:14:24.515             2.790          1395.000
        13   01 Jun 2027 07:15:04.808   01 Jun 2027 07:15:14.136             9.328          4664.000
        14   01 Jun 2027 08:46:58.597   01 Jun 2027 08:49:11.204           132.607         66303.500
        15   01 Jun 2027 08:50:06.377   01 Jun 2027 08:50:07.002             0.625           312.500
        16   01 Jun 2027 08:50:15.926   01 Jun 2027 08:50:16.553             0.627           313.500
        17   01 Jun 2027 08:51:16.599   01 Jun 2027 08:51:22.480             5.881          2940.500
        18   01 Jun 2027 08:51:22.963   01 Jun 2027 08:51:26.268             3.305          1652.500
        19   01 Jun 2027 08:51:34.897   01 Jun 2027 08:51:41.185             6.288          3144.000
        20   01 Jun 2027 08:51:47.986   01 Jun 2027 08:51:49.945             1.959           979.500
        21   01 Jun 2027 10:23:45.176   01 Jun 2027 10:25:47.226           122.050         61025.000
        22   01 Jun 2027 10:27:30.819   01 Jun 2027 10:27:35.537             4.718          2359.000
        23   01 Jun 2027 10:27:50.476   01 Jun 2027 10:27:53.247             2.771          1385.500
        24   02 Jun 2027 04:11:04.313   02 Jun 2027 04:11:49.503            45.190         22595.000
        25   02 Jun 2027 04:13:20.666   02 Jun 2027 04:13:28.042             7.376          3688.000
        26   02 Jun 2027 05:46:09.177   02 Jun 2027 05:48:28.679           139.502         69751.000
        27   02 Jun 2027 05:48:36.045   02 Jun 2027 05:48:36.052             0.007             3.500
        28   02 Jun 2027 05:48:47.709   02 Jun 2027 05:48:47.709             0.000             0.000
        29   02 Jun 2027 05:49:12.550   02 Jun 2027 05:49:16.293             3.743          1871.500
        30   02 Jun 2027 05:50:56.320   02 Jun 2027 05:51:13.964            17.644          8822.000
        31   02 Jun 2027 07:22:30.761   02 Jun 2027 07:24:50.243           139.482         69741.000
        32   02 Jun 2027 07:26:07.655   02 Jun 2027 07:26:15.224             7.569          3784.500
        33   02 Jun 2027 07:27:09.379   02 Jun 2027 07:27:24.230            14.851          7425.500
        34   02 Jun 2027 09:00:01.515   02 Jun 2027 09:01:35.094            93.579         46789.500
        35   02 Jun 2027 09:02:19.618   02 Jun 2027 09:03:14.064            54.446         27223.000
        36   02 Jun 2027 09:03:31.403   02 Jun 2027 09:03:33.450             2.047          1023.500
        37   02 Jun 2027 10:36:06.074   02 Jun 2027 10:38:20.210           134.136         67068.000
        38   03 Jun 2027 04:24:39.744   03 Jun 2027 04:26:10.573            90.829         45414.500
        39   03 Jun 2027 05:58:19.217   03 Jun 2027 05:59:45.966            86.749         43374.500
        40   03 Jun 2027 06:00:22.779   03 Jun 2027 06:00:28.511             5.732          2866.000
        41   03 Jun 2027 06:00:56.041   03 Jun 2027 06:01:38.806            42.765         21382.500
        42   03 Jun 2027 07:34:35.320   03 Jun 2027 07:37:24.320           169.000         84500.000
        43   03 Jun 2027 07:39:35.581   03 Jun 2027 07:39:36.388             0.807           403.500
        44   03 Jun 2027 07:39:40.991   03 Jun 2027 07:39:46.988             5.997          2998.500
        45   03 Jun 2027 09:12:07.024   03 Jun 2027 09:14:22.813           135.789         67894.500
        46   03 Jun 2027 10:48:08.259   03 Jun 2027 10:49:08.605            60.346         30173.000
        47   03 Jun 2027 10:49:38.739   03 Jun 2027 10:49:41.046             2.307          1153.500
        48   03 Jun 2027 10:49:57.541   03 Jun 2027 10:50:01.235             3.694          1414.251
        49   03 Jun 2027 10:51:25.600   03 Jun 2027 10:51:25.600             0.000             0.000
        50   03 Jun 2027 10:51:29.039   03 Jun 2027 10:51:32.946             3.907          1953.500
        51   03 Jun 2027 10:51:37.156   03 Jun 2027 10:51:38.992             1.836           915.437
        52   03 Jun 2027 10:52:45.811   03 Jun 2027 10:52:51.282             5.471          2004.656
        53   04 Jun 2027 03:00:00.000   04 Jun 2027 03:00:08.152             8.152          4076.000
        54   04 Jun 2027 03:01:09.888   04 Jun 2027 03:01:09.888             0.000             0.000
        55   04 Jun 2027 04:34:52.615   04 Jun 2027 04:36:18.648            86.033         43016.500
        56   04 Jun 2027 04:38:51.655   04 Jun 2027 04:38:55.045             3.390          1695.000
        57   04 Jun 2027 04:38:59.094   04 Jun 2027 04:39:06.496             7.402          3701.000
        58   04 Jun 2027 06:09:44.037   04 Jun 2027 06:11:34.522           110.485         55242.500
        59   04 Jun 2027 06:15:33.037   04 Jun 2027 06:15:39.397             6.360          3180.000
        60   04 Jun 2027 06:15:59.655   04 Jun 2027 06:16:09.002             9.347          4673.500
        61   04 Jun 2027 07:46:19.556   04 Jun 2027 07:48:37.952           138.396         68850.532
        62   04 Jun 2027 07:49:16.124   04 Jun 2027 07:49:18.270             2.146           898.750
        63   04 Jun 2027 07:50:17.403   04 Jun 2027 07:50:17.782             0.379           189.500
        64   04 Jun 2027 07:51:12.576   04 Jun 2027 07:51:17.754             5.178          2589.000
        65   04 Jun 2027 07:51:28.534   04 Jun 2027 07:51:28.656             0.122            61.000
        66   04 Jun 2027 07:51:47.403   04 Jun 2027 07:51:53.827             6.424          1604.500
        67   04 Jun 2027 07:51:55.832   04 Jun 2027 07:51:58.936             3.104            62.656
        68   04 Jun 2027 09:24:37.144   04 Jun 2027 09:25:03.195            26.051         11362.156
        69   04 Jun 2027 09:25:34.134   04 Jun 2027 09:25:39.762             5.628           900.906
        70   04 Jun 2027 09:26:06.956   04 Jun 2027 09:26:10.393             3.437           340.125
        71   04 Jun 2027 09:26:15.602   04 Jun 2027 09:26:17.924             2.322           162.781
        72   04 Jun 2027 09:27:02.451   04 Jun 2027 09:27:05.656             3.205           818.062
        73   04 Jun 2027 09:27:34.483   04 Jun 2027 09:27:38.209             3.726           660.875
        74   04 Jun 2027 09:28:22.914   04 Jun 2027 09:28:26.052             3.138          1366.094
        75   04 Jun 2027 10:58:37.022   04 Jun 2027 10:58:50.894            13.872          6705.938
        76   04 Jun 2027 11:00:27.875   04 Jun 2027 11:00:32.144             4.269          1779.125
        77   04 Jun 2027 11:00:34.722   04 Jun 2027 11:00:34.722             0.000             0.000
        78   04 Jun 2027 11:01:10.263   04 Jun 2027 11:01:18.233             7.970          1129.531
        79   04 Jun 2027 11:01:51.791   04 Jun 2027 11:01:54.242             2.451          1048.688
        80   04 Jun 2027 11:02:00.193   04 Jun 2027 11:02:02.544             2.351            75.594
        81   04 Jun 2027 11:02:48.044   04 Jun 2027 11:02:51.423             3.379          1421.875
        82   04 Jun 2027 11:03:51.432   04 Jun 2027 11:03:55.523             4.091          1875.281
        83   04 Jun 2027 11:04:28.258   04 Jun 2027 11:04:33.168             4.910           879.406
        84   04 Jun 2027 11:05:04.730   04 Jun 2027 11:05:10.072             5.342           207.969
        85   05 Jun 2027 03:09:45.769   05 Jun 2027 03:10:28.975            43.206         21603.000
        86   05 Jun 2027 04:45:06.294   05 Jun 2027 04:46:04.376            58.082         29041.000
        87   05 Jun 2027 04:46:37.701   05 Jun 2027 04:47:13.214            35.513         17756.500
        88   05 Jun 2027 04:47:23.307   05 Jun 2027 04:47:26.805             3.498          1749.000
        89   05 Jun 2027 04:49:05.869   05 Jun 2027 04:49:11.970             6.101          3050.500
        90   05 Jun 2027 04:50:01.981   05 Jun 2027 04:50:14.736            12.755          6377.500
        91   05 Jun 2027 04:50:42.983   05 Jun 2027 04:50:43.601             0.618           309.000
        92   05 Jun 2027 04:50:59.329   05 Jun 2027 04:51:11.237            11.908          5954.000
        93   05 Jun 2027 06:21:35.534   05 Jun 2027 06:22:57.143            81.609         40804.500
        94   05 Jun 2027 06:23:53.238   05 Jun 2027 06:24:21.957            28.719         14359.500
        95   05 Jun 2027 06:24:42.944   05 Jun 2027 06:24:44.945             2.001          1000.500
        96   05 Jun 2027 06:25:47.343   05 Jun 2027 06:25:52.498             5.155          2577.500
        97   05 Jun 2027 06:26:05.193   05 Jun 2027 06:26:07.135             1.942           971.000
        98   05 Jun 2027 06:28:06.738   05 Jun 2027 06:28:09.478             2.740          1370.000
        99   05 Jun 2027 06:28:45.542   05 Jun 2027 06:28:49.633             4.091          2045.500
       100   05 Jun 2027 07:58:40.654   05 Jun 2027 08:00:04.603            83.949         40899.312
       101   05 Jun 2027 08:00:26.117   05 Jun 2027 08:00:27.508             1.391           370.094
       102   05 Jun 2027 08:01:08.597   05 Jun 2027 08:01:18.085             9.488          1273.562
       103   05 Jun 2027 08:02:44.746   05 Jun 2027 08:02:50.439             5.693          2620.969
       104   05 Jun 2027 08:03:04.258   05 Jun 2027 08:03:04.258             0.000             0.000
       105   05 Jun 2027 08:03:22.627   05 Jun 2027 08:03:26.277             3.650           991.875
       106   05 Jun 2027 08:03:35.354   05 Jun 2027 08:03:39.205             3.851           283.656
       107   05 Jun 2027 08:04:12.972   05 Jun 2027 08:04:14.198             1.226           613.000
       108   05 Jun 2027 09:36:34.798   05 Jun 2027 09:36:50.041            15.243          7621.500
       109   05 Jun 2027 09:36:52.574   05 Jun 2027 09:36:55.283             2.709          1354.500
       110   05 Jun 2027 09:37:15.082   05 Jun 2027 09:37:21.197             6.115          1355.250
       111   05 Jun 2027 09:37:53.621   05 Jun 2027 09:37:55.906             2.285           930.594
       112   05 Jun 2027 09:38:28.210   05 Jun 2027 09:38:30.997             2.787           934.156
       113   05 Jun 2027 09:39:15.867   05 Jun 2027 09:39:18.010             2.143          1071.500
       114   05 Jun 2027 09:39:23.186   05 Jun 2027 09:39:24.973             1.787           478.969
       115   05 Jun 2027 09:39:28.877   05 Jun 2027 09:39:29.868             0.991           122.000
       116   05 Jun 2027 09:39:53.576   05 Jun 2027 09:39:54.378             0.802           262.906
       117   05 Jun 2027 09:40:09.702   05 Jun 2027 09:40:13.063             3.361           478.875
       118   05 Jun 2027 11:09:42.899   05 Jun 2027 11:09:56.173            13.274          6046.656
       119   05 Jun 2027 11:11:30.235   05 Jun 2027 11:11:30.235             0.000             0.000
       120   05 Jun 2027 11:12:21.599   05 Jun 2027 11:12:27.256             5.657          1987.500
       121   05 Jun 2027 11:13:11.927   05 Jun 2027 11:13:17.344             5.417          1395.969
       122   05 Jun 2027 11:13:52.936   05 Jun 2027 11:13:56.135             3.199          1020.063
       123   05 Jun 2027 11:14:23.538   05 Jun 2027 11:14:25.376             1.838           616.469
       124   05 Jun 2027 11:15:35.500   05 Jun 2027 11:15:39.685             4.185          2092.500
       125   05 Jun 2027 11:16:02.957   05 Jun 2027 11:16:05.493             2.536           738.344
       126   05 Jun 2027 11:17:15.336   05 Jun 2027 11:17:19.515             4.179          2000.250
       127   06 Jun 2027 03:21:21.628   06 Jun 2027 03:22:19.778            58.150         29075.000
       128   06 Jun 2027 03:26:15.411   06 Jun 2027 03:26:23.226             7.815          3907.500
       129   06 Jun 2027 04:56:15.621   06 Jun 2027 04:57:48.481            92.860         46430.000
       130   06 Jun 2027 04:58:47.633   06 Jun 2027 04:58:57.309             9.676          4838.000
       131   06 Jun 2027 04:59:16.591   06 Jun 2027 04:59:28.237            11.646          5823.000
       132   06 Jun 2027 05:02:16.076   06 Jun 2027 05:02:26.993            10.917          5458.500
       133   06 Jun 2027 05:03:25.553   06 Jun 2027 05:03:25.553             0.000             0.000
       134   06 Jun 2027 05:04:30.476   06 Jun 2027 05:04:44.668            14.192          7096.000
       135   06 Jun 2027 06:33:49.104   06 Jun 2027 06:35:10.876            81.772         40886.000
       136   06 Jun 2027 06:35:58.864   06 Jun 2027 06:36:26.758            27.894         13947.000
       137   06 Jun 2027 06:37:30.597   06 Jun 2027 06:37:49.524            18.927          9463.500
       138   06 Jun 2027 06:40:13.580   06 Jun 2027 06:40:32.881            19.301          9650.500
       139   06 Jun 2027 08:10:31.566   06 Jun 2027 08:11:21.477            49.911         23712.468
       140   06 Jun 2027 08:12:20.957   06 Jun 2027 08:12:25.788             4.831          1489.813
       141   06 Jun 2027 08:13:19.444   06 Jun 2027 08:13:21.616             2.172           815.344
       142   06 Jun 2027 08:14:25.074   06 Jun 2027 08:14:31.636             6.562          1983.062
       143   06 Jun 2027 08:14:38.864   06 Jun 2027 08:14:40.671             1.807            31.031
       144   06 Jun 2027 08:14:56.929   06 Jun 2027 08:14:58.397             1.468           336.969
       145   06 Jun 2027 08:15:23.008   06 Jun 2027 08:15:25.043             2.035           764.969
       146   06 Jun 2027 08:15:50.838   06 Jun 2027 08:15:52.197             1.359           527.813
       147   06 Jun 2027 08:16:51.737   06 Jun 2027 08:17:03.354            11.617          1536.000
       148   06 Jun 2027 09:48:34.684   06 Jun 2027 09:48:51.721            17.037          8518.500
       149   06 Jun 2027 09:48:53.590   06 Jun 2027 09:48:59.535             5.945          1132.844
       150   06 Jun 2027 09:49:46.698   06 Jun 2027 09:49:49.434             2.736           956.375
       151   06 Jun 2027 09:49:57.653   06 Jun 2027 09:49:59.278             1.625           256.844
       152   06 Jun 2027 09:50:27.239   06 Jun 2027 09:50:28.321             1.082           541.000
       153   06 Jun 2027 09:51:11.096   06 Jun 2027 09:51:17.137             6.041          1455.875
       154   06 Jun 2027 09:51:47.240   06 Jun 2027 09:51:50.289             3.049           919.000
       155   06 Jun 2027 09:51:52.745   06 Jun 2027 09:51:54.288             1.543            50.500
       156   06 Jun 2027 09:51:56.409   06 Jun 2027 09:51:57.188             0.779             6.937
       157   06 Jun 2027 09:52:33.013   06 Jun 2027 09:52:34.491             1.478           634.031
       158   06 Jun 2027 11:22:11.806   06 Jun 2027 11:22:16.285             4.479          2166.594
       159   06 Jun 2027 11:22:36.151   06 Jun 2027 11:22:37.305             1.154           471.156
       160   06 Jun 2027 11:23:14.314   06 Jun 2027 11:23:18.799             4.485           949.281
       161   06 Jun 2027 11:24:16.473   06 Jun 2027 11:24:19.843             3.370          1455.156
       162   06 Jun 2027 11:24:24.967   06 Jun 2027 11:24:39.046            14.079           119.156
       163   06 Jun 2027 11:25:09.860   06 Jun 2027 11:25:13.570             3.710           962.938
       164   06 Jun 2027 11:25:30.644   06 Jun 2027 11:25:35.856             5.212           533.563
       165   06 Jun 2027 11:26:34.464   06 Jun 2027 11:26:38.752             4.288          1502.094
       166   06 Jun 2027 11:27:17.112   06 Jun 2027 11:27:19.903             2.791           769.094
       167   06 Jun 2027 11:28:09.803   06 Jun 2027 11:28:17.860             8.057          1363.969
       168   06 Jun 2027 11:28:53.176   06 Jun 2027 11:28:58.130             4.954           324.000
       169   07 Jun 2027 03:32:50.957   07 Jun 2027 03:34:01.941            70.984         35492.000
       170   07 Jun 2027 03:38:42.700   07 Jun 2027 03:38:42.700             0.000             0.000
       171   07 Jun 2027 05:07:46.223   07 Jun 2027 05:10:03.489           137.266         68633.000
       172   07 Jun 2027 05:11:19.207   07 Jun 2027 05:11:19.544             0.337           168.500
       173   07 Jun 2027 05:11:48.584   07 Jun 2027 05:11:55.671             7.087          3543.500
       174   07 Jun 2027 05:12:24.022   07 Jun 2027 05:12:37.514            13.492          6746.000
       175   07 Jun 2027 05:14:23.301   07 Jun 2027 05:14:25.059             1.758           879.000
       176   07 Jun 2027 05:16:40.546   07 Jun 2027 05:16:43.198             2.652          1326.000
       177   07 Jun 2027 06:45:43.024   07 Jun 2027 06:47:30.712           107.688         53844.000
       178   07 Jun 2027 06:48:21.866   07 Jun 2027 06:48:29.878             8.012          4006.000
       179   07 Jun 2027 06:49:22.017   07 Jun 2027 06:49:23.578             1.561           780.500
       180   07 Jun 2027 06:50:30.748   07 Jun 2027 06:50:33.858             3.110          1555.000
       181   07 Jun 2027 08:22:35.609   07 Jun 2027 08:23:20.435            44.826         21938.437
       182   07 Jun 2027 08:23:41.041   07 Jun 2027 08:23:47.414             6.373           357.594
       183   07 Jun 2027 08:24:51.704   07 Jun 2027 08:24:52.560             0.856           428.000
       184   07 Jun 2027 08:25:28.998   07 Jun 2027 08:25:34.012             5.014          2063.187
       185   07 Jun 2027 08:27:09.359   07 Jun 2027 08:27:15.927             6.568          2876.937
       186   07 Jun 2027 08:27:22.538   07 Jun 2027 08:27:27.668             5.130           206.594
       187   07 Jun 2027 08:27:43.363   07 Jun 2027 08:27:44.983             1.620           430.063
       188   07 Jun 2027 08:27:57.338   07 Jun 2027 08:27:59.077             1.739           322.219
       189   07 Jun 2027 08:28:45.778   07 Jun 2027 08:28:50.804             5.026          1158.000
       190   07 Jun 2027 10:00:21.125   07 Jun 2027 10:00:42.041            20.916          9283.219
       191   07 Jun 2027 10:01:17.288   07 Jun 2027 10:01:27.852            10.564           746.531
       192   07 Jun 2027 10:01:35.605   07 Jun 2027 10:01:37.439             1.834           221.969
       193   07 Jun 2027 10:01:48.824   07 Jun 2027 10:01:50.503             1.679           239.844
       194   07 Jun 2027 10:02:16.932   07 Jun 2027 10:02:19.744             2.812           815.969
       195   07 Jun 2027 10:03:14.040   07 Jun 2027 10:03:16.800             2.760          1279.312
       196   07 Jun 2027 10:04:32.230   07 Jun 2027 10:04:33.982             1.752           876.000
       197   07 Jun 2027 11:36:20.647   07 Jun 2027 11:36:45.560            24.913          3271.094
       198   07 Jun 2027 11:37:15.159   07 Jun 2027 11:37:17.719             2.560           858.531
       199   07 Jun 2027 11:37:58.212   07 Jun 2027 11:38:00.567             2.355           912.219
       200   07 Jun 2027 11:38:10.679   07 Jun 2027 11:38:10.679             0.000             0.000
       201   07 Jun 2027 11:38:27.149   07 Jun 2027 11:38:31.553             4.404           638.156
       202   07 Jun 2027 11:39:22.456   07 Jun 2027 11:39:26.897             4.441          1128.750
       203   07 Jun 2027 11:39:46.967   07 Jun 2027 11:39:46.967             0.000             0.000
       204   07 Jun 2027 11:40:01.204   07 Jun 2027 11:40:04.335             3.131          1072.094
       205   08 Jun 2027 03:46:54.319   08 Jun 2027 03:47:17.790            23.471         11735.500
       206   08 Jun 2027 03:48:12.950   08 Jun 2027 03:48:14.452             1.502           751.000
       207   08 Jun 2027 03:49:01.025   08 Jun 2027 03:49:14.261            13.236          6618.000
       208   08 Jun 2027 03:49:36.206   08 Jun 2027 03:49:52.397            16.191          8095.500
       209   08 Jun 2027 05:20:40.069   08 Jun 2027 05:22:58.511           138.442         69221.000
       210   08 Jun 2027 05:23:16.015   08 Jun 2027 05:23:16.015             0.000             0.000
       211   08 Jun 2027 05:23:28.430   08 Jun 2027 05:23:31.460             3.030          1515.000
       212   08 Jun 2027 05:25:33.713   08 Jun 2027 05:25:37.842             4.129          2064.500
       213   08 Jun 2027 05:26:11.939   08 Jun 2027 05:26:18.115             6.176          3088.000
       214   08 Jun 2027 05:26:41.401   08 Jun 2027 05:26:46.736             5.335          2667.500
       215   08 Jun 2027 05:29:12.285   08 Jun 2027 05:29:13.277             0.992           496.000
       216   08 Jun 2027 06:58:03.448   08 Jun 2027 06:59:54.667           111.219         55609.500
       217   08 Jun 2027 07:01:03.694   08 Jun 2027 07:01:21.797            18.103          9051.500
       218   08 Jun 2027 07:01:31.493   08 Jun 2027 07:01:33.605             2.112          1056.000
       219   08 Jun 2027 07:02:27.083   08 Jun 2027 07:02:27.433             0.350           175.000
       220   08 Jun 2027 07:02:37.827   08 Jun 2027 07:02:43.737             5.910          2955.000
       221   08 Jun 2027 07:03:06.011   08 Jun 2027 07:03:10.402             4.391          2011.218
       222   08 Jun 2027 08:35:07.674   08 Jun 2027 08:35:36.073            28.399         13940.438
       223   08 Jun 2027 08:35:47.115   08 Jun 2027 08:35:47.178             0.063            31.500
       224   08 Jun 2027 08:36:04.811   08 Jun 2027 08:36:06.284             1.473           658.000
       225   08 Jun 2027 08:36:18.103   08 Jun 2027 08:36:18.455             0.352            66.875
       226   08 Jun 2027 08:36:33.259   08 Jun 2027 08:36:34.019             0.760           313.719
       227   08 Jun 2027 08:38:13.669   08 Jun 2027 08:38:16.724             3.055          1527.500
       228   08 Jun 2027 08:38:32.753   08 Jun 2027 08:38:37.883             5.130          1909.156
       229   08 Jun 2027 08:39:20.781   08 Jun 2027 08:39:24.945             4.164          1340.563
       230   08 Jun 2027 08:39:28.645   08 Jun 2027 08:39:30.735             2.090           115.625
       231   08 Jun 2027 08:40:18.251   08 Jun 2027 08:40:18.251             0.000             0.000
       232   08 Jun 2027 08:40:28.602   08 Jun 2027 08:40:32.722             4.120          1774.031
       233   08 Jun 2027 08:40:46.091   08 Jun 2027 08:40:48.450             2.359           401.750
       234   08 Jun 2027 10:11:52.100   08 Jun 2027 10:12:07.517            15.417          7675.531
       235   08 Jun 2027 10:12:54.644   08 Jun 2027 10:12:58.035             3.391          1345.438
       236   08 Jun 2027 10:14:08.010   08 Jun 2027 10:14:13.524             5.514          1948.844
       237   08 Jun 2027 10:15:11.547   08 Jun 2027 10:15:27.512            15.965          1793.719
       238   08 Jun 2027 10:15:52.278   08 Jun 2027 10:15:54.208             1.930           534.688
       239   08 Jun 2027 10:16:19.891   08 Jun 2027 10:16:23.144             3.253           778.875
       240   08 Jun 2027 11:47:08.085   08 Jun 2027 11:47:12.715             4.630          1427.313
       241   08 Jun 2027 11:48:49.071   08 Jun 2027 11:48:59.123            10.052          1128.750
       242   08 Jun 2027 11:49:27.866   08 Jun 2027 11:49:33.142             5.276           350.281
       243   08 Jun 2027 11:50:50.555   08 Jun 2027 11:50:55.732             5.177          1846.625
       244   09 Jun 2027 03:59:08.559   09 Jun 2027 04:00:00.983            52.424         26212.000
       245   09 Jun 2027 04:01:36.082   09 Jun 2027 04:01:36.082             0.000             0.000
       246   09 Jun 2027 04:01:43.527   09 Jun 2027 04:01:50.506             6.979          3489.500
       247   09 Jun 2027 05:31:25.328   09 Jun 2027 05:31:43.694            18.366          9183.000
       248   09 Jun 2027 05:33:12.545   09 Jun 2027 05:35:22.055           129.510         64755.000
       249   09 Jun 2027 05:35:51.737   09 Jun 2027 05:35:52.513             0.776           388.000
       250   09 Jun 2027 05:36:57.845   09 Jun 2027 05:36:57.845             0.000             0.000
       251   09 Jun 2027 05:38:46.501   09 Jun 2027 05:38:49.430             2.929          1464.500
       252   09 Jun 2027 05:40:22.956   09 Jun 2027 05:40:25.048             2.092          1046.000
       253   09 Jun 2027 05:40:58.198   09 Jun 2027 05:41:06.390             8.192          4096.000
       254   09 Jun 2027 07:10:17.079   09 Jun 2027 07:12:27.793           130.714         64765.563
       255   09 Jun 2027 07:14:40.513   09 Jun 2027 07:14:41.853             1.340           670.000
       256   09 Jun 2027 07:15:31.640   09 Jun 2027 07:15:42.514            10.874          4747.656
       257   09 Jun 2027 07:15:50.421   09 Jun 2027 07:15:52.909             2.488           243.938
       258   09 Jun 2027 07:16:18.033   09 Jun 2027 07:16:20.864             2.831           746.000
       259   09 Jun 2027 08:47:13.141   09 Jun 2027 08:47:42.204            29.063         14295.688
       260   09 Jun 2027 08:49:19.368   09 Jun 2027 08:49:24.894             5.526          2695.750
       261   09 Jun 2027 08:49:32.361   09 Jun 2027 08:49:36.961             4.600           147.406
       262   09 Jun 2027 08:49:57.758   09 Jun 2027 08:49:59.673             1.915           158.063
       263   09 Jun 2027 08:50:31.772   09 Jun 2027 08:50:35.757             3.985           916.656
       264   09 Jun 2027 08:51:20.848   09 Jun 2027 08:51:29.300             8.452          1409.094
       265   09 Jun 2027 08:51:56.516   09 Jun 2027 08:52:02.936             6.420           818.406
       266   09 Jun 2027 10:23:59.718   09 Jun 2027 10:24:13.949            14.231          7007.250
       267   09 Jun 2027 10:24:52.993   09 Jun 2027 10:24:54.503             1.510           704.156
       268   09 Jun 2027 10:25:07.635   09 Jun 2027 10:25:13.527             5.892           343.750
       269   09 Jun 2027 10:25:20.076   09 Jun 2027 10:25:20.905             0.829           148.875
       270   09 Jun 2027 10:26:19.496   09 Jun 2027 10:26:22.904             3.408          1676.719
       271   09 Jun 2027 10:27:00.048   09 Jun 2027 10:27:04.171             4.123          1127.000
       272   09 Jun 2027 10:27:32.365   09 Jun 2027 10:27:34.180             1.815           227.563
       273   09 Jun 2027 10:28:07.912   09 Jun 2027 10:28:14.922             7.010           811.906
       274   09 Jun 2027 10:28:28.677   09 Jun 2027 10:28:30.403             1.726           274.312
       275   10 Jun 2027 04:11:19.076   10 Jun 2027 04:12:09.799            50.723         25361.500
       276   10 Jun 2027 04:13:11.879   10 Jun 2027 04:13:14.954             3.075          1537.500
       277   10 Jun 2027 04:14:03.676   10 Jun 2027 04:14:03.676             0.000             0.000
       278   10 Jun 2027 04:14:18.367   10 Jun 2027 04:14:34.544            16.177          8088.500
       279   10 Jun 2027 04:14:46.663   10 Jun 2027 04:14:48.763             2.100          1050.000
       280   10 Jun 2027 05:46:23.989   10 Jun 2027 05:48:36.605           132.616         66308.000
       281   10 Jun 2027 05:49:00.611   10 Jun 2027 05:49:00.611             0.000             0.000
       282   10 Jun 2027 05:49:54.691   10 Jun 2027 05:50:16.427            21.736         10868.000
       283   10 Jun 2027 05:53:02.304   10 Jun 2027 05:53:02.824             0.520           260.000
       284   10 Jun 2027 07:22:45.847   10 Jun 2027 07:24:48.512           122.665         61318.000
       285   10 Jun 2027 07:25:38.034   10 Jun 2027 07:25:46.760             8.726          1440.062
       286   10 Jun 2027 07:25:49.654   10 Jun 2027 07:25:51.454             1.800            62.875
       287   10 Jun 2027 07:26:23.037   10 Jun 2027 07:26:25.422             2.385           980.750
       288   10 Jun 2027 07:27:39.015   10 Jun 2027 07:27:43.292             4.277          2062.687
       289   10 Jun 2027 09:00:16.237   10 Jun 2027 09:00:47.649            31.412         12757.500
       290   10 Jun 2027 09:01:28.014   10 Jun 2027 09:01:28.014             0.000             0.000
       291   10 Jun 2027 09:02:33.444   10 Jun 2027 09:02:38.305             4.861          2430.500
       292   10 Jun 2027 09:02:39.146   10 Jun 2027 09:02:41.632             2.486           514.532
       293   10 Jun 2027 10:36:20.885   10 Jun 2027 10:36:40.554            19.669          8838.188
       294   10 Jun 2027 10:36:53.754   10 Jun 2027 10:36:55.647             1.893           412.500
       295   10 Jun 2027 10:36:58.389   10 Jun 2027 10:37:00.471             2.082             8.219
       296   10 Jun 2027 10:37:11.663   10 Jun 2027 10:37:12.222             0.559           170.062
       297   10 Jun 2027 10:37:50.807   10 Jun 2027 10:37:53.764             2.957          1203.156
       298   10 Jun 2027 10:38:15.271   10 Jun 2027 10:38:16.493             1.222           533.406
       299   10 Jun 2027 10:38:45.293   10 Jun 2027 10:38:49.286             3.993           900.000
       300   10 Jun 2027 10:39:30.213   10 Jun 2027 10:39:33.191             2.978          1025.062
       301   10 Jun 2027 10:39:41.070   10 Jun 2027 10:39:42.051             0.981           229.406
       302   10 Jun 2027 10:40:17.869   10 Jun 2027 10:40:22.439             4.570           770.719
       303   10 Jun 2027 10:40:31.255   10 Jun 2027 10:40:35.382             4.127            74.344
       304   11 Jun 2027 04:23:23.683   11 Jun 2027 04:24:03.004            39.321         19660.500
       305   11 Jun 2027 04:24:54.393   11 Jun 2027 04:25:10.955            16.562          8281.000
       306   11 Jun 2027 04:26:25.413   11 Jun 2027 04:26:28.518             3.105          1552.500
       307   11 Jun 2027 05:58:34.026   11 Jun 2027 06:00:43.512           129.486         64743.000
       308   11 Jun 2027 06:01:10.673   11 Jun 2027 06:01:25.482            14.809          7404.500
       309   11 Jun 2027 06:04:12.266   11 Jun 2027 06:04:15.305             3.039          1519.500
       310   11 Jun 2027 06:04:43.380   11 Jun 2027 06:04:51.171             7.791          3895.500
       311   11 Jun 2027 07:34:48.901   11 Jun 2027 07:36:51.473           122.572         61127.594
       312   11 Jun 2027 07:38:27.776   11 Jun 2027 07:38:30.293             2.517          1258.500
       313   11 Jun 2027 07:38:44.856   11 Jun 2027 07:38:50.497             5.641          2206.062
       314   11 Jun 2027 07:39:30.657   11 Jun 2027 07:39:33.032             2.375           801.156
       315   11 Jun 2027 07:39:45.421   11 Jun 2027 07:39:48.864             3.443           357.219
       316   11 Jun 2027 09:12:21.769   11 Jun 2027 09:12:50.729            28.960         12238.500
       317   11 Jun 2027 09:13:28.321   11 Jun 2027 09:13:35.886             7.565           836.875
       318   11 Jun 2027 09:14:13.171   11 Jun 2027 09:14:21.114             7.943          1032.875
       319   11 Jun 2027 09:14:25.242   11 Jun 2027 09:14:27.345             2.103            22.313
       320   11 Jun 2027 10:48:23.084   11 Jun 2027 10:48:38.462            15.378          7159.000
       321   11 Jun 2027 10:48:52.219   11 Jun 2027 10:48:52.219             0.000             0.000
       322   11 Jun 2027 10:49:23.241   11 Jun 2027 10:49:27.265             4.024          1036.875
       323   11 Jun 2027 10:49:54.319   11 Jun 2027 10:49:56.065             1.746           256.844
       324   11 Jun 2027 10:50:15.045   11 Jun 2027 10:50:15.839             0.794           397.000
       325   11 Jun 2027 10:50:40.563   11 Jun 2027 10:50:46.232             5.669           968.750
       326   11 Jun 2027 10:51:05.719   11 Jun 2027 10:51:06.429             0.710            34.719
       327   11 Jun 2027 10:51:22.076   11 Jun 2027 10:51:29.271             7.195           397.531
       328   11 Jun 2027 10:51:45.433   11 Jun 2027 10:51:45.851             0.418           150.969
       329   11 Jun 2027 10:52:18.095   11 Jun 2027 10:52:22.207             4.112           497.156
       330   11 Jun 2027 10:52:33.098   11 Jun 2027 10:52:35.070             1.972           338.719
       331   12 Jun 2027 03:00:00.000   12 Jun 2027 03:00:22.819            22.819         11409.500
       332   12 Jun 2027 04:35:07.322   12 Jun 2027 04:36:51.160           103.838         51919.000
       333   12 Jun 2027 04:38:35.176   12 Jun 2027 04:38:47.325            12.149          6074.500
       334   12 Jun 2027 06:09:58.492   12 Jun 2027 06:10:34.277            35.785         17892.500
       335   12 Jun 2027 06:11:39.133   12 Jun 2027 06:12:51.407            72.274         36137.000
       336   12 Jun 2027 06:13:13.505   12 Jun 2027 06:13:25.246            11.741          5870.500
       337   12 Jun 2027 06:14:33.467   12 Jun 2027 06:14:34.236             0.769           384.500
       338   12 Jun 2027 06:15:08.879   12 Jun 2027 06:15:25.176            16.297          8148.500
       339   12 Jun 2027 06:17:16.118   12 Jun 2027 06:17:20.661             4.543          2271.500
       340   12 Jun 2027 07:46:34.195   12 Jun 2027 07:47:54.565            80.370         40185.000
       341   12 Jun 2027 07:48:34.309   12 Jun 2027 07:49:02.418            28.109         10601.625
       342   12 Jun 2027 07:49:32.727   12 Jun 2027 07:49:34.180             1.453           726.500
       343   12 Jun 2027 07:49:47.726   12 Jun 2027 07:49:50.658             2.932           640.219
       344   12 Jun 2027 07:50:26.150   12 Jun 2027 07:50:27.837             1.687           762.250
       345   12 Jun 2027 07:50:49.067   12 Jun 2027 07:50:52.716             3.649           523.187
       346   12 Jun 2027 07:51:25.365   12 Jun 2027 07:51:27.105             1.740           576.781
       347   12 Jun 2027 07:52:13.675   12 Jun 2027 07:52:21.818             8.143          1455.312
       348   12 Jun 2027 09:24:51.811   12 Jun 2027 09:25:17.200            25.389         11906.250
       349   12 Jun 2027 09:25:50.435   12 Jun 2027 09:25:56.043             5.608          1038.594
       350   12 Jun 2027 09:26:27.606   12 Jun 2027 09:26:29.919             2.313           924.312
       351   12 Jun 2027 09:26:51.845   12 Jun 2027 09:26:53.530             1.685           673.000
       352   12 Jun 2027 09:27:43.575   12 Jun 2027 09:27:47.777             4.202          1408.563
       353   12 Jun 2027 09:28:05.772   12 Jun 2027 09:28:07.098             1.326           508.938
       354   12 Jun 2027 09:28:34.875   12 Jun 2027 09:28:36.676             1.801           868.031
       355   12 Jun 2027 10:58:12.571   12 Jun 2027 10:58:20.831             8.260          4130.000
       356   12 Jun 2027 11:00:11.688   12 Jun 2027 11:00:23.020            11.332          3037.344
       357   12 Jun 2027 11:00:49.666   12 Jun 2027 11:00:50.286             0.620           216.969
       358   12 Jun 2027 11:01:00.641   12 Jun 2027 11:01:02.883             2.242           323.594
       359   12 Jun 2027 11:02:06.143   12 Jun 2027 11:02:12.361             6.218          1765.500
       360   12 Jun 2027 11:03:06.080   12 Jun 2027 11:03:10.140             4.060          1678.719
       361   12 Jun 2027 11:03:23.008   12 Jun 2027 11:03:24.232             1.224           374.969
       362   12 Jun 2027 11:03:40.486   12 Jun 2027 11:03:42.471             1.985           168.437
       363   12 Jun 2027 11:04:15.367   12 Jun 2027 11:04:16.397             1.030           281.937
       364   12 Jun 2027 11:05:12.715   12 Jun 2027 11:05:15.818             3.103          1358.344
       365   13 Jun 2027 03:10:00.457   13 Jun 2027 03:10:43.975            43.518         21759.000
       366   13 Jun 2027 04:45:20.216   13 Jun 2027 04:46:19.355            59.139         29569.500
       367   13 Jun 2027 04:46:52.292   13 Jun 2027 04:47:14.709            22.417         11208.500
       368   13 Jun 2027 04:47:23.518   13 Jun 2027 04:47:27.833             4.315          2157.500
       369   13 Jun 2027 04:47:43.783   13 Jun 2027 04:47:43.783             0.000             0.000
       370   13 Jun 2027 04:48:50.074   13 Jun 2027 04:48:52.411             2.337          1168.500
       371   13 Jun 2027 04:49:08.725   13 Jun 2027 04:49:21.918            13.193          6596.500
       372   13 Jun 2027 04:50:59.955   13 Jun 2027 04:51:14.517            14.562          7281.000
       373   13 Jun 2027 06:21:50.708   13 Jun 2027 06:23:29.940            99.232         49616.000
       374   13 Jun 2027 06:23:52.808   13 Jun 2027 06:23:55.742             2.934          1467.000
       375   13 Jun 2027 06:24:40.041   13 Jun 2027 06:24:47.804             7.763          3881.500
       376   13 Jun 2027 06:25:10.642   13 Jun 2027 06:25:19.660             9.018          4509.000
       377   13 Jun 2027 06:25:51.559   13 Jun 2027 06:26:07.621            16.062          8031.000
       378   13 Jun 2027 06:27:24.846   13 Jun 2027 06:27:25.232             0.386           193.000
       379   13 Jun 2027 07:58:55.252   13 Jun 2027 08:00:28.646            93.394         43089.750
       380   13 Jun 2027 08:00:40.700   13 Jun 2027 08:00:41.816             1.116           376.688
       381   13 Jun 2027 08:01:35.530   13 Jun 2027 08:01:36.635             1.105           552.500
       382   13 Jun 2027 08:01:46.225   13 Jun 2027 08:01:49.941             3.716          1129.781
       383   13 Jun 2027 08:02:02.543   13 Jun 2027 08:02:10.839             8.296            98.469
       384   13 Jun 2027 08:02:40.527   13 Jun 2027 08:02:43.219             2.692           559.688
       385   13 Jun 2027 08:03:15.635   13 Jun 2027 08:03:18.798             3.163          1013.000
       386   13 Jun 2027 08:04:10.098   13 Jun 2027 08:04:19.457             9.359          1603.125
       387   13 Jun 2027 09:36:49.495   13 Jun 2027 09:37:07.592            18.097          9048.500
       388   13 Jun 2027 09:37:29.710   13 Jun 2027 09:37:33.340             3.630          1633.281
       389   13 Jun 2027 09:38:00.175   13 Jun 2027 09:38:05.697             5.522           742.969
       390   13 Jun 2027 09:38:08.392   13 Jun 2027 09:38:10.397             2.005            84.219
       391   13 Jun 2027 09:38:29.400   13 Jun 2027 09:38:29.400             0.000             0.000
       392   13 Jun 2027 09:38:43.627   13 Jun 2027 09:38:44.886             1.259           616.406
       393   13 Jun 2027 09:39:30.959   13 Jun 2027 09:39:34.043             3.084          1319.312
       394   13 Jun 2027 09:39:50.121   13 Jun 2027 09:39:50.121             0.000             0.000
       395   13 Jun 2027 09:40:05.006   13 Jun 2027 09:40:09.639             4.633           862.094
       396   13 Jun 2027 09:40:10.394   13 Jun 2027 09:40:11.964             1.570            19.406
       397   13 Jun 2027 09:40:23.940   13 Jun 2027 09:40:24.725             0.785           333.750
       398   13 Jun 2027 09:40:28.945   13 Jun 2027 09:40:30.334             1.389           131.875
       399   13 Jun 2027 11:09:58.204   13 Jun 2027 11:10:11.998            13.794          6850.281
       400   13 Jun 2027 11:11:33.029   13 Jun 2027 11:11:35.338             2.309           780.563
       401   13 Jun 2027 11:12:05.589   13 Jun 2027 11:12:05.589             0.000             0.000
       402   13 Jun 2027 11:12:36.472   13 Jun 2027 11:12:39.835             3.363          1595.000
       403   13 Jun 2027 11:13:01.565   13 Jun 2027 11:13:03.103             1.538           565.500
       404   13 Jun 2027 11:13:34.748   13 Jun 2027 11:13:36.548             1.800           520.875
       405   13 Jun 2027 11:14:04.681   13 Jun 2027 11:14:06.655             1.974           520.625
       406   13 Jun 2027 11:14:36.598   13 Jun 2027 11:14:39.116             2.518           909.188
       407   13 Jun 2027 11:15:00.632   13 Jun 2027 11:15:03.844             3.212           265.937
       408   13 Jun 2027 11:15:38.632   13 Jun 2027 11:15:40.689             2.057          1028.500
       409   13 Jun 2027 11:16:42.430   13 Jun 2027 11:16:46.395             3.965          1424.625
       410   13 Jun 2027 11:17:26.375   13 Jun 2027 11:17:30.265             3.890           545.750
       411   13 Jun 2027 11:17:41.950   13 Jun 2027 11:17:45.284             3.334           350.125
