uniorb/output/strategy_1/Camera/Camera_KinoSat_111510.txt

KinoSat_111510
-------------------------
    Access    *     Start Time (UTCG)     *     Stop Time (UTCG)  *   Duration (s) *   Data (Mbytes)
         1   01 Jun 2027 04:07:44.354   01 Jun 2027 04:10:02.988           138.634         69317.000
         2   01 Jun 2027 04:10:09.469   01 Jun 2027 04:10:10.353             0.884           442.000
         3   01 Jun 2027 04:11:50.063   01 Jun 2027 04:11:53.549             3.486          1743.000
         4   01 Jun 2027 04:12:37.150   01 Jun 2027 04:13:04.118            26.968         13484.000
         5   01 Jun 2027 04:14:42.673   01 Jun 2027 04:14:48.845             6.172          3086.000
         6   01 Jun 2027 05:32:05.992   01 Jun 2027 05:32:56.463            50.471         25235.500
         7   01 Jun 2027 05:33:54.739   01 Jun 2027 05:34:14.751            20.012         10006.000
         8   01 Jun 2027 05:44:19.281   01 Jun 2027 05:44:50.756            31.475         15737.500
         9   01 Jun 2027 07:06:14.283   01 Jun 2027 07:07:28.351            74.068         37034.000
        10   01 Jun 2027 07:08:17.400   01 Jun 2027 07:08:47.744            30.344         15172.000
        11   01 Jun 2027 07:10:26.195   01 Jun 2027 07:10:47.050            20.855         10427.500
        12   01 Jun 2027 08:41:02.441   01 Jun 2027 08:41:50.861            48.420         24210.000
        13   01 Jun 2027 08:42:50.857   01 Jun 2027 08:43:02.500            11.643          5821.500
        14   01 Jun 2027 08:43:08.215   01 Jun 2027 08:43:08.215             0.000             0.000
        15   01 Jun 2027 08:43:31.105   01 Jun 2027 08:43:51.324            20.219         10109.500
        16   01 Jun 2027 08:44:27.937   01 Jun 2027 08:44:58.796            30.859         15429.500
        17   01 Jun 2027 08:47:41.067   01 Jun 2027 08:47:41.186             0.119            59.500
        18   01 Jun 2027 08:48:12.554   01 Jun 2027 08:48:51.312            38.758         19379.000
        19   01 Jun 2027 10:18:52.312   01 Jun 2027 10:20:30.158            97.846         48923.000
        20   01 Jun 2027 10:21:11.830   01 Jun 2027 10:21:36.814            24.984         12492.000
        21   01 Jun 2027 10:23:17.751   01 Jun 2027 10:23:25.106             7.355          3677.500
        22   01 Jun 2027 10:26:00.822   01 Jun 2027 10:26:12.190            11.368          5684.000
        23   01 Jun 2027 11:55:36.801   01 Jun 2027 11:56:53.616            76.815         38407.500
        24   01 Jun 2027 11:56:56.990   01 Jun 2027 11:57:15.617            18.627          9313.500
        25   01 Jun 2027 11:59:36.949   01 Jun 2027 11:59:50.747            13.798          6899.000
        26   02 Jun 2027 04:20:06.304   02 Jun 2027 04:21:40.262            93.958         46979.000
        27   02 Jun 2027 04:23:45.539   02 Jun 2027 04:23:59.220            13.681          6840.500
        28   02 Jun 2027 04:23:59.784   02 Jun 2027 04:24:00.495             0.711           355.500
        29   02 Jun 2027 04:24:07.226   02 Jun 2027 04:24:30.787            23.561         11780.500
        30   02 Jun 2027 05:44:04.483   02 Jun 2027 05:45:11.698            67.215         33607.500
        31   02 Jun 2027 07:20:01.320   02 Jun 2027 07:22:23.565           142.245         71122.500
        32   02 Jun 2027 08:53:50.772   02 Jun 2027 08:55:58.902           128.130         64065.000
        33   02 Jun 2027 09:01:39.086   02 Jun 2027 09:02:18.748            39.662         19831.000
        34   02 Jun 2027 10:30:59.519   02 Jun 2027 10:31:58.445            58.926         29463.000
        35   02 Jun 2027 10:35:25.097   02 Jun 2027 10:36:02.049            36.952         18476.000
        36   02 Jun 2027 10:36:11.609   02 Jun 2027 10:36:42.869            31.260         15630.000
        37   02 Jun 2027 10:37:18.396   02 Jun 2027 10:37:25.374             6.978          3489.000
        38   03 Jun 2027 04:32:36.356   03 Jun 2027 04:34:05.981            89.625         44812.500
        39   03 Jun 2027 04:34:10.301   03 Jun 2027 04:34:13.582             3.281          1640.500
        40   03 Jun 2027 04:34:41.080   03 Jun 2027 04:34:46.097             5.017          2508.500
        41   03 Jun 2027 04:35:21.218   03 Jun 2027 04:35:43.189            21.971         10985.500
        42   03 Jun 2027 05:55:58.015   03 Jun 2027 05:57:12.954            74.939         37469.500
        43   03 Jun 2027 05:57:29.590   03 Jun 2027 05:57:29.590             0.000             0.000
        44   03 Jun 2027 05:58:13.791   03 Jun 2027 05:58:20.435             6.644          3322.000
        45   03 Jun 2027 07:32:22.979   03 Jun 2027 07:34:56.542           153.563         76781.500
        46   03 Jun 2027 09:06:11.197   03 Jun 2027 09:07:04.842            53.645         26822.500
        47   03 Jun 2027 09:07:50.058   03 Jun 2027 09:08:17.873            27.815         13907.500
        48   03 Jun 2027 09:08:54.009   03 Jun 2027 09:09:03.270             9.261          4630.500
        49   03 Jun 2027 09:09:40.305   03 Jun 2027 09:10:21.242            40.937         20468.500
        50   03 Jun 2027 09:13:08.696   03 Jun 2027 09:13:09.153             0.457           228.500
        51   03 Jun 2027 09:14:19.704   03 Jun 2027 09:14:21.888             2.184          1092.000
        52   03 Jun 2027 10:43:26.061   03 Jun 2027 10:44:31.963            65.902         31619.688
        53   03 Jun 2027 10:48:10.708   03 Jun 2027 10:48:23.149            12.441          5814.531
        54   03 Jun 2027 10:48:30.515   03 Jun 2027 10:48:31.339             0.824           221.281
        55   03 Jun 2027 10:48:48.325   03 Jun 2027 10:48:55.677             7.352           460.375
        56   03 Jun 2027 10:49:49.803   03 Jun 2027 10:49:53.592             3.789          1691.438
        57   04 Jun 2027 03:06:40.866   04 Jun 2027 03:07:40.740            59.874         29937.000
        58   04 Jun 2027 03:10:54.605   04 Jun 2027 03:11:11.107            16.502          8251.000
        59   04 Jun 2027 03:11:38.780   04 Jun 2027 03:11:41.289             2.509          1254.500
        60   04 Jun 2027 03:12:02.914   04 Jun 2027 03:12:14.908            11.994          5997.000
        61   04 Jun 2027 04:44:52.269   04 Jun 2027 04:45:59.294            67.025         33512.500
        62   04 Jun 2027 04:46:09.293   04 Jun 2027 04:46:16.570             7.277          3638.500
        63   04 Jun 2027 04:46:42.052   04 Jun 2027 04:46:42.530             0.478           239.000
        64   04 Jun 2027 04:48:36.666   04 Jun 2027 04:48:52.893            16.227          8113.500
        65   04 Jun 2027 06:07:46.152   04 Jun 2027 06:08:29.985            43.833         21916.500
        66   04 Jun 2027 07:44:25.306   04 Jun 2027 07:46:25.150           119.844         59922.000
        67   04 Jun 2027 07:47:11.218   04 Jun 2027 07:47:26.168            14.950          7349.343
        68   04 Jun 2027 09:19:25.751   04 Jun 2027 09:19:38.735            12.984          6413.625
        69   04 Jun 2027 09:20:27.830   04 Jun 2027 09:20:30.694             2.864           845.219
        70   04 Jun 2027 09:21:48.727   04 Jun 2027 09:21:53.007             4.280          2058.844
        71   04 Jun 2027 09:22:43.246   04 Jun 2027 09:22:43.246             0.000             0.000
        72   04 Jun 2027 09:23:20.271   04 Jun 2027 09:23:24.801             4.530          1775.875
        73   04 Jun 2027 09:23:44.124   04 Jun 2027 09:23:46.464             2.340           591.813
        74   04 Jun 2027 09:24:41.085   04 Jun 2027 09:24:46.004             4.919          1532.937
        75   04 Jun 2027 09:24:54.060   04 Jun 2027 09:24:54.859             0.799           186.344
        76   04 Jun 2027 09:25:25.969   04 Jun 2027 09:25:29.325             3.356           972.188
        77   04 Jun 2027 10:55:35.624   04 Jun 2027 10:55:49.635            14.011          5453.188
        78   04 Jun 2027 10:57:27.936   04 Jun 2027 10:57:38.088            10.152          1765.750
        79   04 Jun 2027 10:57:47.086   04 Jun 2027 10:57:48.510             1.424           138.688
        80   04 Jun 2027 10:58:17.439   04 Jun 2027 10:58:21.022             3.583           433.594
        81   04 Jun 2027 10:58:37.199   04 Jun 2027 10:58:39.581             2.382           505.531
        82   04 Jun 2027 10:59:09.453   04 Jun 2027 10:59:16.160             6.707           899.188
        83   04 Jun 2027 10:59:31.061   04 Jun 2027 10:59:32.020             0.959           448.813
        84   04 Jun 2027 11:01:12.034   04 Jun 2027 11:01:18.233             6.199          2304.906
        85   04 Jun 2027 11:01:27.632   04 Jun 2027 11:01:28.721             1.089           231.687
        86   04 Jun 2027 11:01:42.529   04 Jun 2027 11:01:47.805             5.276           331.281
        87   04 Jun 2027 11:01:52.356   04 Jun 2027 11:01:52.566             0.210            42.844
        88   05 Jun 2027 03:18:20.129   05 Jun 2027 03:19:22.100            61.971         30985.500
        89   05 Jun 2027 03:19:28.556   05 Jun 2027 03:19:47.387            18.831          9415.500
        90   05 Jun 2027 03:20:22.850   05 Jun 2027 03:20:30.971             8.121          4060.500
        91   05 Jun 2027 03:21:23.264   05 Jun 2027 03:21:28.082             4.818          2409.000
        92   05 Jun 2027 03:22:45.070   05 Jun 2027 03:22:47.457             2.387          1193.500
        93   05 Jun 2027 03:23:45.818   05 Jun 2027 03:23:52.247             6.429          3214.500
        94   05 Jun 2027 04:56:38.579   05 Jun 2027 04:57:10.837            32.258         16129.000
        95   05 Jun 2027 04:57:27.674   05 Jun 2027 04:58:12.024            44.350         22175.000
        96   05 Jun 2027 04:59:19.318   05 Jun 2027 04:59:25.122             5.804          2902.000
        97   05 Jun 2027 05:00:03.053   05 Jun 2027 05:00:12.363             9.310          4655.000
        98   05 Jun 2027 06:20:00.540   05 Jun 2027 06:21:14.775            74.235         37117.500
        99   05 Jun 2027 07:56:32.966   05 Jun 2027 07:57:42.173            69.207         33462.843
       100   05 Jun 2027 07:57:51.151   05 Jun 2027 07:57:51.566             0.415           170.875
       101   05 Jun 2027 07:58:13.215   05 Jun 2027 07:58:13.215             0.000             0.000
       102   05 Jun 2027 07:59:00.425   05 Jun 2027 07:59:04.430             4.005          1886.969
       103   05 Jun 2027 07:59:52.099   05 Jun 2027 07:59:52.099             0.000             0.000
       104   05 Jun 2027 08:00:01.999   05 Jun 2027 08:00:04.603             2.604          1302.000
       105   05 Jun 2027 09:31:43.493   05 Jun 2027 09:31:55.343            11.850          5630.656
       106   05 Jun 2027 09:32:13.730   05 Jun 2027 09:32:14.764             1.034           478.250
       107   05 Jun 2027 09:32:37.707   05 Jun 2027 09:32:40.496             2.789           699.719
       108   05 Jun 2027 09:33:59.965   05 Jun 2027 09:34:05.503             5.538          1670.656
       109   05 Jun 2027 09:34:25.749   05 Jun 2027 09:34:26.149             0.400           173.438
       110   05 Jun 2027 09:36:55.104   05 Jun 2027 09:37:12.311            17.207          4215.906
       111   05 Jun 2027 09:37:39.916   05 Jun 2027 09:37:43.738             3.822           713.812
       112   05 Jun 2027 09:37:58.317   05 Jun 2027 09:38:00.044             1.727           455.594
       113   05 Jun 2027 09:38:08.203   05 Jun 2027 09:38:10.909             2.706           251.875
       114   05 Jun 2027 09:38:18.278   05 Jun 2027 09:38:19.554             1.276           230.281
       115   05 Jun 2027 11:08:05.475   05 Jun 2027 11:08:19.016            13.541          6135.375
       116   05 Jun 2027 11:08:57.106   05 Jun 2027 11:09:00.307             3.201           430.250
       117   05 Jun 2027 11:10:06.363   05 Jun 2027 11:10:10.703             4.340          1745.344
       118   05 Jun 2027 11:10:22.864   05 Jun 2027 11:10:24.821             1.957           241.188
       119   05 Jun 2027 11:10:42.861   05 Jun 2027 11:10:51.415             8.554           305.063
       120   05 Jun 2027 11:11:51.842   05 Jun 2027 11:11:54.746             2.904          1444.031
       121   05 Jun 2027 11:12:16.815   05 Jun 2027 11:12:19.744             2.929           689.656
       122   05 Jun 2027 11:12:40.087   05 Jun 2027 11:12:42.181             2.094           635.719
       123   05 Jun 2027 11:13:32.777   05 Jun 2027 11:13:38.054             5.277          1435.500
       124   05 Jun 2027 11:13:56.135   05 Jun 2027 11:14:03.811             7.676           386.031
       125   06 Jun 2027 03:31:26.627   06 Jun 2027 03:33:01.535            94.908         47454.000
       126   06 Jun 2027 03:33:37.736   06 Jun 2027 03:33:41.966             4.230          2115.000
       127   06 Jun 2027 03:34:33.658   06 Jun 2027 03:34:38.513             4.855          2427.500
       128   06 Jun 2027 03:38:03.770   06 Jun 2027 03:38:23.513            19.743          9871.500
       129   06 Jun 2027 03:39:14.452   06 Jun 2027 03:39:23.587             9.135          4567.500
       130   06 Jun 2027 05:08:34.978   06 Jun 2027 05:09:14.497            39.519         19759.500
       131   06 Jun 2027 05:09:34.738   06 Jun 2027 05:10:14.038            39.300         19650.000
       132   06 Jun 2027 05:11:27.409   06 Jun 2027 05:11:34.171             6.762          3381.000
       133   06 Jun 2027 05:12:02.476   06 Jun 2027 05:12:07.183             4.707          2353.500
       134   06 Jun 2027 06:32:02.046   06 Jun 2027 06:32:58.179            56.133         28066.500
       135   06 Jun 2027 06:34:44.627   06 Jun 2027 06:35:00.213            15.586          7793.000
       136   06 Jun 2027 08:08:25.062   06 Jun 2027 08:09:08.406            43.344         21048.500
       137   06 Jun 2027 08:09:53.774   06 Jun 2027 08:09:58.623             4.849          1417.750
       138   06 Jun 2027 08:10:40.737   06 Jun 2027 08:10:45.446             4.709          1316.063
       139   06 Jun 2027 08:11:43.980   06 Jun 2027 08:11:48.086             4.106          1519.125
       140   06 Jun 2027 09:43:19.252   06 Jun 2027 09:43:29.933            10.681          5062.094
       141   06 Jun 2027 09:45:35.027   06 Jun 2027 09:45:44.215             9.188          3435.031
       142   06 Jun 2027 09:45:58.850   06 Jun 2027 09:46:01.628             2.778           396.094
       143   06 Jun 2027 09:47:29.758   06 Jun 2027 09:47:29.758             0.000             0.000
       144   06 Jun 2027 09:48:54.732   06 Jun 2027 09:49:08.599            13.867          5409.500
       145   06 Jun 2027 09:49:40.389   06 Jun 2027 09:49:42.723             2.334           993.437
       146   06 Jun 2027 09:50:19.183   06 Jun 2027 09:50:20.724             1.541           770.500
       147   06 Jun 2027 11:19:40.911   06 Jun 2027 11:19:57.874            16.963          7184.750
       148   06 Jun 2027 11:20:42.152   06 Jun 2027 11:20:46.317             4.165           477.031
       149   06 Jun 2027 11:21:44.467   06 Jun 2027 11:21:48.331             3.864          1817.188
       150   06 Jun 2027 11:22:20.783   06 Jun 2027 11:22:22.042             1.259           459.906
       151   06 Jun 2027 11:23:26.552   06 Jun 2027 11:23:29.908             3.356          1323.250
       152   06 Jun 2027 11:24:16.473   06 Jun 2027 11:24:19.843             3.370          1455.156
       153   06 Jun 2027 11:25:06.081   06 Jun 2027 11:25:09.024             2.943          1444.938
       154   06 Jun 2027 11:25:53.934   06 Jun 2027 11:25:59.267             5.333          1403.438
       155   07 Jun 2027 03:43:30.501   07 Jun 2027 03:45:26.918           116.417         58208.500
       156   07 Jun 2027 03:45:57.142   07 Jun 2027 03:46:02.808             5.666          2833.000
       157   07 Jun 2027 03:49:39.048   07 Jun 2027 03:49:43.567             4.519          2259.500
       158   07 Jun 2027 03:49:57.048   07 Jun 2027 03:50:00.623             3.575          1787.500
       159   07 Jun 2027 05:09:17.119   07 Jun 2027 05:09:52.730            35.611         17805.500
       160   07 Jun 2027 05:20:31.072   07 Jun 2027 05:21:23.141            52.069         26034.500
       161   07 Jun 2027 05:23:10.726   07 Jun 2027 05:23:27.771            17.045          8522.500
       162   07 Jun 2027 06:43:07.712   07 Jun 2027 06:44:22.894            75.182         37591.000
       163   07 Jun 2027 06:45:15.282   07 Jun 2027 06:45:15.282             0.000             0.000
       164   07 Jun 2027 06:45:36.362   07 Jun 2027 06:45:55.526            19.164          9582.000
       165   07 Jun 2027 08:18:42.314   07 Jun 2027 08:19:10.230            27.916         12394.000
       166   07 Jun 2027 08:20:08.923   07 Jun 2027 08:20:16.671             7.748           986.062
       167   07 Jun 2027 08:20:56.519   07 Jun 2027 08:21:00.935             4.416           984.125
       168   07 Jun 2027 08:21:58.598   07 Jun 2027 08:22:04.640             6.042          1643.812
       169   07 Jun 2027 08:22:28.449   07 Jun 2027 08:22:29.528             1.079            57.875
       170   07 Jun 2027 08:23:05.729   07 Jun 2027 08:23:05.729             0.000             0.000
       171   07 Jun 2027 09:54:54.822   07 Jun 2027 09:54:59.574             4.752          2376.000
       172   07 Jun 2027 09:58:07.649   07 Jun 2027 09:58:25.764            18.115          8195.000
       173   07 Jun 2027 09:59:05.463   07 Jun 2027 09:59:16.274            10.811          1111.000
       174   07 Jun 2027 09:59:37.392   07 Jun 2027 09:59:38.960             1.568           189.469
       175   07 Jun 2027 10:00:16.942   07 Jun 2027 10:00:20.916             3.974          1146.500
       176   07 Jun 2027 10:01:07.321   07 Jun 2027 10:01:13.012             5.691          1204.219
       177   07 Jun 2027 10:01:28.502   07 Jun 2027 10:01:33.699             5.197           350.437
       178   07 Jun 2027 10:02:13.992   07 Jun 2027 10:02:16.932             2.940          1199.594
       179   07 Jun 2027 11:32:01.206   07 Jun 2027 11:32:19.746            18.540          8639.656
       180   07 Jun 2027 11:33:24.299   07 Jun 2027 11:33:29.446             5.147          2017.281
       181   07 Jun 2027 11:33:30.955   07 Jun 2027 11:33:32.355             1.400            47.156
       182   07 Jun 2027 11:34:44.635   07 Jun 2027 11:34:46.981             2.346          1173.000
       183   07 Jun 2027 11:35:03.594   07 Jun 2027 11:35:11.992             8.398          1442.687
       184   07 Jun 2027 11:36:08.228   07 Jun 2027 11:36:12.566             4.338          1243.375
       185   07 Jun 2027 11:36:15.797   07 Jun 2027 11:36:15.797             0.000             0.000
       186   07 Jun 2027 11:36:16.233   07 Jun 2027 11:36:17.217             0.984           114.594
       187   07 Jun 2027 11:36:45.560   07 Jun 2027 11:36:46.021             0.461           230.500
       188   07 Jun 2027 11:38:20.275   07 Jun 2027 11:38:23.122             2.847          1423.500
       189   08 Jun 2027 03:55:59.672   08 Jun 2027 03:57:34.250            94.578         47289.000
       190   08 Jun 2027 03:57:45.979   08 Jun 2027 03:58:13.145            27.166         13583.000
       191   08 Jun 2027 04:00:04.526   08 Jun 2027 04:00:04.526             0.000             0.000
       192   08 Jun 2027 04:02:23.124   08 Jun 2027 04:02:31.539             8.415          4207.500
       193   08 Jun 2027 05:20:50.941   08 Jun 2027 05:21:25.124            34.183         17091.500
       194   08 Jun 2027 05:22:01.269   08 Jun 2027 05:22:24.679            23.410         11705.000
       195   08 Jun 2027 05:32:34.032   08 Jun 2027 05:32:58.954            24.922         12461.000
       196   08 Jun 2027 06:54:49.768   08 Jun 2027 06:55:56.574            66.806         33403.000
       197   08 Jun 2027 06:56:47.189   08 Jun 2027 06:57:30.332            43.143         21204.375
       198   08 Jun 2027 08:29:49.139   08 Jun 2027 08:30:09.413            20.274          9450.156
       199   08 Jun 2027 08:30:16.724   08 Jun 2027 08:30:17.911             1.187           228.469
       200   08 Jun 2027 08:31:00.375   08 Jun 2027 08:31:02.651             2.276           827.750
       201   08 Jun 2027 08:32:09.901   08 Jun 2027 08:32:14.054             4.153          1746.688
       202   08 Jun 2027 08:32:20.846   08 Jun 2027 08:32:22.066             1.220           212.250
       203   08 Jun 2027 08:33:29.146   08 Jun 2027 08:33:31.601             2.455          1227.500
       204   08 Jun 2027 08:34:13.533   08 Jun 2027 08:34:21.118             7.585          1397.625
       205   08 Jun 2027 08:34:29.449   08 Jun 2027 08:34:31.883             2.434           186.438
       206   08 Jun 2027 08:35:01.746   08 Jun 2027 08:35:01.746             0.000             0.000
       207   08 Jun 2027 08:35:36.073   08 Jun 2027 08:35:41.412             5.339          1952.000
       208   08 Jun 2027 08:36:15.963   08 Jun 2027 08:36:18.103             2.140          1070.000
       209   08 Jun 2027 08:36:48.838   08 Jun 2027 08:36:50.090             1.252           626.000
       210   08 Jun 2027 08:37:51.150   08 Jun 2027 08:37:58.338             7.188          2252.313
       211   08 Jun 2027 10:09:08.046   08 Jun 2027 10:09:24.945            16.899          8096.437
       212   08 Jun 2027 10:11:42.751   08 Jun 2027 10:11:48.026             5.275          2527.625
       213   08 Jun 2027 10:12:07.517   08 Jun 2027 10:12:10.959             3.442            92.344
       214   08 Jun 2027 10:12:17.711   08 Jun 2027 10:12:18.826             1.115           211.000
       215   08 Jun 2027 10:12:29.731   08 Jun 2027 10:12:31.989             2.258           324.094
       216   08 Jun 2027 10:13:30.399   08 Jun 2027 10:13:33.458             3.059          1209.719
       217   08 Jun 2027 10:13:50.752   08 Jun 2027 10:13:55.278             4.526           268.344
       218   08 Jun 2027 10:14:13.524   08 Jun 2027 10:14:19.994             6.470           568.750
       219   08 Jun 2027 11:44:01.987   08 Jun 2027 11:44:15.227            13.240          6123.688
       220   08 Jun 2027 11:45:33.750   08 Jun 2027 11:45:42.810             9.060          2420.938
       221   08 Jun 2027 11:45:54.468   08 Jun 2027 11:45:56.791             2.323           178.719
       222   08 Jun 2027 11:46:13.625   08 Jun 2027 11:46:15.932             2.307           319.750
       223   08 Jun 2027 11:46:51.748   08 Jun 2027 11:46:51.748             0.000             0.000
       224   08 Jun 2027 11:47:19.195   08 Jun 2027 11:47:27.262             8.067          1406.031
       225   08 Jun 2027 11:47:42.853   08 Jun 2027 11:47:44.725             1.872           487.219
       226   08 Jun 2027 11:47:58.741   08 Jun 2027 11:47:58.767             0.026            13.000
       227   08 Jun 2027 11:48:04.375   08 Jun 2027 11:48:07.549             3.174           600.250
       228   08 Jun 2027 11:48:37.161   08 Jun 2027 11:48:39.050             1.889           850.250
       229   08 Jun 2027 11:49:16.657   08 Jun 2027 11:49:21.620             4.963           913.687
       230   08 Jun 2027 11:50:18.712   08 Jun 2027 11:50:24.319             5.607          1784.125
       231   09 Jun 2027 04:08:01.581   09 Jun 2027 04:09:50.731           109.150         54575.000
       232   09 Jun 2027 04:12:04.927   09 Jun 2027 04:12:19.168            14.241          7120.500
       233   09 Jun 2027 04:12:47.753   09 Jun 2027 04:12:55.351             7.598          3799.000
       234   09 Jun 2027 04:14:59.963   09 Jun 2027 04:15:03.803             3.840          1920.000
       235   09 Jun 2027 05:32:23.172   09 Jun 2027 05:33:45.021            81.849         40924.500
       236   09 Jun 2027 05:44:40.133   09 Jun 2027 05:44:58.541            18.408          9204.000
       237   09 Jun 2027 07:06:29.922   09 Jun 2027 07:07:43.241            73.319         36659.500
       238   09 Jun 2027 07:08:32.973   09 Jun 2027 07:09:10.146            37.173         18586.500
       239   09 Jun 2027 07:11:03.180   09 Jun 2027 07:11:08.744             5.564          2782.000
       240   09 Jun 2027 08:41:17.739   09 Jun 2027 08:41:39.925            22.186          8118.937
       241   09 Jun 2027 08:42:02.636   09 Jun 2027 08:42:04.388             1.752           450.156
       242   09 Jun 2027 08:43:08.492   09 Jun 2027 08:43:14.463             5.971          2003.250
       243   09 Jun 2027 08:44:44.001   09 Jun 2027 08:44:50.018             6.017          2704.687
       244   09 Jun 2027 08:45:16.709   09 Jun 2027 08:45:19.775             3.066           390.125
       245   09 Jun 2027 08:46:56.131   09 Jun 2027 08:47:03.728             7.597          2592.438
       246   09 Jun 2027 08:47:58.224   09 Jun 2027 08:48:00.776             2.552          1276.000
       247   09 Jun 2027 08:48:04.397   09 Jun 2027 08:48:12.690             8.293           540.156
       248   09 Jun 2027 08:48:27.490   09 Jun 2027 08:48:27.490             0.000             0.000
       249   09 Jun 2027 08:49:08.894   09 Jun 2027 08:49:15.908             7.014          1756.375
       250   09 Jun 2027 08:49:43.242   09 Jun 2027 08:49:44.975             1.733           761.125
       251   09 Jun 2027 10:19:09.239   09 Jun 2027 10:19:24.220            14.981          6676.625
       252   09 Jun 2027 10:19:28.718   09 Jun 2027 10:19:30.569             1.851            73.125
       253   09 Jun 2027 10:20:04.566   09 Jun 2027 10:20:06.914             2.348          1062.406
       254   09 Jun 2027 10:20:35.687   09 Jun 2027 10:20:38.684             2.997           458.469
       255   09 Jun 2027 10:20:46.529   09 Jun 2027 10:20:46.899             0.370            45.469
       256   09 Jun 2027 10:21:14.232   09 Jun 2027 10:21:16.352             2.120           830.000
       257   09 Jun 2027 10:22:13.087   09 Jun 2027 10:22:17.908             4.821          1403.719
       258   09 Jun 2027 10:23:25.999   09 Jun 2027 10:23:29.914             3.915          1605.344
       259   09 Jun 2027 10:25:05.859   09 Jun 2027 10:25:13.527             7.668          2998.281
       260   09 Jun 2027 10:25:59.340   09 Jun 2027 10:26:02.759             3.419          1093.750
       261   09 Jun 2027 11:55:53.765   09 Jun 2027 11:56:05.326            11.561          5780.500
       262   09 Jun 2027 11:56:25.595   09 Jun 2027 11:56:29.380             3.785          1710.469
       263   09 Jun 2027 11:58:42.361   09 Jun 2027 11:58:51.064             8.703          4131.125
       264   09 Jun 2027 11:59:06.252   09 Jun 2027 11:59:07.012             0.760           254.719
       265   10 Jun 2027 04:20:24.500   10 Jun 2027 04:21:47.365            82.865         41432.500
       266   10 Jun 2027 04:23:01.961   10 Jun 2027 04:23:20.422            18.461          9230.500
       267   10 Jun 2027 04:24:45.453   10 Jun 2027 04:25:18.168            32.715         16357.500
       268   10 Jun 2027 05:44:21.016   10 Jun 2027 05:45:58.701            97.685         48842.500
       269   10 Jun 2027 07:20:18.587   10 Jun 2027 07:22:12.970           114.383         56509.844
       270   10 Jun 2027 07:23:28.340   10 Jun 2027 07:23:28.340             0.000             0.000
       271   10 Jun 2027 08:54:06.972   10 Jun 2027 08:54:22.885            15.913          6454.906
       272   10 Jun 2027 08:56:08.774   10 Jun 2027 08:56:10.826             2.052          1021.031
       273   10 Jun 2027 09:00:28.673   10 Jun 2027 09:00:47.649            18.976          7792.469
       274   10 Jun 2027 09:01:54.193   10 Jun 2027 09:01:59.199             5.006          2079.500
       275   10 Jun 2027 10:31:16.510   10 Jun 2027 10:31:33.351            16.841          7574.375
       276   10 Jun 2027 10:32:02.900   10 Jun 2027 10:32:04.426             1.526           440.750
       277   10 Jun 2027 10:32:23.871   10 Jun 2027 10:32:25.072             1.201           193.656
       278   10 Jun 2027 10:32:27.818   10 Jun 2027 10:32:29.832             2.014            18.187
       279   10 Jun 2027 10:34:05.760   10 Jun 2027 10:34:12.023             6.263          2421.844
       280   10 Jun 2027 10:34:15.490   10 Jun 2027 10:34:23.522             8.032           108.344
       281   10 Jun 2027 10:34:31.372   10 Jun 2027 10:34:34.745             3.373           245.312
       282   10 Jun 2027 10:34:51.095   10 Jun 2027 10:34:53.883             2.788           334.563
       283   10 Jun 2027 10:35:42.788   10 Jun 2027 10:35:45.037             2.249           686.312
       284   10 Jun 2027 10:36:06.938   10 Jun 2027 10:36:09.549             2.611           684.406
       285   10 Jun 2027 10:36:22.905   10 Jun 2027 10:36:24.693             1.788           393.094
       286   10 Jun 2027 10:36:36.794   10 Jun 2027 10:36:37.943             1.149           252.094
       287   10 Jun 2027 10:36:43.690   10 Jun 2027 10:36:44.373             0.683           179.594
       288   10 Jun 2027 10:36:58.126   10 Jun 2027 10:36:58.389             0.263           131.500
       289   10 Jun 2027 10:37:06.221   10 Jun 2027 10:37:11.663             5.442           249.875
       290   10 Jun 2027 10:37:58.202   10 Jun 2027 10:38:01.269             3.067          1454.344
       291   10 Jun 2027 10:38:02.877   10 Jun 2027 10:38:04.297             1.420            19.188
       292   11 Jun 2027 03:00:00.000   11 Jun 2027 03:00:28.471            28.471         14235.500
       293   11 Jun 2027 04:32:51.622   11 Jun 2027 04:34:04.140            72.518         36259.000
       294   11 Jun 2027 04:34:46.450   11 Jun 2027 04:35:01.936            15.486          7743.000
       295   11 Jun 2027 04:35:37.151   11 Jun 2027 04:36:10.519            33.368         16684.000
       296   11 Jun 2027 05:56:13.688   11 Jun 2027 05:57:29.282            75.594         37797.000
       297   11 Jun 2027 05:57:58.467   11 Jun 2027 05:57:58.467             0.000             0.000
       298   11 Jun 2027 05:58:30.807   11 Jun 2027 05:58:37.124             6.317          3158.500
       299   11 Jun 2027 07:32:36.019   11 Jun 2027 07:34:28.100           112.081         56040.500
       300   11 Jun 2027 09:06:28.968   11 Jun 2027 09:06:48.425            19.457          7389.875
       301   11 Jun 2027 09:07:22.085   11 Jun 2027 09:07:24.677             2.592          1049.531
       302   11 Jun 2027 09:09:12.560   11 Jun 2027 09:09:21.130             8.570          2012.188
       303   11 Jun 2027 09:11:47.000   11 Jun 2027 09:11:51.840             4.840          2420.000
       304   11 Jun 2027 09:14:07.558   11 Jun 2027 09:14:21.114            13.556          6379.625
       305   11 Jun 2027 09:14:31.600   11 Jun 2027 09:14:32.141             0.541           198.687
       306   11 Jun 2027 10:43:42.978   11 Jun 2027 10:43:56.308            13.330          6643.094
       307   11 Jun 2027 10:44:25.079   11 Jun 2027 10:44:29.929             4.850           893.281
       308   11 Jun 2027 10:45:55.996   11 Jun 2027 10:46:02.314             6.318          1484.563
       309   11 Jun 2027 10:46:16.271   11 Jun 2027 10:46:19.987             3.716           137.313
       310   11 Jun 2027 10:47:12.857   11 Jun 2027 10:47:20.509             7.652          1501.875
       311   11 Jun 2027 10:48:26.551   11 Jun 2027 10:48:32.647             6.096          1994.281
       312   11 Jun 2027 10:48:46.347   11 Jun 2027 10:48:47.931             1.584           195.187
       313   11 Jun 2027 10:48:52.219   11 Jun 2027 10:48:53.758             1.539            67.438
       314   11 Jun 2027 10:49:02.836   11 Jun 2027 10:49:03.484             0.648           238.812
       315   11 Jun 2027 10:49:27.265   11 Jun 2027 10:49:29.335             2.070           499.906
       316   11 Jun 2027 10:49:56.065   11 Jun 2027 10:50:01.163             5.098           298.563
       317   11 Jun 2027 10:50:17.073   11 Jun 2027 10:50:20.613             3.540           476.031
       318   12 Jun 2027 03:06:28.769   12 Jun 2027 03:06:31.894             3.125          1562.500
       319   12 Jun 2027 03:06:57.038   12 Jun 2027 03:07:42.710            45.672         22836.000
       320   12 Jun 2027 03:07:47.953   12 Jun 2027 03:08:05.736            17.783          8891.500
       321   12 Jun 2027 03:08:12.250   12 Jun 2027 03:08:12.250             0.000             0.000
       322   12 Jun 2027 03:08:14.510   12 Jun 2027 03:08:14.524             0.014             7.000
       323   12 Jun 2027 03:08:37.130   12 Jun 2027 03:08:49.615            12.485          6242.500
       324   12 Jun 2027 03:09:47.773   12 Jun 2027 03:09:51.090             3.317          1658.500
       325   12 Jun 2027 03:11:26.748   12 Jun 2027 03:11:33.361             6.613          3306.500
       326   12 Jun 2027 03:12:22.881   12 Jun 2027 03:12:30.764             7.883          3941.500
       327   12 Jun 2027 04:45:08.929   12 Jun 2027 04:46:27.738            78.809         39404.500
       328   12 Jun 2027 04:47:14.303   12 Jun 2027 04:47:16.296             1.993           996.500
       329   12 Jun 2027 04:48:03.799   12 Jun 2027 04:48:12.527             8.728          4364.000
       330   12 Jun 2027 04:48:23.522   12 Jun 2027 04:48:23.522             0.000             0.000
       331   12 Jun 2027 06:08:02.983   12 Jun 2027 06:09:09.189            66.206         33103.000
       332   12 Jun 2027 07:44:39.498   12 Jun 2027 07:46:05.545            86.047         43023.500
       333   12 Jun 2027 07:46:20.553   12 Jun 2027 07:46:24.823             4.270          2031.281
       334   12 Jun 2027 09:19:46.732   12 Jun 2027 09:20:02.376            15.644          6920.625
       335   12 Jun 2027 09:20:45.429   12 Jun 2027 09:20:45.429             0.000             0.000
       336   12 Jun 2027 09:21:01.241   12 Jun 2027 09:21:06.102             4.861          1107.344
       337   12 Jun 2027 09:22:06.979   12 Jun 2027 09:22:10.129             3.150          1377.594
       338   12 Jun 2027 09:22:21.395   12 Jun 2027 09:22:21.930             0.535           158.781
       339   12 Jun 2027 09:23:59.635   12 Jun 2027 09:24:06.899             7.264          2446.125
       340   12 Jun 2027 09:24:34.603   12 Jun 2027 09:24:37.181             2.578           543.062
       341   12 Jun 2027 09:24:41.386   12 Jun 2027 09:24:43.370             1.984           131.406
       342   12 Jun 2027 09:25:09.740   12 Jun 2027 09:25:10.591             0.851           346.750
       343   12 Jun 2027 09:25:44.480   12 Jun 2027 09:25:48.213             3.733          1004.719
       344   12 Jun 2027 09:26:31.030   12 Jun 2027 09:26:34.836             3.806          1338.031
       345   12 Jun 2027 10:56:07.202   12 Jun 2027 10:56:18.858            11.656          5159.969
       346   12 Jun 2027 10:56:43.733   12 Jun 2027 10:56:46.141             2.408           542.188
       347   12 Jun 2027 10:57:42.864   12 Jun 2027 10:57:52.697             9.833          1725.719
       348   12 Jun 2027 10:58:23.884   12 Jun 2027 10:58:26.596             2.712           708.312
       349   12 Jun 2027 10:58:27.502   12 Jun 2027 10:58:29.233             1.731            28.312
       350   12 Jun 2027 10:58:53.053   12 Jun 2027 10:58:54.541             1.488           508.469
       351   12 Jun 2027 10:59:26.339   12 Jun 2027 10:59:31.412             5.073           894.031
       352   12 Jun 2027 11:00:11.124   12 Jun 2027 11:00:15.557             4.433          1171.406
       353   12 Jun 2027 11:01:27.724   12 Jun 2027 11:01:32.836             5.112          2255.219
       354   12 Jun 2027 11:01:42.218   12 Jun 2027 11:01:44.284             2.066           194.625
       355   12 Jun 2027 11:01:57.540   12 Jun 2027 11:02:02.930             5.390           288.906
       356   12 Jun 2027 11:02:08.442   12 Jun 2027 11:02:09.032             0.590            58.000
       357   13 Jun 2027 03:18:36.702   13 Jun 2027 03:19:38.288            61.586         30793.000
       358   13 Jun 2027 03:19:45.113   13 Jun 2027 03:19:58.437            13.324          6662.000
       359   13 Jun 2027 03:20:03.217   13 Jun 2027 03:20:07.152             3.935          1967.500
       360   13 Jun 2027 03:20:17.809   13 Jun 2027 03:20:22.644             4.835          2417.500
       361   13 Jun 2027 03:21:59.003   13 Jun 2027 03:22:05.408             6.405          3202.500
       362   13 Jun 2027 03:22:19.670   13 Jun 2027 03:22:36.092            16.422          8211.000
       363   13 Jun 2027 03:22:53.080   13 Jun 2027 03:22:54.566             1.486           743.000
       364   13 Jun 2027 03:23:27.060   13 Jun 2027 03:23:32.387             5.327          2663.500
       365   13 Jun 2027 03:23:43.170   13 Jun 2027 03:23:47.435             4.265          2132.500
       366   13 Jun 2027 04:56:54.418   13 Jun 2027 04:57:28.251            33.833         16916.500
       367   13 Jun 2027 04:57:42.969   13 Jun 2027 04:58:06.268            23.299         11649.500
       368   13 Jun 2027 04:58:35.965   13 Jun 2027 04:58:44.742             8.777          4388.500
       369   13 Jun 2027 04:59:55.912   13 Jun 2027 05:00:06.367            10.455          5227.500
       370   13 Jun 2027 06:20:16.323   13 Jun 2027 06:21:06.933            50.610         25305.000
       371   13 Jun 2027 06:21:11.356   13 Jun 2027 06:21:15.062             3.706          1853.000
       372   13 Jun 2027 06:21:53.109   13 Jun 2027 06:22:09.622            16.513          8256.500
       373   13 Jun 2027 07:56:50.658   13 Jun 2027 07:58:03.673            73.015         36177.594
       374   13 Jun 2027 07:58:57.702   13 Jun 2027 07:59:02.445             4.743          1672.844
       375   13 Jun 2027 07:59:52.091   13 Jun 2027 07:59:55.469             3.378          1359.844
       376   13 Jun 2027 09:32:15.084   13 Jun 2027 09:32:28.951            13.867          6095.031
       377   13 Jun 2027 09:33:03.634   13 Jun 2027 09:33:07.700             4.066          1083.844
       378   13 Jun 2027 09:33:29.012   13 Jun 2027 09:33:29.236             0.224           107.094
       379   13 Jun 2027 09:33:29.724   13 Jun 2027 09:33:29.874             0.150             2.500
       380   13 Jun 2027 09:34:56.795   13 Jun 2027 09:34:56.795             0.000             0.000
       381   13 Jun 2027 09:35:11.325   13 Jun 2027 09:35:14.834             3.509          1652.250
       382   13 Jun 2027 09:36:04.170   13 Jun 2027 09:36:09.763             5.593           942.688
       383   13 Jun 2027 09:36:40.515   13 Jun 2027 09:36:41.850             1.335           541.375
       384   13 Jun 2027 09:37:10.966   13 Jun 2027 09:37:11.330             0.364           182.000
       385   13 Jun 2027 09:37:29.710   13 Jun 2027 09:37:33.340             3.630          1302.250
       386   13 Jun 2027 09:38:25.995   13 Jun 2027 09:38:29.400             3.405          1371.375
       387   13 Jun 2027 11:08:21.385   13 Jun 2027 11:08:33.926            12.541          6159.219
       388   13 Jun 2027 11:08:59.473   13 Jun 2027 11:09:00.029             0.556           164.969
       389   13 Jun 2027 11:10:10.995   13 Jun 2027 11:10:14.990             3.995          1429.406
       390   13 Jun 2027 11:10:23.307   13 Jun 2027 11:10:23.460             0.153            76.500
       391   13 Jun 2027 11:10:50.314   13 Jun 2027 11:10:52.700             2.386          1022.594
       392   13 Jun 2027 11:11:33.331   13 Jun 2027 11:11:35.478             2.147          1046.219
       393   13 Jun 2027 11:12:17.886   13 Jun 2027 11:12:20.866             2.980          1109.531
       394   13 Jun 2027 11:13:24.185   13 Jun 2027 11:13:26.561             2.376          1188.000
       395   13 Jun 2027 11:13:48.396   13 Jun 2027 11:13:53.285             4.889          1473.062
       396   13 Jun 2027 11:14:13.810   13 Jun 2027 11:14:18.546             4.736           469.563
