uniorb/output/strategy_1/Camera/Camera_KinoSat_110701.txt

KinoSat_110701
-------------------------
    Access    *     Start Time (UTCG)     *     Stop Time (UTCG)  *   Duration (s) *   Data (Mbytes)
         1   01 Jun 2027 04:18:17.478   01 Jun 2027 04:20:03.572           106.094         53047.000
         2   01 Jun 2027 04:20:18.386   01 Jun 2027 04:20:18.386             0.000             0.000
         3   01 Jun 2027 05:53:27.386   01 Jun 2027 05:55:34.015           126.629         63314.500
         4   01 Jun 2027 05:56:03.864   01 Jun 2027 05:56:19.525            15.661          7830.500
         5   01 Jun 2027 05:57:38.171   01 Jun 2027 05:57:44.242             6.071          3035.500
         6   01 Jun 2027 05:58:55.576   01 Jun 2027 05:59:07.032            11.456          5728.000
         7   01 Jun 2027 05:59:57.335   01 Jun 2027 05:59:57.933             0.598           299.000
         8   01 Jun 2027 07:29:52.621   01 Jun 2027 07:32:35.499           162.878         81439.000
         9   01 Jun 2027 07:33:39.679   01 Jun 2027 07:33:45.466             5.787          2893.500
        10   01 Jun 2027 09:07:07.156   01 Jun 2027 09:09:07.873           120.717         60358.500
        11   01 Jun 2027 09:09:20.567   01 Jun 2027 09:09:36.681            16.114          8057.000
        12   01 Jun 2027 09:10:48.560   01 Jun 2027 09:11:08.315            19.755          9877.500
        13   01 Jun 2027 10:43:21.900   01 Jun 2027 10:45:05.554           103.654         51827.000
        14   01 Jun 2027 10:45:06.520   01 Jun 2027 10:45:28.566            22.046         11023.000
        15   01 Jun 2027 10:47:58.794   01 Jun 2027 10:48:03.649             4.855          2427.500
        16   02 Jun 2027 04:30:10.377   02 Jun 2027 04:30:17.692             7.315          3657.500
        17   02 Jun 2027 04:30:44.360   02 Jun 2027 04:31:05.986            21.626         10813.000
        18   02 Jun 2027 04:31:46.801   02 Jun 2027 04:32:42.025            55.224         27612.000
        19   02 Jun 2027 04:33:35.476   02 Jun 2027 04:33:48.777            13.301          6650.500
        20   02 Jun 2027 04:33:53.495   02 Jun 2027 04:34:07.808            14.313          7156.500
        21   02 Jun 2027 06:05:06.950   02 Jun 2027 06:06:57.116           110.166         55083.000
        22   02 Jun 2027 06:07:42.395   02 Jun 2027 06:07:43.907             1.512           756.000
        23   02 Jun 2027 06:07:50.108   02 Jun 2027 06:08:05.336            15.228          7614.000
        24   02 Jun 2027 06:11:19.772   02 Jun 2027 06:11:23.906             4.134          2067.000
        25   02 Jun 2027 06:12:08.412   02 Jun 2027 06:12:12.407             3.995          1997.500
        26   02 Jun 2027 07:41:24.998   02 Jun 2027 07:43:40.059           135.061         67530.500
        27   02 Jun 2027 07:44:11.741   02 Jun 2027 07:44:16.694             4.953          2476.500
        28   02 Jun 2027 07:44:27.880   02 Jun 2027 07:44:28.009             0.129            64.500
        29   02 Jun 2027 07:44:41.939   02 Jun 2027 07:44:45.263             3.324          1662.000
        30   02 Jun 2027 07:45:26.694   02 Jun 2027 07:45:27.379             0.685           342.500
        31   02 Jun 2027 07:46:07.770   02 Jun 2027 07:46:21.245            13.475          6737.500
        32   02 Jun 2027 09:19:40.866   02 Jun 2027 09:22:03.044           142.178         71089.000
        33   02 Jun 2027 09:22:17.491   02 Jun 2027 09:22:31.738            14.247          7123.500
        34   02 Jun 2027 10:55:00.873   02 Jun 2027 10:56:58.375           117.502         58751.000
        35   02 Jun 2027 10:59:46.889   02 Jun 2027 11:00:07.375            20.486         10243.000
        36   03 Jun 2027 03:04:55.630   03 Jun 2027 03:05:22.851            27.221         13610.500
        37   03 Jun 2027 04:40:29.083   03 Jun 2027 04:41:02.367            33.284         16642.000
        38   03 Jun 2027 04:41:54.246   03 Jun 2027 04:42:43.577            49.331         24665.500
        39   03 Jun 2027 04:44:25.098   03 Jun 2027 04:44:39.489            14.391          7195.500
        40   03 Jun 2027 04:44:46.464   03 Jun 2027 04:44:46.464             0.000             0.000
        41   03 Jun 2027 04:45:49.483   03 Jun 2027 04:45:56.754             7.271          3635.500
        42   03 Jun 2027 04:46:08.238   03 Jun 2027 04:46:19.270            11.032          5516.000
        43   03 Jun 2027 06:16:40.100   03 Jun 2027 06:17:53.117            73.017         36508.500
        44   03 Jun 2027 06:18:04.470   03 Jun 2027 06:18:04.470             0.000             0.000
        45   03 Jun 2027 06:18:56.333   03 Jun 2027 06:19:18.444            22.111         11055.500
        46   03 Jun 2027 06:21:42.302   03 Jun 2027 06:21:52.587            10.285          5142.500
        47   03 Jun 2027 06:22:17.041   03 Jun 2027 06:22:21.784             4.743          2371.500
        48   03 Jun 2027 06:23:59.770   03 Jun 2027 06:24:14.727            14.957          7478.500
        49   03 Jun 2027 07:53:44.292   03 Jun 2027 07:55:36.846           112.554         56277.000
        50   03 Jun 2027 07:56:29.471   03 Jun 2027 07:56:56.175            26.704         13352.000
        51   03 Jun 2027 07:57:16.623   03 Jun 2027 07:57:22.003             5.380          2690.000
        52   03 Jun 2027 07:58:41.632   03 Jun 2027 07:58:47.605             5.973          2986.500
        53   03 Jun 2027 09:31:43.493   03 Jun 2027 09:33:52.171           128.678         64339.000
        54   03 Jun 2027 09:34:52.296   03 Jun 2027 09:34:54.313             2.017          1008.500
        55   03 Jun 2027 09:35:31.872   03 Jun 2027 09:35:34.788             2.916          1458.000
        56   03 Jun 2027 11:04:52.817   03 Jun 2027 11:05:50.680            57.863         28513.969
        57   03 Jun 2027 11:06:18.090   03 Jun 2027 11:06:20.396             2.306           840.375
        58   03 Jun 2027 11:06:39.428   03 Jun 2027 11:06:41.157             1.729           406.906
        59   03 Jun 2027 11:07:00.801   03 Jun 2027 11:07:01.225             0.424           212.000
        60   03 Jun 2027 11:07:10.099   03 Jun 2027 11:07:10.501             0.402           201.000
        61   03 Jun 2027 11:08:07.949   03 Jun 2027 11:08:19.899            11.950          2017.844
        62   03 Jun 2027 11:08:41.661   03 Jun 2027 11:08:42.550             0.889           444.500
        63   03 Jun 2027 11:08:52.310   03 Jun 2027 11:08:55.560             3.250           540.563
        64   03 Jun 2027 11:09:02.416   03 Jun 2027 11:09:03.983             1.567           214.250
        65   03 Jun 2027 11:10:01.092   03 Jun 2027 11:10:05.191             4.099          1779.750
        66   03 Jun 2027 11:11:21.360   03 Jun 2027 11:11:21.497             0.137            68.500
        67   03 Jun 2027 11:11:29.584   03 Jun 2027 11:11:38.514             8.930          2324.156
        68   03 Jun 2027 11:12:17.488   03 Jun 2027 11:12:18.972             1.484           405.781
        69   03 Jun 2027 11:12:28.372   03 Jun 2027 11:12:31.038             2.666           293.750
        70   03 Jun 2027 11:12:37.287   03 Jun 2027 11:12:37.287             0.000             0.000
        71   04 Jun 2027 03:16:31.437   04 Jun 2027 03:16:40.037             8.600          4300.000
        72   04 Jun 2027 03:17:34.939   04 Jun 2027 03:17:41.430             6.491          3245.500
        73   04 Jun 2027 03:18:32.193   04 Jun 2027 03:18:47.903            15.710          7855.000
        74   04 Jun 2027 03:21:26.239   04 Jun 2027 03:21:26.239             0.000             0.000
        75   04 Jun 2027 04:51:35.961   04 Jun 2027 04:53:19.039           103.078         51539.000
        76   04 Jun 2027 04:53:38.846   04 Jun 2027 04:53:45.591             6.745          3372.500
        77   04 Jun 2027 04:54:07.550   04 Jun 2027 04:54:08.762             1.212           606.000
        78   04 Jun 2027 04:56:15.581   04 Jun 2027 04:56:15.581             0.000             0.000
        79   04 Jun 2027 04:57:31.725   04 Jun 2027 04:57:45.920            14.195          7097.500
        80   04 Jun 2027 04:57:48.030   04 Jun 2027 04:57:50.883             2.853          1426.500
        81   04 Jun 2027 04:57:53.169   04 Jun 2027 04:58:03.480            10.311          5155.500
        82   04 Jun 2027 04:59:30.439   04 Jun 2027 04:59:39.495             9.056          4528.000
        83   04 Jun 2027 04:59:48.293   04 Jun 2027 04:59:51.699             3.406          1703.000
        84   04 Jun 2027 06:28:56.862   04 Jun 2027 06:30:27.037            90.175         45087.500
        85   04 Jun 2027 06:30:56.922   04 Jun 2027 06:31:07.535            10.613          5306.500
        86   04 Jun 2027 06:31:11.721   04 Jun 2027 06:31:32.556            20.835         10417.500
        87   04 Jun 2027 06:34:01.991   04 Jun 2027 06:34:10.398             8.407          4203.500
        88   04 Jun 2027 06:36:16.961   04 Jun 2027 06:36:17.376             0.415           207.500
        89   04 Jun 2027 08:05:46.038   04 Jun 2027 08:07:18.699            92.661         43693.282
        90   04 Jun 2027 08:08:57.103   04 Jun 2027 08:09:07.337            10.234          2929.625
        91   04 Jun 2027 08:09:33.767   04 Jun 2027 08:09:35.315             1.548           283.844
        92   04 Jun 2027 08:09:44.339   04 Jun 2027 08:09:45.828             1.489           141.875
        93   04 Jun 2027 08:10:01.643   04 Jun 2027 08:10:07.516             5.873           494.219
        94   04 Jun 2027 08:11:04.157   04 Jun 2027 08:11:08.166             4.009          1770.031
        95   04 Jun 2027 08:11:11.580   04 Jun 2027 08:11:11.818             0.238            90.656
        96   04 Jun 2027 09:43:42.941   04 Jun 2027 09:44:02.210            19.269          9634.500
        97   04 Jun 2027 09:44:24.742   04 Jun 2027 09:44:29.433             4.691          1474.062
        98   04 Jun 2027 09:45:27.360   04 Jun 2027 09:45:31.457             4.097          1585.969
        99   04 Jun 2027 09:46:13.934   04 Jun 2027 09:46:18.367             4.433          1293.625
       100   04 Jun 2027 09:46:37.052   04 Jun 2027 09:46:38.734             1.682           583.906
       101   04 Jun 2027 09:46:57.309   04 Jun 2027 09:47:00.130             2.821           580.469
       102   04 Jun 2027 11:17:19.408   04 Jun 2027 11:17:26.420             7.012          1989.125
       103   04 Jun 2027 11:18:47.328   04 Jun 2027 11:18:51.248             3.920          1960.000
       104   04 Jun 2027 11:19:27.402   04 Jun 2027 11:19:29.870             2.468          1140.844
       105   04 Jun 2027 11:20:58.330   04 Jun 2027 11:21:04.097             5.767          2561.875
       106   04 Jun 2027 11:21:36.493   04 Jun 2027 11:21:37.668             1.175           587.500
       107   04 Jun 2027 11:22:01.572   04 Jun 2027 11:22:08.543             6.971           903.594
       108   04 Jun 2027 11:22:18.754   04 Jun 2027 11:22:19.615             0.861           206.156
       109   04 Jun 2027 11:22:34.927   04 Jun 2027 11:22:35.009             0.082            41.000
       110   04 Jun 2027 11:23:13.434   04 Jun 2027 11:23:17.755             4.321          1449.625
       111   04 Jun 2027 11:24:23.607   04 Jun 2027 11:24:28.473             4.866          2010.063
       112   05 Jun 2027 03:28:15.694   05 Jun 2027 03:29:18.912            63.218         31609.000
       113   05 Jun 2027 05:03:04.160   05 Jun 2027 05:05:18.329           134.169         67084.500
       114   05 Jun 2027 05:06:56.483   05 Jun 2027 05:06:57.369             0.886           443.000
       115   05 Jun 2027 05:07:53.936   05 Jun 2027 05:08:01.132             7.196          3598.000
       116   05 Jun 2027 05:09:51.050   05 Jun 2027 05:09:51.050             0.000             0.000
       117   05 Jun 2027 05:11:42.206   05 Jun 2027 05:11:43.760             1.554           777.000
       118   05 Jun 2027 05:11:46.108   05 Jun 2027 05:11:50.669             4.561          2280.500
       119   05 Jun 2027 05:12:00.262   05 Jun 2027 05:12:05.448             5.186          2593.000
       120   05 Jun 2027 06:40:52.673   05 Jun 2027 06:42:02.320            69.647         34823.500
       121   05 Jun 2027 06:43:03.396   05 Jun 2027 06:43:36.106            32.710         16355.000
       122   05 Jun 2027 06:44:13.525   05 Jun 2027 06:44:26.966            13.441          6720.500
       123   05 Jun 2027 06:44:47.567   05 Jun 2027 06:44:50.519             2.952          1476.000
       124   05 Jun 2027 08:17:37.181   05 Jun 2027 08:18:02.398            25.217         12608.500
       125   05 Jun 2027 08:18:06.408   05 Jun 2027 08:18:43.621            37.213         17782.751
       126   05 Jun 2027 08:19:26.122   05 Jun 2027 08:19:30.282             4.160          1234.000
       127   05 Jun 2027 08:19:39.706   05 Jun 2027 08:19:42.717             3.011            28.875
       128   05 Jun 2027 08:20:38.644   05 Jun 2027 08:20:41.536             2.892          1159.500
       129   05 Jun 2027 08:21:28.798   05 Jun 2027 08:21:28.798             0.000             0.000
       130   05 Jun 2027 08:21:52.686   05 Jun 2027 08:21:56.364             3.678          1704.875
       131   05 Jun 2027 08:22:20.160   05 Jun 2027 08:22:21.531             1.371           589.281
       132   05 Jun 2027 08:23:06.906   05 Jun 2027 08:23:10.237             3.331          1218.406
       133   05 Jun 2027 08:23:19.068   05 Jun 2027 08:23:19.306             0.238           119.000
       134   05 Jun 2027 08:23:42.572   05 Jun 2027 08:23:47.430             4.858           779.125
       135   05 Jun 2027 09:55:44.492   05 Jun 2027 09:56:06.982            22.490         10370.312
       136   05 Jun 2027 09:56:57.630   05 Jun 2027 09:57:01.314             3.684          1582.750
       137   05 Jun 2027 09:57:23.081   05 Jun 2027 09:57:25.501             2.420           340.500
       138   05 Jun 2027 09:58:24.488   05 Jun 2027 09:58:29.911             5.423          1843.344
       139   05 Jun 2027 09:58:32.629   05 Jun 2027 09:58:35.214             2.585            84.937
       140   05 Jun 2027 09:58:43.590   05 Jun 2027 09:58:45.065             1.475           261.750
       141   05 Jun 2027 09:59:06.316   05 Jun 2027 09:59:09.592             3.276           664.094
       142   05 Jun 2027 11:29:35.569   05 Jun 2027 11:29:42.496             6.927          3282.563
       143   05 Jun 2027 11:30:54.892   05 Jun 2027 11:30:58.460             3.568          1784.000
       144   05 Jun 2027 11:31:44.918   05 Jun 2027 11:31:53.027             8.109          1814.094
       145   05 Jun 2027 11:32:23.605   05 Jun 2027 11:32:25.639             2.034           840.781
       146   05 Jun 2027 11:33:15.162   05 Jun 2027 11:33:22.316             7.154          1146.313
       147   05 Jun 2027 11:34:03.612   05 Jun 2027 11:34:08.925             5.313          1232.937
       148   05 Jun 2027 11:34:57.182   05 Jun 2027 11:34:59.673             2.491           964.781
       149   05 Jun 2027 11:35:18.595   05 Jun 2027 11:35:24.909             6.314           516.938
       150   06 Jun 2027 03:42:01.487   06 Jun 2027 03:42:28.351            26.864         13432.000
       151   06 Jun 2027 03:43:47.637   06 Jun 2027 03:43:59.961            12.324          6162.000
       152   06 Jun 2027 03:44:01.887   06 Jun 2027 03:44:14.868            12.981          6490.500
       153   06 Jun 2027 03:44:45.177   06 Jun 2027 03:44:45.531             0.354           177.000
       154   06 Jun 2027 03:45:51.647   06 Jun 2027 03:45:57.830             6.183          3091.500
       155   06 Jun 2027 05:15:52.450   06 Jun 2027 05:18:17.584           145.134         72567.000
       156   06 Jun 2027 05:19:04.201   06 Jun 2027 05:19:14.307            10.106          5053.000
       157   06 Jun 2027 05:20:33.712   06 Jun 2027 05:20:36.709             2.997          1498.500
       158   06 Jun 2027 05:22:06.753   06 Jun 2027 05:22:06.753             0.000             0.000
       159   06 Jun 2027 05:22:35.389   06 Jun 2027 05:22:35.856             0.467           233.500
       160   06 Jun 2027 05:23:44.787   06 Jun 2027 05:23:53.361             8.574          4287.000
       161   06 Jun 2027 06:52:59.076   06 Jun 2027 06:54:51.237           112.161         56080.500
       162   06 Jun 2027 06:55:28.124   06 Jun 2027 06:55:35.801             7.677          3313.656
       163   06 Jun 2027 06:56:39.942   06 Jun 2027 06:56:46.680             6.738          1726.375
       164   06 Jun 2027 06:59:56.625   06 Jun 2027 07:00:01.651             5.026          2513.000
       165   06 Jun 2027 07:00:09.395   06 Jun 2027 07:00:14.157             4.762          2381.000
       166   06 Jun 2027 08:30:01.260   06 Jun 2027 08:30:30.132            28.872         14243.344
       167   06 Jun 2027 08:31:21.805   06 Jun 2027 08:31:30.131             8.326          1575.594
       168   06 Jun 2027 08:31:41.558   06 Jun 2027 08:31:46.102             4.544           241.469
       169   06 Jun 2027 08:31:59.188   06 Jun 2027 08:32:00.126             0.938           408.938
       170   06 Jun 2027 08:32:59.565   06 Jun 2027 08:33:04.217             4.652          1834.969
       171   06 Jun 2027 08:33:11.935   06 Jun 2027 08:33:16.386             4.451           241.188
       172   06 Jun 2027 08:33:56.913   06 Jun 2027 08:33:59.521             2.608          1082.000
       173   06 Jun 2027 08:34:43.269   06 Jun 2027 08:34:45.326             2.057          1028.500
       174   06 Jun 2027 08:35:40.278   06 Jun 2027 08:35:49.398             9.120          1916.469
       175   06 Jun 2027 10:06:58.473   06 Jun 2027 10:07:15.392            16.919          8383.281
       176   06 Jun 2027 10:07:33.757   06 Jun 2027 10:07:36.500             2.743           306.562
       177   06 Jun 2027 10:08:47.548   06 Jun 2027 10:08:54.168             6.620          1871.781
       178   06 Jun 2027 10:09:23.103   06 Jun 2027 10:09:23.103             0.000             0.000
       179   06 Jun 2027 10:09:45.821   06 Jun 2027 10:09:52.053             6.232           831.375
       180   06 Jun 2027 10:11:16.818   06 Jun 2027 10:11:29.261            12.443          2252.844
       181   06 Jun 2027 10:11:36.468   06 Jun 2027 10:11:36.803             0.335            92.625
       182   06 Jun 2027 11:42:02.310   06 Jun 2027 11:42:06.288             3.978          1469.406
       183   06 Jun 2027 11:43:40.455   06 Jun 2027 11:43:45.899             5.444          1997.469
       184   06 Jun 2027 11:44:25.144   06 Jun 2027 11:44:28.166             3.022           890.406
       185   06 Jun 2027 11:44:40.302   06 Jun 2027 11:44:41.323             1.021           348.406
       186   06 Jun 2027 11:46:00.300   06 Jun 2027 11:46:06.591             6.291          2389.687
       187   07 Jun 2027 03:54:23.136   07 Jun 2027 03:54:48.767            25.631         12815.500
       188   07 Jun 2027 03:55:06.988   07 Jun 2027 03:55:21.073            14.085          7042.500
       189   07 Jun 2027 03:56:23.888   07 Jun 2027 03:56:45.219            21.331         10665.500
       190   07 Jun 2027 03:56:59.717   07 Jun 2027 03:57:15.239            15.522          7761.000
       191   07 Jun 2027 05:27:50.891   07 Jun 2027 05:30:00.885           129.994         64997.000
       192   07 Jun 2027 05:30:31.034   07 Jun 2027 05:30:38.730             7.696          3848.000
       193   07 Jun 2027 05:30:46.572   07 Jun 2027 05:30:48.611             2.039          1019.500
       194   07 Jun 2027 05:32:07.878   07 Jun 2027 05:32:15.790             7.912          3956.000
       195   07 Jun 2027 05:34:49.766   07 Jun 2027 05:34:51.609             1.843           921.500
       196   07 Jun 2027 05:36:18.966   07 Jun 2027 05:36:21.406             2.440          1220.000
       197   07 Jun 2027 07:05:24.810   07 Jun 2027 07:07:24.229           119.419         59709.500
       198   07 Jun 2027 07:07:45.573   07 Jun 2027 07:07:58.293            12.720          5986.470
       199   07 Jun 2027 07:08:34.654   07 Jun 2027 07:08:36.207             1.553           776.500
       200   07 Jun 2027 07:08:41.907   07 Jun 2027 07:08:49.759             7.852           537.906
       201   07 Jun 2027 07:09:06.445   07 Jun 2027 07:09:08.315             1.870           216.344
       202   07 Jun 2027 07:10:00.399   07 Jun 2027 07:10:03.913             3.514          1568.688
       203   07 Jun 2027 08:42:18.704   07 Jun 2027 08:42:49.976            31.272         13349.344
       204   07 Jun 2027 08:42:55.967   07 Jun 2027 08:42:56.493             0.526            71.156
       205   07 Jun 2027 08:43:07.016   07 Jun 2027 08:43:10.143             3.127           229.344
       206   07 Jun 2027 08:44:29.194   07 Jun 2027 08:44:37.158             7.964          2116.406
       207   07 Jun 2027 08:44:49.473   07 Jun 2027 08:44:50.641             1.168           384.844
       208   07 Jun 2027 08:45:07.028   07 Jun 2027 08:45:09.064             2.036           186.469
       209   07 Jun 2027 08:45:42.462   07 Jun 2027 08:45:45.899             3.437           757.250
       210   07 Jun 2027 08:46:34.112   07 Jun 2027 08:46:36.854             2.742          1371.000
       211   07 Jun 2027 08:47:01.123   07 Jun 2027 08:47:02.926             1.803           894.062
       212   07 Jun 2027 08:47:16.375   07 Jun 2027 08:47:21.251             4.876           420.281
       213   07 Jun 2027 08:47:33.872   07 Jun 2027 08:47:34.864             0.992           394.406
       214   07 Jun 2027 10:19:12.438   07 Jun 2027 10:19:29.617            17.179          8572.000
       215   07 Jun 2027 10:20:03.625   07 Jun 2027 10:20:05.066             1.441           595.594
       216   07 Jun 2027 10:20:20.618   07 Jun 2027 10:20:20.618             0.000             0.000
       217   07 Jun 2027 10:20:27.950   07 Jun 2027 10:20:28.554             0.604           302.000
       218   07 Jun 2027 10:21:13.671   07 Jun 2027 10:21:19.892             6.221          1823.031
       219   07 Jun 2027 10:21:40.200   07 Jun 2027 10:21:41.712             1.512           634.625
       220   07 Jun 2027 10:22:59.157   07 Jun 2027 10:23:07.878             8.721          2420.156
       221   07 Jun 2027 11:56:51.968   07 Jun 2027 11:56:58.627             6.659          2806.562
       222   07 Jun 2027 11:57:18.360   07 Jun 2027 11:57:20.955             2.595           553.000
       223   07 Jun 2027 11:57:48.822   07 Jun 2027 11:57:48.822             0.000             0.000
       224   08 Jun 2027 04:06:24.554   08 Jun 2027 04:07:14.922            50.368         25184.000
       225   08 Jun 2027 04:07:47.298   08 Jun 2027 04:07:50.220             2.922          1461.000
       226   08 Jun 2027 04:08:25.915   08 Jun 2027 04:08:31.634             5.719          2859.500
       227   08 Jun 2027 04:09:25.331   08 Jun 2027 04:09:34.776             9.445          4722.500
       228   08 Jun 2027 05:41:19.568   08 Jun 2027 05:43:27.307           127.739         63869.500
       229   08 Jun 2027 05:47:23.507   08 Jun 2027 05:47:35.615            12.108          6054.000
       230   08 Jun 2027 05:48:11.467   08 Jun 2027 05:48:17.676             6.209          3104.500
       231   08 Jun 2027 07:17:32.180   08 Jun 2027 07:19:43.403           131.223         65611.500
       232   08 Jun 2027 07:20:05.437   08 Jun 2027 07:20:11.164             5.727          1602.937
       233   08 Jun 2027 07:22:47.177   08 Jun 2027 07:22:57.453            10.276          4814.656
       234   08 Jun 2027 07:23:48.183   08 Jun 2027 07:23:51.433             3.250          1514.656
       235   08 Jun 2027 08:55:15.348   08 Jun 2027 08:55:45.358            30.010         14499.063
       236   08 Jun 2027 08:56:08.524   08 Jun 2027 08:56:11.017             2.493           596.219
       237   08 Jun 2027 08:56:37.042   08 Jun 2027 08:56:41.590             4.548           791.469
       238   08 Jun 2027 08:57:42.952   08 Jun 2027 08:57:43.371             0.419           209.500
       239   08 Jun 2027 08:58:05.247   08 Jun 2027 08:58:07.221             1.974           987.000
       240   08 Jun 2027 08:58:44.072   08 Jun 2027 08:58:47.372             3.300          1640.500
       241   08 Jun 2027 08:59:28.113   08 Jun 2027 08:59:29.671             1.558           779.000
       242   08 Jun 2027 10:31:21.654   08 Jun 2027 10:31:38.080            16.426          7820.781
       243   08 Jun 2027 10:33:02.423   08 Jun 2027 10:33:08.052             5.629          2391.969
       244   08 Jun 2027 10:34:02.469   08 Jun 2027 10:34:09.696             7.227          1676.031
       245   08 Jun 2027 10:35:04.544   08 Jun 2027 10:35:09.674             5.130          1682.687
       246   08 Jun 2027 10:35:30.576   08 Jun 2027 10:35:30.576             0.000             0.000
       247   08 Jun 2027 10:35:40.551   08 Jun 2027 10:35:43.864             3.313           964.906
       248   09 Jun 2027 04:19:33.627   09 Jun 2027 04:20:05.405            31.778         15889.000
       249   09 Jun 2027 04:20:37.018   09 Jun 2027 04:21:31.312            54.294         27147.000
       250   09 Jun 2027 04:21:49.755   09 Jun 2027 04:22:04.019            14.264          7132.000
       251   09 Jun 2027 05:53:42.177   09 Jun 2027 05:55:47.694           125.517         62758.500
       252   09 Jun 2027 05:58:28.167   09 Jun 2027 05:58:34.526             6.359          3179.500
       253   09 Jun 2027 06:00:17.770   09 Jun 2027 06:00:18.791             1.021           510.500
       254   09 Jun 2027 07:30:07.673   09 Jun 2027 07:32:11.478           123.805         61819.438
       255   09 Jun 2027 07:33:40.916   09 Jun 2027 07:33:42.896             1.980           990.000
       256   09 Jun 2027 07:34:28.854   09 Jun 2027 07:34:35.264             6.410          3181.469
       257   09 Jun 2027 09:07:22.136   09 Jun 2027 09:07:47.249            25.113         12518.375
       258   09 Jun 2027 09:08:09.530   09 Jun 2027 09:08:09.987             0.457           228.500
       259   09 Jun 2027 09:08:37.239   09 Jun 2027 09:08:41.462             4.223          1314.188
       260   09 Jun 2027 09:08:49.491   09 Jun 2027 09:08:52.612             3.121           250.906
       261   09 Jun 2027 09:09:22.690   09 Jun 2027 09:09:26.002             3.312           752.219
       262   09 Jun 2027 09:09:55.957   09 Jun 2027 09:09:58.614             2.657           647.313
       263   09 Jun 2027 09:10:51.736   09 Jun 2027 09:10:54.478             2.742          1333.344
       264   09 Jun 2027 10:43:36.641   09 Jun 2027 10:43:52.710            16.069          7611.438
       265   09 Jun 2027 10:44:08.013   09 Jun 2027 10:44:09.898             1.885           189.500
       266   09 Jun 2027 10:44:31.663   09 Jun 2027 10:44:33.074             1.411           680.156
       267   09 Jun 2027 10:45:25.973   09 Jun 2027 10:45:30.855             4.882          1653.094
       268   09 Jun 2027 10:47:06.481   09 Jun 2027 10:47:11.894             5.413          2569.281
       269   10 Jun 2027 04:30:25.116   10 Jun 2027 04:30:32.495             7.379          3689.500
       270   10 Jun 2027 04:30:58.578   10 Jun 2027 04:31:25.971            27.393         13696.500
       271   10 Jun 2027 04:32:01.477   10 Jun 2027 04:32:57.477            56.000         28000.000
       272   10 Jun 2027 04:33:49.832   10 Jun 2027 04:34:04.054            14.222          7111.000
       273   10 Jun 2027 04:34:08.524   10 Jun 2027 04:34:08.524             0.000             0.000
       274   10 Jun 2027 06:05:21.283   10 Jun 2027 06:07:00.167            98.884         49442.000
       275   10 Jun 2027 06:07:21.073   10 Jun 2027 06:07:22.946             1.873           936.500
       276   10 Jun 2027 06:10:40.699   10 Jun 2027 06:11:01.143            20.444         10222.000
       277   10 Jun 2027 06:11:07.946   10 Jun 2027 06:11:12.789             4.843          2421.500
       278   10 Jun 2027 07:41:39.932   10 Jun 2027 07:43:39.697           119.765         59681.000
       279   10 Jun 2027 07:44:14.735   10 Jun 2027 07:44:17.041             2.306          1009.156
       280   10 Jun 2027 07:45:40.824   10 Jun 2027 07:45:42.176             1.352           676.000
       281   10 Jun 2027 07:46:22.410   10 Jun 2027 07:46:29.529             7.119          3199.531
       282   10 Jun 2027 07:46:36.350   10 Jun 2027 07:46:37.175             0.825             6.688
       283   10 Jun 2027 07:47:25.387   10 Jun 2027 07:47:31.951             6.564          1429.875
       284   10 Jun 2027 09:19:55.390   10 Jun 2027 09:20:14.793            19.403          9701.500
       285   10 Jun 2027 09:20:37.713   10 Jun 2027 09:20:40.385             2.672           932.594
       286   10 Jun 2027 09:21:44.731   10 Jun 2027 09:21:52.369             7.638          1505.406
       287   10 Jun 2027 09:22:55.438   10 Jun 2027 09:23:00.918             5.480          1642.531
       288   10 Jun 2027 10:55:15.528   10 Jun 2027 10:55:30.066            14.538          6181.312
       289   10 Jun 2027 10:55:54.564   10 Jun 2027 10:55:56.111             1.547           765.563
       290   10 Jun 2027 10:56:01.998   10 Jun 2027 10:56:01.998             0.000             0.000
       291   10 Jun 2027 10:56:33.304   10 Jun 2027 10:56:39.903             6.599          1045.812
       292   10 Jun 2027 10:57:22.987   10 Jun 2027 10:57:25.875             2.888          1113.063
       293   10 Jun 2027 10:58:18.531   10 Jun 2027 10:58:22.579             4.048          1645.500
       294   10 Jun 2027 10:58:47.867   10 Jun 2027 10:58:49.492             1.625           735.031
       295   10 Jun 2027 10:59:47.942   10 Jun 2027 10:59:52.018             4.076          1186.344
       296   10 Jun 2027 11:00:24.073   10 Jun 2027 11:00:26.355             2.282           709.437
       297   11 Jun 2027 03:05:45.334   11 Jun 2027 03:05:59.449            14.115          7057.500
       298   11 Jun 2027 03:07:08.815   11 Jun 2027 03:07:10.875             2.060          1030.000
       299   11 Jun 2027 03:07:45.265   11 Jun 2027 03:07:58.010            12.745          6372.500
       300   11 Jun 2027 03:08:42.614   11 Jun 2027 03:08:58.039            15.425          7712.500
       301   11 Jun 2027 04:40:43.781   11 Jun 2027 04:41:17.418            33.637         16818.500
       302   11 Jun 2027 04:42:08.966   11 Jun 2027 04:42:44.359            35.393         17696.500
       303   11 Jun 2027 04:42:51.862   11 Jun 2027 04:42:59.833             7.971          3985.500
       304   11 Jun 2027 04:43:28.837   11 Jun 2027 04:43:28.837             0.000             0.000
       305   11 Jun 2027 04:43:52.315   11 Jun 2027 04:44:00.339             8.024          4012.000
       306   11 Jun 2027 04:46:05.684   11 Jun 2027 04:46:13.067             7.383          3691.500
       307   11 Jun 2027 04:46:23.433   11 Jun 2027 04:46:23.433             0.000             0.000
       308   11 Jun 2027 06:16:54.607   11 Jun 2027 06:18:42.363           107.756         53878.000
       309   11 Jun 2027 06:19:04.524   11 Jun 2027 06:19:11.907             7.383          3691.500
       310   11 Jun 2027 06:19:34.296   11 Jun 2027 06:19:50.031            15.735          7867.500
       311   11 Jun 2027 06:23:22.072   11 Jun 2027 06:23:37.509            15.437          7718.500
       312   11 Jun 2027 07:53:59.189   11 Jun 2027 07:55:31.153            91.964         45722.312
       313   11 Jun 2027 07:55:50.965   11 Jun 2027 07:55:54.391             3.426           619.125
       314   11 Jun 2027 07:57:27.670   11 Jun 2027 07:57:32.735             5.065          2367.844
       315   11 Jun 2027 07:57:53.595   11 Jun 2027 07:57:55.159             1.564           651.875
       316   11 Jun 2027 07:58:32.201   11 Jun 2027 07:58:35.447             3.246           964.375
       317   11 Jun 2027 08:00:18.821   11 Jun 2027 08:00:21.802             2.981          1490.500
       318   11 Jun 2027 09:31:58.318   11 Jun 2027 09:32:18.934            20.616          9822.875
       319   11 Jun 2027 09:32:50.222   11 Jun 2027 09:32:53.497             3.275           368.375
       320   11 Jun 2027 09:33:08.169   11 Jun 2027 09:33:12.815             4.646           103.688
       321   11 Jun 2027 09:33:20.551   11 Jun 2027 09:33:22.726             2.175           208.844
       322   11 Jun 2027 09:33:55.744   11 Jun 2027 09:33:59.119             3.375           530.469
       323   11 Jun 2027 09:34:30.318   11 Jun 2027 09:34:34.064             3.746           974.969
       324   11 Jun 2027 09:34:48.719   11 Jun 2027 09:34:48.835             0.116            58.000
       325   11 Jun 2027 09:35:00.851   11 Jun 2027 09:35:06.432             5.581           766.562
       326   11 Jun 2027 09:35:23.277   11 Jun 2027 09:35:24.894             1.617           505.094
       327   11 Jun 2027 09:35:51.196   11 Jun 2027 09:35:53.413             2.217           797.594
       328   11 Jun 2027 11:05:07.330   11 Jun 2027 11:05:21.321            13.991          6784.375
       329   11 Jun 2027 11:06:57.505   11 Jun 2027 11:07:04.459             6.954          1895.188
       330   11 Jun 2027 11:07:47.868   11 Jun 2027 11:07:54.445             6.577           912.187
       331   11 Jun 2027 11:08:10.285   11 Jun 2027 11:08:16.860             6.575           481.906
       332   11 Jun 2027 11:08:34.531   11 Jun 2027 11:08:34.970             0.439           219.500
       333   11 Jun 2027 11:08:58.274   11 Jun 2027 11:09:02.690             4.416           847.562
       334   11 Jun 2027 11:09:18.488   11 Jun 2027 11:09:18.715             0.227           113.500
       335   11 Jun 2027 11:10:15.744   11 Jun 2027 11:10:18.830             3.086          1543.000
       336   11 Jun 2027 11:11:01.204   11 Jun 2027 11:11:04.687             3.483          1695.531
       337   11 Jun 2027 11:11:36.053   11 Jun 2027 11:11:37.356             1.303           575.625
       338   11 Jun 2027 11:12:19.168   11 Jun 2027 11:12:21.657             2.489          1087.687
       339   11 Jun 2027 11:12:32.875   11 Jun 2027 11:12:36.007             3.132           350.563
       340   11 Jun 2027 11:12:52.634   11 Jun 2027 11:12:54.805             2.171           389.219
       341   12 Jun 2027 03:16:46.147   12 Jun 2027 03:17:49.111            62.964         31482.000
       342   12 Jun 2027 04:51:50.368   12 Jun 2027 04:53:30.741           100.373         50186.500
       343   12 Jun 2027 04:54:11.991   12 Jun 2027 04:54:22.333            10.342          5171.000
       344   12 Jun 2027 04:56:03.058   12 Jun 2027 04:56:04.696             1.638           819.000
       345   12 Jun 2027 04:57:30.458   12 Jun 2027 04:57:47.990            17.532          8766.000
       346   12 Jun 2027 06:29:12.123   12 Jun 2027 06:31:02.725           110.602         55301.000
       347   12 Jun 2027 06:31:17.050   12 Jun 2027 06:31:23.517             6.467          3233.500
       348   12 Jun 2027 06:32:08.930   12 Jun 2027 06:32:08.930             0.000             0.000
       349   12 Jun 2027 06:32:20.400   12 Jun 2027 06:32:34.064            13.664          6832.000
       350   12 Jun 2027 06:36:31.733   12 Jun 2027 06:36:32.163             0.430           215.000
       351   12 Jun 2027 08:06:00.806   12 Jun 2027 08:06:51.302            50.496         25151.124
       352   12 Jun 2027 08:07:21.096   12 Jun 2027 08:07:25.824             4.728           857.500
       353   12 Jun 2027 08:08:11.358   12 Jun 2027 08:08:17.561             6.203           765.344
       354   12 Jun 2027 08:08:37.544   12 Jun 2027 08:08:39.107             1.563           624.469
       355   12 Jun 2027 08:09:41.701   12 Jun 2027 08:09:47.611             5.910          1946.094
       356   12 Jun 2027 08:09:55.185   12 Jun 2027 08:09:55.972             0.787           233.500
       357   12 Jun 2027 08:10:16.430   12 Jun 2027 08:10:17.822             1.392           501.000
       358   12 Jun 2027 08:10:47.722   12 Jun 2027 08:10:53.219             5.497           861.656
       359   12 Jun 2027 08:11:05.692   12 Jun 2027 08:11:06.344             0.652           230.219
       360   12 Jun 2027 08:11:37.501   12 Jun 2027 08:11:38.454             0.953           476.500
       361   12 Jun 2027 09:43:57.870   12 Jun 2027 09:44:17.227            19.357          9678.500
       362   12 Jun 2027 09:44:39.371   12 Jun 2027 09:44:45.109             5.738          1263.156
       363   12 Jun 2027 09:45:09.828   12 Jun 2027 09:45:11.922             2.094           596.594
       364   12 Jun 2027 09:45:42.021   12 Jun 2027 09:45:47.380             5.359           841.875
       365   12 Jun 2027 09:45:50.602   12 Jun 2027 09:45:54.715             4.113            82.094
       366   12 Jun 2027 09:46:41.367   12 Jun 2027 09:46:43.358             1.991           931.906
       367   12 Jun 2027 09:47:12.263   12 Jun 2027 09:47:14.376             2.113           903.281
       368   12 Jun 2027 09:47:35.658   12 Jun 2027 09:47:38.058             2.400           600.406
       369   12 Jun 2027 11:17:34.652   12 Jun 2027 11:17:38.009             3.357          1280.312
       370   12 Jun 2027 11:18:11.089   12 Jun 2027 11:18:16.360             5.271           392.063
       371   12 Jun 2027 11:18:54.157   12 Jun 2027 11:18:56.089             1.932           349.094
       372   12 Jun 2027 11:19:07.852   12 Jun 2027 11:19:07.852             0.000             0.000
       373   12 Jun 2027 11:19:42.291   12 Jun 2027 11:19:48.495             6.204          1443.812
       374   12 Jun 2027 11:19:51.496   12 Jun 2027 11:19:51.496             0.000             0.000
       375   12 Jun 2027 11:20:11.029   12 Jun 2027 11:20:13.404             2.375           704.187
       376   12 Jun 2027 11:20:31.523   12 Jun 2027 11:20:32.827             1.304           224.250
       377   12 Jun 2027 11:20:55.937   12 Jun 2027 11:20:58.392             2.455           603.531
       378   12 Jun 2027 11:21:54.363   12 Jun 2027 11:21:57.895             3.532          1296.219
       379   12 Jun 2027 11:22:28.684   12 Jun 2027 11:22:33.338             4.654           779.344
       380   12 Jun 2027 11:22:49.942   12 Jun 2027 11:22:50.491             0.549           261.250
       381   12 Jun 2027 11:23:06.194   12 Jun 2027 11:23:13.437             7.243           490.719
       382   12 Jun 2027 11:23:59.566   12 Jun 2027 11:24:02.938             3.372          1441.531
       383   12 Jun 2027 11:24:38.753   12 Jun 2027 11:24:39.021             0.268           134.000
       384   13 Jun 2027 03:28:30.194   13 Jun 2027 03:28:56.281            26.087         13043.500
       385   13 Jun 2027 03:29:38.599   13 Jun 2027 03:29:44.397             5.798          2899.000
       386   13 Jun 2027 03:32:37.321   13 Jun 2027 03:32:43.978             6.657          3328.500
       387   13 Jun 2027 03:33:55.231   13 Jun 2027 03:34:06.103            10.872          5436.000
       388   13 Jun 2027 05:03:18.565   13 Jun 2027 05:05:15.135           116.570         58285.000
       389   13 Jun 2027 05:05:45.148   13 Jun 2027 05:05:45.148             0.000             0.000
       390   13 Jun 2027 05:06:32.749   13 Jun 2027 05:06:54.751            22.002         11001.000
       391   13 Jun 2027 05:10:22.942   13 Jun 2027 05:10:30.155             7.213          3606.500
       392   13 Jun 2027 05:11:37.668   13 Jun 2027 05:11:40.074             2.406          1203.000
       393   13 Jun 2027 05:12:00.993   13 Jun 2027 05:12:08.080             7.087          3543.500
       394   13 Jun 2027 05:12:15.440   13 Jun 2027 05:12:20.356             4.916          2458.000
       395   13 Jun 2027 06:41:07.383   13 Jun 2027 06:42:16.875            69.492         34746.000
       396   13 Jun 2027 06:42:42.517   13 Jun 2027 06:43:43.389            60.872         30436.000
       397   13 Jun 2027 06:45:37.461   13 Jun 2027 06:45:48.007            10.546          5273.000
       398   13 Jun 2027 06:46:08.380   13 Jun 2027 06:46:08.591             0.211           105.500
       399   13 Jun 2027 08:17:51.764   13 Jun 2027 08:18:17.014            25.250         12625.000
       400   13 Jun 2027 08:18:21.467   13 Jun 2027 08:18:39.314            17.847          8923.500
       401   13 Jun 2027 08:19:30.222   13 Jun 2027 08:19:38.483             8.261          1782.251
       402   13 Jun 2027 08:20:45.449   13 Jun 2027 08:20:51.585             6.136          2024.312
       403   13 Jun 2027 08:21:21.039   13 Jun 2027 08:21:23.615             2.576           920.437
       404   13 Jun 2027 08:21:40.037   13 Jun 2027 08:21:42.401             2.364           187.281
       405   13 Jun 2027 08:22:07.355   13 Jun 2027 08:22:07.355             0.000             0.000
       406   13 Jun 2027 08:22:07.837   13 Jun 2027 08:22:09.703             1.866           755.250
       407   13 Jun 2027 08:22:35.253   13 Jun 2027 08:22:35.488             0.235           117.500
       408   13 Jun 2027 08:22:59.299   13 Jun 2027 08:23:08.673             9.374          1216.688
       409   13 Jun 2027 09:55:59.427   13 Jun 2027 09:56:18.069            18.642          9321.000
       410   13 Jun 2027 09:56:25.381   13 Jun 2027 09:56:28.597             3.216           536.688
       411   13 Jun 2027 09:56:48.642   13 Jun 2027 09:56:51.520             2.878           254.500
       412   13 Jun 2027 09:57:04.724   13 Jun 2027 09:57:05.497             0.773           247.719
       413   13 Jun 2027 09:57:43.174   13 Jun 2027 09:57:48.476             5.302          1037.187
       414   13 Jun 2027 09:58:15.717   13 Jun 2027 09:58:18.108             2.391           664.250
       415   13 Jun 2027 09:58:50.093   13 Jun 2027 09:58:52.134             2.041           896.656
       416   13 Jun 2027 09:59:02.129   13 Jun 2027 09:59:02.439             0.310           138.781
       417   13 Jun 2027 09:59:11.356   13 Jun 2027 09:59:13.234             1.878           188.594
       418   13 Jun 2027 09:59:17.933   13 Jun 2027 09:59:19.322             1.389           144.469
       419   13 Jun 2027 11:29:50.461   13 Jun 2027 11:29:57.513             7.052          2455.656
       420   13 Jun 2027 11:30:54.046   13 Jun 2027 11:30:57.668             3.622          1394.313
       421   13 Jun 2027 11:31:21.460   13 Jun 2027 11:31:25.186             3.726           743.500
       422   13 Jun 2027 11:31:42.879   13 Jun 2027 11:31:44.024             1.145           155.375
       423   13 Jun 2027 11:32:11.416   13 Jun 2027 11:32:16.847             5.431           856.000
       424   13 Jun 2027 11:32:22.224   13 Jun 2027 11:32:34.197            11.973           168.031
       425   13 Jun 2027 11:32:54.132   13 Jun 2027 11:32:54.237             0.105            52.500
       426   13 Jun 2027 11:33:05.099   13 Jun 2027 11:33:08.433             3.334           783.625
       427   13 Jun 2027 11:33:40.953   13 Jun 2027 11:33:44.281             3.328           345.437
       428   13 Jun 2027 11:34:20.194   13 Jun 2027 11:34:23.818             3.624           798.031
       429   13 Jun 2027 11:34:50.589   13 Jun 2027 11:34:50.752             0.163            81.500
       430   13 Jun 2027 11:34:53.477   13 Jun 2027 11:34:58.264             4.787           301.438
       431   13 Jun 2027 11:35:16.943   13 Jun 2027 11:35:21.514             4.571           114.406
