uniorb/output/strategy_1/Camera/Camera_KinoSat_111205.txt

KinoSat_111205
-------------------------
    Access    *     Start Time (UTCG)     *     Stop Time (UTCG)  *   Duration (s) *   Data (Mbytes)
         1   01 Jun 2027 03:32:07.300   01 Jun 2027 03:34:21.627           134.327         67163.500
         2   01 Jun 2027 04:55:04.276   01 Jun 2027 04:56:14.753            70.477         35238.500
         3   01 Jun 2027 06:31:37.943   01 Jun 2027 06:33:20.536           102.593         51296.500
         4   01 Jun 2027 06:34:15.166   01 Jun 2027 06:34:20.227             5.061          2530.500
         5   01 Jun 2027 08:06:46.825   01 Jun 2027 08:08:46.465           119.640         59820.000
         6   01 Jun 2027 08:08:51.503   01 Jun 2027 08:08:58.276             6.773          3386.500
         7   01 Jun 2027 08:09:16.662   01 Jun 2027 08:09:24.004             7.342          3671.000
         8   01 Jun 2027 08:11:38.722   01 Jun 2027 08:11:51.449            12.727          6363.500
         9   01 Jun 2027 08:12:12.918   01 Jun 2027 08:12:16.761             3.843          1921.500
        10   01 Jun 2027 09:43:06.792   01 Jun 2027 09:44:24.190            77.398         38699.000
        11   01 Jun 2027 09:47:34.275   01 Jun 2027 09:48:33.629            59.354         29677.000
        12   01 Jun 2027 11:20:41.453   01 Jun 2027 11:21:23.422            41.969         20984.500
        13   01 Jun 2027 11:22:06.632   01 Jun 2027 11:22:43.147            36.515         18257.500
        14   01 Jun 2027 11:23:35.894   01 Jun 2027 11:24:50.486            74.592         37296.000
        15   02 Jun 2027 03:43:52.875   02 Jun 2027 03:44:26.417            33.542         16771.000
        16   02 Jun 2027 03:44:41.303   02 Jun 2027 03:46:23.439           102.136         51068.000
        17   02 Jun 2027 05:07:13.439   02 Jun 2027 05:08:17.158            63.719         31859.500
        18   02 Jun 2027 06:43:48.561   02 Jun 2027 06:45:21.692            93.131         46565.500
        19   02 Jun 2027 06:46:20.459   02 Jun 2027 06:46:21.563             1.104           552.000
        20   02 Jun 2027 06:46:53.089   02 Jun 2027 06:47:02.937             9.848          4924.000
        21   02 Jun 2027 08:18:58.613   02 Jun 2027 08:20:31.826            93.213         46606.500
        22   02 Jun 2027 08:20:41.423   02 Jun 2027 08:21:16.985            35.562         17781.000
        23   02 Jun 2027 08:24:13.715   02 Jun 2027 08:24:34.312            20.597         10298.500
        24   02 Jun 2027 08:24:58.612   02 Jun 2027 08:25:12.124            13.512          6756.000
        25   02 Jun 2027 08:25:21.443   02 Jun 2027 08:25:29.216             7.773          3886.500
        26   02 Jun 2027 09:55:19.522   02 Jun 2027 09:56:38.022            78.500         39250.000
        27   02 Jun 2027 09:57:50.417   02 Jun 2027 09:58:25.577            35.160         17580.000
        28   02 Jun 2027 09:58:57.888   02 Jun 2027 09:58:57.888             0.000             0.000
        29   02 Jun 2027 09:59:59.191   02 Jun 2027 09:59:59.191             0.000             0.000
        30   02 Jun 2027 10:00:41.936   02 Jun 2027 10:00:47.736             5.800          2900.000
        31   02 Jun 2027 10:00:53.046   02 Jun 2027 10:01:03.736            10.690          5345.000
        32   02 Jun 2027 11:32:36.356   02 Jun 2027 11:34:31.967           115.611         57805.500
        33   02 Jun 2027 11:36:53.205   02 Jun 2027 11:36:55.027             1.822           911.000
        34   02 Jun 2027 11:37:08.458   02 Jun 2027 11:37:14.000             5.542          2771.000
        35   03 Jun 2027 03:55:49.527   03 Jun 2027 03:56:29.367            39.840         19920.000
        36   03 Jun 2027 03:57:19.859   03 Jun 2027 03:57:36.543            16.684          8342.000
        37   03 Jun 2027 03:58:01.301   03 Jun 2027 03:58:39.310            38.009         19004.500
        38   03 Jun 2027 05:19:46.324   03 Jun 2027 05:20:56.921            70.597         35298.500
        39   03 Jun 2027 06:55:36.529   03 Jun 2027 06:56:01.929            25.400         12700.000
        40   03 Jun 2027 06:57:21.946   03 Jun 2027 06:58:54.907            92.961         46480.500
        41   03 Jun 2027 06:59:33.436   03 Jun 2027 06:59:44.681            11.245          5622.500
        42   03 Jun 2027 08:30:29.585   03 Jun 2027 08:32:29.378           119.793         59896.500
        43   03 Jun 2027 08:37:12.038   03 Jun 2027 08:37:40.981            28.943         14471.500
        44   03 Jun 2027 10:06:58.132   03 Jun 2027 10:08:24.221            86.089         41115.189
        45   03 Jun 2027 10:08:50.658   03 Jun 2027 10:08:55.180             4.522           289.531
        46   03 Jun 2027 10:09:05.265   03 Jun 2027 10:09:11.798             6.533           256.500
        47   03 Jun 2027 10:09:30.822   03 Jun 2027 10:09:32.857             2.035           594.500
        48   03 Jun 2027 10:11:08.138   03 Jun 2027 10:11:11.180             3.042          1521.000
        49   03 Jun 2027 10:11:41.450   03 Jun 2027 10:11:46.789             5.339          2278.125
        50   03 Jun 2027 10:12:56.704   03 Jun 2027 10:13:02.128             5.424          2184.844
        51   03 Jun 2027 10:13:18.125   03 Jun 2027 10:13:21.243             3.118           416.750
        52   03 Jun 2027 11:45:15.930   03 Jun 2027 11:45:20.128             4.198          2099.000
        53   03 Jun 2027 11:45:36.858   03 Jun 2027 11:45:53.598            16.740          8259.000
        54   03 Jun 2027 11:46:15.359   03 Jun 2027 11:46:23.738             8.379           627.594
        55   03 Jun 2027 11:47:05.847   03 Jun 2027 11:47:09.912             4.065          1315.906
        56   03 Jun 2027 11:48:18.136   03 Jun 2027 11:48:26.414             8.278          2132.000
        57   03 Jun 2027 11:48:43.292   03 Jun 2027 11:48:52.404             9.112           499.844
        58   04 Jun 2027 03:56:25.467   04 Jun 2027 03:56:41.464            15.997          7998.500
        59   04 Jun 2027 04:07:45.643   04 Jun 2027 04:08:57.485            71.842         35921.000
        60   04 Jun 2027 04:09:00.644   04 Jun 2027 04:09:19.891            19.247          9623.500
        61   04 Jun 2027 05:30:20.831   04 Jun 2027 05:31:25.094            64.263         32131.500
        62   04 Jun 2027 05:31:56.039   04 Jun 2027 05:32:21.386            25.347         12673.500
        63   04 Jun 2027 05:32:57.261   04 Jun 2027 05:32:57.261             0.000             0.000
        64   04 Jun 2027 05:33:12.158   04 Jun 2027 05:33:22.793            10.635          5317.500
        65   04 Jun 2027 07:05:52.582   04 Jun 2027 07:06:43.351            50.769         25384.500
        66   04 Jun 2027 07:07:21.472   04 Jun 2027 07:08:31.915            70.443         35221.500
        67   04 Jun 2027 07:10:03.885   04 Jun 2027 07:10:14.599            10.714          5357.000
        68   04 Jun 2027 07:11:50.847   04 Jun 2027 07:11:55.482             4.635          2317.500
        69   04 Jun 2027 08:42:11.769   04 Jun 2027 08:42:37.417            25.648         11964.407
        70   04 Jun 2027 08:43:14.140   04 Jun 2027 08:43:14.140             0.000             0.000
        71   04 Jun 2027 08:44:29.632   04 Jun 2027 08:44:39.577             9.945          3506.719
        72   04 Jun 2027 08:45:47.228   04 Jun 2027 08:45:47.861             0.633           316.500
        73   04 Jun 2027 08:46:46.992   04 Jun 2027 08:46:53.748             6.756          2724.500
        74   04 Jun 2027 08:48:59.334   04 Jun 2027 08:49:10.295            10.961          3446.906
        75   04 Jun 2027 08:49:24.461   04 Jun 2027 08:49:24.636             0.175            62.562
        76   04 Jun 2027 08:49:44.155   04 Jun 2027 08:49:44.311             0.156            78.000
        77   04 Jun 2027 10:19:18.695   04 Jun 2027 10:19:34.234            15.539          7179.187
        78   04 Jun 2027 10:20:52.419   04 Jun 2027 10:20:56.629             4.210          1285.344
        79   04 Jun 2027 10:21:36.226   04 Jun 2027 10:21:39.990             3.764           628.094
        80   04 Jun 2027 10:21:56.238   04 Jun 2027 10:21:57.715             1.477           132.438
        81   04 Jun 2027 10:22:00.947   04 Jun 2027 10:22:01.843             0.896            32.125
        82   04 Jun 2027 10:22:46.312   04 Jun 2027 10:22:50.267             3.955          1008.719
        83   04 Jun 2027 10:22:52.582   04 Jun 2027 10:22:54.075             1.493            19.719
        84   04 Jun 2027 10:23:46.937   04 Jun 2027 10:23:49.585             2.648          1180.813
        85   04 Jun 2027 10:24:06.460   04 Jun 2027 10:24:08.316             1.856           245.188
        86   04 Jun 2027 10:25:17.132   04 Jun 2027 10:25:25.805             8.673          2056.437
        87   04 Jun 2027 11:57:14.018   04 Jun 2027 11:57:24.237            10.219          5109.500
        88   04 Jun 2027 11:57:41.155   04 Jun 2027 11:57:45.097             3.942          1971.000
        89   04 Jun 2027 11:58:13.729   04 Jun 2027 11:58:13.935             0.206           103.000
        90   04 Jun 2027 11:58:29.208   04 Jun 2027 11:58:35.492             6.284          1502.781
        91   04 Jun 2027 11:58:53.837   04 Jun 2027 11:58:53.837             0.000             0.000
        92   04 Jun 2027 11:59:15.666   04 Jun 2027 11:59:20.122             4.456           958.563
        93   04 Jun 2027 11:59:36.246   04 Jun 2027 11:59:36.796             0.550           275.000
        94   05 Jun 2027 04:08:04.780   05 Jun 2027 04:08:35.642            30.862         15431.000
        95   05 Jun 2027 04:09:11.866   05 Jun 2027 04:09:32.674            20.808         10404.000
        96   05 Jun 2027 04:19:48.767   05 Jun 2027 04:20:48.162            59.395         29697.500
        97   05 Jun 2027 05:42:03.831   05 Jun 2027 05:43:09.766            65.935         32967.500
        98   05 Jun 2027 05:43:59.452   05 Jun 2027 05:44:23.148            23.696         11848.000
        99   05 Jun 2027 05:46:17.979   05 Jun 2027 05:46:33.402            15.423          7711.500
       100   05 Jun 2027 07:17:01.244   05 Jun 2027 07:18:56.722           115.478         57739.000
       101   05 Jun 2027 07:19:05.549   05 Jun 2027 07:19:06.956             1.407           703.500
       102   05 Jun 2027 07:20:54.135   05 Jun 2027 07:20:55.349             1.214           607.000
       103   05 Jun 2027 07:22:15.056   05 Jun 2027 07:22:31.689            16.633          8241.374
       104   05 Jun 2027 07:23:25.226   05 Jun 2027 07:23:27.613             2.387          1193.500
       105   05 Jun 2027 07:23:48.541   05 Jun 2027 07:23:48.677             0.136            68.000
       106   05 Jun 2027 07:24:04.337   05 Jun 2027 07:24:14.361            10.024          1503.844
       107   05 Jun 2027 08:54:30.175   05 Jun 2027 08:54:43.868            13.693          6648.813
       108   05 Jun 2027 08:57:18.234   05 Jun 2027 08:57:27.177             8.943          3793.063
       109   05 Jun 2027 08:58:35.634   05 Jun 2027 08:58:35.634             0.000             0.000
       110   05 Jun 2027 08:59:18.042   05 Jun 2027 08:59:25.068             7.026          3298.156
       111   05 Jun 2027 08:59:58.865   05 Jun 2027 09:00:00.876             2.011           706.500
       112   05 Jun 2027 09:00:04.337   05 Jun 2027 09:00:04.337             0.000             0.000
       113   05 Jun 2027 09:00:20.358   05 Jun 2027 09:00:22.676             2.318           520.437
       114   05 Jun 2027 09:00:34.932   05 Jun 2027 09:00:39.311             4.379           383.000
       115   05 Jun 2027 09:01:28.119   05 Jun 2027 09:01:29.482             1.363           681.500
       116   05 Jun 2027 09:01:45.188   05 Jun 2027 09:01:48.070             2.882          1334.563
       117   05 Jun 2027 10:31:14.774   05 Jun 2027 10:31:29.933            15.159          7456.469
       118   05 Jun 2027 10:32:15.953   05 Jun 2027 10:32:19.140             3.187           818.563
       119   05 Jun 2027 10:32:48.839   05 Jun 2027 10:32:52.393             3.554           590.406
       120   05 Jun 2027 10:33:13.766   05 Jun 2027 10:33:15.868             2.102           150.906
       121   05 Jun 2027 10:33:34.178   05 Jun 2027 10:33:35.034             0.856           211.281
       122   05 Jun 2027 10:34:09.146   05 Jun 2027 10:34:10.602             1.456           688.906
       123   05 Jun 2027 10:34:22.907   05 Jun 2027 10:34:24.998             2.091           243.719
       124   05 Jun 2027 10:34:31.761   05 Jun 2027 10:34:32.276             0.515           139.781
       125   05 Jun 2027 10:34:48.529   05 Jun 2027 10:34:54.624             6.095           443.531
       126   05 Jun 2027 10:35:09.828   05 Jun 2027 10:35:15.071             5.243           475.125
       127   05 Jun 2027 10:35:35.939   05 Jun 2027 10:35:38.131             2.192           465.250
       128   05 Jun 2027 10:36:02.850   05 Jun 2027 10:36:04.679             1.829           772.469
       129   05 Jun 2027 10:36:33.659   05 Jun 2027 10:36:37.740             4.081           905.625
       130   05 Jun 2027 10:37:08.212   05 Jun 2027 10:37:11.622             3.410           297.781
       131   05 Jun 2027 10:37:25.372   05 Jun 2027 10:37:27.495             2.123            77.875
       132   06 Jun 2027 03:00:00.000   06 Jun 2027 03:00:03.657             3.657          1828.500
       133   06 Jun 2027 03:00:08.366   06 Jun 2027 03:00:45.425            37.059         18529.500
       134   06 Jun 2027 04:19:38.192   06 Jun 2027 04:20:22.321            44.129         22064.500
       135   06 Jun 2027 04:21:34.215   06 Jun 2027 04:21:39.528             5.313          2656.500
       136   06 Jun 2027 04:31:54.348   06 Jun 2027 04:32:21.819            27.471         13735.500
       137   06 Jun 2027 05:53:36.131   06 Jun 2027 05:54:55.966            79.835         39917.500
       138   06 Jun 2027 05:55:44.791   06 Jun 2027 05:56:23.501            38.710         19355.000
       139   06 Jun 2027 07:28:29.532   06 Jun 2027 07:30:19.843           110.311         54880.750
       140   06 Jun 2027 07:32:10.565   06 Jun 2027 07:32:20.234             9.669          3063.687
       141   06 Jun 2027 07:32:44.885   06 Jun 2027 07:32:50.579             5.694           770.344
       142   06 Jun 2027 07:34:33.903   06 Jun 2027 07:34:36.433             2.530          1265.000
       143   06 Jun 2027 07:35:10.489   06 Jun 2027 07:35:17.136             6.647          2913.719
       144   06 Jun 2027 07:37:05.573   06 Jun 2027 07:37:12.673             7.100          2807.344
       145   06 Jun 2027 07:37:24.878   06 Jun 2027 07:37:26.951             2.073           381.406
       146   06 Jun 2027 09:06:23.552   06 Jun 2027 09:06:43.549            19.997          8028.344
       147   06 Jun 2027 09:07:14.296   06 Jun 2027 09:07:20.647             6.351           926.000
       148   06 Jun 2027 09:07:43.741   06 Jun 2027 09:07:47.708             3.967           430.719
       149   06 Jun 2027 09:08:18.288   06 Jun 2027 09:08:20.054             1.766           672.219
       150   06 Jun 2027 09:08:34.169   06 Jun 2027 09:08:38.222             4.053           441.094
       151   06 Jun 2027 09:09:58.449   06 Jun 2027 09:10:04.056             5.607          2280.781
       152   06 Jun 2027 09:11:45.213   06 Jun 2027 09:11:50.547             5.334          2213.188
       153   06 Jun 2027 09:11:59.147   06 Jun 2027 09:11:59.740             0.593           193.000
       154   06 Jun 2027 09:12:05.281   06 Jun 2027 09:12:07.668             2.387           123.500
       155   06 Jun 2027 09:12:12.525   06 Jun 2027 09:12:13.434             0.909           151.781
       156   06 Jun 2027 09:12:32.097   06 Jun 2027 09:12:33.339             1.242           195.125
       157   06 Jun 2027 09:13:14.997   06 Jun 2027 09:13:17.681             2.684          1025.156
       158   06 Jun 2027 09:13:26.042   06 Jun 2027 09:13:26.042             0.000             0.000
       159   06 Jun 2027 10:43:07.603   06 Jun 2027 10:43:28.052            20.449          9006.281
       160   06 Jun 2027 10:43:42.175   06 Jun 2027 10:43:47.281             5.106           360.031
       161   06 Jun 2027 10:44:48.418   06 Jun 2027 10:44:52.294             3.876           892.719
       162   06 Jun 2027 10:45:32.891   06 Jun 2027 10:45:34.053             1.162           581.000
       163   06 Jun 2027 10:46:35.073   06 Jun 2027 10:46:39.444             4.371          2012.594
       164   06 Jun 2027 10:47:10.416   06 Jun 2027 10:47:12.353             1.937           734.000
       165   06 Jun 2027 10:47:22.736   06 Jun 2027 10:47:23.865             1.129           324.469
       166   06 Jun 2027 10:47:37.894   06 Jun 2027 10:47:39.400             1.506           438.406
       167   06 Jun 2027 10:47:40.819   06 Jun 2027 10:47:43.139             2.320            17.438
       168   06 Jun 2027 10:48:33.981   06 Jun 2027 10:48:36.471             2.490          1245.000
       169   06 Jun 2027 10:49:02.722   06 Jun 2027 10:49:03.892             1.170           585.000
       170   06 Jun 2027 10:49:19.741   06 Jun 2027 10:49:24.090             4.349          1074.437
       171   06 Jun 2027 10:49:28.082   06 Jun 2027 10:49:28.341             0.259           124.750
       172   07 Jun 2027 03:07:40.211   07 Jun 2027 03:08:51.048            70.837         35418.500
       173   07 Jun 2027 03:10:02.326   07 Jun 2027 03:10:13.236            10.910          5455.000
       174   07 Jun 2027 03:11:01.042   07 Jun 2027 03:11:01.042             0.000             0.000
       175   07 Jun 2027 03:11:13.182   07 Jun 2027 03:11:14.148             0.966           483.000
       176   07 Jun 2027 03:11:14.798   07 Jun 2027 03:11:14.798             0.000             0.000
       177   07 Jun 2027 04:31:34.056   07 Jun 2027 04:32:06.922            32.866         16433.000
       178   07 Jun 2027 04:33:35.253   07 Jun 2027 04:33:38.116             2.863          1431.500
       179   07 Jun 2027 06:07:34.838   07 Jun 2027 06:09:20.578           105.740         52870.000
       180   07 Jun 2027 06:09:30.794   07 Jun 2027 06:09:38.454             7.660          3830.000
       181   07 Jun 2027 07:41:22.541   07 Jun 2027 07:43:06.528           103.987         51730.500
       182   07 Jun 2027 07:44:02.737   07 Jun 2027 07:44:06.043             3.306          1424.156
       183   07 Jun 2027 07:44:54.063   07 Jun 2027 07:44:55.846             1.783           891.500
       184   07 Jun 2027 07:46:37.003   07 Jun 2027 07:46:39.428             2.425          1212.500
       185   07 Jun 2027 07:46:50.780   07 Jun 2027 07:46:57.333             6.553          2912.531
       186   07 Jun 2027 07:47:28.622   07 Jun 2027 07:47:35.030             6.408           883.406
       187   07 Jun 2027 07:47:53.278   07 Jun 2027 07:47:58.501             5.223           279.750
       188   07 Jun 2027 09:18:31.689   07 Jun 2027 09:18:47.872            16.183          7140.969
       189   07 Jun 2027 09:19:52.030   07 Jun 2027 09:19:54.349             2.319          1136.313
       190   07 Jun 2027 09:21:00.502   07 Jun 2027 09:21:04.667             4.165          1640.188
       191   07 Jun 2027 09:21:18.854   07 Jun 2027 09:21:20.942             2.088           443.344
       192   07 Jun 2027 09:22:27.923   07 Jun 2027 09:22:33.066             5.143          1702.781
       193   07 Jun 2027 09:23:15.360   07 Jun 2027 09:23:17.906             2.546          1226.875
       194   07 Jun 2027 09:23:24.630   07 Jun 2027 09:23:31.204             6.574            73.375
       195   07 Jun 2027 09:23:54.955   07 Jun 2027 09:23:56.606             1.651           700.156
       196   07 Jun 2027 09:24:01.473   07 Jun 2027 09:24:02.830             1.357           152.094
       197   07 Jun 2027 09:24:42.001   07 Jun 2027 09:24:43.676             1.675           680.656
       198   07 Jun 2027 09:25:20.090   07 Jun 2027 09:25:21.936             1.846           812.094
       199   07 Jun 2027 10:55:46.231   07 Jun 2027 10:56:03.602            17.371          7833.469
       200   07 Jun 2027 10:57:50.372   07 Jun 2027 10:57:57.539             7.167          1847.719
       201   07 Jun 2027 10:58:47.240   07 Jun 2027 10:58:50.732             3.492          1349.719
       202   07 Jun 2027 10:59:05.224   07 Jun 2027 10:59:09.553             4.329           452.875
       203   07 Jun 2027 10:59:23.284   07 Jun 2027 10:59:24.255             0.971           429.094
       204   07 Jun 2027 10:59:39.820   07 Jun 2027 10:59:40.179             0.359           179.500
       205   07 Jun 2027 11:00:33.038   07 Jun 2027 11:00:38.104             5.066          1958.750
       206   07 Jun 2027 11:00:42.183   07 Jun 2027 11:00:42.183             0.000             0.000
       207   07 Jun 2027 11:00:47.232   07 Jun 2027 11:00:48.406             1.174           222.031
       208   07 Jun 2027 11:01:19.388   07 Jun 2027 11:01:20.841             1.453           726.500
       209   08 Jun 2027 03:20:05.142   08 Jun 2027 03:21:30.986            85.844         42922.000
       210   08 Jun 2027 03:21:41.711   08 Jun 2027 03:21:54.551            12.840          6420.000
       211   08 Jun 2027 03:22:21.014   08 Jun 2027 03:22:24.719             3.705          1852.500
       212   08 Jun 2027 03:23:24.972   08 Jun 2027 03:23:35.656            10.684          5342.000
       213   08 Jun 2027 03:24:11.074   08 Jun 2027 03:24:11.074             0.000             0.000
       214   08 Jun 2027 04:43:27.044   08 Jun 2027 04:44:03.691            36.647         18323.500
       215   08 Jun 2027 06:19:47.758   08 Jun 2027 06:21:32.518           104.760         52380.000
       216   08 Jun 2027 06:21:40.751   08 Jun 2027 06:21:47.946             7.195          3597.500
       217   08 Jun 2027 07:53:48.359   08 Jun 2027 07:55:02.073            73.714         36452.625
       218   08 Jun 2027 07:55:26.422   08 Jun 2027 07:55:26.925             0.503           250.250
       219   08 Jun 2027 07:56:07.844   08 Jun 2027 07:56:12.233             4.389          1248.281
       220   08 Jun 2027 07:56:18.118   08 Jun 2027 07:56:19.395             1.277           163.531
       221   08 Jun 2027 07:58:02.546   08 Jun 2027 07:58:08.803             6.257          3072.125
       222   08 Jun 2027 07:58:12.610   08 Jun 2027 07:58:12.912             0.302           118.969
       223   08 Jun 2027 07:59:12.963   08 Jun 2027 07:59:17.372             4.409          1876.594
       224   08 Jun 2027 07:59:29.355   08 Jun 2027 07:59:34.898             5.543           146.844
       225   08 Jun 2027 08:00:03.509   08 Jun 2027 08:00:04.481             0.972           434.500
       226   08 Jun 2027 08:01:16.369   08 Jun 2027 08:01:20.449             4.080          2015.969
       227   08 Jun 2027 08:01:47.672   08 Jun 2027 08:01:47.672             0.000             0.000
       228   08 Jun 2027 08:01:49.192   08 Jun 2027 08:01:51.784             2.592           898.219
       229   08 Jun 2027 09:30:56.955   08 Jun 2027 09:31:15.607            18.652          7359.687
       230   08 Jun 2027 09:31:22.101   08 Jun 2027 09:31:23.821             1.720            61.438
       231   08 Jun 2027 09:32:02.254   08 Jun 2027 09:32:08.028             5.774           638.094
       232   08 Jun 2027 09:33:19.989   08 Jun 2027 09:33:24.901             4.912          2248.781
       233   08 Jun 2027 09:33:37.388   08 Jun 2027 09:33:39.143             1.755           390.219
       234   08 Jun 2027 09:35:17.701   08 Jun 2027 09:35:21.603             3.902          1272.188
       235   08 Jun 2027 09:35:26.542   08 Jun 2027 09:35:28.808             2.266           130.094
       236   08 Jun 2027 09:35:36.205   08 Jun 2027 09:35:37.641             1.436           231.156
       237   08 Jun 2027 09:36:15.265   08 Jun 2027 09:36:17.462             2.197           749.125
       238   08 Jun 2027 09:37:02.073   08 Jun 2027 09:37:05.504             3.431          1228.906
       239   08 Jun 2027 09:37:17.127   08 Jun 2027 09:37:17.921             0.794           353.313
       240   08 Jun 2027 11:07:55.418   08 Jun 2027 11:08:13.752            18.334          8080.344
       241   08 Jun 2027 11:08:57.420   08 Jun 2027 11:09:08.678            11.258          1003.969
       242   08 Jun 2027 11:10:04.713   08 Jun 2027 11:10:09.552             4.839          1634.063
       243   08 Jun 2027 11:10:53.449   08 Jun 2027 11:10:55.672             2.223           777.500
       244   08 Jun 2027 11:11:03.307   08 Jun 2027 11:11:05.268             1.961           238.594
       245   08 Jun 2027 11:11:15.517   08 Jun 2027 11:11:15.517             0.000             0.000
       246   08 Jun 2027 11:11:45.445   08 Jun 2027 11:11:45.805             0.360           180.000
       247   08 Jun 2027 11:12:08.066   08 Jun 2027 11:12:11.980             3.914          1771.188
       248   08 Jun 2027 11:12:23.371   08 Jun 2027 11:12:23.666             0.295            86.812
       249   08 Jun 2027 11:13:06.746   08 Jun 2027 11:13:10.934             4.188          1346.250
       250   09 Jun 2027 03:32:23.177   09 Jun 2027 03:34:15.244           112.067         56033.500
       251   09 Jun 2027 04:55:23.854   09 Jun 2027 04:56:30.280            66.426         33213.000
       252   09 Jun 2027 06:31:53.757   09 Jun 2027 06:33:34.513           100.756         50378.000
       253   09 Jun 2027 06:33:35.217   09 Jun 2027 06:33:39.218             4.001          2000.500
       254   09 Jun 2027 06:33:46.051   09 Jun 2027 06:33:59.707            13.656          6828.000
       255   09 Jun 2027 08:07:02.554   09 Jun 2027 08:07:42.573            40.019         19567.937
       256   09 Jun 2027 08:08:12.700   09 Jun 2027 08:08:15.027             2.327           937.031
       257   09 Jun 2027 08:08:55.491   09 Jun 2027 08:08:57.395             1.904           628.906
       258   09 Jun 2027 08:10:35.477   09 Jun 2027 08:10:44.946             9.469          3065.062
       259   09 Jun 2027 08:10:53.339   09 Jun 2027 08:10:55.425             2.086           262.281
       260   09 Jun 2027 08:11:53.656   09 Jun 2027 08:12:00.035             6.379          1720.969
       261   09 Jun 2027 08:12:07.603   09 Jun 2027 08:12:08.089             0.486           214.844
       262   09 Jun 2027 08:12:24.943   09 Jun 2027 08:12:25.558             0.615           256.094
       263   09 Jun 2027 08:13:43.903   09 Jun 2027 08:13:48.766             4.863          2401.594
       264   09 Jun 2027 09:43:22.942   09 Jun 2027 09:43:38.667            15.725          7830.937
       265   09 Jun 2027 09:44:25.327   09 Jun 2027 09:44:31.639             6.312           488.969
       266   09 Jun 2027 09:45:14.345   09 Jun 2027 09:45:16.998             2.653          1313.875
       267   09 Jun 2027 09:45:36.515   09 Jun 2027 09:45:39.465             2.950           590.813
       268   09 Jun 2027 09:46:39.232   09 Jun 2027 09:46:49.176             9.944          1867.719
       269   09 Jun 2027 09:46:57.732   09 Jun 2027 09:46:57.732             0.000             0.000
       270   09 Jun 2027 09:47:16.242   09 Jun 2027 09:47:22.796             6.554           714.313
       271   09 Jun 2027 09:47:28.489   09 Jun 2027 09:47:31.345             2.856           177.906
       272   09 Jun 2027 09:47:48.186   09 Jun 2027 09:47:48.186             0.000             0.000
       273   09 Jun 2027 09:47:56.128   09 Jun 2027 09:48:00.438             4.310           774.469
       274   09 Jun 2027 09:48:48.820   09 Jun 2027 09:48:52.830             4.010          1480.844
       275   09 Jun 2027 09:49:08.168   09 Jun 2027 09:49:09.976             1.808           460.594
       276   09 Jun 2027 09:49:33.924   09 Jun 2027 09:49:35.503             1.579           748.375
       277   09 Jun 2027 09:49:43.910   09 Jun 2027 09:49:44.889             0.979           180.125
       278   09 Jun 2027 11:20:56.979   09 Jun 2027 11:21:17.117            20.138          9132.281
       279   09 Jun 2027 11:21:38.514   09 Jun 2027 11:21:50.416            11.902           668.656
       280   09 Jun 2027 11:22:02.481   09 Jun 2027 11:22:04.815             2.334           176.813
       281   09 Jun 2027 11:22:08.280   09 Jun 2027 11:22:08.280             0.000             0.000
       282   09 Jun 2027 11:22:29.249   09 Jun 2027 11:22:31.255             2.006           763.562
       283   09 Jun 2027 11:23:54.602   09 Jun 2027 11:24:02.282             7.680          2595.094
       284   09 Jun 2027 11:24:55.903   09 Jun 2027 11:25:06.449            10.546          1519.531
       285   10 Jun 2027 03:44:08.129   10 Jun 2027 03:44:42.488            34.359         17179.500
       286   10 Jun 2027 03:44:56.735   10 Jun 2027 03:46:37.976           101.241         50620.500
       287   10 Jun 2027 05:07:28.443   10 Jun 2027 05:08:48.844            80.401         40200.500
       288   10 Jun 2027 06:44:04.200   10 Jun 2027 06:45:36.344            92.144         46072.000
       289   10 Jun 2027 06:46:35.390   10 Jun 2027 06:46:41.278             5.888          2944.000
       290   10 Jun 2027 06:46:55.429   10 Jun 2027 06:47:04.311             8.882          4441.000
       291   10 Jun 2027 08:19:14.467   10 Jun 2027 08:19:44.995            30.528         11816.813
       292   10 Jun 2027 08:20:50.473   10 Jun 2027 08:20:55.712             5.239          1824.625
       293   10 Jun 2027 08:21:22.555   10 Jun 2027 08:21:24.816             2.261           838.844
       294   10 Jun 2027 08:22:03.604   10 Jun 2027 08:22:03.604             0.000             0.000
       295   10 Jun 2027 08:22:07.321   10 Jun 2027 08:22:10.864             3.543          1030.313
       296   10 Jun 2027 08:22:47.410   10 Jun 2027 08:22:59.217            11.807           742.375
       297   10 Jun 2027 08:23:52.379   10 Jun 2027 08:24:00.069             7.690          1525.094
       298   10 Jun 2027 08:24:54.080   10 Jun 2027 08:24:58.147             4.067          1391.187
       299   10 Jun 2027 08:25:28.108   10 Jun 2027 08:25:29.182             1.074           537.000
       300   10 Jun 2027 08:25:36.063   10 Jun 2027 08:25:36.063             0.000             0.000
       301   10 Jun 2027 08:25:36.797   10 Jun 2027 08:25:37.993             1.196           445.187
       302   10 Jun 2027 09:55:34.350   10 Jun 2027 09:55:50.533            16.183          7736.281
       303   10 Jun 2027 09:57:20.037   10 Jun 2027 09:57:25.859             5.822          2442.063
       304   10 Jun 2027 09:58:08.794   10 Jun 2027 09:58:10.912             2.118           779.344
       305   10 Jun 2027 09:59:43.231   10 Jun 2027 09:59:53.255            10.024          2884.969
       306   10 Jun 2027 10:00:13.896   10 Jun 2027 10:00:19.588             5.692           562.594
       307   10 Jun 2027 10:01:02.652   10 Jun 2027 10:01:04.806             2.154           796.125
       308   10 Jun 2027 10:01:27.374   10 Jun 2027 10:01:27.374             0.000             0.000
       309   10 Jun 2027 11:33:00.769   10 Jun 2027 11:33:17.422            16.653          8068.688
       310   10 Jun 2027 11:33:30.126   10 Jun 2027 11:33:32.324             2.198           300.719
       311   10 Jun 2027 11:34:12.622   10 Jun 2027 11:34:25.064            12.442          1259.312
       312   10 Jun 2027 11:35:00.252   10 Jun 2027 11:35:06.168             5.916          1054.656
       313   10 Jun 2027 11:35:32.417   10 Jun 2027 11:35:36.163             3.746           651.531
       314   10 Jun 2027 11:36:13.488   10 Jun 2027 11:36:18.644             5.156          1067.469
       315   10 Jun 2027 11:37:03.831   10 Jun 2027 11:37:06.965             3.134          1095.563
       316   10 Jun 2027 11:37:29.947   10 Jun 2027 11:37:30.116             0.169            84.500
       317   11 Jun 2027 03:45:20.766   11 Jun 2027 03:45:23.208             2.442          1221.000
       318   11 Jun 2027 03:56:05.016   11 Jun 2027 03:56:45.216            40.200         20100.000
       319   11 Jun 2027 03:57:02.903   11 Jun 2027 03:58:05.268            62.365         31182.500
       320   11 Jun 2027 03:58:45.534   11 Jun 2027 03:58:47.975             2.441          1220.500
       321   11 Jun 2027 05:20:02.363   11 Jun 2027 05:21:13.917            71.554         35777.000
       322   11 Jun 2027 06:55:50.923   11 Jun 2027 06:57:48.963           118.040         59020.000
       323   11 Jun 2027 08:30:43.805   11 Jun 2027 08:31:10.043            26.238         11928.437
       324   11 Jun 2027 08:31:52.281   11 Jun 2027 08:31:55.064             2.783          1303.875
       325   11 Jun 2027 08:32:36.762   11 Jun 2027 08:32:40.248             3.486          1118.906
       326   11 Jun 2027 08:33:26.904   11 Jun 2027 08:33:26.904             0.000             0.000
       327   11 Jun 2027 08:33:48.924   11 Jun 2027 08:33:52.060             3.136          1568.000
       328   11 Jun 2027 08:33:54.445   11 Jun 2027 08:33:57.069             2.624           464.187
       329   11 Jun 2027 08:34:08.793   11 Jun 2027 08:34:11.024             2.231           366.375
       330   11 Jun 2027 08:35:00.043   11 Jun 2027 08:35:02.854             2.811           894.250
       331   11 Jun 2027 08:36:26.378   11 Jun 2027 08:36:26.378             0.000             0.000
       332   11 Jun 2027 08:37:23.300   11 Jun 2027 08:37:31.568             8.268          3844.406
       333   11 Jun 2027 10:07:14.111   11 Jun 2027 10:07:30.815            16.704          8100.594
       334   11 Jun 2027 10:09:10.513   11 Jun 2027 10:09:15.192             4.679          2157.000
       335   11 Jun 2027 10:09:35.113   11 Jun 2027 10:09:36.424             1.311           622.531
       336   11 Jun 2027 10:09:46.335   11 Jun 2027 10:09:48.015             1.680           156.219
       337   11 Jun 2027 10:10:00.331   11 Jun 2027 10:10:00.651             0.320           160.000
       338   11 Jun 2027 10:10:50.528   11 Jun 2027 10:10:58.545             8.017          1626.281
       339   11 Jun 2027 10:11:34.985   11 Jun 2027 10:11:44.088             9.103          1137.500
       340   11 Jun 2027 10:12:04.252   11 Jun 2027 10:12:15.113            10.861           517.156
       341   11 Jun 2027 10:12:21.323   11 Jun 2027 10:12:28.214             6.891           194.063
       342   11 Jun 2027 10:12:36.883   11 Jun 2027 10:12:38.224             1.341           270.906
       343   11 Jun 2027 11:45:32.061   11 Jun 2027 11:45:47.639            15.578          7662.688
       344   11 Jun 2027 11:46:06.379   11 Jun 2027 11:46:10.747             4.368           585.625
       345   11 Jun 2027 11:47:39.100   11 Jun 2027 11:47:43.942             4.842          2421.000
       346   11 Jun 2027 11:48:28.360   11 Jun 2027 11:48:32.568             4.208          1717.875
       347   11 Jun 2027 11:48:51.115   11 Jun 2027 11:48:57.413             6.298           573.750
       348   12 Jun 2027 03:56:39.264   12 Jun 2027 03:56:56.040            16.776          8388.000
       349   12 Jun 2027 04:08:01.337   12 Jun 2027 04:09:12.092            70.755         35377.500
       350   12 Jun 2027 05:30:37.034   12 Jun 2027 05:31:40.242            63.208         31604.000
       351   12 Jun 2027 05:31:53.757   12 Jun 2027 05:32:28.672            34.915         17457.500
       352   12 Jun 2027 05:35:14.415   12 Jun 2027 05:35:17.810             3.395          1697.500
       353   12 Jun 2027 07:06:07.801   12 Jun 2027 07:06:58.622            50.821         25410.500
       354   12 Jun 2027 07:07:36.335   12 Jun 2027 07:08:48.824            72.489         36244.500
       355   12 Jun 2027 07:08:51.041   12 Jun 2027 07:08:58.698             7.657          3822.562
       356   12 Jun 2027 07:10:18.618   12 Jun 2027 07:10:20.194             1.576           788.000
       357   12 Jun 2027 07:12:01.125   12 Jun 2027 07:12:05.896             4.771          2385.500
       358   12 Jun 2027 08:42:27.963   12 Jun 2027 08:42:47.155            19.192          7977.437
       359   12 Jun 2027 08:42:59.375   12 Jun 2027 08:42:59.833             0.458           229.000
       360   12 Jun 2027 08:44:06.021   12 Jun 2027 08:44:10.505             4.484          2073.344
       361   12 Jun 2027 08:44:42.848   12 Jun 2027 08:44:46.494             3.646           923.625
       362   12 Jun 2027 08:46:03.794   12 Jun 2027 08:46:06.655             2.861          1204.344
       363   12 Jun 2027 08:46:51.573   12 Jun 2027 08:46:58.046             6.473          1403.688
       364   12 Jun 2027 08:47:26.780   12 Jun 2027 08:47:32.477             5.697           728.687
       365   12 Jun 2027 08:47:43.698   12 Jun 2027 08:47:44.187             0.489            16.844
       366   12 Jun 2027 08:48:18.157   12 Jun 2027 08:48:19.626             1.469           394.344
       367   12 Jun 2027 08:48:48.985   12 Jun 2027 08:48:48.985             0.000             0.000
       368   12 Jun 2027 08:49:05.119   12 Jun 2027 08:49:07.813             2.694          1277.687
       369   12 Jun 2027 10:19:34.034   12 Jun 2027 10:19:55.839            21.805          7872.969
       370   12 Jun 2027 10:22:10.194   12 Jun 2027 10:22:14.619             4.425          1922.031
       371   12 Jun 2027 10:22:16.532   12 Jun 2027 10:22:17.206             0.674            44.688
       372   12 Jun 2027 10:22:51.500   12 Jun 2027 10:22:52.667             1.167           419.375
       373   12 Jun 2027 10:23:45.962   12 Jun 2027 10:23:49.180             3.218          1447.937
       374   12 Jun 2027 10:24:01.777   12 Jun 2027 10:24:02.818             1.041           393.656
       375   12 Jun 2027 10:24:18.645   12 Jun 2027 10:24:21.965             3.320           494.594
       376   12 Jun 2027 10:24:26.854   12 Jun 2027 10:24:27.813             0.959           152.781
       377   12 Jun 2027 10:24:52.381   12 Jun 2027 10:24:59.830             7.449           767.750
       378   12 Jun 2027 10:25:14.161   12 Jun 2027 10:25:15.183             1.022           292.188
       379   12 Jun 2027 10:25:27.916   12 Jun 2027 10:25:30.326             2.410           117.906
       380   12 Jun 2027 10:25:45.554   12 Jun 2027 10:25:49.378             3.824           475.875
       381   12 Jun 2027 10:25:50.101   12 Jun 2027 10:25:51.783             1.682            22.594
       382   12 Jun 2027 11:57:29.542   12 Jun 2027 11:57:44.279            14.737          7330.344
       383   12 Jun 2027 11:58:44.375   12 Jun 2027 11:58:50.019             5.644          1684.187
       384   12 Jun 2027 11:59:09.297   12 Jun 2027 11:59:09.524             0.227           113.500
       385   12 Jun 2027 11:59:32.556   12 Jun 2027 11:59:38.525             5.969          1020.219
       386   13 Jun 2027 04:08:20.553   13 Jun 2027 04:08:50.197            29.644         14822.000
       387   13 Jun 2027 04:09:26.533   13 Jun 2027 04:09:47.220            20.687         10343.500
       388   13 Jun 2027 04:20:04.762   13 Jun 2027 04:20:53.452            48.690         24345.000
       389   13 Jun 2027 05:42:19.045   13 Jun 2027 05:43:25.244            66.199         33099.500
       390   13 Jun 2027 05:44:12.804   13 Jun 2027 05:44:46.975            34.171         17085.500
       391   13 Jun 2027 05:46:43.122   13 Jun 2027 05:46:43.122             0.000             0.000
       392   13 Jun 2027 07:17:15.398   13 Jun 2027 07:19:12.973           117.575         58787.500
       393   13 Jun 2027 07:19:20.909   13 Jun 2027 07:19:34.414            13.505          6752.500
       394   13 Jun 2027 07:19:53.448   13 Jun 2027 07:20:00.104             6.656          1789.593
       395   13 Jun 2027 07:22:06.666   13 Jun 2027 07:22:10.088             3.422          1711.000
       396   13 Jun 2027 07:22:18.239   13 Jun 2027 07:22:19.745             1.506           753.000
       397   13 Jun 2027 07:22:56.621   13 Jun 2027 07:23:03.830             7.209          2898.156
       398   13 Jun 2027 07:24:03.622   13 Jun 2027 07:24:03.925             0.303           151.500
       399   13 Jun 2027 07:24:09.290   13 Jun 2027 07:24:13.283             3.993          1655.625
       400   13 Jun 2027 08:54:45.432   13 Jun 2027 08:55:01.757            16.325          8162.500
       401   13 Jun 2027 08:55:34.628   13 Jun 2027 08:55:42.719             8.091          2022.219
       402   13 Jun 2027 08:56:09.174   13 Jun 2027 08:56:10.379             1.205           304.500
       403   13 Jun 2027 08:56:16.879   13 Jun 2027 08:56:17.495             0.616           203.125
       404   13 Jun 2027 08:56:33.169   13 Jun 2027 08:56:35.279             2.110           386.062
       405   13 Jun 2027 08:57:35.567   13 Jun 2027 08:57:39.072             3.505          1545.594
       406   13 Jun 2027 08:58:50.653   13 Jun 2027 08:58:58.570             7.917          2218.031
       407   13 Jun 2027 08:59:03.608   13 Jun 2027 08:59:09.834             6.226           137.437
       408   13 Jun 2027 08:59:53.439   13 Jun 2027 08:59:55.255             1.816           908.000
       409   13 Jun 2027 09:00:08.410   13 Jun 2027 09:00:14.058             5.648           709.031
       410   13 Jun 2027 09:01:12.300   13 Jun 2027 09:01:18.276             5.976          1820.063
       411   13 Jun 2027 09:01:50.435   13 Jun 2027 09:01:54.362             3.927          1004.969
       412   13 Jun 2027 09:02:01.767   13 Jun 2027 09:02:02.544             0.777           123.938
       413   13 Jun 2027 10:31:30.186   13 Jun 2027 10:31:48.868            18.682          7245.125
       414   13 Jun 2027 10:32:06.498   13 Jun 2027 10:32:07.767             1.269           532.219
       415   13 Jun 2027 10:33:04.161   13 Jun 2027 10:33:05.297             1.136           158.344
       416   13 Jun 2027 10:34:11.380   13 Jun 2027 10:34:16.685             5.305          2065.094
       417   13 Jun 2027 10:35:27.111   13 Jun 2027 10:35:31.573             4.462          1873.031
       418   13 Jun 2027 10:35:59.842   13 Jun 2027 10:36:00.344             0.502           251.000
       419   13 Jun 2027 10:36:43.987   13 Jun 2027 10:36:50.231             6.244          1855.625
       420   13 Jun 2027 10:37:47.881   13 Jun 2027 10:37:52.392             4.511          1801.562
