uniorb/output/strategy_1/Camera/Camera_KinoSat_111302.txt

KinoSat_111302
-------------------------
    Access    *     Start Time (UTCG)     *     Stop Time (UTCG)  *   Duration (s) *   Data (Mbytes)
         1   01 Jun 2027 03:57:06.523   01 Jun 2027 03:59:23.223           136.700         68350.000
         2   01 Jun 2027 03:59:33.022   01 Jun 2027 03:59:33.022             0.000             0.000
         3   01 Jun 2027 04:00:10.216   01 Jun 2027 04:00:30.832            20.616         10308.000
         4   01 Jun 2027 05:20:02.070   01 Jun 2027 05:21:00.502            58.432         29216.000
         5   01 Jun 2027 05:21:10.792   01 Jun 2027 05:21:31.025            20.233         10116.500
         6   01 Jun 2027 06:56:37.080   01 Jun 2027 06:58:44.951           127.871         63935.500
         7   01 Jun 2027 06:59:24.085   01 Jun 2027 06:59:24.085             0.000             0.000
         8   01 Jun 2027 08:31:45.488   01 Jun 2027 08:32:16.766            31.278         15639.000
         9   01 Jun 2027 08:32:25.075   01 Jun 2027 08:32:57.555            32.480         16240.000
        10   01 Jun 2027 08:33:28.263   01 Jun 2027 08:34:08.038            39.775         19887.500
        11   01 Jun 2027 08:35:22.525   01 Jun 2027 08:35:31.268             8.743          4371.500
        12   01 Jun 2027 08:36:32.280   01 Jun 2027 08:36:34.182             1.902           951.000
        13   01 Jun 2027 08:36:56.136   01 Jun 2027 08:37:12.476            16.340          8170.000
        14   01 Jun 2027 08:38:28.021   01 Jun 2027 08:38:32.669             4.648          2324.000
        15   01 Jun 2027 10:08:05.606   01 Jun 2027 10:09:48.472           102.866         51433.000
        16   01 Jun 2027 10:12:12.191   01 Jun 2027 10:12:16.484             4.293          2146.500
        17   01 Jun 2027 10:12:18.074   01 Jun 2027 10:12:19.312             1.238           619.000
        18   01 Jun 2027 10:13:19.678   01 Jun 2027 10:13:33.124            13.446          6723.000
        19   01 Jun 2027 11:45:38.560   01 Jun 2027 11:47:38.938           120.378         60189.000
        20   01 Jun 2027 11:48:05.721   01 Jun 2027 11:48:23.177            17.456          8728.000
        21   01 Jun 2027 11:49:21.555   01 Jun 2027 11:49:26.354             4.799          2399.500
        22   02 Jun 2027 04:08:52.092   02 Jun 2027 04:09:25.694            33.602         16801.000
        23   02 Jun 2027 04:09:40.559   02 Jun 2027 04:10:46.980            66.421         33210.500
        24   02 Jun 2027 04:11:12.140   02 Jun 2027 04:11:26.626            14.486          7243.000
        25   02 Jun 2027 04:11:32.917   02 Jun 2027 04:11:32.917             0.000             0.000
        26   02 Jun 2027 05:32:13.130   02 Jun 2027 05:33:21.221            68.091         34045.500
        27   02 Jun 2027 05:33:47.023   02 Jun 2027 05:33:56.057             9.034          4517.000
        28   02 Jun 2027 07:08:47.920   02 Jun 2027 07:10:59.125           131.205         65602.500
        29   02 Jun 2027 08:43:57.626   02 Jun 2027 08:45:46.869           109.243         54621.500
        30   02 Jun 2027 08:46:01.313   02 Jun 2027 08:46:06.148             4.835          2417.500
        31   02 Jun 2027 08:47:18.857   02 Jun 2027 08:47:45.673            26.816         13408.000
        32   02 Jun 2027 08:48:01.515   02 Jun 2027 08:48:20.196            18.681          9340.500
        33   02 Jun 2027 08:50:33.084   02 Jun 2027 08:50:33.543             0.459           229.500
        34   02 Jun 2027 10:20:18.853   02 Jun 2027 10:22:10.251           111.398         55699.000
        35   02 Jun 2027 10:22:25.266   02 Jun 2027 10:22:32.945             7.679          3839.500
        36   02 Jun 2027 10:24:32.860   02 Jun 2027 10:24:32.966             0.106            53.000
        37   02 Jun 2027 10:25:14.749   02 Jun 2027 10:25:21.353             6.604          3302.000
        38   02 Jun 2027 10:26:05.861   02 Jun 2027 10:26:10.432             4.571          2285.500
        39   02 Jun 2027 10:26:18.948   02 Jun 2027 10:26:29.204            10.256          5128.000
        40   02 Jun 2027 11:57:35.975   02 Jun 2027 11:58:55.199            79.224         39612.000
        41   02 Jun 2027 11:59:05.842   02 Jun 2027 11:59:41.583            35.741         17870.500
        42   03 Jun 2027 04:20:48.793   03 Jun 2027 04:21:28.674            39.881         19940.500
        43   03 Jun 2027 04:21:47.603   03 Jun 2027 04:22:15.997            28.394         14197.000
        44   03 Jun 2027 04:22:58.609   03 Jun 2027 04:23:11.695            13.086          6543.000
        45   03 Jun 2027 05:44:44.196   03 Jun 2027 05:46:23.604            99.408         49704.000
        46   03 Jun 2027 07:20:36.626   03 Jun 2027 07:22:54.592           137.966         68983.000
        47   03 Jun 2027 07:23:57.909   03 Jun 2027 07:23:57.909             0.000             0.000
        48   03 Jun 2027 08:55:30.225   03 Jun 2027 08:55:58.517            28.292         14146.000
        49   03 Jun 2027 08:56:09.628   03 Jun 2027 08:57:50.023           100.395         50197.500
        50   03 Jun 2027 08:58:21.734   03 Jun 2027 08:58:34.262            12.528          6264.000
        51   03 Jun 2027 09:02:11.797   03 Jun 2027 09:02:25.467            13.670          6835.000
        52   03 Jun 2027 10:31:56.542   03 Jun 2027 10:33:01.138            64.596         31685.469
        53   03 Jun 2027 10:33:06.720   03 Jun 2027 10:33:08.482             1.762           174.437
        54   03 Jun 2027 10:33:25.093   03 Jun 2027 10:33:26.924             1.831            95.875
        55   03 Jun 2027 10:34:45.617   03 Jun 2027 10:34:50.560             4.943          1551.063
        56   03 Jun 2027 10:36:14.396   03 Jun 2027 10:36:17.580             3.184          1592.000
        57   03 Jun 2027 10:37:11.050   03 Jun 2027 10:37:22.497            11.447          2487.875
        58   03 Jun 2027 10:38:10.194   03 Jun 2027 10:38:16.582             6.388          1490.531
        59   04 Jun 2027 03:00:00.000   04 Jun 2027 03:00:02.282             2.282          1141.000
        60   04 Jun 2027 03:00:19.506   04 Jun 2027 03:00:44.340            24.834         12417.000
        61   04 Jun 2027 03:01:31.859   04 Jun 2027 03:01:33.350             1.491           745.500
        62   04 Jun 2027 03:02:07.685   04 Jun 2027 03:02:11.750             4.065          2032.500
        63   04 Jun 2027 03:02:16.174   04 Jun 2027 03:02:22.639             6.465          3232.500
        64   04 Jun 2027 03:02:38.315   04 Jun 2027 03:03:22.588            44.273         22136.500
        65   04 Jun 2027 04:21:26.051   04 Jun 2027 04:21:58.100            32.049         16024.500
        66   04 Jun 2027 04:32:44.964   04 Jun 2027 04:33:13.515            28.551         14275.500
        67   04 Jun 2027 04:33:37.722   04 Jun 2027 04:33:45.931             8.209          4104.500
        68   04 Jun 2027 04:35:25.252   04 Jun 2027 04:35:29.104             3.852          1926.000
        69   04 Jun 2027 05:55:20.170   04 Jun 2027 05:56:24.761            64.591         32295.500
        70   04 Jun 2027 05:57:31.797   04 Jun 2027 05:57:49.251            17.454          8727.000
        71   04 Jun 2027 07:30:52.614   04 Jun 2027 07:31:42.868            50.254         25127.000
        72   04 Jun 2027 07:32:21.002   04 Jun 2027 07:33:51.874            90.872         45436.000
        73   04 Jun 2027 07:35:08.974   04 Jun 2027 07:35:15.958             6.984          3492.000
        74   04 Jun 2027 07:36:09.113   04 Jun 2027 07:36:16.065             6.952          2632.375
        75   04 Jun 2027 09:07:10.600   04 Jun 2027 09:07:32.643            22.043          7816.219
        76   04 Jun 2027 09:08:09.642   04 Jun 2027 09:08:12.380             2.738          1156.219
        77   04 Jun 2027 09:08:44.320   04 Jun 2027 09:08:44.578             0.258            62.562
        78   04 Jun 2027 09:08:49.281   04 Jun 2027 09:08:50.528             1.247           123.062
        79   04 Jun 2027 09:09:25.679   04 Jun 2027 09:09:29.432             3.753          1098.469
        80   04 Jun 2027 09:10:52.034   04 Jun 2027 09:10:57.068             5.034          2517.000
        81   04 Jun 2027 09:11:00.510   04 Jun 2027 09:11:04.872             4.362           136.125
        82   04 Jun 2027 09:11:34.760   04 Jun 2027 09:11:40.620             5.860           166.125
        83   04 Jun 2027 09:11:57.778   04 Jun 2027 09:11:59.376             1.598           142.625
        84   04 Jun 2027 09:12:19.330   04 Jun 2027 09:12:23.461             4.131           391.750
        85   04 Jun 2027 09:12:52.771   04 Jun 2027 09:12:53.120             0.349           174.500
        86   04 Jun 2027 09:13:11.575   04 Jun 2027 09:13:14.043             2.468          1230.625
        87   04 Jun 2027 09:13:15.936   04 Jun 2027 09:13:18.856             2.920            59.156
        88   04 Jun 2027 09:13:34.246   04 Jun 2027 09:13:37.369             3.123           480.938
        89   04 Jun 2027 09:14:39.316   04 Jun 2027 09:14:43.390             4.074          1832.562
        90   04 Jun 2027 10:44:16.369   04 Jun 2027 10:44:33.681            17.312          8457.656
        91   04 Jun 2027 10:45:43.291   04 Jun 2027 10:45:51.311             8.020          2144.062
        92   04 Jun 2027 10:45:54.177   04 Jun 2027 10:46:00.449             6.272            89.562
        93   04 Jun 2027 10:46:15.591   04 Jun 2027 10:46:18.749             3.158           378.594
        94   04 Jun 2027 10:46:29.073   04 Jun 2027 10:46:31.347             2.274           255.625
        95   04 Jun 2027 10:46:35.933   04 Jun 2027 10:46:36.593             0.660            33.750
        96   04 Jun 2027 10:46:57.566   04 Jun 2027 10:46:59.576             2.010           342.531
        97   04 Jun 2027 10:47:09.034   04 Jun 2027 10:47:09.034             0.000             0.000
        98   04 Jun 2027 10:47:44.844   04 Jun 2027 10:47:48.916             4.072          1414.625
        99   04 Jun 2027 10:48:21.593   04 Jun 2027 10:48:26.216             4.623           789.719
       100   04 Jun 2027 10:48:59.468   04 Jun 2027 10:49:03.268             3.800          1039.125
       101   04 Jun 2027 10:49:32.134   04 Jun 2027 10:49:45.163            13.029           877.250
       102   04 Jun 2027 10:50:19.164   04 Jun 2027 10:50:24.471             5.307           755.281
       103   05 Jun 2027 03:08:13.810   05 Jun 2027 03:09:13.914            60.104         30052.000
       104   05 Jun 2027 03:10:15.203   05 Jun 2027 03:10:22.656             7.453          3726.500
       105   05 Jun 2027 03:10:40.424   05 Jun 2027 03:10:42.655             2.231          1115.500
       106   05 Jun 2027 03:12:01.478   05 Jun 2027 03:12:08.228             6.750          3375.000
       107   05 Jun 2027 03:12:21.583   05 Jun 2027 03:12:24.124             2.541          1270.500
       108   05 Jun 2027 03:13:24.464   05 Jun 2027 03:13:35.211            10.747          5373.500
       109   05 Jun 2027 03:14:23.872   05 Jun 2027 03:14:27.426             3.554          1777.000
       110   05 Jun 2027 03:14:59.446   05 Jun 2027 03:15:22.253            22.807         11403.500
       111   05 Jun 2027 04:33:04.231   05 Jun 2027 04:33:27.713            23.482         11741.000
       112   05 Jun 2027 04:44:48.178   05 Jun 2027 04:45:32.603            44.425         22212.500
       113   05 Jun 2027 06:07:03.444   05 Jun 2027 06:08:02.609            59.165         29582.500
       114   05 Jun 2027 06:09:31.150   05 Jun 2027 06:09:52.212            21.062         10531.000
       115   05 Jun 2027 06:11:19.314   05 Jun 2027 06:11:19.314             0.000             0.000
       116   05 Jun 2027 07:42:01.264   05 Jun 2027 07:43:41.031            99.767         49883.500
       117   05 Jun 2027 07:44:41.010   05 Jun 2027 07:44:41.010             0.000             0.000
       118   05 Jun 2027 07:47:13.852   05 Jun 2027 07:47:16.454             2.602          1301.000
       119   05 Jun 2027 07:47:28.570   05 Jun 2027 07:47:28.570             0.000             0.000
       120   05 Jun 2027 07:47:59.164   05 Jun 2027 07:48:15.844            16.680          8340.000
       121   05 Jun 2027 07:48:58.123   05 Jun 2027 07:49:01.250             3.127          1348.812
       122   05 Jun 2027 09:19:29.772   05 Jun 2027 09:19:43.357            13.585          6048.750
       123   05 Jun 2027 09:22:33.758   05 Jun 2027 09:22:41.439             7.681          3840.500
       124   05 Jun 2027 09:23:06.407   05 Jun 2027 09:23:13.204             6.797          1365.000
       125   05 Jun 2027 09:23:31.169   05 Jun 2027 09:23:31.169             0.000             0.000
       126   05 Jun 2027 09:24:16.574   05 Jun 2027 09:24:21.712             5.138          1980.312
       127   05 Jun 2027 09:24:35.270   05 Jun 2027 09:24:38.674             3.404           312.594
       128   05 Jun 2027 09:25:51.478   05 Jun 2027 09:25:56.589             5.111          2275.125
       129   05 Jun 2027 09:26:34.511   05 Jun 2027 09:26:42.790             8.279           927.344
       130   05 Jun 2027 10:56:14.579   05 Jun 2027 10:56:31.586            17.007          7635.469
       131   05 Jun 2027 10:56:39.580   05 Jun 2027 10:56:44.824             5.244           242.219
       132   05 Jun 2027 10:57:50.811   05 Jun 2027 10:57:52.611             1.800           722.781
       133   05 Jun 2027 10:58:36.781   05 Jun 2027 10:58:37.041             0.260            65.688
       134   05 Jun 2027 10:59:11.396   05 Jun 2027 10:59:13.688             2.292           505.750
       135   05 Jun 2027 10:59:53.608   05 Jun 2027 11:00:00.883             7.275          1247.500
       136   05 Jun 2027 11:00:57.465   05 Jun 2027 11:01:01.101             3.636          1713.687
       137   05 Jun 2027 11:02:00.289   05 Jun 2027 11:02:08.606             8.317          1812.625
       138   05 Jun 2027 11:02:25.121   05 Jun 2027 11:02:26.968             1.847           217.250
       139   05 Jun 2027 11:02:46.289   05 Jun 2027 11:02:46.478             0.189            88.563
       140   06 Jun 2027 03:20:15.865   06 Jun 2027 03:21:40.156            84.291         42145.500
       141   06 Jun 2027 03:22:07.711   06 Jun 2027 03:22:11.858             4.147          2073.500
       142   06 Jun 2027 03:22:21.516   06 Jun 2027 03:22:24.405             2.889          1444.500
       143   06 Jun 2027 03:22:41.199   06 Jun 2027 03:22:49.249             8.050          4025.000
       144   06 Jun 2027 03:23:03.102   06 Jun 2027 03:23:14.033            10.931          5465.500
       145   06 Jun 2027 03:23:22.455   06 Jun 2027 03:23:23.599             1.144           572.000
       146   06 Jun 2027 03:24:11.627   06 Jun 2027 03:24:17.324             5.697          2848.500
       147   06 Jun 2027 03:25:03.376   06 Jun 2027 03:25:04.742             1.366           683.000
       148   06 Jun 2027 04:44:37.586   06 Jun 2027 04:45:18.456            40.870         20435.000
       149   06 Jun 2027 04:56:53.705   06 Jun 2027 04:57:21.220            27.515         13757.500
       150   06 Jun 2027 06:18:36.758   06 Jun 2027 06:19:56.251            79.493         39746.500
       151   06 Jun 2027 06:20:29.862   06 Jun 2027 06:20:53.892            24.030         12015.000
       152   06 Jun 2027 07:53:29.279   06 Jun 2027 07:54:28.145            58.866         28816.219
       153   06 Jun 2027 07:55:29.253   06 Jun 2027 07:55:32.386             3.133          1566.500
       154   06 Jun 2027 07:55:34.883   06 Jun 2027 07:55:38.516             3.633           421.156
       155   06 Jun 2027 07:56:49.691   06 Jun 2027 07:56:49.691             0.000             0.000
       156   06 Jun 2027 07:57:55.426   06 Jun 2027 07:58:04.427             9.001          4210.875
       157   06 Jun 2027 07:59:16.424   06 Jun 2027 07:59:16.424             0.000             0.000
       158   06 Jun 2027 07:59:31.743   06 Jun 2027 07:59:37.327             5.584          2657.563
       159   06 Jun 2027 08:01:07.957   06 Jun 2027 08:01:13.781             5.824          2267.625
       160   06 Jun 2027 09:31:22.973   06 Jun 2027 09:31:37.389            14.416          7042.375
       161   06 Jun 2027 09:33:29.277   06 Jun 2027 09:33:35.044             5.767          2883.500
       162   06 Jun 2027 09:34:40.182   06 Jun 2027 09:34:45.527             5.345          2648.562
       163   06 Jun 2027 09:35:35.150   06 Jun 2027 09:35:38.088             2.938          1469.000
       164   06 Jun 2027 09:35:45.647   06 Jun 2027 09:35:47.558             1.911           317.937
       165   06 Jun 2027 09:36:47.637   06 Jun 2027 09:36:51.137             3.500          1606.437
       166   06 Jun 2027 09:37:53.474   06 Jun 2027 09:37:58.164             4.690          1948.031
       167   06 Jun 2027 09:38:00.349   06 Jun 2027 09:38:03.175             2.826            68.281
       168   06 Jun 2027 09:38:10.546   06 Jun 2027 09:38:10.681             0.135            24.375
       169   06 Jun 2027 09:38:29.609   06 Jun 2027 09:38:39.454             9.845           544.156
       170   06 Jun 2027 11:08:06.918   06 Jun 2027 11:08:15.633             8.715          4357.500
       171   06 Jun 2027 11:08:41.262   06 Jun 2027 11:08:49.442             8.180          2846.250
       172   06 Jun 2027 11:10:31.429   06 Jun 2027 11:10:37.234             5.805          2045.031
       173   06 Jun 2027 11:11:05.958   06 Jun 2027 11:11:09.125             3.167           897.625
       174   06 Jun 2027 11:11:12.031   06 Jun 2027 11:11:13.602             1.571            90.812
       175   06 Jun 2027 11:12:04.852   06 Jun 2027 11:12:07.388             2.536          1268.000
       176   06 Jun 2027 11:12:59.982   06 Jun 2027 11:13:05.995             6.013          1925.906
       177   06 Jun 2027 11:13:09.974   06 Jun 2027 11:13:13.552             3.578            33.656
       178   06 Jun 2027 11:13:45.969   06 Jun 2027 11:13:48.092             2.123           964.719
       179   06 Jun 2027 11:13:55.659   06 Jun 2027 11:13:55.659             0.000             0.000
       180   06 Jun 2027 11:14:12.500   06 Jun 2027 11:14:16.254             3.754           762.750
       181   06 Jun 2027 11:14:30.361   06 Jun 2027 11:14:37.468             7.107           414.656
       182   06 Jun 2027 11:14:45.343   06 Jun 2027 11:14:45.968             0.625           107.906
       183   07 Jun 2027 03:32:39.768   07 Jun 2027 03:34:26.076           106.308         53154.000
       184   07 Jun 2027 03:35:40.157   07 Jun 2027 03:35:42.028             1.871           935.500
       185   07 Jun 2027 03:36:23.676   07 Jun 2027 03:36:38.322            14.646          7323.000
       186   07 Jun 2027 03:37:41.007   07 Jun 2027 03:37:41.007             0.000             0.000
       187   07 Jun 2027 04:56:33.612   07 Jun 2027 04:57:21.270            47.658         23829.000
       188   07 Jun 2027 04:58:09.269   07 Jun 2027 04:58:19.071             9.802          4901.000
       189   07 Jun 2027 06:32:34.512   07 Jun 2027 06:34:04.904            90.392         45196.000
       190   07 Jun 2027 06:34:09.203   07 Jun 2027 06:34:10.154             0.951           475.500
       191   07 Jun 2027 06:35:03.529   07 Jun 2027 06:35:13.481             9.952          4976.000
       192   07 Jun 2027 08:06:21.965   07 Jun 2027 08:07:21.830            59.865         29801.281
       193   07 Jun 2027 08:07:53.385   07 Jun 2027 08:07:55.320             1.935           556.125
       194   07 Jun 2027 08:08:36.890   07 Jun 2027 08:08:38.656             1.766           883.000
       195   07 Jun 2027 08:09:55.189   07 Jun 2027 08:09:55.189             0.000             0.000
       196   07 Jun 2027 08:10:59.809   07 Jun 2027 08:11:10.016            10.207          4761.875
       197   07 Jun 2027 08:13:04.809   07 Jun 2027 08:13:13.153             8.344          3407.156
       198   07 Jun 2027 09:43:30.791   07 Jun 2027 09:43:44.745            13.954          6515.813
       199   07 Jun 2027 09:44:16.730   07 Jun 2027 09:44:17.745             1.015           123.719
       200   07 Jun 2027 09:44:46.305   07 Jun 2027 09:44:48.577             2.272           878.656
       201   07 Jun 2027 09:45:03.737   07 Jun 2027 09:45:04.528             0.791           349.875
       202   07 Jun 2027 09:45:29.354   07 Jun 2027 09:45:33.818             4.464           623.969
       203   07 Jun 2027 09:46:14.897   07 Jun 2027 09:46:26.270            11.373          1186.500
       204   07 Jun 2027 09:47:09.905   07 Jun 2027 09:47:13.169             3.264          1261.937
       205   07 Jun 2027 09:47:35.971   07 Jun 2027 09:47:44.015             8.044           712.562
       206   07 Jun 2027 09:48:16.796   07 Jun 2027 09:48:21.834             5.038           901.719
       207   07 Jun 2027 09:48:40.349   07 Jun 2027 09:48:43.262             2.913           578.594
       208   07 Jun 2027 09:48:56.226   07 Jun 2027 09:48:56.372             0.146            73.000
       209   07 Jun 2027 09:49:19.690   07 Jun 2027 09:49:25.623             5.933          1041.406
       210   07 Jun 2027 09:50:25.185   07 Jun 2027 09:50:28.553             3.368          1175.844
       211   07 Jun 2027 09:50:31.756   07 Jun 2027 09:50:32.596             0.840            87.250
       212   07 Jun 2027 09:50:38.686   07 Jun 2027 09:50:43.844             5.158           173.969
       213   07 Jun 2027 11:20:45.359   07 Jun 2027 11:21:01.515            16.156          7932.719
       214   07 Jun 2027 11:21:54.620   07 Jun 2027 11:22:04.405             9.785          1571.375
       215   07 Jun 2027 11:23:01.291   07 Jun 2027 11:23:03.780             2.489          1234.750
       216   07 Jun 2027 11:23:18.471   07 Jun 2027 11:23:19.525             1.054           421.719
       217   07 Jun 2027 11:24:17.654   07 Jun 2027 11:24:25.148             7.494          1816.531
       218   07 Jun 2027 11:24:47.763   07 Jun 2027 11:24:49.917             2.154           502.656
       219   07 Jun 2027 11:25:37.642   07 Jun 2027 11:25:43.625             5.983          1491.406
       220   07 Jun 2027 11:26:19.115   07 Jun 2027 11:26:20.642             1.527           760.031
       221   08 Jun 2027 03:45:04.483   08 Jun 2027 03:47:19.283           134.800         67400.000
       222   08 Jun 2027 03:47:50.259   08 Jun 2027 03:47:53.186             2.927          1463.500
       223   08 Jun 2027 05:08:26.662   08 Jun 2027 05:09:23.999            57.337         28668.500
       224   08 Jun 2027 06:44:47.661   08 Jun 2027 06:46:34.864           107.203         53601.500
       225   08 Jun 2027 06:46:53.013   08 Jun 2027 06:47:03.584            10.571          5285.500
       226   08 Jun 2027 06:47:44.307   08 Jun 2027 06:47:52.809             8.502          4251.000
       227   08 Jun 2027 08:18:47.051   08 Jun 2027 08:19:09.762            22.711         11071.187
       228   08 Jun 2027 08:20:30.117   08 Jun 2027 08:20:34.138             4.021          1697.469
       229   08 Jun 2027 08:21:43.963   08 Jun 2027 08:21:53.393             9.430          1974.656
       230   08 Jun 2027 08:22:48.308   08 Jun 2027 08:22:56.073             7.765          1716.094
       231   08 Jun 2027 08:23:37.717   08 Jun 2027 08:23:39.753             2.036           728.406
       232   08 Jun 2027 08:23:59.990   08 Jun 2027 08:24:01.469             1.479           359.875
       233   08 Jun 2027 08:25:28.828   08 Jun 2027 08:25:30.537             1.709           854.500
       234   08 Jun 2027 08:26:03.454   08 Jun 2027 08:26:12.895             9.441          2676.563
       235   08 Jun 2027 08:26:41.689   08 Jun 2027 08:26:47.073             5.384           597.156
       236   08 Jun 2027 09:55:56.294   08 Jun 2027 09:56:14.224            17.930          8233.250
       237   08 Jun 2027 09:57:57.523   08 Jun 2027 09:58:00.517             2.994           672.125
       238   08 Jun 2027 09:58:41.653   08 Jun 2027 09:58:44.616             2.963          1207.031
       239   08 Jun 2027 09:58:57.190   08 Jun 2027 09:58:58.995             1.805           383.938
       240   08 Jun 2027 09:59:17.234   08 Jun 2027 09:59:19.025             1.791           397.219
       241   08 Jun 2027 10:00:17.362   08 Jun 2027 10:00:20.579             3.217          1277.656
       242   08 Jun 2027 10:00:25.536   08 Jun 2027 10:00:27.844             2.308            97.063
       243   08 Jun 2027 10:01:11.329   08 Jun 2027 10:01:16.198             4.869           845.469
       244   08 Jun 2027 10:02:36.237   08 Jun 2027 10:02:37.379             1.142           571.000
       245   08 Jun 2027 11:32:55.388   08 Jun 2027 11:33:11.601            16.213          7483.094
       246   08 Jun 2027 11:34:30.977   08 Jun 2027 11:34:36.239             5.262          2228.000
       247   08 Jun 2027 11:34:58.279   08 Jun 2027 11:35:01.744             3.465           688.750
       248   08 Jun 2027 11:35:15.306   08 Jun 2027 11:35:18.840             3.534            84.156
       249   08 Jun 2027 11:36:14.901   08 Jun 2027 11:36:18.496             3.595          1692.344
       250   08 Jun 2027 11:36:31.082   08 Jun 2027 11:36:32.357             1.275           393.313
       251   08 Jun 2027 11:36:37.950   08 Jun 2027 11:36:46.883             8.933           170.938
       252   08 Jun 2027 11:38:03.268   08 Jun 2027 11:38:09.141             5.873          2123.375
       253   09 Jun 2027 03:57:22.758   09 Jun 2027 03:59:27.629           124.871         62435.500
       254   09 Jun 2027 03:59:39.040   09 Jun 2027 03:59:40.047             1.007           503.500
       255   09 Jun 2027 05:20:20.333   09 Jun 2027 05:21:23.820            63.487         31743.500
       256   09 Jun 2027 06:56:53.325   09 Jun 2027 06:58:52.840           119.515         59757.500
       257   09 Jun 2027 06:59:28.192   09 Jun 2027 06:59:33.259             5.067          2533.500
       258   09 Jun 2027 08:32:02.164   09 Jun 2027 08:32:25.358            23.194          7531.500
       259   09 Jun 2027 08:32:40.367   09 Jun 2027 08:32:43.679             3.312           200.781
       260   09 Jun 2027 08:33:33.760   09 Jun 2027 08:33:42.487             8.727           988.812
       261   09 Jun 2027 08:34:25.611   09 Jun 2027 08:34:29.984             4.373          1252.438
       262   09 Jun 2027 08:34:46.673   09 Jun 2027 08:34:50.001             3.328           521.531
       263   09 Jun 2027 08:35:50.411   09 Jun 2027 08:35:52.918             2.507          1195.375
       264   09 Jun 2027 08:36:24.527   09 Jun 2027 08:36:27.904             3.377           716.031
       265   09 Jun 2027 08:36:53.410   09 Jun 2027 08:36:54.404             0.994           340.406
       266   09 Jun 2027 08:37:07.988   09 Jun 2027 08:37:10.808             2.820           254.219
       267   09 Jun 2027 08:37:24.617   09 Jun 2027 08:37:26.422             1.805           431.531
       268   09 Jun 2027 08:38:30.950   09 Jun 2027 08:38:35.263             4.313          1924.531
       269   09 Jun 2027 08:38:43.703   09 Jun 2027 08:38:46.846             3.143           167.781
       270   09 Jun 2027 10:08:22.492   09 Jun 2027 10:08:36.184            13.692          6390.844
       271   09 Jun 2027 10:10:28.423   09 Jun 2027 10:10:34.205             5.782          2424.406
       272   09 Jun 2027 10:10:46.633   09 Jun 2027 10:10:47.343             0.710            66.531
       273   09 Jun 2027 10:12:15.986   09 Jun 2027 10:12:22.955             6.969          2523.281
       274   09 Jun 2027 10:12:44.610   09 Jun 2027 10:12:50.243             5.633           494.656
       275   09 Jun 2027 10:12:57.580   09 Jun 2027 10:12:59.535             1.955           229.281
       276   09 Jun 2027 10:13:45.993   09 Jun 2027 10:13:52.762             6.769          1330.000
       277   09 Jun 2027 10:13:59.134   09 Jun 2027 10:14:04.995             5.861           153.438
       278   09 Jun 2027 10:14:36.535   09 Jun 2027 10:14:42.664             6.129           985.625
       279   09 Jun 2027 11:45:56.588   09 Jun 2027 11:46:10.059            13.471          6364.469
       280   09 Jun 2027 11:46:19.638   09 Jun 2027 11:46:23.672             4.034           212.500
       281   09 Jun 2027 11:46:51.521   09 Jun 2027 11:46:54.657             3.136           689.281
       282   09 Jun 2027 11:47:23.196   09 Jun 2027 11:47:27.091             3.895           613.625
       283   09 Jun 2027 11:47:44.777   09 Jun 2027 11:47:46.491             1.714           466.313
       284   09 Jun 2027 11:47:52.595   09 Jun 2027 11:47:54.349             1.754           190.750
       285   09 Jun 2027 11:48:21.971   09 Jun 2027 11:48:22.552             0.581           290.500
       286   09 Jun 2027 11:49:17.233   09 Jun 2027 11:49:23.618             6.385          2281.469
       287   09 Jun 2027 11:49:34.517   09 Jun 2027 11:49:37.391             2.874           340.594
       288   10 Jun 2027 04:09:07.605   10 Jun 2027 04:09:42.087            34.482         17241.000
       289   10 Jun 2027 04:09:56.235   10 Jun 2027 04:10:47.205            50.970         25485.000
       290   10 Jun 2027 04:11:02.249   10 Jun 2027 04:11:03.276             1.027           513.500
       291   10 Jun 2027 04:11:27.618   10 Jun 2027 04:11:41.481            13.863          6931.500
       292   10 Jun 2027 05:32:28.319   10 Jun 2027 05:34:01.672            93.353         46676.500
       293   10 Jun 2027 07:09:03.799   10 Jun 2027 07:11:15.790           131.991         65026.688
       294   10 Jun 2027 07:12:15.282   10 Jun 2027 07:12:21.139             5.857          1859.125
       295   10 Jun 2027 08:44:14.046   10 Jun 2027 08:44:29.012            14.966          7064.312
       296   10 Jun 2027 08:44:29.404   10 Jun 2027 08:44:30.609             1.205            12.250
       297   10 Jun 2027 08:45:11.721   10 Jun 2027 08:45:13.554             1.833           207.063
       298   10 Jun 2027 08:45:49.943   10 Jun 2027 08:45:51.507             1.564           278.594
       299   10 Jun 2027 08:47:08.850   10 Jun 2027 08:47:14.217             5.367          2378.719
       300   10 Jun 2027 08:47:42.984   10 Jun 2027 08:47:47.840             4.856           619.125
       301   10 Jun 2027 08:48:19.530   10 Jun 2027 08:48:21.972             2.442           652.156
       302   10 Jun 2027 08:48:46.131   10 Jun 2027 08:48:47.196             1.065           185.125
       303   10 Jun 2027 08:49:37.176   10 Jun 2027 08:49:40.858             3.682          1223.438
       304   10 Jun 2027 08:49:53.105   10 Jun 2027 08:49:56.702             3.597           382.719
       305   10 Jun 2027 08:50:09.902   10 Jun 2027 08:50:11.388             1.486           138.062
       306   10 Jun 2027 08:50:44.855   10 Jun 2027 08:50:49.353             4.498          1002.031
       307   10 Jun 2027 10:20:34.519   10 Jun 2027 10:20:49.921            15.402          7436.594
       308   10 Jun 2027 10:21:12.978   10 Jun 2027 10:21:14.884             1.906           194.875
       309   10 Jun 2027 10:22:26.374   10 Jun 2027 10:22:31.705             5.331          2135.031
       310   10 Jun 2027 10:22:47.720   10 Jun 2027 10:22:48.219             0.499           234.125
       311   10 Jun 2027 10:23:45.816   10 Jun 2027 10:23:57.504            11.688          1799.906
       312   10 Jun 2027 10:24:04.020   10 Jun 2027 10:24:06.444             2.424           115.969
       313   10 Jun 2027 10:24:37.311   10 Jun 2027 10:24:43.007             5.696           964.594
       314   10 Jun 2027 10:25:36.857   10 Jun 2027 10:25:42.382             5.525          1682.813
       315   10 Jun 2027 10:25:50.053   10 Jun 2027 10:25:50.590             0.537           239.719
       316   10 Jun 2027 10:25:58.655   10 Jun 2027 10:26:00.415             1.760           252.031
       317   10 Jun 2027 10:26:06.826   10 Jun 2027 10:26:12.870             6.044           150.531
       318   10 Jun 2027 10:26:32.254   10 Jun 2027 10:26:36.108             3.854           280.562
       319   10 Jun 2027 11:58:00.126   10 Jun 2027 11:58:18.863            18.737          7100.937
       320   10 Jun 2027 11:58:32.175   10 Jun 2027 11:58:34.692             2.517           416.000
       321   10 Jun 2027 11:58:44.341   10 Jun 2027 11:58:44.341             0.000             0.000
       322   10 Jun 2027 11:58:53.851   10 Jun 2027 11:58:55.757             1.906           468.562
       323   10 Jun 2027 11:59:05.896   10 Jun 2027 11:59:11.368             5.472           309.750
       324   10 Jun 2027 11:59:46.500   10 Jun 2027 11:59:49.366             2.866          1097.875
       325   11 Jun 2027 04:10:21.178   11 Jun 2027 04:10:22.097             0.919           459.500
       326   11 Jun 2027 04:21:04.475   11 Jun 2027 04:21:44.828            40.353         20176.500
       327   11 Jun 2027 04:22:02.297   11 Jun 2027 04:22:49.130            46.833         23416.500
       328   11 Jun 2027 04:23:13.188   11 Jun 2027 04:23:28.603            15.415          7707.500
       329   11 Jun 2027 05:45:01.762   11 Jun 2027 05:46:40.512            98.750         49375.000
       330   11 Jun 2027 07:20:50.965   11 Jun 2027 07:22:51.641           120.676         60338.000
       331   11 Jun 2027 07:24:50.063   11 Jun 2027 07:25:00.391            10.328          5164.000
       332   11 Jun 2027 08:55:43.767   11 Jun 2027 08:56:04.252            20.485          8751.906
       333   11 Jun 2027 08:56:27.218   11 Jun 2027 08:56:27.218             0.000             0.000
       334   11 Jun 2027 08:57:47.479   11 Jun 2027 08:57:53.541             6.062          2937.937
       335   11 Jun 2027 08:58:52.245   11 Jun 2027 08:58:55.130             2.885          1385.000
       336   11 Jun 2027 08:59:15.336   11 Jun 2027 08:59:19.158             3.822           517.875
       337   11 Jun 2027 09:00:20.172   11 Jun 2027 09:00:28.415             8.243          1483.813
       338   11 Jun 2027 09:01:04.960   11 Jun 2027 09:01:10.031             5.071           969.500
       339   11 Jun 2027 09:01:16.534   11 Jun 2027 09:01:19.596             3.062           186.344
       340   11 Jun 2027 09:01:46.778   11 Jun 2027 09:01:49.842             3.064           617.906
       341   11 Jun 2027 09:02:11.127   11 Jun 2027 09:02:12.919             1.792           438.438
       342   11 Jun 2027 09:02:42.948   11 Jun 2027 09:02:50.623             7.675           928.812
       343   11 Jun 2027 10:32:13.943   11 Jun 2027 10:32:29.105            15.162          7490.187
       344   11 Jun 2027 10:32:49.785   11 Jun 2027 10:32:51.881             2.096           112.000
       345   11 Jun 2027 10:33:15.264   11 Jun 2027 10:33:19.163             3.899           523.250
       346   11 Jun 2027 10:34:33.550   11 Jun 2027 10:34:41.274             7.724          2162.750
       347   11 Jun 2027 10:35:15.681   11 Jun 2027 10:35:20.012             4.331          1027.531
       348   11 Jun 2027 10:35:58.101   11 Jun 2027 10:36:00.695             2.594          1190.281
       349   11 Jun 2027 10:36:50.803   11 Jun 2027 10:36:56.557             5.754          1245.031
       350   11 Jun 2027 10:37:44.951   11 Jun 2027 10:37:47.862             2.911          1455.500
       351   12 Jun 2027 03:00:00.000   12 Jun 2027 03:00:16.522            16.522          8261.000
       352   12 Jun 2027 03:00:59.189   12 Jun 2027 03:01:10.787            11.598          5799.000
       353   12 Jun 2027 03:01:47.220   12 Jun 2027 03:01:48.836             1.616           808.000
       354   12 Jun 2027 03:02:25.094   12 Jun 2027 03:02:31.420             6.326          3163.000
       355   12 Jun 2027 03:02:39.304   12 Jun 2027 03:02:53.082            13.778          6889.000
       356   12 Jun 2027 03:03:03.941   12 Jun 2027 03:03:37.793            33.852         16926.000
       357   12 Jun 2027 04:21:39.781   12 Jun 2027 04:22:13.301            33.520         16760.000
       358   12 Jun 2027 04:33:00.948   12 Jun 2027 04:33:55.009            54.061         27030.500
       359   12 Jun 2027 05:55:36.508   12 Jun 2027 05:56:40.096            63.588         31794.000
       360   12 Jun 2027 05:56:53.523   12 Jun 2027 05:57:17.198            23.675         11837.500
       361   12 Jun 2027 05:57:44.852   12 Jun 2027 05:57:44.852             0.000             0.000
       362   12 Jun 2027 05:58:38.952   12 Jun 2027 05:58:41.995             3.043          1521.500
       363   12 Jun 2027 05:59:55.138   12 Jun 2027 05:59:55.138             0.000             0.000
       364   12 Jun 2027 06:00:13.481   12 Jun 2027 06:00:16.164             2.683          1341.500
       365   12 Jun 2027 07:31:07.540   12 Jun 2027 07:31:58.321            50.781         25390.500
       366   12 Jun 2027 07:32:36.265   12 Jun 2027 07:33:21.075            44.810         22405.000
       367   12 Jun 2027 07:34:14.835   12 Jun 2027 07:34:23.551             8.716          4358.000
       368   12 Jun 2027 07:35:32.266   12 Jun 2027 07:35:34.109             1.843           921.500
       369   12 Jun 2027 07:36:59.941   12 Jun 2027 07:37:12.815            12.874          6046.095
       370   12 Jun 2027 09:07:27.544   12 Jun 2027 09:07:50.679            23.135          6729.656
       371   12 Jun 2027 09:08:27.448   12 Jun 2027 09:08:31.253             3.805          1145.219
       372   12 Jun 2027 09:09:38.384   12 Jun 2027 09:09:40.736             2.352           818.813
       373   12 Jun 2027 09:10:40.996   12 Jun 2027 09:10:48.471             7.475          1664.594
       374   12 Jun 2027 09:10:59.524   12 Jun 2027 09:11:05.129             5.605           228.906
       375   12 Jun 2027 09:11:11.970   12 Jun 2027 09:11:14.039             2.069           201.531
       376   12 Jun 2027 09:12:08.770   12 Jun 2027 09:12:12.708             3.938          1710.344
       377   12 Jun 2027 09:12:34.269   12 Jun 2027 09:12:35.044             0.775           382.312
       378   12 Jun 2027 09:13:07.912   12 Jun 2027 09:13:08.441             0.529           264.500
       379   12 Jun 2027 09:13:28.365   12 Jun 2027 09:13:29.356             0.991           495.500
       380   12 Jun 2027 09:13:30.586   12 Jun 2027 09:13:33.200             2.614           686.437
       381   12 Jun 2027 09:14:29.747   12 Jun 2027 09:14:34.595             4.848          1767.094
       382   12 Jun 2027 09:14:42.315   12 Jun 2027 09:14:46.208             3.893           183.750
       383   12 Jun 2027 09:14:55.295   12 Jun 2027 09:14:57.360             2.065           215.531
       384   12 Jun 2027 10:44:33.738   12 Jun 2027 10:44:53.674            19.936          9596.844
       385   12 Jun 2027 10:45:29.783   12 Jun 2027 10:45:32.325             2.542          1128.406
       386   12 Jun 2027 10:45:53.048   12 Jun 2027 10:45:55.294             2.246           573.000
       387   12 Jun 2027 10:46:50.770   12 Jun 2027 10:46:55.821             5.051           884.031
       388   12 Jun 2027 10:47:33.072   12 Jun 2027 10:47:34.877             1.805           902.500
       389   12 Jun 2027 10:48:01.104   12 Jun 2027 10:48:03.992             2.888           882.406
       390   12 Jun 2027 10:48:36.484   12 Jun 2027 10:48:42.711             6.227           768.938
       391   12 Jun 2027 10:49:14.869   12 Jun 2027 10:49:17.204             2.335          1004.937
       392   12 Jun 2027 10:50:12.464   12 Jun 2027 10:50:16.272             3.808          1726.875
       393   12 Jun 2027 10:50:36.644   12 Jun 2027 10:50:39.931             3.287            87.344
       394   13 Jun 2027 03:08:30.363   13 Jun 2027 03:09:31.048            60.685         30342.500
       395   13 Jun 2027 03:10:29.822   13 Jun 2027 03:10:37.669             7.847          3923.500
       396   13 Jun 2027 03:12:16.462   13 Jun 2027 03:12:20.436             3.974          1987.000
       397   13 Jun 2027 03:14:16.791   13 Jun 2027 03:14:38.563            21.772         10886.000
       398   13 Jun 2027 04:33:20.179   13 Jun 2027 04:33:45.017            24.838         12419.000
       399   13 Jun 2027 04:45:04.620   13 Jun 2027 04:46:01.468            56.848         28424.000
       400   13 Jun 2027 06:07:18.887   13 Jun 2027 06:08:05.734            46.847         23423.500
       401   13 Jun 2027 06:08:12.975   13 Jun 2027 06:08:16.255             3.280          1640.000
       402   13 Jun 2027 06:09:12.972   13 Jun 2027 06:09:17.406             4.434          2217.000
       403   13 Jun 2027 06:11:56.116   13 Jun 2027 06:12:15.028            18.912          9456.000
       404   13 Jun 2027 07:42:15.458   13 Jun 2027 07:43:57.453           101.995         50997.500
       405   13 Jun 2027 07:47:58.456   13 Jun 2027 07:48:11.667            13.211          6605.500
       406   13 Jun 2027 07:49:12.108   13 Jun 2027 07:49:24.001            11.893          5315.405
       407   13 Jun 2027 09:19:45.237   13 Jun 2027 09:19:58.855            13.618          6294.969
       408   13 Jun 2027 09:22:49.483   13 Jun 2027 09:23:00.069            10.586          4353.219
       409   13 Jun 2027 09:23:48.988   13 Jun 2027 09:23:56.766             7.778           541.750
       410   13 Jun 2027 09:24:18.766   13 Jun 2027 09:24:22.284             3.518           628.688
       411   13 Jun 2027 09:25:25.057   13 Jun 2027 09:25:25.938             0.881           440.500
       412   13 Jun 2027 09:25:37.504   13 Jun 2027 09:25:42.320             4.816          1489.187
       413   13 Jun 2027 09:26:12.648   13 Jun 2027 09:26:14.750             2.102           947.750
       414   13 Jun 2027 09:26:43.023   13 Jun 2027 09:26:45.588             2.565           878.781
       415   13 Jun 2027 09:26:49.590   13 Jun 2027 09:26:59.780            10.190           125.063
       416   13 Jun 2027 10:56:29.922   13 Jun 2027 10:56:45.933            16.011          6542.781
       417   13 Jun 2027 10:57:34.426   13 Jun 2027 10:57:38.630             4.204          1483.187
       418   13 Jun 2027 10:58:07.570   13 Jun 2027 10:58:12.078             4.508           754.063
       419   13 Jun 2027 10:58:51.609   13 Jun 2027 10:58:58.940             7.331          1235.344
       420   13 Jun 2027 10:59:29.447   13 Jun 2027 10:59:31.788             2.341           881.406
       421   13 Jun 2027 11:00:33.182   13 Jun 2027 11:00:35.903             2.721          1360.500
       422   13 Jun 2027 11:01:23.923   13 Jun 2027 11:01:39.121            15.198          2025.094
       423   13 Jun 2027 11:02:03.952   13 Jun 2027 11:02:06.688             2.736           715.406
       424   13 Jun 2027 11:02:40.133   13 Jun 2027 11:02:42.388             2.255           895.594
