uniorb/output/strategy_1/Camera/Camera_KinoSat_111703.txt

KinoSat_111703
-------------------------
    Access    *     Start Time (UTCG)     *     Stop Time (UTCG)  *   Duration (s) *   Data (Mbytes)
         1   01 Jun 2027 03:29:17.118   01 Jun 2027 03:30:57.952           100.834         50417.000
         2   01 Jun 2027 03:31:18.342   01 Jun 2027 03:32:06.175            47.833         23916.500
         3   01 Jun 2027 05:07:39.840   01 Jun 2027 05:09:04.734            84.894         42447.000
         4   01 Jun 2027 05:10:43.715   01 Jun 2027 05:11:05.331            21.616         10808.000
         5   01 Jun 2027 05:11:10.040   01 Jun 2027 05:11:18.015             7.975          3987.500
         6   01 Jun 2027 05:11:40.632   01 Jun 2027 05:11:44.526             3.894          1947.000
         7   01 Jun 2027 06:31:42.547   01 Jun 2027 06:32:37.375            54.828         27414.000
         8   01 Jun 2027 06:33:42.349   01 Jun 2027 06:33:46.789             4.440          2220.000
         9   01 Jun 2027 08:07:40.157   01 Jun 2027 08:09:54.802           134.645         67322.500
        10   01 Jun 2027 09:41:29.389   01 Jun 2027 09:42:32.701            63.312         31656.000
        11   01 Jun 2027 09:43:15.036   01 Jun 2027 09:43:27.640            12.604          6302.000
        12   01 Jun 2027 09:49:20.026   01 Jun 2027 09:49:59.664            39.638         19819.000
        13   01 Jun 2027 11:18:34.583   01 Jun 2027 11:19:23.426            48.843         24421.500
        14   01 Jun 2027 11:23:23.992   01 Jun 2027 11:23:23.992             0.000             0.000
        15   01 Jun 2027 11:23:56.460   01 Jun 2027 11:25:53.745           117.285         58642.500
        16   02 Jun 2027 03:41:54.648   02 Jun 2027 03:42:38.626            43.978         21989.000
        17   02 Jun 2027 03:42:45.432   02 Jun 2027 03:43:30.935            45.503         22751.500
        18   02 Jun 2027 03:43:32.766   02 Jun 2027 03:44:22.635            49.869         24934.500
        19   02 Jun 2027 05:20:14.641   02 Jun 2027 05:20:53.481            38.840         19420.000
        20   02 Jun 2027 05:21:11.516   02 Jun 2027 05:21:47.962            36.446         18223.000
        21   02 Jun 2027 05:22:48.941   02 Jun 2027 05:23:11.367            22.426         11213.000
        22   02 Jun 2027 06:43:36.738   02 Jun 2027 06:45:04.053            87.315         43657.500
        23   02 Jun 2027 08:19:59.409   02 Jun 2027 08:20:49.190            49.781         24890.500
        24   02 Jun 2027 08:21:30.238   02 Jun 2027 08:22:09.506            39.268         19634.000
        25   02 Jun 2027 08:22:29.773   02 Jun 2027 08:22:59.043            29.270         14635.000
        26   02 Jun 2027 09:53:27.755   02 Jun 2027 09:54:33.374            65.619         32809.500
        27   02 Jun 2027 09:55:52.420   02 Jun 2027 09:55:57.404             4.984          2492.000
        28   02 Jun 2027 09:56:58.593   02 Jun 2027 09:57:50.417            51.824         25912.000
        29   02 Jun 2027 10:00:27.676   02 Jun 2027 10:00:30.262             2.586          1293.000
        30   02 Jun 2027 10:01:13.451   02 Jun 2027 10:01:34.988            21.537         10768.500
        31   02 Jun 2027 11:31:01.511   02 Jun 2027 11:33:02.999           121.488         60744.000
        32   03 Jun 2027 03:53:48.208   03 Jun 2027 03:53:53.548             5.340          2670.000
        33   03 Jun 2027 03:54:18.194   03 Jun 2027 03:55:55.587            97.393         48696.500
        34   03 Jun 2027 03:56:00.847   03 Jun 2027 03:56:15.743            14.896          7448.000
        35   03 Jun 2027 03:59:52.953   03 Jun 2027 03:59:54.101             1.148           574.000
        36   03 Jun 2027 05:32:29.412   03 Jun 2027 05:33:25.863            56.451         28225.500
        37   03 Jun 2027 05:33:43.702   03 Jun 2027 05:34:12.704            29.002         14501.000
        38   03 Jun 2027 05:34:30.569   03 Jun 2027 05:34:41.250            10.681          5340.500
        39   03 Jun 2027 06:55:26.445   03 Jun 2027 06:57:31.627           125.182         62591.000
        40   03 Jun 2027 08:32:01.241   03 Jun 2027 08:34:17.056           135.815         67907.500
        41   03 Jun 2027 08:35:17.838   03 Jun 2027 08:35:25.807             7.969          3984.500
        42   03 Jun 2027 10:07:49.921   03 Jun 2027 10:07:49.921             0.000             0.000
        43   03 Jun 2027 10:08:12.275   03 Jun 2027 10:09:05.736            53.461         26730.500
        44   03 Jun 2027 10:09:36.969   03 Jun 2027 10:09:56.007            19.038          9519.000
        45   03 Jun 2027 10:11:20.052   03 Jun 2027 10:11:41.450            21.398         10699.000
        46   03 Jun 2027 10:12:21.797   03 Jun 2027 10:12:29.227             7.430          1612.593
        47   03 Jun 2027 10:13:11.506   03 Jun 2027 10:13:16.443             4.937          1321.219
        48   03 Jun 2027 10:13:30.359   03 Jun 2027 10:13:34.658             4.299           382.312
        49   03 Jun 2027 10:13:53.091   03 Jun 2027 10:13:53.779             0.688           344.000
        50   03 Jun 2027 11:43:08.098   03 Jun 2027 11:43:26.867            18.769          9166.969
        51   03 Jun 2027 11:43:39.518   03 Jun 2027 11:43:42.624             3.106           395.344
        52   03 Jun 2027 11:45:05.436   03 Jun 2027 11:45:09.329             3.893          1946.500
        53   03 Jun 2027 11:45:55.276   03 Jun 2027 11:46:00.747             5.471          1506.000
        54   03 Jun 2027 11:46:46.057   03 Jun 2027 11:46:48.081             2.024          1004.031
        55   03 Jun 2027 11:47:27.097   03 Jun 2027 11:47:30.657             3.560           721.000
        56   03 Jun 2027 11:48:19.342   03 Jun 2027 11:48:26.414             7.072          1521.406
        57   03 Jun 2027 11:48:54.958   03 Jun 2027 11:48:55.788             0.830           364.562
        58   03 Jun 2027 11:49:45.678   03 Jun 2027 11:49:48.607             2.929          1464.500
        59   04 Jun 2027 04:05:57.037   04 Jun 2027 04:06:59.089            62.052         31026.000
        60   04 Jun 2027 04:07:06.065   04 Jun 2027 04:07:25.826            19.761          9880.500
        61   04 Jun 2027 04:07:53.876   04 Jun 2027 04:08:08.354            14.478          7239.000
        62   04 Jun 2027 04:08:34.506   04 Jun 2027 04:08:41.717             7.211          3605.500
        63   04 Jun 2027 04:09:19.891   04 Jun 2027 04:09:24.407             4.516          2258.000
        64   04 Jun 2027 04:09:45.129   04 Jun 2027 04:09:49.743             4.614          2307.000
        65   04 Jun 2027 04:10:46.966   04 Jun 2027 04:11:11.348            24.382         12191.000
        66   04 Jun 2027 05:44:15.722   04 Jun 2027 05:44:46.827            31.105         15552.500
        67   04 Jun 2027 05:45:05.263   04 Jun 2027 05:46:15.109            69.846         34923.000
        68   04 Jun 2027 05:47:56.743   04 Jun 2027 05:48:05.644             8.901          4450.500
        69   04 Jun 2027 07:07:38.384   04 Jun 2027 07:09:21.443           103.059         51529.500
        70   04 Jun 2027 07:10:30.118   04 Jun 2027 07:10:31.934             1.816           908.000
        71   04 Jun 2027 08:44:10.249   04 Jun 2027 08:44:39.577            29.328         13184.751
        72   04 Jun 2027 08:46:44.734   04 Jun 2027 08:46:44.734             0.000             0.000
        73   04 Jun 2027 08:47:42.423   04 Jun 2027 08:47:43.898             1.475           737.500
        74   04 Jun 2027 10:19:39.811   04 Jun 2027 10:20:00.546            20.735          6571.563
        75   04 Jun 2027 10:22:15.096   04 Jun 2027 10:22:15.096             0.000             0.000
        76   04 Jun 2027 10:22:38.739   04 Jun 2027 10:22:47.000             8.261          3844.656
        77   04 Jun 2027 10:23:09.151   04 Jun 2027 10:23:19.240            10.089           517.781
        78   04 Jun 2027 10:23:33.101   04 Jun 2027 10:23:34.751             1.650           433.156
        79   04 Jun 2027 10:23:58.614   04 Jun 2027 10:24:01.192             2.578           676.125
        80   04 Jun 2027 10:24:29.807   04 Jun 2027 10:24:33.876             4.069           872.937
        81   04 Jun 2027 10:25:09.158   04 Jun 2027 10:25:11.143             1.985           992.500
        82   04 Jun 2027 10:25:15.303   04 Jun 2027 10:25:17.132             1.829           240.062
        83   04 Jun 2027 10:25:46.613   04 Jun 2027 10:25:48.467             1.854           883.187
        84   04 Jun 2027 11:55:44.476   04 Jun 2027 11:55:59.180            14.704          6143.844
        85   04 Jun 2027 11:57:07.378   04 Jun 2027 11:57:12.556             5.178          1759.813
        86   04 Jun 2027 11:57:47.311   04 Jun 2027 11:57:53.318             6.007           784.813
        87   04 Jun 2027 11:59:08.035   04 Jun 2027 11:59:15.666             7.631          2334.906
        88   04 Jun 2027 11:59:36.796   04 Jun 2027 11:59:38.467             1.671           660.313
        89   04 Jun 2027 11:59:53.797   04 Jun 2027 11:59:55.525             1.728           474.250
        90   05 Jun 2027 04:18:08.111   05 Jun 2027 04:18:08.841             0.730           365.000
        91   05 Jun 2027 04:19:03.804   05 Jun 2027 04:20:24.308            80.504         40252.000
        92   05 Jun 2027 04:20:49.228   05 Jun 2027 04:21:11.116            21.888         10944.000
        93   05 Jun 2027 04:21:34.072   05 Jun 2027 04:21:34.072             0.000             0.000
        94   05 Jun 2027 04:21:51.009   05 Jun 2027 04:22:14.695            23.686         11843.000
        95   05 Jun 2027 04:25:51.040   05 Jun 2027 04:25:57.360             6.320          3160.000
        96   05 Jun 2027 05:56:12.733   05 Jun 2027 05:56:51.573            38.840         19420.000
        97   05 Jun 2027 05:57:14.017   05 Jun 2027 05:58:23.631            69.614         34807.000
        98   05 Jun 2027 05:59:00.549   05 Jun 2027 05:59:00.781             0.232           116.000
        99   05 Jun 2027 07:20:14.740   05 Jun 2027 07:21:58.930           104.190         52095.000
       100   05 Jun 2027 07:22:39.762   05 Jun 2027 07:22:47.603             7.841          1491.875
       101   05 Jun 2027 08:56:03.284   05 Jun 2027 08:56:16.312            13.028          6514.000
       102   05 Jun 2027 08:58:06.028   05 Jun 2027 08:58:08.602             2.574          1287.000
       103   05 Jun 2027 08:58:43.252   05 Jun 2027 08:58:54.670            11.418          3620.781
       104   05 Jun 2027 10:31:00.197   05 Jun 2027 10:31:14.774            14.577          5024.500
       105   05 Jun 2027 10:33:03.085   05 Jun 2027 10:33:03.085             0.000             0.000
       106   05 Jun 2027 10:34:03.146   05 Jun 2027 10:34:11.151             8.005          4002.500
       107   05 Jun 2027 10:36:16.786   05 Jun 2027 10:36:25.338             8.552          4276.000
       108   05 Jun 2027 10:36:58.683   05 Jun 2027 10:37:03.096             4.413          1600.906
       109   05 Jun 2027 10:37:53.255   05 Jun 2027 10:37:56.735             3.480          1407.594
       110   06 Jun 2027 04:31:07.573   06 Jun 2027 04:32:47.860           100.287         50143.500
       111   06 Jun 2027 04:33:25.249   06 Jun 2027 04:33:36.091            10.842          5421.000
       112   06 Jun 2027 04:33:39.673   06 Jun 2027 04:33:39.673             0.000             0.000
       113   06 Jun 2027 04:34:53.147   06 Jun 2027 04:34:55.389             2.242          1121.000
       114   06 Jun 2027 04:36:16.890   06 Jun 2027 04:36:23.925             7.035          3517.500
       115   06 Jun 2027 04:37:10.127   06 Jun 2027 04:37:19.788             9.661          4830.500
       116   06 Jun 2027 04:37:52.497   06 Jun 2027 04:38:40.639            48.142         24071.000
       117   06 Jun 2027 05:57:00.759   06 Jun 2027 05:57:47.040            46.281         23140.500
       118   06 Jun 2027 06:08:08.732   06 Jun 2027 06:08:52.690            43.958         21979.000
       119   06 Jun 2027 06:10:18.885   06 Jun 2027 06:10:29.018            10.133          5066.500
       120   06 Jun 2027 07:31:05.976   06 Jun 2027 07:32:38.913            92.937         46468.500
       121   06 Jun 2027 07:34:36.433   06 Jun 2027 07:34:45.924             9.491          4142.469
       122   06 Jun 2027 07:35:17.136   06 Jun 2027 07:35:17.136             0.000             0.000
       123   06 Jun 2027 09:06:22.296   06 Jun 2027 09:06:34.935            12.639          5978.187
       124   06 Jun 2027 09:07:47.708   06 Jun 2027 09:07:51.942             4.234          1128.750
       125   06 Jun 2027 09:08:07.080   06 Jun 2027 09:08:08.269             1.189           272.687
       126   06 Jun 2027 09:09:13.174   06 Jun 2027 09:09:13.174             0.000             0.000
       127   06 Jun 2027 09:09:21.329   06 Jun 2027 09:09:25.425             4.096          1658.187
       128   06 Jun 2027 09:10:17.433   06 Jun 2027 09:10:17.433             0.000             0.000
       129   06 Jun 2027 09:10:53.920   06 Jun 2027 09:10:57.302             3.382          1691.000
       130   06 Jun 2027 09:12:13.434   06 Jun 2027 09:12:15.802             2.368          1184.000
       131   06 Jun 2027 10:42:33.370   06 Jun 2027 10:42:48.143            14.773          5029.844
       132   06 Jun 2027 10:44:17.824   06 Jun 2027 10:44:24.830             7.006          2230.594
       133   06 Jun 2027 10:45:53.576   06 Jun 2027 10:45:59.874             6.298          2036.188
       134   06 Jun 2027 10:48:16.162   06 Jun 2027 10:48:21.285             5.123          2561.500
       135   06 Jun 2027 10:48:27.864   06 Jun 2027 10:48:31.447             3.583          1721.969
       136   06 Jun 2027 10:48:39.198   06 Jun 2027 10:48:40.905             1.707           163.031
       137   06 Jun 2027 10:49:26.891   06 Jun 2027 10:49:41.188            14.297          1437.063
       138   06 Jun 2027 10:50:01.223   06 Jun 2027 10:50:05.713             4.490           352.438
       139   07 Jun 2027 03:04:31.130   07 Jun 2027 03:05:34.294            63.164         31582.000
       140   07 Jun 2027 03:06:28.536   07 Jun 2027 03:06:28.536             0.000             0.000
       141   07 Jun 2027 03:06:34.480   07 Jun 2027 03:06:38.824             4.344          2172.000
       142   07 Jun 2027 03:08:17.016   07 Jun 2027 03:08:33.045            16.029          8014.500
       143   07 Jun 2027 03:10:00.244   07 Jun 2027 03:10:02.326             2.082          1041.000
       144   07 Jun 2027 04:43:37.147   07 Jun 2027 04:44:44.042            66.895         33447.500
       145   07 Jun 2027 04:45:32.716   07 Jun 2027 04:45:47.741            15.025          7512.500
       146   07 Jun 2027 04:46:26.122   07 Jun 2027 04:46:31.261             5.139          2569.500
       147   07 Jun 2027 04:47:25.851   07 Jun 2027 04:47:41.548            15.697          7848.500
       148   07 Jun 2027 04:50:23.247   07 Jun 2027 04:50:43.981            20.734         10367.000
       149   07 Jun 2027 06:08:29.207   07 Jun 2027 06:09:19.509            50.302         25151.000
       150   07 Jun 2027 06:20:11.410   07 Jun 2027 06:20:49.459            38.049         19024.500
       151   07 Jun 2027 07:42:24.922   07 Jun 2027 07:43:36.204            71.282         35641.000
       152   07 Jun 2027 07:44:25.837   07 Jun 2027 07:44:35.358             9.521          4760.500
       153   07 Jun 2027 07:46:14.312   07 Jun 2027 07:46:24.040             9.728          4246.374
       154   07 Jun 2027 07:47:00.353   07 Jun 2027 07:47:01.052             0.699           349.500
       155   07 Jun 2027 09:17:29.341   07 Jun 2027 09:17:43.456            14.115          5876.125
       156   07 Jun 2027 09:18:47.872   07 Jun 2027 09:18:57.168             9.296          1679.812
       157   07 Jun 2027 09:21:51.506   07 Jun 2027 09:22:02.722            11.216          5448.062
       158   07 Jun 2027 09:22:50.585   07 Jun 2027 09:22:51.735             1.150           575.000
       159   07 Jun 2027 09:25:29.273   07 Jun 2027 09:25:35.968             6.695          3347.500
       160   07 Jun 2027 10:57:58.202   07 Jun 2027 10:57:58.202             0.000             0.000
       161   07 Jun 2027 10:58:03.403   07 Jun 2027 10:58:27.589            24.186         11273.625
       162   07 Jun 2027 10:59:14.110   07 Jun 2027 10:59:18.215             4.105           839.687
       163   07 Jun 2027 10:59:24.801   07 Jun 2027 10:59:27.010             2.209           153.250
       164   07 Jun 2027 11:00:05.735   07 Jun 2027 11:00:06.054             0.319           159.500
       165   07 Jun 2027 11:00:33.286   07 Jun 2027 11:00:36.910             3.624          1630.937
       166   07 Jun 2027 11:00:42.183   07 Jun 2027 11:00:47.232             5.049            64.250
       167   07 Jun 2027 11:01:43.910   07 Jun 2027 11:01:52.800             8.890          1771.187
       168   08 Jun 2027 03:16:50.442   08 Jun 2027 03:18:00.158            69.716         34858.000
       169   08 Jun 2027 03:18:01.850   08 Jun 2027 03:18:10.456             8.606          4303.000
       170   08 Jun 2027 03:18:45.474   08 Jun 2027 03:19:01.573            16.099          8049.500
       171   08 Jun 2027 03:20:01.831   08 Jun 2027 03:20:05.444             3.613          1806.500
       172   08 Jun 2027 03:20:21.297   08 Jun 2027 03:20:33.846            12.549          6274.500
       173   08 Jun 2027 03:20:56.662   08 Jun 2027 03:20:58.030             1.368           684.000
       174   08 Jun 2027 03:21:12.543   08 Jun 2027 03:21:12.543             0.000             0.000
       175   08 Jun 2027 03:21:40.246   08 Jun 2027 03:21:41.711             1.465           732.500
       176   08 Jun 2027 03:21:54.551   08 Jun 2027 03:22:05.192            10.641          5320.500
       177   08 Jun 2027 04:55:38.280   08 Jun 2027 04:56:40.840            62.560         31280.000
       178   08 Jun 2027 04:57:00.492   08 Jun 2027 04:57:00.492             0.000             0.000
       179   08 Jun 2027 04:57:24.671   08 Jun 2027 04:57:29.904             5.233          2616.500
       180   08 Jun 2027 04:58:41.758   08 Jun 2027 04:58:54.608            12.850          6425.000
       181   08 Jun 2027 04:59:00.097   08 Jun 2027 04:59:21.158            21.061         10530.500
       182   08 Jun 2027 05:00:06.725   08 Jun 2027 05:00:06.725             0.000             0.000
       183   08 Jun 2027 05:01:17.169   08 Jun 2027 05:01:25.051             7.882          3941.000
       184   08 Jun 2027 05:02:36.367   08 Jun 2027 05:02:41.394             5.027          2513.500
       185   08 Jun 2027 06:19:59.197   08 Jun 2027 06:20:35.114            35.917         17958.500
       186   08 Jun 2027 06:21:05.492   08 Jun 2027 06:21:05.492             0.000             0.000
       187   08 Jun 2027 06:21:47.946   08 Jun 2027 06:22:10.401            22.455         11227.500
       188   08 Jun 2027 06:32:13.285   08 Jun 2027 06:32:44.805            31.520         15760.000
       189   08 Jun 2027 07:54:09.471   08 Jun 2027 07:55:02.073            52.602         24555.781
       190   08 Jun 2027 07:57:34.393   08 Jun 2027 07:57:34.393             0.000             0.000
       191   08 Jun 2027 07:59:02.065   08 Jun 2027 07:59:17.372            15.307          7185.125
       192   08 Jun 2027 09:29:44.130   08 Jun 2027 09:29:56.877            12.747          5647.000
       193   08 Jun 2027 09:30:49.368   08 Jun 2027 09:30:52.939             3.571           128.750
       194   08 Jun 2027 09:34:32.142   08 Jun 2027 09:34:32.142             0.000             0.000
       195   08 Jun 2027 09:35:10.086   08 Jun 2027 09:35:26.197            16.111          8016.250
       196   08 Jun 2027 09:35:51.293   08 Jun 2027 09:35:52.135             0.842           421.000
       197   08 Jun 2027 09:36:02.798   08 Jun 2027 09:36:02.798             0.000             0.000
       198   08 Jun 2027 09:36:42.504   08 Jun 2027 09:36:42.989             0.485           242.500
       199   08 Jun 2027 09:37:17.772   08 Jun 2027 09:37:24.030             6.258          2596.219
       200   08 Jun 2027 09:37:38.275   08 Jun 2027 09:37:38.522             0.247            46.219
       201   08 Jun 2027 11:06:46.476   08 Jun 2027 11:06:56.356             9.880          4543.250
       202   08 Jun 2027 11:07:39.456   08 Jun 2027 11:07:44.439             4.983          1346.875
       203   08 Jun 2027 11:08:05.324   08 Jun 2027 11:08:08.829             3.505           652.656
       204   08 Jun 2027 11:08:53.022   08 Jun 2027 11:08:56.885             3.863          1326.531
       205   08 Jun 2027 11:09:23.032   08 Jun 2027 11:09:27.157             4.125           800.375
       206   08 Jun 2027 11:09:45.502   08 Jun 2027 11:09:48.071             2.569           351.688
       207   08 Jun 2027 11:12:47.692   08 Jun 2027 11:12:59.015            11.323          5613.156
       208   08 Jun 2027 11:13:07.619   08 Jun 2027 11:13:08.485             0.866           161.844
       209   08 Jun 2027 11:13:51.382   08 Jun 2027 11:13:53.714             2.332          1166.000
       210   09 Jun 2027 03:29:34.778   09 Jun 2027 03:31:13.777            98.999         49499.500
       211   09 Jun 2027 03:31:37.000   09 Jun 2027 03:32:16.407            39.407         19703.500
       212   09 Jun 2027 03:32:42.411   09 Jun 2027 03:32:55.964            13.553          6776.500
       213   09 Jun 2027 05:08:00.069   09 Jun 2027 05:09:08.884            68.815         34407.500
       214   09 Jun 2027 05:09:17.381   09 Jun 2027 05:09:29.113            11.732          5866.000
       215   09 Jun 2027 05:09:41.989   09 Jun 2027 05:09:41.989             0.000             0.000
       216   09 Jun 2027 05:10:33.682   09 Jun 2027 05:10:48.559            14.877          7438.500
       217   09 Jun 2027 06:31:58.811   09 Jun 2027 06:33:39.218           100.407         50203.500
       218   09 Jun 2027 08:07:55.787   09 Jun 2027 08:08:35.437            39.650         19825.000
       219   09 Jun 2027 08:08:51.567   09 Jun 2027 08:08:55.491             3.924          1373.843
       220   09 Jun 2027 08:10:10.643   09 Jun 2027 08:10:10.643             0.000             0.000
       221   09 Jun 2027 08:10:44.946   09 Jun 2027 08:10:52.070             7.124          2568.375
       222   09 Jun 2027 08:11:15.043   09 Jun 2027 08:11:15.043             0.000             0.000
       223   09 Jun 2027 09:41:46.362   09 Jun 2027 09:41:56.887            10.525          5262.500
       224   09 Jun 2027 09:42:19.538   09 Jun 2027 09:42:23.292             3.754           973.062
       225   09 Jun 2027 09:43:12.618   09 Jun 2027 09:43:18.353             5.735           692.344
       226   09 Jun 2027 09:45:12.327   09 Jun 2027 09:45:22.069             9.742          3065.781
       227   09 Jun 2027 09:45:39.465   09 Jun 2027 09:45:39.804             0.339            92.187
       228   09 Jun 2027 09:47:27.246   09 Jun 2027 09:47:35.928             8.682          3324.312
       229   09 Jun 2027 09:49:35.503   09 Jun 2027 09:49:43.910             8.407          3719.719
       230   09 Jun 2027 09:50:03.048   09 Jun 2027 09:50:05.792             2.744           449.656
       231   09 Jun 2027 11:18:53.197   09 Jun 2027 11:19:06.312            13.115          5501.187
       232   09 Jun 2027 11:19:28.999   09 Jun 2027 11:19:30.334             1.335            19.031
       233   09 Jun 2027 11:23:46.028   09 Jun 2027 11:24:02.282            16.254          7458.906
       234   09 Jun 2027 11:24:18.791   09 Jun 2027 11:24:19.808             1.017           503.406
       235   09 Jun 2027 11:24:44.311   09 Jun 2027 11:24:44.311             0.000             0.000
       236   09 Jun 2027 11:24:52.965   09 Jun 2027 11:24:55.903             2.938          1036.156
       237   09 Jun 2027 11:25:35.613   09 Jun 2027 11:25:39.699             4.086          1240.938
       238   10 Jun 2027 03:42:12.703   10 Jun 2027 03:42:52.227            39.524         19762.000
       239   10 Jun 2027 03:42:59.414   10 Jun 2027 03:43:47.410            47.996         23998.000
       240   10 Jun 2027 03:43:49.933   10 Jun 2027 03:44:07.296            17.363          8681.500
       241   10 Jun 2027 03:44:42.774   10 Jun 2027 03:45:04.084            21.310         10655.000
       242   10 Jun 2027 03:45:43.803   10 Jun 2027 03:45:57.042            13.239          6619.500
       243   10 Jun 2027 03:46:40.832   10 Jun 2027 03:46:47.726             6.894          3447.000
       244   10 Jun 2027 05:20:30.794   10 Jun 2027 05:22:07.136            96.342         48171.000
       245   10 Jun 2027 05:23:05.152   10 Jun 2027 05:23:31.312            26.160         13080.000
       246   10 Jun 2027 06:43:53.387   10 Jun 2027 06:45:08.388            75.001         37500.500
       247   10 Jun 2027 08:20:17.555   10 Jun 2027 08:20:36.919            19.364          9682.000
       248   10 Jun 2027 08:21:34.351   10 Jun 2027 08:21:44.153             9.802          3201.032
       249   10 Jun 2027 09:53:58.622   10 Jun 2027 09:54:11.753            13.131          4662.312
       250   10 Jun 2027 09:54:52.694   10 Jun 2027 09:54:56.258             3.564           916.250
       251   10 Jun 2027 09:56:13.810   10 Jun 2027 09:56:13.810             0.000             0.000
       252   10 Jun 2027 09:56:35.309   10 Jun 2027 09:56:38.442             3.133           748.344
       253   10 Jun 2027 09:57:13.444   10 Jun 2027 09:57:17.058             3.614           942.531
       254   10 Jun 2027 09:59:32.199   10 Jun 2027 09:59:43.231            11.032          4223.156
       255   10 Jun 2027 10:01:06.500   10 Jun 2027 10:01:10.311             3.811          1884.250
       256   10 Jun 2027 10:01:26.782   10 Jun 2027 10:01:27.374             0.592           296.000
       257   10 Jun 2027 11:31:19.564   10 Jun 2027 11:31:34.710            15.146          7087.750
       258   10 Jun 2027 11:31:54.070   10 Jun 2027 11:31:56.290             2.220           523.625
       259   10 Jun 2027 11:33:25.771   10 Jun 2027 11:33:26.245             0.474           205.906
       260   10 Jun 2027 11:35:10.843   10 Jun 2027 11:35:15.684             4.841          2097.781
       261   10 Jun 2027 11:35:27.236   10 Jun 2027 11:35:29.073             1.837           223.531
       262   10 Jun 2027 11:35:42.944   10 Jun 2027 11:35:48.312             5.368           328.969
       263   10 Jun 2027 11:35:55.812   10 Jun 2027 11:36:01.956             6.144           234.375
       264   10 Jun 2027 11:36:28.773   10 Jun 2027 11:36:33.978             5.205           838.031
       265   10 Jun 2027 11:37:00.882   10 Jun 2027 11:37:03.831             2.949           779.031
       266   10 Jun 2027 11:37:06.965   10 Jun 2027 11:37:07.920             0.955            97.937
       267   10 Jun 2027 11:37:30.116   10 Jun 2027 11:37:33.200             3.084           668.031
       268   10 Jun 2027 11:37:52.833   10 Jun 2027 11:37:59.942             7.109           523.844
       269   11 Jun 2027 03:54:05.726   11 Jun 2027 03:54:10.207             4.481          2240.500
       270   11 Jun 2027 03:54:39.925   11 Jun 2027 03:56:09.287            89.362         44681.000
       271   11 Jun 2027 03:57:31.816   11 Jun 2027 03:58:16.572            44.756         22378.000
       272   11 Jun 2027 05:32:46.541   11 Jun 2027 05:34:21.067            94.526         47263.000
       273   11 Jun 2027 05:35:04.585   11 Jun 2027 05:35:14.969            10.384          5192.000
       274   11 Jun 2027 05:36:05.896   11 Jun 2027 05:36:19.680            13.784          6892.000
       275   11 Jun 2027 06:55:40.881   11 Jun 2027 06:57:09.550            88.669         44334.500
       276   11 Jun 2027 08:32:19.397   11 Jun 2027 08:32:45.272            25.875         12288.594
       277   11 Jun 2027 08:33:01.303   11 Jun 2027 08:33:01.303             0.000             0.000
       278   11 Jun 2027 08:33:15.214   11 Jun 2027 08:33:23.581             8.367           935.688
       279   11 Jun 2027 08:33:29.424   11 Jun 2027 08:33:32.523             3.099           162.750
       280   11 Jun 2027 08:34:06.151   11 Jun 2027 08:34:08.793             2.642           962.094
       281   11 Jun 2027 08:34:31.427   11 Jun 2027 08:34:33.030             1.603           707.313
       282   11 Jun 2027 08:35:20.279   11 Jun 2027 08:35:20.279             0.000             0.000
       283   11 Jun 2027 10:08:06.167   11 Jun 2027 10:08:21.220            15.053          7394.125
       284   11 Jun 2027 10:08:31.499   11 Jun 2027 10:08:31.499             0.000             0.000
       285   11 Jun 2027 10:09:24.454   11 Jun 2027 10:09:29.306             4.852          1972.656
       286   11 Jun 2027 10:12:34.131   11 Jun 2027 10:12:45.453            11.322          4852.656
       287   11 Jun 2027 10:13:40.091   11 Jun 2027 10:13:42.870             2.779          1307.969
       288   11 Jun 2027 11:43:27.387   11 Jun 2027 11:43:45.252            17.865          8196.406
       289   11 Jun 2027 11:43:55.874   11 Jun 2027 11:43:57.694             1.820           331.938
       290   11 Jun 2027 11:45:21.195   11 Jun 2027 11:45:22.980             1.785           892.500
       291   11 Jun 2027 11:45:58.763   11 Jun 2027 11:46:03.466             4.703          2210.594
       292   11 Jun 2027 11:46:39.603   11 Jun 2027 11:46:43.648             4.045          1038.250
       293   11 Jun 2027 11:48:02.070   11 Jun 2027 11:48:09.014             6.944          1827.531
       294   11 Jun 2027 11:48:12.405   11 Jun 2027 11:48:12.478             0.073            36.500
       295   11 Jun 2027 11:48:26.055   11 Jun 2027 11:48:28.360             2.305           493.750
       296   11 Jun 2027 11:49:09.653   11 Jun 2027 11:49:10.567             0.914           457.000
       297   11 Jun 2027 11:49:26.841   11 Jun 2027 11:49:32.910             6.069          1341.969
       298   12 Jun 2027 04:06:14.472   12 Jun 2027 04:07:16.454            61.982         30991.000
       299   12 Jun 2027 04:07:22.907   12 Jun 2027 04:08:08.690            45.783         22891.500
       300   12 Jun 2027 04:11:47.558   12 Jun 2027 04:11:51.478             3.920          1960.000
       301   12 Jun 2027 05:44:32.880   12 Jun 2027 05:45:05.068            32.188         16094.000
       302   12 Jun 2027 05:45:22.104   12 Jun 2027 05:47:09.724           107.620         53810.000
       303   12 Jun 2027 07:07:55.412   12 Jun 2027 07:09:21.360            85.948         42974.000
       304   12 Jun 2027 08:44:27.201   12 Jun 2027 08:44:42.848            15.647          7077.156
       305   12 Jun 2027 08:45:42.697   12 Jun 2027 08:45:48.696             5.999          1756.344
       306   12 Jun 2027 08:46:06.655   12 Jun 2027 08:46:06.655             0.000             0.000
       307   12 Jun 2027 08:46:51.573   12 Jun 2027 08:46:58.046             6.473          1723.531
       308   12 Jun 2027 08:47:08.232   12 Jun 2027 08:47:09.039             0.807           193.000
       309   12 Jun 2027 10:20:55.246   12 Jun 2027 10:21:14.022            18.776          8979.500
       310   12 Jun 2027 10:22:53.582   12 Jun 2027 10:22:53.582             0.000             0.000
       311   12 Jun 2027 10:24:34.678   12 Jun 2027 10:24:46.203            11.525          5626.969
       312   12 Jun 2027 10:26:12.206   12 Jun 2027 10:26:13.735             1.529           764.500
       313   12 Jun 2027 11:56:01.385   12 Jun 2027 11:56:20.853            19.468          6023.500
       314   12 Jun 2027 11:57:23.130   12 Jun 2027 11:57:27.029             3.899          1724.969
       315   12 Jun 2027 11:58:33.988   12 Jun 2027 11:58:44.375            10.387          1721.813
       316   12 Jun 2027 11:59:32.556   12 Jun 2027 11:59:32.556             0.000             0.000
       317   12 Jun 2027 11:59:55.968   12 Jun 2027 11:59:59.369             3.401          1506.562
       318   13 Jun 2027 04:19:21.040   13 Jun 2027 04:19:58.226            37.186         18593.000
       319   13 Jun 2027 04:20:18.046   13 Jun 2027 04:21:32.245            74.199         37099.500
       320   13 Jun 2027 04:21:36.628   13 Jun 2027 04:21:36.628             0.000             0.000
       321   13 Jun 2027 04:22:01.673   13 Jun 2027 04:22:03.561             1.888           944.000
       322   13 Jun 2027 04:26:20.419   13 Jun 2027 04:26:52.102            31.683         15841.500
       323   13 Jun 2027 05:56:29.414   13 Jun 2027 05:57:08.905            39.491         19745.500
       324   13 Jun 2027 05:57:29.312   13 Jun 2027 05:58:04.591            35.279         17639.500
       325   13 Jun 2027 05:58:12.438   13 Jun 2027 05:58:34.638            22.200         11100.000
       326   13 Jun 2027 07:20:25.500   13 Jun 2027 07:21:45.683            80.183         40091.500
       327   13 Jun 2027 07:22:55.358   13 Jun 2027 07:22:55.358             0.000             0.000
       328   13 Jun 2027 08:56:20.249   13 Jun 2027 08:56:59.907            39.658         19610.937
       329   13 Jun 2027 08:58:09.632   13 Jun 2027 08:58:14.020             4.388          2156.969
       330   13 Jun 2027 08:58:53.186   13 Jun 2027 08:58:58.570             5.384          1157.750
       331   13 Jun 2027 10:31:16.211   13 Jun 2027 10:31:31.953            15.742          7001.000
       332   13 Jun 2027 10:33:22.959   13 Jun 2027 10:33:29.415             6.456          3164.500
       333   13 Jun 2027 10:34:28.176   13 Jun 2027 10:34:28.176             0.000             0.000
       334   13 Jun 2027 10:36:34.652   13 Jun 2027 10:36:44.464             9.812          4906.000
       335   13 Jun 2027 10:36:50.231   13 Jun 2027 10:36:52.392             2.161           491.781
       336   13 Jun 2027 10:37:23.205   13 Jun 2027 10:37:29.215             6.010           659.219
       337   13 Jun 2027 10:37:40.543   13 Jun 2027 10:37:41.198             0.655            23.063
       338   13 Jun 2027 10:38:08.484   13 Jun 2027 10:38:12.529             4.045           852.687
