uniorb/output/strategy_1/Camera/Camera_KinoSat_111203.txt

KinoSat_111203
-------------------------
    Access    *     Start Time (UTCG)     *     Stop Time (UTCG)  *   Duration (s) *   Data (Mbytes)
         1   01 Jun 2027 03:50:59.828   01 Jun 2027 03:51:36.543            36.715         18357.500
         2   01 Jun 2027 03:52:05.285   01 Jun 2027 03:54:19.558           134.273         67136.500
         3   01 Jun 2027 05:15:05.176   01 Jun 2027 05:16:04.857            59.681         29840.500
         4   01 Jun 2027 06:50:50.826   01 Jun 2027 06:52:43.292           112.466         56233.000
         5   01 Jun 2027 06:53:14.406   01 Jun 2027 06:53:22.018             7.612          3806.000
         6   01 Jun 2027 08:25:48.436   01 Jun 2027 08:27:37.747           109.311         54655.500
         7   01 Jun 2027 08:28:51.498   01 Jun 2027 08:28:51.498             0.000             0.000
         8   01 Jun 2027 08:29:39.630   01 Jun 2027 08:29:57.779            18.149          9074.500
         9   01 Jun 2027 08:30:23.261   01 Jun 2027 08:30:26.266             3.005          1502.500
        10   01 Jun 2027 08:30:48.656   01 Jun 2027 08:31:05.391            16.735          8367.500
        11   01 Jun 2027 10:02:00.555   01 Jun 2027 10:03:26.665            86.110         43055.000
        12   01 Jun 2027 10:04:11.452   01 Jun 2027 10:04:38.777            27.325         13662.500
        13   01 Jun 2027 10:07:25.046   01 Jun 2027 10:07:36.050            11.004          5502.000
        14   01 Jun 2027 11:40:00.965   01 Jun 2027 11:41:21.176            80.211         40105.500
        15   01 Jun 2027 11:41:52.941   01 Jun 2027 11:42:36.073            43.132         21566.000
        16   01 Jun 2027 11:43:18.078   01 Jun 2027 11:43:25.345             7.267          3633.500
        17   02 Jun 2027 03:51:52.424   02 Jun 2027 03:52:31.136            38.712         19356.000
        18   02 Jun 2027 04:02:55.560   02 Jun 2027 04:04:08.779            73.219         36609.500
        19   02 Jun 2027 04:04:47.289   02 Jun 2027 04:05:14.552            27.263         13631.500
        20   02 Jun 2027 05:25:54.902   02 Jun 2027 05:26:53.033            58.131         29065.500
        21   02 Jun 2027 05:27:20.187   02 Jun 2027 05:27:20.187             0.000             0.000
        22   02 Jun 2027 05:27:34.037   02 Jun 2027 05:28:05.021            30.984         15492.000
        23   02 Jun 2027 07:01:26.843   02 Jun 2027 07:01:32.873             6.030          3015.000
        24   02 Jun 2027 07:02:36.472   02 Jun 2027 07:04:14.914            98.442         49221.000
        25   02 Jun 2027 07:04:38.404   02 Jun 2027 07:04:38.404             0.000             0.000
        26   02 Jun 2027 07:05:23.084   02 Jun 2027 07:05:26.785             3.701          1850.500
        27   02 Jun 2027 07:06:47.402   02 Jun 2027 07:06:47.402             0.000             0.000
        28   02 Jun 2027 08:37:22.221   02 Jun 2027 08:39:38.217           135.996         67998.000
        29   02 Jun 2027 08:44:12.023   02 Jun 2027 08:44:12.023             0.000             0.000
        30   02 Jun 2027 08:44:13.858   02 Jun 2027 08:44:41.856            27.998         13999.000
        31   02 Jun 2027 10:14:21.835   02 Jun 2027 10:16:03.487           101.652         50826.000
        32   02 Jun 2027 10:17:05.065   02 Jun 2027 10:17:20.298            15.233          7616.500
        33   02 Jun 2027 10:17:48.455   02 Jun 2027 10:17:55.482             7.027          3513.500
        34   02 Jun 2027 10:20:18.664   02 Jun 2027 10:20:24.683             6.019          3009.500
        35   02 Jun 2027 11:52:22.830   02 Jun 2027 11:53:57.980            95.150         47575.000
        36   02 Jun 2027 11:54:46.630   02 Jun 2027 11:55:16.151            29.521         14760.500
        37   02 Jun 2027 11:56:04.270   02 Jun 2027 11:56:04.270             0.000             0.000
        38   03 Jun 2027 04:03:15.001   03 Jun 2027 04:03:47.261            32.260         16130.000
        39   03 Jun 2027 04:14:56.732   03 Jun 2027 04:15:58.940            62.208         31104.000
        40   03 Jun 2027 05:37:11.121   03 Jun 2027 05:38:25.772            74.651         37325.500
        41   03 Jun 2027 05:39:10.858   03 Jun 2027 05:39:31.376            20.518         10259.000
        42   03 Jun 2027 05:40:15.929   03 Jun 2027 05:40:33.094            17.165          8582.500
        43   03 Jun 2027 07:12:19.071   03 Jun 2027 07:13:46.893            87.822         43911.000
        44   03 Jun 2027 07:14:20.031   03 Jun 2027 07:15:09.820            49.789         24894.500
        45   03 Jun 2027 07:16:54.661   03 Jun 2027 07:17:08.803            14.142          7071.000
        46   03 Jun 2027 07:17:39.591   03 Jun 2027 07:17:40.506             0.915           457.500
        47   03 Jun 2027 08:49:30.166   03 Jun 2027 08:51:38.139           127.973         63986.500
        48   03 Jun 2027 08:54:48.739   03 Jun 2027 08:54:58.778            10.039          5019.500
        49   03 Jun 2027 08:55:09.676   03 Jun 2027 08:55:09.720             0.044            22.000
        50   03 Jun 2027 08:55:28.966   03 Jun 2027 08:55:29.931             0.965           482.500
        51   03 Jun 2027 08:55:58.517   03 Jun 2027 08:56:09.475            10.958          5479.000
        52   03 Jun 2027 08:56:33.917   03 Jun 2027 08:56:40.851             6.934          3467.000
        53   03 Jun 2027 10:26:27.474   03 Jun 2027 10:27:22.739            55.265         27632.500
        54   03 Jun 2027 10:27:47.759   03 Jun 2027 10:27:58.619            10.860          5430.000
        55   03 Jun 2027 10:29:04.717   03 Jun 2027 10:29:10.088             5.371          2592.063
        56   03 Jun 2027 10:29:27.887   03 Jun 2027 10:29:27.976             0.089            44.500
        57   03 Jun 2027 10:29:39.998   03 Jun 2027 10:29:41.760             1.762           803.094
        58   03 Jun 2027 10:30:36.422   03 Jun 2027 10:30:42.602             6.180          1232.594
        59   03 Jun 2027 10:30:54.934   03 Jun 2027 10:30:55.369             0.435           217.500
        60   03 Jun 2027 10:31:37.382   03 Jun 2027 10:31:40.422             3.040          1480.781
        61   03 Jun 2027 10:31:54.702   03 Jun 2027 10:31:56.245             1.543           446.250
        62   03 Jun 2027 10:32:08.773   03 Jun 2027 10:32:09.967             1.194           391.500
        63   03 Jun 2027 10:32:17.545   03 Jun 2027 10:32:19.401             1.856           162.500
        64   03 Jun 2027 10:32:29.258   03 Jun 2027 10:32:30.546             1.288           121.563
        65   04 Jun 2027 04:14:41.449   04 Jun 2027 04:15:30.089            48.640         24320.000
        66   04 Jun 2027 04:16:47.553   04 Jun 2027 04:16:48.968             1.415           707.500
        67   04 Jun 2027 04:26:53.754   04 Jun 2027 04:27:33.440            39.686         19843.000
        68   04 Jun 2027 05:48:56.053   04 Jun 2027 05:50:14.866            78.813         39406.500
        69   04 Jun 2027 05:51:08.618   04 Jun 2027 05:51:15.143             6.525          3262.500
        70   04 Jun 2027 05:51:32.976   04 Jun 2027 05:51:40.339             7.363          3681.500
        71   04 Jun 2027 05:53:28.295   04 Jun 2027 05:53:31.949             3.654          1827.000
        72   04 Jun 2027 07:23:48.422   04 Jun 2027 07:26:16.498           148.076         74038.000
        73   04 Jun 2027 07:32:03.410   04 Jun 2027 07:32:18.664            15.254          7627.000
        74   04 Jun 2027 07:32:28.446   04 Jun 2027 07:32:34.497             6.051          3025.500
        75   04 Jun 2027 09:01:31.585   04 Jun 2027 09:01:53.619            22.034         11017.000
        76   04 Jun 2027 09:03:37.412   04 Jun 2027 09:03:42.727             5.315          2657.500
        77   04 Jun 2027 09:05:05.273   04 Jun 2027 09:05:13.972             8.699          3984.595
        78   04 Jun 2027 09:06:10.795   04 Jun 2027 09:06:18.005             7.210          1773.906
        79   04 Jun 2027 09:07:10.812   04 Jun 2027 09:07:11.057             0.245           122.500
        80   04 Jun 2027 09:07:45.230   04 Jun 2027 09:07:50.209             4.979          2173.688
        81   04 Jun 2027 09:08:45.343   04 Jun 2027 09:08:48.584             3.241          1030.094
        82   04 Jun 2027 09:08:50.528   04 Jun 2027 09:08:50.786             0.258            38.969
        83   04 Jun 2027 10:38:19.786   04 Jun 2027 10:38:35.684            15.898          6463.344
        84   04 Jun 2027 10:38:41.642   04 Jun 2027 10:38:43.091             1.449           186.187
        85   04 Jun 2027 10:39:25.170   04 Jun 2027 10:39:27.613             2.443          1090.656
        86   04 Jun 2027 10:40:18.962   04 Jun 2027 10:40:21.357             2.395           766.312
        87   04 Jun 2027 10:40:43.620   04 Jun 2027 10:40:44.628             1.008           112.938
        88   04 Jun 2027 10:41:29.267   04 Jun 2027 10:41:31.096             1.829           586.906
        89   04 Jun 2027 10:41:34.902   04 Jun 2027 10:41:37.277             2.375           118.937
        90   04 Jun 2027 10:41:58.557   04 Jun 2027 10:42:00.519             1.962           645.219
        91   04 Jun 2027 10:42:26.107   04 Jun 2027 10:42:31.074             4.967           799.625
        92   04 Jun 2027 10:42:51.820   04 Jun 2027 10:42:53.664             1.844           615.625
        93   04 Jun 2027 10:43:48.124   04 Jun 2027 10:43:51.063             2.939          1163.406
        94   04 Jun 2027 10:44:25.710   04 Jun 2027 10:44:26.852             1.142           533.844
        95   04 Jun 2027 10:45:01.379   04 Jun 2027 10:45:02.246             0.867           433.500
        96   05 Jun 2027 03:02:38.720   05 Jun 2027 03:03:09.991            31.271         15635.500
        97   05 Jun 2027 03:03:18.591   05 Jun 2027 03:03:22.700             4.109          2054.500
        98   05 Jun 2027 03:03:59.223   05 Jun 2027 03:04:15.482            16.259          8129.500
        99   05 Jun 2027 03:05:00.407   05 Jun 2027 03:05:14.711            14.304          7152.000
       100   05 Jun 2027 03:06:10.375   05 Jun 2027 03:06:11.147             0.772           386.000
       101   05 Jun 2027 03:06:23.720   05 Jun 2027 03:06:31.213             7.493          3746.500
       102   05 Jun 2027 04:26:45.396   05 Jun 2027 04:27:28.979            43.583         21791.500
       103   05 Jun 2027 06:00:31.550   05 Jun 2027 06:02:14.709           103.159         51579.500
       104   05 Jun 2027 06:03:33.260   05 Jun 2027 06:03:33.260             0.000             0.000
       105   05 Jun 2027 06:03:43.524   05 Jun 2027 06:04:09.344            25.820         12910.000
       106   05 Jun 2027 06:05:16.607   05 Jun 2027 06:05:16.607             0.000             0.000
       107   05 Jun 2027 07:36:32.285   05 Jun 2027 07:38:00.295            88.010         44005.000
       108   05 Jun 2027 07:38:14.039   05 Jun 2027 07:38:20.069             6.030          3015.000
       109   05 Jun 2027 07:38:59.834   05 Jun 2027 07:39:06.031             6.197          3098.500
       110   05 Jun 2027 07:41:23.476   05 Jun 2027 07:41:32.144             8.668          4334.000
       111   05 Jun 2027 07:41:43.876   05 Jun 2027 07:41:46.710             2.834          1417.000
       112   05 Jun 2027 07:42:07.221   05 Jun 2027 07:42:09.063             1.842           921.000
       113   05 Jun 2027 07:42:43.451   05 Jun 2027 07:42:49.159             5.708          2854.000
       114   05 Jun 2027 07:44:01.220   05 Jun 2027 07:44:08.217             6.997          3498.500
       115   05 Jun 2027 07:44:45.048   05 Jun 2027 07:44:53.387             8.339          1725.750
       116   05 Jun 2027 09:13:35.076   05 Jun 2027 09:13:55.601            20.525          8511.969
       117   05 Jun 2027 09:14:34.970   05 Jun 2027 09:14:38.823             3.853           572.156
       118   05 Jun 2027 09:15:16.656   05 Jun 2027 09:15:19.609             2.953           637.156
       119   05 Jun 2027 09:16:19.729   05 Jun 2027 09:16:19.729             0.000             0.000
       120   05 Jun 2027 09:17:45.960   05 Jun 2027 09:17:55.411             9.451          4064.031
       121   05 Jun 2027 09:18:21.545   05 Jun 2027 09:18:23.349             1.804           690.469
       122   05 Jun 2027 09:18:55.740   05 Jun 2027 09:18:58.166             2.426           770.250
       123   05 Jun 2027 09:19:06.380   05 Jun 2027 09:19:07.294             0.914           242.781
       124   05 Jun 2027 09:19:27.675   05 Jun 2027 09:19:29.772             2.097           636.906
       125   05 Jun 2027 09:20:20.559   05 Jun 2027 09:20:24.149             3.590          1575.563
       126   05 Jun 2027 10:50:29.945   05 Jun 2027 10:50:38.883             8.938          4469.000
       127   05 Jun 2027 10:51:02.842   05 Jun 2027 10:51:11.520             8.678          4208.219
       128   05 Jun 2027 10:51:58.363   05 Jun 2027 10:52:08.869            10.506           874.000
       129   05 Jun 2027 10:52:58.504   05 Jun 2027 10:52:58.504             0.000             0.000
       130   05 Jun 2027 10:53:23.132   05 Jun 2027 10:53:26.492             3.360          1474.656
       131   05 Jun 2027 10:54:22.116   05 Jun 2027 10:54:25.754             3.638          1733.312
       132   05 Jun 2027 10:54:42.106   05 Jun 2027 10:54:44.364             2.258           511.000
       133   05 Jun 2027 10:54:52.338   05 Jun 2027 10:54:52.812             0.474           115.594
       134   05 Jun 2027 10:55:44.640   05 Jun 2027 10:55:47.032             2.392          1196.000
       135   05 Jun 2027 10:55:50.739   05 Jun 2027 10:55:52.306             1.567           243.531
       136   05 Jun 2027 10:56:16.091   05 Jun 2027 10:56:16.091             0.000             0.000
       137   05 Jun 2027 10:56:16.512   05 Jun 2027 10:56:23.237             6.725           718.500
       138   05 Jun 2027 10:56:47.569   05 Jun 2027 10:56:51.647             4.078           580.969
       139   06 Jun 2027 03:15:15.463   06 Jun 2027 03:16:43.146            87.683         43841.500
       140   06 Jun 2027 03:17:29.168   06 Jun 2027 03:17:30.173             1.005           502.500
       141   06 Jun 2027 03:18:08.426   06 Jun 2027 03:18:16.289             7.863          3931.500
       142   06 Jun 2027 03:18:57.845   06 Jun 2027 03:19:07.007             9.162          4581.000
       143   06 Jun 2027 04:38:40.232   06 Jun 2027 04:39:18.888            38.656         19328.000
       144   06 Jun 2027 04:40:29.393   06 Jun 2027 04:40:45.959            16.566          8283.000
       145   06 Jun 2027 06:14:59.711   06 Jun 2027 06:16:52.446           112.735         56367.500
       146   06 Jun 2027 06:17:22.742   06 Jun 2027 06:17:25.556             2.814          1407.000
       147   06 Jun 2027 06:18:24.550   06 Jun 2027 06:18:28.096             3.546          1773.000
       148   06 Jun 2027 07:48:29.520   06 Jun 2027 07:49:33.155            63.635         31479.093
       149   06 Jun 2027 07:50:25.258   06 Jun 2027 07:50:31.417             6.159          1443.594
       150   06 Jun 2027 07:50:53.496   06 Jun 2027 07:50:53.496             0.000             0.000
       151   06 Jun 2027 07:51:50.781   06 Jun 2027 07:51:57.345             6.564          2480.125
       152   06 Jun 2027 07:54:10.194   06 Jun 2027 07:54:19.135             8.941          3997.844
       153   06 Jun 2027 07:54:28.145   06 Jun 2027 07:54:29.391             1.246            71.625
       154   06 Jun 2027 07:55:01.648   06 Jun 2027 07:55:04.618             2.970          1008.031
       155   06 Jun 2027 07:55:20.539   06 Jun 2027 07:55:24.386             3.847           497.531
       156   06 Jun 2027 07:55:34.883   06 Jun 2027 07:55:38.516             3.633           175.937
       157   06 Jun 2027 07:55:55.735   06 Jun 2027 07:55:56.918             1.183           538.094
       158   06 Jun 2027 07:56:52.479   06 Jun 2027 07:56:59.787             7.308          1638.594
       159   06 Jun 2027 09:26:00.941   06 Jun 2027 09:26:18.119            17.178          7740.969
       160   06 Jun 2027 09:26:56.278   06 Jun 2027 09:27:00.921             4.643           421.469
       161   06 Jun 2027 09:27:58.994   06 Jun 2027 09:28:02.148             3.154          1563.469
       162   06 Jun 2027 09:28:44.750   06 Jun 2027 09:28:50.725             5.975          1315.250
       163   06 Jun 2027 09:28:51.061   06 Jun 2027 09:28:53.237             2.176            10.500
       164   06 Jun 2027 09:29:17.686   06 Jun 2027 09:29:21.174             3.488           303.187
       165   06 Jun 2027 09:30:27.920   06 Jun 2027 09:30:31.038             3.118          1559.000
       166   06 Jun 2027 09:30:34.764   06 Jun 2027 09:30:38.612             3.848           599.000
       167   06 Jun 2027 09:30:56.692   06 Jun 2027 09:30:58.236             1.544           444.437
       168   06 Jun 2027 09:31:25.711   06 Jun 2027 09:31:28.421             2.710           757.969
       169   06 Jun 2027 09:32:17.333   06 Jun 2027 09:32:21.523             4.190          1185.750
       170   06 Jun 2027 11:02:57.444   06 Jun 2027 11:03:18.642            21.198          7891.406
       171   06 Jun 2027 11:04:45.654   06 Jun 2027 11:04:46.987             1.333           666.500
       172   06 Jun 2027 11:05:16.206   06 Jun 2027 11:05:19.275             3.069           953.125
       173   06 Jun 2027 11:05:37.261   06 Jun 2027 11:05:40.345             3.084           460.625
       174   06 Jun 2027 11:06:23.951   06 Jun 2027 11:06:25.440             1.489           744.500
       175   06 Jun 2027 11:06:53.985   06 Jun 2027 11:06:57.222             3.237          1510.219
       176   06 Jun 2027 11:07:15.630   06 Jun 2027 11:07:16.777             1.147           491.156
       177   06 Jun 2027 11:07:33.775   06 Jun 2027 11:07:34.307             0.532           266.000
       178   06 Jun 2027 11:07:42.698   06 Jun 2027 11:07:42.779             0.081            40.500
       179   06 Jun 2027 11:08:43.950   06 Jun 2027 11:08:45.008             1.058           529.000
       180   07 Jun 2027 03:26:53.903   07 Jun 2027 03:28:27.846            93.943         46971.500
       181   07 Jun 2027 03:29:27.018   07 Jun 2027 03:29:27.102             0.084            42.000
       182   07 Jun 2027 03:30:03.849   07 Jun 2027 03:30:14.303            10.454          5227.000
       183   07 Jun 2027 03:31:20.878   07 Jun 2027 03:31:20.878             0.000             0.000
       184   07 Jun 2027 04:50:31.021   07 Jun 2027 04:51:38.174            67.153         33576.500
       185   07 Jun 2027 06:27:01.924   07 Jun 2027 06:28:43.603           101.679         50839.500
       186   07 Jun 2027 06:29:59.305   07 Jun 2027 06:30:04.365             5.060          2530.000
       187   07 Jun 2027 08:01:09.137   07 Jun 2027 08:02:16.726            67.589         30727.656
       188   07 Jun 2027 08:02:41.549   07 Jun 2027 08:02:43.466             1.917           318.563
       189   07 Jun 2027 08:03:52.450   07 Jun 2027 08:03:58.448             5.998          1993.969
       190   07 Jun 2027 08:04:39.822   07 Jun 2027 08:04:45.220             5.398          1109.250
       191   07 Jun 2027 08:05:44.785   07 Jun 2027 08:05:50.951             6.166          1861.406
       192   07 Jun 2027 08:06:23.769   07 Jun 2027 08:06:23.769             0.000             0.000
       193   07 Jun 2027 08:07:35.589   07 Jun 2027 08:07:40.915             5.326          2663.000
       194   07 Jun 2027 08:07:43.720   07 Jun 2027 08:07:45.470             1.750           650.188
       195   07 Jun 2027 08:08:25.094   07 Jun 2027 08:08:28.598             3.504          1238.250
       196   07 Jun 2027 09:38:07.364   07 Jun 2027 09:38:23.038            15.674          7551.625
       197   07 Jun 2027 09:39:10.217   07 Jun 2027 09:39:12.941             2.724          1040.000
       198   07 Jun 2027 09:40:07.670   07 Jun 2027 09:40:12.526             4.856          1599.687
       199   07 Jun 2027 09:40:48.425   07 Jun 2027 09:40:52.286             3.861          1108.937
       200   07 Jun 2027 09:41:16.749   07 Jun 2027 09:41:19.367             2.618           764.469
       201   07 Jun 2027 09:41:32.558   07 Jun 2027 09:41:33.488             0.930           412.219
       202   07 Jun 2027 09:42:32.839   07 Jun 2027 09:42:36.701             3.862          1854.719
       203   07 Jun 2027 09:43:05.374   07 Jun 2027 09:43:05.374             0.000             0.000
       204   07 Jun 2027 09:43:16.210   07 Jun 2027 09:43:21.143             4.933           981.875
       205   07 Jun 2027 09:44:12.771   07 Jun 2027 09:44:16.730             3.959          1613.375
       206   07 Jun 2027 09:44:44.557   07 Jun 2027 09:44:46.305             1.748           869.594
       207   07 Jun 2027 11:15:47.745   07 Jun 2027 11:16:05.042            17.297          6914.875
       208   07 Jun 2027 11:16:36.011   07 Jun 2027 11:16:38.799             2.788           746.937
       209   07 Jun 2027 11:16:57.069   07 Jun 2027 11:17:06.337             9.268           461.406
       210   07 Jun 2027 11:17:15.970   07 Jun 2027 11:17:19.726             3.756           174.563
       211   07 Jun 2027 11:17:38.074   07 Jun 2027 11:17:41.321             3.247           573.375
       212   07 Jun 2027 11:18:09.667   07 Jun 2027 11:18:15.488             5.821           625.188
       213   07 Jun 2027 11:18:55.306   07 Jun 2027 11:18:57.467             2.161          1010.094
       214   07 Jun 2027 11:19:21.699   07 Jun 2027 11:19:22.511             0.812           406.000
       215   07 Jun 2027 11:19:46.290   07 Jun 2027 11:19:51.239             4.949          1094.344
       216   07 Jun 2027 11:19:55.138   07 Jun 2027 11:19:56.280             1.142           121.844
       217   07 Jun 2027 11:19:58.767   07 Jun 2027 11:19:59.335             0.568            68.719
       218   08 Jun 2027 03:39:21.579   08 Jun 2027 03:39:44.626            23.047         11523.500
       219   08 Jun 2027 03:40:07.110   08 Jun 2027 03:41:52.807           105.697         52848.500
       220   08 Jun 2027 05:02:40.627   08 Jun 2027 05:03:22.835            42.208         21104.000
       221   08 Jun 2027 05:04:20.246   08 Jun 2027 05:04:20.246             0.000             0.000
       222   08 Jun 2027 06:39:11.355   08 Jun 2027 06:41:06.456           115.101         57550.500
       223   08 Jun 2027 08:14:21.341   08 Jun 2027 08:14:53.733            32.392         15770.062
       224   08 Jun 2027 08:15:24.942   08 Jun 2027 08:15:28.432             3.490           219.250
       225   08 Jun 2027 08:16:02.025   08 Jun 2027 08:16:04.738             2.713           942.344
       226   08 Jun 2027 08:16:30.930   08 Jun 2027 08:16:32.942             2.012           818.500
       227   08 Jun 2027 08:17:54.927   08 Jun 2027 08:18:06.687            11.760          2406.906
       228   08 Jun 2027 08:19:09.762   08 Jun 2027 08:19:14.239             4.477          1784.719
       229   08 Jun 2027 08:19:18.334   08 Jun 2027 08:19:23.833             5.499            51.219
       230   08 Jun 2027 08:19:33.977   08 Jun 2027 08:19:35.371             1.394           294.906
       231   08 Jun 2027 08:20:40.774   08 Jun 2027 08:20:45.433             4.659          2030.500
       232   08 Jun 2027 09:50:43.560   08 Jun 2027 09:51:03.311            19.751          8889.281
       233   08 Jun 2027 09:52:12.658   08 Jun 2027 09:52:22.133             9.475          1716.469
       234   08 Jun 2027 09:52:25.735   08 Jun 2027 09:52:27.604             1.869            41.187
       235   08 Jun 2027 09:52:59.563   08 Jun 2027 09:53:02.139             2.576           998.719
       236   08 Jun 2027 09:53:07.803   08 Jun 2027 09:53:09.799             1.996           177.000
       237   08 Jun 2027 09:53:27.387   08 Jun 2027 09:53:27.933             0.546           261.469
       238   08 Jun 2027 09:53:30.421   08 Jun 2027 09:53:34.111             3.690            31.438
       239   08 Jun 2027 09:54:07.478   08 Jun 2027 09:54:16.584             9.106           396.063
       240   08 Jun 2027 09:54:38.660   08 Jun 2027 09:54:39.124             0.464           210.500
       241   08 Jun 2027 09:55:09.365   08 Jun 2027 09:55:17.220             7.855           945.031
       242   08 Jun 2027 09:55:58.532   08 Jun 2027 09:56:01.638             3.106          1282.469
       243   08 Jun 2027 11:28:00.183   08 Jun 2027 11:28:16.852            16.669          7549.938
       244   08 Jun 2027 11:28:42.899   08 Jun 2027 11:28:43.140             0.241           120.500
       245   08 Jun 2027 11:29:05.743   08 Jun 2027 11:29:05.743             0.000             0.000
       246   08 Jun 2027 11:29:10.178   08 Jun 2027 11:29:12.866             2.688          1340.000
       247   08 Jun 2027 11:29:38.542   08 Jun 2027 11:29:42.586             4.044           802.375
       248   08 Jun 2027 11:30:21.066   08 Jun 2027 11:30:26.676             5.610           497.656
       249   08 Jun 2027 11:30:36.024   08 Jun 2027 11:30:36.835             0.811           251.875
       250   08 Jun 2027 11:30:56.759   08 Jun 2027 11:30:58.444             1.685           338.813
       251   08 Jun 2027 11:31:32.574   08 Jun 2027 11:31:36.451             3.877          1052.875
       252   08 Jun 2027 11:31:56.742   08 Jun 2027 11:32:06.558             9.816           419.875
       253   09 Jun 2027 03:51:15.209   09 Jun 2027 03:51:52.328            37.119         18559.500
       254   09 Jun 2027 03:52:21.731   09 Jun 2027 03:53:56.643            94.912         47456.000
       255   09 Jun 2027 05:15:20.561   09 Jun 2027 05:15:59.729            39.168         19584.000
       256   09 Jun 2027 05:16:21.850   09 Jun 2027 05:16:46.874            25.024         12512.000
       257   09 Jun 2027 06:51:06.091   09 Jun 2027 06:52:35.904            89.813         44906.500
       258   09 Jun 2027 06:53:51.711   09 Jun 2027 06:54:06.373            14.662          7331.000
       259   09 Jun 2027 06:54:21.580   09 Jun 2027 06:54:25.167             3.587          1793.500
       260   09 Jun 2027 08:26:03.399   09 Jun 2027 08:26:29.006            25.607         12672.688
       261   09 Jun 2027 08:27:54.666   09 Jun 2027 08:28:00.628             5.962          2322.656
       262   09 Jun 2027 08:28:39.970   09 Jun 2027 08:28:46.261             6.291          1189.688
       263   09 Jun 2027 08:29:57.253   09 Jun 2027 08:30:02.607             5.354          2063.281
       264   09 Jun 2027 08:31:42.186   09 Jun 2027 08:31:47.888             5.702          2351.812
       265   09 Jun 2027 08:32:12.218   09 Jun 2027 08:32:14.100             1.882           760.312
       266   09 Jun 2027 08:32:38.099   09 Jun 2027 08:32:39.607             1.508           749.969
       267   09 Jun 2027 10:02:15.942   09 Jun 2027 10:02:34.591            18.649          8254.125
       268   09 Jun 2027 10:03:11.924   09 Jun 2027 10:03:17.673             5.749          1166.656
       269   09 Jun 2027 10:05:02.886   09 Jun 2027 10:05:05.788             2.902          1291.125
       270   09 Jun 2027 10:05:31.060   09 Jun 2027 10:05:32.713             1.653           282.469
       271   09 Jun 2027 10:06:04.582   09 Jun 2027 10:06:07.577             2.995           703.562
       272   09 Jun 2027 10:06:22.530   09 Jun 2027 10:06:22.530             0.000             0.000
       273   09 Jun 2027 10:07:02.609   09 Jun 2027 10:07:04.966             2.357          1178.500
       274   09 Jun 2027 10:07:26.418   09 Jun 2027 10:07:33.578             7.160          1175.656
       275   09 Jun 2027 10:07:52.610   09 Jun 2027 10:07:54.815             2.205           440.406
       276   09 Jun 2027 11:40:17.126   09 Jun 2027 11:40:31.897            14.771          6875.344
       277   09 Jun 2027 11:41:08.628   09 Jun 2027 11:41:10.502             1.874           937.000
       278   09 Jun 2027 11:42:06.696   09 Jun 2027 11:42:18.024            11.328          1953.813
       279   09 Jun 2027 11:42:24.392   09 Jun 2027 11:42:25.094             0.702           199.000
       280   09 Jun 2027 11:42:36.423   09 Jun 2027 11:42:37.638             1.215           112.000
       281   09 Jun 2027 11:43:21.909   09 Jun 2027 11:43:25.163             3.254          1057.156
       282   09 Jun 2027 11:44:20.445   09 Jun 2027 11:44:24.288             3.843          1592.063
       283   10 Jun 2027 03:52:06.428   10 Jun 2027 03:52:47.643            41.215         20607.500
       284   10 Jun 2027 04:03:11.132   10 Jun 2027 04:04:23.626            72.494         36247.000
       285   10 Jun 2027 04:04:28.412   10 Jun 2027 04:04:45.645            17.233          8616.500
       286   10 Jun 2027 05:26:09.466   10 Jun 2027 05:27:35.386            85.920         42960.000
       287   10 Jun 2027 05:29:39.106   10 Jun 2027 05:29:45.200             6.094          3047.000
       288   10 Jun 2027 07:02:52.079   10 Jun 2027 07:04:45.349           113.270         56635.000
       289   10 Jun 2027 07:05:45.056   10 Jun 2027 07:05:54.997             9.941          4916.656
       290   10 Jun 2027 07:07:16.778   10 Jun 2027 07:07:18.878             2.100          1050.000
       291   10 Jun 2027 08:37:37.035   10 Jun 2027 08:37:56.354            19.319          6875.906
       292   10 Jun 2027 08:38:27.442   10 Jun 2027 08:38:31.385             3.943           780.344
       293   10 Jun 2027 08:39:55.097   10 Jun 2027 08:40:03.872             8.775          2354.812
       294   10 Jun 2027 08:40:51.189   10 Jun 2027 08:40:54.769             3.580          1473.375
       295   10 Jun 2027 08:41:07.636   10 Jun 2027 08:41:08.023             0.387           193.500
       296   10 Jun 2027 08:41:41.842   10 Jun 2027 08:41:45.826             3.984          1265.437
       297   10 Jun 2027 08:42:32.323   10 Jun 2027 08:42:32.323             0.000             0.000
       298   10 Jun 2027 08:43:34.352   10 Jun 2027 08:43:42.782             8.430          2969.969
       299   10 Jun 2027 08:44:34.791   10 Jun 2027 08:44:37.962             3.171          1560.938
       300   10 Jun 2027 08:44:44.946   10 Jun 2027 08:44:45.851             0.905           218.250
       301   10 Jun 2027 08:45:05.095   10 Jun 2027 08:45:07.030             1.935           206.500
       302   10 Jun 2027 10:14:37.925   10 Jun 2027 10:14:55.963            18.038          8990.281
       303   10 Jun 2027 10:16:19.681   10 Jun 2027 10:16:27.763             8.082          1396.344
       304   10 Jun 2027 10:17:14.894   10 Jun 2027 10:17:20.381             5.487          1472.844
       305   10 Jun 2027 10:18:01.981   10 Jun 2027 10:18:04.543             2.562          1279.125
       306   10 Jun 2027 10:18:50.880   10 Jun 2027 10:18:55.624             4.744          1448.031
       307   10 Jun 2027 10:19:05.230   10 Jun 2027 10:19:09.758             4.528           259.531
       308   10 Jun 2027 10:19:31.706   10 Jun 2027 10:19:33.045             1.339           669.500
       309   10 Jun 2027 10:20:40.250   10 Jun 2027 10:20:45.664             5.414          2116.531
       310   10 Jun 2027 11:52:38.513   10 Jun 2027 11:52:52.942            14.429          6953.469
       311   10 Jun 2027 11:52:58.789   10 Jun 2027 11:53:00.277             1.488           138.594
       312   10 Jun 2027 11:53:40.531   10 Jun 2027 11:53:41.604             1.073           536.500
       313   10 Jun 2027 11:55:00.759   10 Jun 2027 11:55:07.573             6.814          3195.031
       314   10 Jun 2027 11:55:32.835   10 Jun 2027 11:55:40.211             7.376           789.438
       315   10 Jun 2027 11:55:51.298   10 Jun 2027 11:55:52.891             1.593           332.813
       316   10 Jun 2027 11:56:07.394   10 Jun 2027 11:56:12.991             5.597           210.500
       317   10 Jun 2027 11:56:27.400   10 Jun 2027 11:56:29.467             2.067           343.594
       318   11 Jun 2027 04:03:30.278   11 Jun 2027 04:04:01.827            31.549         15774.500
       319   11 Jun 2027 04:04:48.445   11 Jun 2027 04:04:55.330             6.885          3442.500
       320   11 Jun 2027 04:04:58.792   11 Jun 2027 04:05:00.711             1.919           959.500
       321   11 Jun 2027 04:15:12.620   11 Jun 2027 04:16:03.402            50.782         25391.000
       322   11 Jun 2027 04:16:04.309   11 Jun 2027 04:16:17.923            13.614          6807.000
       323   11 Jun 2027 04:16:25.869   11 Jun 2027 04:16:31.686             5.817          2908.500
       324   11 Jun 2027 05:37:25.840   11 Jun 2027 05:38:32.838            66.998         33499.000
       325   11 Jun 2027 05:38:36.979   11 Jun 2027 05:38:39.584             2.605          1302.500
       326   11 Jun 2027 05:39:27.230   11 Jun 2027 05:39:40.288            13.058          6529.000
       327   11 Jun 2027 05:40:17.516   11 Jun 2027 05:40:24.065             6.549          3274.500
       328   11 Jun 2027 05:41:50.460   11 Jun 2027 05:42:00.596            10.136          5068.000
       329   11 Jun 2027 07:12:33.558   11 Jun 2027 07:14:07.742            94.184         47092.000
       330   11 Jun 2027 07:14:35.257   11 Jun 2027 07:14:55.462            20.205         10102.500
       331   11 Jun 2027 07:16:19.456   11 Jun 2027 07:16:28.483             9.027          4513.500
       332   11 Jun 2027 07:17:28.322   11 Jun 2027 07:17:38.868            10.546          5273.000
       333   11 Jun 2027 07:20:30.787   11 Jun 2027 07:20:35.218             4.431          2215.500
       334   11 Jun 2027 08:49:46.095   11 Jun 2027 08:50:02.797            16.702          7869.124
       335   11 Jun 2027 08:50:41.613   11 Jun 2027 08:50:43.997             2.384          1011.188
       336   11 Jun 2027 08:51:05.045   11 Jun 2027 08:51:07.261             2.216           228.844
       337   11 Jun 2027 08:51:16.957   11 Jun 2027 08:51:20.320             3.363           212.031
       338   11 Jun 2027 08:51:32.487   11 Jun 2027 08:51:34.111             1.624           115.563
       339   11 Jun 2027 08:53:09.909   11 Jun 2027 08:53:13.630             3.721          1071.250
       340   11 Jun 2027 08:53:33.302   11 Jun 2027 08:53:34.899             1.597           536.063
       341   11 Jun 2027 08:54:12.366   11 Jun 2027 08:54:17.767             5.401           531.312
       342   11 Jun 2027 08:54:22.454   11 Jun 2027 08:54:25.942             3.488           146.469
       343   11 Jun 2027 08:54:58.068   11 Jun 2027 08:55:00.146             2.078           721.344
       344   11 Jun 2027 08:56:12.031   11 Jun 2027 08:56:16.446             4.415          1532.406
       345   11 Jun 2027 08:56:49.237   11 Jun 2027 08:56:55.373             6.136           778.906
       346   11 Jun 2027 10:26:43.162   11 Jun 2027 10:27:00.550            17.388          8280.250
       347   11 Jun 2027 10:27:08.058   11 Jun 2027 10:27:14.668             6.610           234.625
       348   11 Jun 2027 10:28:22.896   11 Jun 2027 10:28:25.329             2.433           702.937
       349   11 Jun 2027 10:28:32.786   11 Jun 2027 10:28:34.317             1.531            56.437
       350   11 Jun 2027 10:28:58.077   11 Jun 2027 10:29:01.708             3.631           237.406
       351   11 Jun 2027 10:29:39.274   11 Jun 2027 10:29:40.947             1.673           715.937
       352   11 Jun 2027 10:30:21.327   11 Jun 2027 10:30:24.775             3.448          1187.281
       353   11 Jun 2027 10:30:31.009   11 Jun 2027 10:30:32.360             1.351           194.812
       354   11 Jun 2027 10:30:41.687   11 Jun 2027 10:30:44.361             2.674           291.469
       355   11 Jun 2027 10:30:59.524   11 Jun 2027 10:31:00.941             1.417           473.844
       356   11 Jun 2027 10:31:29.043   11 Jun 2027 10:31:35.390             6.347           844.031
       357   11 Jun 2027 10:32:01.287   11 Jun 2027 10:32:04.928             3.641           590.531
       358   11 Jun 2027 10:32:24.267   11 Jun 2027 10:32:27.003             2.736           352.750
       359   11 Jun 2027 10:32:31.958   11 Jun 2027 10:32:32.535             0.577            89.156
       360   12 Jun 2027 04:14:57.858   12 Jun 2027 04:15:45.633            47.775         23887.500
       361   12 Jun 2027 04:17:02.453   12 Jun 2027 04:17:03.597             1.144           572.000
       362   12 Jun 2027 04:27:09.464   12 Jun 2027 04:27:48.677            39.213         19606.500
       363   12 Jun 2027 05:49:11.147   12 Jun 2027 05:50:32.048            80.901         40450.500
       364   12 Jun 2027 05:51:14.465   12 Jun 2027 05:51:25.549            11.084          5542.000
       365   12 Jun 2027 05:51:57.989   12 Jun 2027 05:52:04.934             6.945          3472.500
       366   12 Jun 2027 05:53:47.643   12 Jun 2027 05:53:53.331             5.688          2844.000
       367   12 Jun 2027 05:54:17.889   12 Jun 2027 05:54:28.786            10.897          5448.500
       368   12 Jun 2027 07:24:03.107   12 Jun 2027 07:25:47.032           103.925         51962.500
       369   12 Jun 2027 07:26:58.224   12 Jun 2027 07:27:16.064            17.840          7549.406
       370   12 Jun 2027 07:28:15.749   12 Jun 2027 07:28:17.314             1.565           782.500
       371   12 Jun 2027 07:29:57.015   12 Jun 2027 07:30:01.365             4.350          2175.000
       372   12 Jun 2027 09:01:48.117   12 Jun 2027 09:02:09.250            21.133          9349.375
       373   12 Jun 2027 09:02:46.028   12 Jun 2027 09:02:48.337             2.309          1079.281
       374   12 Jun 2027 09:03:33.472   12 Jun 2027 09:03:35.196             1.724           426.781
       375   12 Jun 2027 09:03:45.760   12 Jun 2027 09:03:48.964             3.204           330.125
       376   12 Jun 2027 09:04:07.171   12 Jun 2027 09:04:08.377             1.206           568.969
       377   12 Jun 2027 09:04:36.801   12 Jun 2027 09:04:38.920             2.119           486.937
       378   12 Jun 2027 09:05:08.257   12 Jun 2027 09:05:15.948             7.691           916.781
       379   12 Jun 2027 09:05:26.504   12 Jun 2027 09:05:28.767             2.263           156.531
       380   12 Jun 2027 09:05:30.991   12 Jun 2027 09:05:32.788             1.797            69.500
       381   12 Jun 2027 09:06:02.466   12 Jun 2027 09:06:05.469             3.003           375.250
       382   12 Jun 2027 09:06:08.233   12 Jun 2027 09:06:09.091             0.858            86.375
       383   12 Jun 2027 09:06:30.527   12 Jun 2027 09:06:33.401             2.874            48.281
       384   12 Jun 2027 09:07:25.910   12 Jun 2027 09:07:29.416             3.506          1640.906
       385   12 Jun 2027 09:07:57.602   12 Jun 2027 09:08:02.546             4.944           880.812
       386   12 Jun 2027 09:08:37.359   12 Jun 2027 09:08:39.335             1.976           175.719
       387   12 Jun 2027 09:08:56.748   12 Jun 2027 09:08:58.591             1.843           369.187
       388   12 Jun 2027 10:38:35.869   12 Jun 2027 10:38:50.870            15.001          6814.437
       389   12 Jun 2027 10:38:58.296   12 Jun 2027 10:38:59.337             1.041           232.063
       390   12 Jun 2027 10:39:39.029   12 Jun 2027 10:39:42.211             3.182          1057.719
       391   12 Jun 2027 10:40:10.441   12 Jun 2027 10:40:13.462             3.021           823.250
       392   12 Jun 2027 10:41:19.182   12 Jun 2027 10:41:24.429             5.247          2053.750
       393   12 Jun 2027 10:41:30.549   12 Jun 2027 10:41:31.356             0.807           143.156
       394   12 Jun 2027 10:42:07.268   12 Jun 2027 10:42:13.192             5.924          1122.250
       395   12 Jun 2027 10:42:16.197   12 Jun 2027 10:42:30.840            14.643            93.906
       396   12 Jun 2027 10:42:50.037   12 Jun 2027 10:42:51.545             1.508           534.875
       397   12 Jun 2027 10:42:55.378   12 Jun 2027 10:42:56.248             0.870           119.781
       398   12 Jun 2027 10:43:07.411   12 Jun 2027 10:43:07.941             0.530           128.625
       399   12 Jun 2027 10:43:26.573   12 Jun 2027 10:43:27.754             1.181           582.250
       400   12 Jun 2027 10:43:31.329   12 Jun 2027 10:43:31.999             0.670            27.781
       401   12 Jun 2027 10:44:02.932   12 Jun 2027 10:44:04.922             1.990           966.656
       402   12 Jun 2027 10:44:26.299   12 Jun 2027 10:44:29.455             3.156           611.250
       403   12 Jun 2027 10:44:43.213   12 Jun 2027 10:44:44.919             1.706           355.625
       404   12 Jun 2027 10:45:08.719   12 Jun 2027 10:45:15.819             7.100           743.750
       405   13 Jun 2027 03:02:54.940   13 Jun 2027 03:03:24.838            29.898         14949.000
       406   13 Jun 2027 03:03:35.803   13 Jun 2027 03:03:38.661             2.858          1429.000
       407   13 Jun 2027 03:04:14.712   13 Jun 2027 03:04:24.172             9.460          4730.000
       408   13 Jun 2027 03:04:43.160   13 Jun 2027 03:04:52.183             9.023          4511.500
       409   13 Jun 2027 03:05:14.907   13 Jun 2027 03:05:14.983             0.076            38.000
       410   13 Jun 2027 03:06:15.249   13 Jun 2027 03:06:25.731            10.482          5241.000
       411   13 Jun 2027 03:06:46.995   13 Jun 2027 03:06:48.777             1.782           891.000
       412   13 Jun 2027 03:07:05.146   13 Jun 2027 03:07:15.418            10.272          5136.000
       413   13 Jun 2027 04:27:00.974   13 Jun 2027 04:27:43.639            42.665         21332.500
       414   13 Jun 2027 04:28:25.518   13 Jun 2027 04:28:25.518             0.000             0.000
       415   13 Jun 2027 06:02:58.122   13 Jun 2027 06:04:28.763            90.641         45320.500
       416   13 Jun 2027 06:04:48.734   13 Jun 2027 06:05:00.903            12.169          6084.500
       417   13 Jun 2027 06:06:30.500   13 Jun 2027 06:06:43.582            13.082          6541.000
       418   13 Jun 2027 07:36:47.994   13 Jun 2027 07:38:42.082           114.088         57044.000
       419   13 Jun 2027 07:40:19.702   13 Jun 2027 07:40:19.702             0.000             0.000
       420   13 Jun 2027 07:40:55.631   13 Jun 2027 07:41:08.084            12.453          5431.219
       421   13 Jun 2027 07:41:37.020   13 Jun 2027 07:41:39.410             2.390           726.219
       422   13 Jun 2027 07:43:21.687   13 Jun 2027 07:43:21.967             0.280           140.000
       423   13 Jun 2027 07:44:37.346   13 Jun 2027 07:44:40.243             2.897          1448.500
       424   13 Jun 2027 07:44:42.689   13 Jun 2027 07:44:52.462             9.773          3859.187
       425   13 Jun 2027 09:13:51.188   13 Jun 2027 09:14:13.446            22.258          8029.937
       426   13 Jun 2027 09:14:37.550   13 Jun 2027 09:14:40.379             2.829            74.094
       427   13 Jun 2027 09:15:52.638   13 Jun 2027 09:15:52.638             0.000             0.000
       428   13 Jun 2027 09:16:36.927   13 Jun 2027 09:16:43.938             7.011          3245.000
       429   13 Jun 2027 09:18:01.867   13 Jun 2027 09:18:03.454             1.587           793.500
       430   13 Jun 2027 09:18:17.798   13 Jun 2027 09:18:22.052             4.254          1707.125
       431   13 Jun 2027 09:19:26.606   13 Jun 2027 09:19:32.651             6.045          1527.375
       432   13 Jun 2027 09:20:34.877   13 Jun 2027 09:20:38.707             3.830          1606.406
       433   13 Jun 2027 09:21:01.721   13 Jun 2027 09:21:03.797             2.076           719.187
       434   13 Jun 2027 09:21:03.985   13 Jun 2027 09:21:04.226             0.241             5.875
       435   13 Jun 2027 10:50:45.585   13 Jun 2027 10:50:59.808            14.223          7111.500
       436   13 Jun 2027 10:51:19.254   13 Jun 2027 10:51:21.765             2.511           641.094
       437   13 Jun 2027 10:52:59.400   13 Jun 2027 10:53:07.173             7.773          2284.000
       438   13 Jun 2027 10:54:38.113   13 Jun 2027 10:54:44.061             5.948          2551.250
       439   13 Jun 2027 10:55:07.545   13 Jun 2027 10:55:10.142             2.597           733.875
       440   13 Jun 2027 10:55:59.983   13 Jun 2027 10:56:03.769             3.786          1216.344
       441   13 Jun 2027 10:56:08.586   13 Jun 2027 10:56:08.586             0.000             0.000
       442   13 Jun 2027 10:56:31.516   13 Jun 2027 10:56:32.501             0.985           492.500
