uniorb/output/strategy_1/Camera/Camera_KinoSat_111508.txt

KinoSat_111508
-------------------------
    Access    *     Start Time (UTCG)     *     Stop Time (UTCG)  *   Duration (s) *   Data (Mbytes)
         1   01 Jun 2027 04:27:42.693   01 Jun 2027 04:29:57.399           134.706         67353.000
         2   01 Jun 2027 04:30:34.400   01 Jun 2027 04:30:59.863            25.463         12731.500
         3   01 Jun 2027 05:51:10.983   01 Jun 2027 05:52:04.999            54.016         27008.000
         4   01 Jun 2027 05:52:48.142   01 Jun 2027 05:53:29.910            41.768         20884.000
         5   01 Jun 2027 07:27:23.663   01 Jun 2027 07:29:49.996           146.333         73166.500
         6   01 Jun 2027 09:00:56.966   01 Jun 2027 09:03:19.728           142.762         71381.000
         7   01 Jun 2027 09:08:48.887   01 Jun 2027 09:08:52.420             3.533          1766.500
         8   01 Jun 2027 09:09:29.985   01 Jun 2027 09:09:31.003             1.018           509.000
         9   01 Jun 2027 10:38:28.383   01 Jun 2027 10:40:12.614           104.231         52115.500
        10   01 Jun 2027 10:41:06.817   01 Jun 2027 10:41:20.486            13.669          6834.500
        11   01 Jun 2027 10:45:05.554   01 Jun 2027 10:45:06.520             0.966           483.000
        12   02 Jun 2027 03:01:21.943   02 Jun 2027 03:01:49.040            27.097         13548.500
        13   02 Jun 2027 03:01:52.957   02 Jun 2027 03:01:59.376             6.419          3209.500
        14   02 Jun 2027 03:02:54.910   02 Jun 2027 03:02:55.644             0.734           367.000
        15   02 Jun 2027 03:03:12.671   02 Jun 2027 03:03:23.089            10.418          5209.000
        16   02 Jun 2027 03:04:57.271   02 Jun 2027 03:05:10.586            13.315          6657.500
        17   02 Jun 2027 03:05:46.391   02 Jun 2027 03:06:16.259            29.868         14934.000
        18   02 Jun 2027 04:39:22.913   02 Jun 2027 04:40:26.676            63.763         31881.500
        19   02 Jun 2027 04:40:46.302   02 Jun 2027 04:40:55.275             8.973          4486.500
        20   02 Jun 2027 04:42:23.380   02 Jun 2027 04:42:32.179             8.799          4399.500
        21   02 Jun 2027 06:03:01.993   02 Jun 2027 06:04:22.344            80.351         40175.500
        22   02 Jun 2027 07:39:28.921   02 Jun 2027 07:41:28.593           119.672         59836.000
        23   02 Jun 2027 07:42:20.066   02 Jun 2027 07:42:32.928            12.862          6431.000
        24   02 Jun 2027 09:11:37.019   02 Jun 2027 09:11:48.072            11.053          5526.500
        25   02 Jun 2027 09:13:35.853   02 Jun 2027 09:15:19.898           104.045         52022.500
        26   02 Jun 2027 09:17:52.822   02 Jun 2027 09:17:52.822             0.000             0.000
        27   02 Jun 2027 09:20:21.986   02 Jun 2027 09:20:23.744             1.758           879.000
        28   02 Jun 2027 09:20:27.135   02 Jun 2027 09:20:35.673             8.538          4269.000
        29   02 Jun 2027 09:21:17.303   02 Jun 2027 09:21:26.985             9.682          4841.000
        30   02 Jun 2027 10:50:34.618   02 Jun 2027 10:52:36.178           121.560         60780.000
        31   02 Jun 2027 10:56:56.215   02 Jun 2027 10:57:01.434             5.219          2609.500
        32   03 Jun 2027 03:13:28.056   03 Jun 2027 03:14:17.771            49.715         24857.500
        33   03 Jun 2027 03:14:55.627   03 Jun 2027 03:15:06.712            11.085          5542.500
        34   03 Jun 2027 03:15:08.147   03 Jun 2027 03:15:16.543             8.396          4198.000
        35   03 Jun 2027 03:15:42.189   03 Jun 2027 03:15:57.263            15.074          7537.000
        36   03 Jun 2027 03:16:38.670   03 Jun 2027 03:16:44.478             5.808          2904.000
        37   03 Jun 2027 03:17:28.827   03 Jun 2027 03:17:32.517             3.690          1845.000
        38   03 Jun 2027 03:18:23.599   03 Jun 2027 03:18:26.213             2.614          1307.000
        39   03 Jun 2027 03:19:00.843   03 Jun 2027 03:19:07.351             6.508          3254.000
        40   03 Jun 2027 04:52:36.160   03 Jun 2027 04:53:42.563            66.403         33201.500
        41   03 Jun 2027 04:54:12.092   03 Jun 2027 04:54:24.086            11.994          5997.000
        42   03 Jun 2027 04:56:01.362   03 Jun 2027 04:56:07.665             6.303          3151.500
        43   03 Jun 2027 06:15:10.447   03 Jun 2027 06:15:30.476            20.029         10014.500
        44   03 Jun 2027 06:17:38.180   03 Jun 2027 06:17:38.180             0.000             0.000
        45   03 Jun 2027 06:17:55.199   03 Jun 2027 06:18:08.504            13.305          6652.500
        46   03 Jun 2027 07:51:38.887   03 Jun 2027 07:53:41.462           122.575         61287.500
        47   03 Jun 2027 07:54:58.384   03 Jun 2027 07:55:03.032             4.648          2324.000
        48   03 Jun 2027 09:26:50.171   03 Jun 2027 09:28:00.366            70.195         35097.500
        49   03 Jun 2027 09:29:50.222   03 Jun 2027 09:30:16.363            26.141         13070.500
        50   03 Jun 2027 09:33:19.869   03 Jun 2027 09:33:29.448             9.579          4789.500
        51   03 Jun 2027 11:03:08.887   03 Jun 2027 11:04:40.166            91.279         43978.968
        52   03 Jun 2027 11:05:44.843   03 Jun 2027 11:05:50.680             5.837          2004.438
        53   03 Jun 2027 11:06:21.702   03 Jun 2027 11:06:25.713             4.011           969.437
        54   03 Jun 2027 11:07:02.123   03 Jun 2027 11:07:02.927             0.804           402.000
        55   03 Jun 2027 11:07:26.540   03 Jun 2027 11:07:28.714             2.174          1045.125
        56   03 Jun 2027 11:08:00.933   03 Jun 2027 11:08:04.080             3.147          1006.844
        57   03 Jun 2027 11:09:12.343   03 Jun 2027 11:09:18.144             5.801          1625.281
        58   04 Jun 2027 03:25:32.788   04 Jun 2027 03:26:14.069            41.281         20640.500
        59   04 Jun 2027 03:26:35.993   04 Jun 2027 03:27:24.520            48.527         24263.500
        60   04 Jun 2027 03:28:31.569   04 Jun 2027 03:28:42.603            11.034          5517.000
        61   04 Jun 2027 05:03:45.149   04 Jun 2027 05:04:21.565            36.416         18208.000
        62   04 Jun 2027 05:04:50.165   04 Jun 2027 05:05:33.483            43.318         21659.000
        63   04 Jun 2027 05:05:41.071   04 Jun 2027 05:05:41.250             0.179            89.500
        64   04 Jun 2027 05:06:55.922   04 Jun 2027 05:06:58.801             2.879          1439.500
        65   04 Jun 2027 05:07:07.597   04 Jun 2027 05:07:08.429             0.832           416.000
        66   04 Jun 2027 06:27:52.952   04 Jun 2027 06:29:14.647            81.695         40847.500
        67   04 Jun 2027 08:03:38.185   04 Jun 2027 08:04:59.330            81.145         39726.812
        68   04 Jun 2027 08:05:38.304   04 Jun 2027 08:05:40.702             2.398          1199.000
        69   04 Jun 2027 08:05:56.606   04 Jun 2027 08:05:56.761             0.155            77.500
        70   04 Jun 2027 09:38:51.216   04 Jun 2027 09:39:04.322            13.106          5727.343
        71   04 Jun 2027 09:40:20.439   04 Jun 2027 09:40:25.093             4.654           346.313
        72   04 Jun 2027 09:40:48.078   04 Jun 2027 09:40:50.931             2.853           517.625
        73   04 Jun 2027 09:41:07.596   04 Jun 2027 09:41:10.938             3.342           413.125
        74   04 Jun 2027 09:45:11.973   04 Jun 2027 09:45:27.270            15.297          7361.844
        75   04 Jun 2027 11:14:47.720   04 Jun 2027 11:15:06.236            18.516          7788.094
        76   04 Jun 2027 11:15:20.837   04 Jun 2027 11:15:21.265             0.428            95.031
        77   04 Jun 2027 11:15:28.784   04 Jun 2027 11:15:30.315             1.531           234.969
        78   04 Jun 2027 11:17:30.342   04 Jun 2027 11:17:36.134             5.792          2632.125
        79   04 Jun 2027 11:17:52.383   04 Jun 2027 11:17:54.168             1.785           416.188
        80   04 Jun 2027 11:18:59.791   04 Jun 2027 11:19:03.926             4.135          2050.719
        81   04 Jun 2027 11:19:24.570   04 Jun 2027 11:19:27.402             2.832           645.125
        82   04 Jun 2027 11:19:32.255   04 Jun 2027 11:19:36.350             4.095           151.656
        83   04 Jun 2027 11:19:56.308   04 Jun 2027 11:20:02.672             6.364           615.719
        84   05 Jun 2027 03:38:37.303   05 Jun 2027 03:40:18.655           101.352         50676.000
        85   05 Jun 2027 03:40:39.301   05 Jun 2027 03:40:40.191             0.890           445.000
        86   05 Jun 2027 03:41:12.042   05 Jun 2027 03:41:30.624            18.582          9291.000
        87   05 Jun 2027 03:44:46.856   05 Jun 2027 03:45:01.157            14.301          7150.500
        88   05 Jun 2027 03:45:15.209   05 Jun 2027 03:45:16.884             1.675           837.500
        89   05 Jun 2027 03:45:17.731   05 Jun 2027 03:45:39.029            21.298         10649.000
        90   05 Jun 2027 05:04:43.525   05 Jun 2027 05:05:13.545            30.020         15010.000
        91   05 Jun 2027 05:15:40.842   05 Jun 2027 05:16:25.042            44.200         22100.000
        92   05 Jun 2027 05:17:18.993   05 Jun 2027 05:17:23.770             4.777          2388.500
        93   05 Jun 2027 05:18:03.544   05 Jun 2027 05:18:03.544             0.000             0.000
        94   05 Jun 2027 06:38:59.895   05 Jun 2027 06:40:08.267            68.372         34186.000
        95   05 Jun 2027 06:40:37.382   05 Jun 2027 06:40:44.042             6.660          3330.000
        96   05 Jun 2027 06:42:33.956   05 Jun 2027 06:42:35.130             1.174           587.000
        97   05 Jun 2027 08:15:22.738   05 Jun 2027 08:16:06.795            44.057         21958.437
        98   05 Jun 2027 08:16:59.687   05 Jun 2027 08:17:02.687             3.000          1284.094
        99   05 Jun 2027 08:17:36.626   05 Jun 2027 08:17:41.089             4.463          1060.594
       100   05 Jun 2027 08:19:11.922   05 Jun 2027 08:19:13.830             1.908           954.000
       101   05 Jun 2027 09:50:07.753   05 Jun 2027 09:50:09.360             1.607           803.500
       102   05 Jun 2027 09:50:42.780   05 Jun 2027 09:50:56.311            13.531          4709.406
       103   05 Jun 2027 09:51:23.908   05 Jun 2027 09:51:26.476             2.568           793.406
       104   05 Jun 2027 09:53:32.213   05 Jun 2027 09:53:32.409             0.196            98.000
       105   05 Jun 2027 09:54:40.851   05 Jun 2027 09:54:53.562            12.711          5273.000
       106   05 Jun 2027 09:55:12.047   05 Jun 2027 09:55:18.268             6.221           577.656
       107   05 Jun 2027 09:55:39.302   05 Jun 2027 09:55:41.991             2.689           572.437
       108   05 Jun 2027 09:56:25.867   05 Jun 2027 09:56:32.225             6.358          1126.094
       109   05 Jun 2027 09:56:42.052   05 Jun 2027 09:56:42.052             0.000             0.000
       110   05 Jun 2027 09:56:48.785   05 Jun 2027 09:56:49.881             1.096           517.500
       111   05 Jun 2027 09:57:14.184   05 Jun 2027 09:57:23.081             8.897           535.844
       112   05 Jun 2027 09:57:25.501   05 Jun 2027 09:57:27.003             1.502            75.625
       113   05 Jun 2027 11:26:57.110   05 Jun 2027 11:27:13.187            16.077          7996.156
       114   05 Jun 2027 11:27:27.650   05 Jun 2027 11:27:28.311             0.661           222.219
       115   05 Jun 2027 11:27:54.125   05 Jun 2027 11:27:56.660             2.535           652.906
       116   05 Jun 2027 11:28:55.942   05 Jun 2027 11:28:59.718             3.776          1526.188
       117   05 Jun 2027 11:29:14.029   05 Jun 2027 11:29:19.804             5.775           428.938
       118   05 Jun 2027 11:29:48.372   05 Jun 2027 11:29:53.202             4.830           892.750
       119   05 Jun 2027 11:30:00.313   05 Jun 2027 11:30:00.951             0.638           222.219
       120   05 Jun 2027 11:30:38.836   05 Jun 2027 11:30:42.785             3.949          1183.906
       121   05 Jun 2027 11:30:58.812   05 Jun 2027 11:31:03.067             4.255           492.906
       122   05 Jun 2027 11:31:22.992   05 Jun 2027 11:31:22.992             0.000             0.000
       123   05 Jun 2027 11:31:26.596   05 Jun 2027 11:31:29.163             2.567           631.906
       124   05 Jun 2027 11:32:31.689   05 Jun 2027 11:32:38.480             6.791          1953.937
       125   05 Jun 2027 11:33:01.053   05 Jun 2027 11:33:04.623             3.570           705.406
       126   06 Jun 2027 03:51:00.068   06 Jun 2027 03:52:29.156            89.088         44544.000
       127   06 Jun 2027 03:52:47.956   06 Jun 2027 03:53:01.054            13.098          6549.000
       128   06 Jun 2027 03:54:22.919   06 Jun 2027 03:54:29.423             6.504          3252.000
       129   06 Jun 2027 03:55:20.828   06 Jun 2027 03:55:31.326            10.498          5249.000
       130   06 Jun 2027 03:57:49.950   06 Jun 2027 03:58:17.566            27.616         13808.000
       131   06 Jun 2027 05:16:02.081   06 Jun 2027 05:17:19.352            77.271         38635.500
       132   06 Jun 2027 05:27:41.999   06 Jun 2027 05:28:03.897            21.898         10949.000
       133   06 Jun 2027 05:28:32.358   06 Jun 2027 05:28:38.710             6.352          3176.000
       134   06 Jun 2027 06:49:58.324   06 Jun 2027 06:51:14.039            75.715         37857.500
       135   06 Jun 2027 06:52:45.924   06 Jun 2027 06:52:45.924             0.000             0.000
       136   06 Jun 2027 06:53:17.209   06 Jun 2027 06:53:33.902            16.693          8346.500
       137   06 Jun 2027 06:54:51.237   06 Jun 2027 06:54:52.294             1.057           528.500
       138   06 Jun 2027 08:25:10.759   06 Jun 2027 08:25:24.518            13.759          6879.500
       139   06 Jun 2027 08:26:02.179   06 Jun 2027 08:26:02.179             0.000             0.000
       140   06 Jun 2027 08:27:06.680   06 Jun 2027 08:27:13.828             7.148          3097.657
       141   06 Jun 2027 08:28:40.855   06 Jun 2027 08:28:45.586             4.731          2346.344
       142   06 Jun 2027 08:28:57.099   06 Jun 2027 08:28:57.099             0.000             0.000
       143   06 Jun 2027 08:30:12.029   06 Jun 2027 08:30:18.534             6.505          2697.031
       144   06 Jun 2027 08:31:03.468   06 Jun 2027 08:31:08.290             4.822          1404.187
       145   06 Jun 2027 10:02:15.073   06 Jun 2027 10:02:22.995             7.922          3961.000
       146   06 Jun 2027 10:02:28.782   06 Jun 2027 10:02:36.431             7.649           471.187
       147   06 Jun 2027 10:03:24.049   06 Jun 2027 10:03:25.882             1.833           756.094
       148   06 Jun 2027 10:03:54.094   06 Jun 2027 10:03:58.962             4.868           881.625
       149   06 Jun 2027 10:06:47.556   06 Jun 2027 10:06:57.019             9.463          4717.531
       150   06 Jun 2027 10:07:12.569   06 Jun 2027 10:07:15.392             2.823           259.750
       151   06 Jun 2027 10:07:23.888   06 Jun 2027 10:07:24.936             1.048           126.031
       152   06 Jun 2027 10:07:52.859   06 Jun 2027 10:07:56.357             3.498           456.313
       153   06 Jun 2027 10:08:46.716   06 Jun 2027 10:08:50.461             3.745          1424.437
       154   06 Jun 2027 10:08:58.980   06 Jun 2027 10:09:01.169             2.189           266.219
       155   06 Jun 2027 10:09:24.086   06 Jun 2027 10:09:29.050             4.964           679.562
       156   06 Jun 2027 11:39:13.113   06 Jun 2027 11:39:27.812            14.699          7047.875
       157   06 Jun 2027 11:39:59.503   06 Jun 2027 11:40:04.052             4.549           990.344
       158   06 Jun 2027 11:40:50.903   06 Jun 2027 11:40:53.620             2.717           549.406
       159   06 Jun 2027 11:41:02.304   06 Jun 2027 11:41:05.289             2.985           157.656
       160   06 Jun 2027 11:41:21.744   06 Jun 2027 11:41:28.529             6.785           407.781
       161   06 Jun 2027 11:41:54.623   06 Jun 2027 11:41:58.715             4.092           618.250
       162   06 Jun 2027 11:42:31.465   06 Jun 2027 11:42:33.521             2.056          1023.438
       163   06 Jun 2027 11:43:56.411   06 Jun 2027 11:44:10.356            13.945          2495.313
       164   06 Jun 2027 11:44:37.140   06 Jun 2027 11:44:38.748             1.608           374.875
       165   06 Jun 2027 11:44:43.830   06 Jun 2027 11:44:45.560             1.730           110.250
       166   06 Jun 2027 11:45:01.540   06 Jun 2027 11:45:05.102             3.562           424.125
       167   07 Jun 2027 04:03:18.881   07 Jun 2027 04:04:55.913            97.032         48516.000
       168   07 Jun 2027 04:05:20.009   07 Jun 2027 04:05:31.418            11.409          5704.500
       169   07 Jun 2027 04:07:14.354   07 Jun 2027 04:07:16.506             2.152          1076.000
       170   07 Jun 2027 04:08:14.791   07 Jun 2027 04:08:26.937            12.146          6073.000
       171   07 Jun 2027 04:10:03.591   07 Jun 2027 04:10:15.555            11.964          5982.000
       172   07 Jun 2027 05:27:23.781   07 Jun 2027 05:28:53.114            89.333         44666.500
       173   07 Jun 2027 05:39:39.232   07 Jun 2027 05:39:57.459            18.227          9113.500
       174   07 Jun 2027 07:01:39.108   07 Jun 2027 07:03:01.465            82.357         41178.500
       175   07 Jun 2027 07:03:45.552   07 Jun 2027 07:04:12.183            26.631         11409.406
       176   07 Jun 2027 07:04:42.516   07 Jun 2027 07:04:44.926             2.410           947.906
       177   07 Jun 2027 07:07:13.072   07 Jun 2027 07:07:13.072             0.000             0.000
       178   07 Jun 2027 08:36:38.413   07 Jun 2027 08:36:58.753            20.340          8636.563
       179   07 Jun 2027 08:37:19.660   07 Jun 2027 08:37:21.938             2.278           155.906
       180   07 Jun 2027 08:38:28.882   07 Jun 2027 08:38:33.029             4.147           681.562
       181   07 Jun 2027 08:40:41.493   07 Jun 2027 08:40:50.452             8.959          3959.437
       182   07 Jun 2027 08:42:12.372   07 Jun 2027 08:42:12.372             0.000             0.000
       183   07 Jun 2027 08:42:56.493   07 Jun 2027 08:43:01.106             4.613          2306.500
       184   07 Jun 2027 08:43:22.206   07 Jun 2027 08:43:28.221             6.015          2089.875
       185   07 Jun 2027 08:44:13.176   07 Jun 2027 08:44:14.101             0.925           462.500
       186   07 Jun 2027 08:44:49.554   07 Jun 2027 08:44:50.641             1.087           543.500
       187   07 Jun 2027 10:14:17.242   07 Jun 2027 10:14:28.599            11.357          5300.594
       188   07 Jun 2027 10:14:57.467   07 Jun 2027 10:14:58.933             1.466           729.937
       189   07 Jun 2027 10:15:18.673   07 Jun 2027 10:15:20.303             1.630            62.219
       190   07 Jun 2027 10:15:54.495   07 Jun 2027 10:15:56.699             2.204          1068.500
       191   07 Jun 2027 10:16:25.806   07 Jun 2027 10:16:29.042             3.236           381.594
       192   07 Jun 2027 10:17:08.442   07 Jun 2027 10:17:11.257             2.815           257.125
       193   07 Jun 2027 10:17:27.594   07 Jun 2027 10:17:29.349             1.755           426.938
       194   07 Jun 2027 10:18:03.911   07 Jun 2027 10:18:06.091             2.180           603.844
       195   07 Jun 2027 10:18:56.995   07 Jun 2027 10:18:56.995             0.000             0.000
       196   07 Jun 2027 10:20:25.943   07 Jun 2027 10:20:35.210             9.267          4107.375
       197   07 Jun 2027 10:21:00.880   07 Jun 2027 10:21:06.557             5.677           289.250
       198   07 Jun 2027 10:21:19.892   07 Jun 2027 10:21:21.655             1.763           416.719
       199   07 Jun 2027 11:51:03.789   07 Jun 2027 11:51:17.538            13.749          6874.500
       200   07 Jun 2027 11:51:46.745   07 Jun 2027 11:51:58.075            11.330           958.063
       201   07 Jun 2027 11:53:51.841   07 Jun 2027 11:53:56.934             5.093          2546.500
       202   07 Jun 2027 11:54:22.647   07 Jun 2027 11:54:30.611             7.964          1624.406
       203   07 Jun 2027 11:55:22.493   07 Jun 2027 11:55:26.791             4.298          1621.313
       204   07 Jun 2027 11:55:56.443   07 Jun 2027 11:55:59.007             2.564           911.219
       205   07 Jun 2027 11:56:34.038   07 Jun 2027 11:56:36.241             2.203          1094.719
       206   07 Jun 2027 11:57:00.664   07 Jun 2027 11:57:01.248             0.584           292.000
       207   07 Jun 2027 11:57:16.460   07 Jun 2027 11:57:18.330             1.870           801.469
       208   08 Jun 2027 04:15:23.905   08 Jun 2027 04:16:51.292            87.387         43693.500
       209   08 Jun 2027 04:17:10.440   08 Jun 2027 04:17:16.528             6.088          3044.000
       210   08 Jun 2027 04:19:38.627   08 Jun 2027 04:19:58.573            19.946          9973.000
       211   08 Jun 2027 05:39:31.311   08 Jun 2027 05:40:54.077            82.766         41383.000
       212   08 Jun 2027 07:13:19.844   08 Jun 2027 07:15:27.139           127.295         63647.500
       213   08 Jun 2027 08:48:12.355   08 Jun 2027 08:48:28.940            16.585          8292.500
       214   08 Jun 2027 08:49:06.876   08 Jun 2027 08:49:11.000             4.124          2062.000
       215   08 Jun 2027 08:50:29.916   08 Jun 2027 08:50:38.189             8.273          3127.250
       216   08 Jun 2027 08:51:25.628   08 Jun 2027 08:51:30.719             5.091           940.812
       217   08 Jun 2027 08:52:26.567   08 Jun 2027 08:52:26.567             0.000             0.000
       218   08 Jun 2027 08:54:12.142   08 Jun 2027 08:54:21.641             9.499          4430.406
       219   08 Jun 2027 08:54:26.213   08 Jun 2027 08:54:26.912             0.699           142.875
       220   08 Jun 2027 08:56:07.184   08 Jun 2027 08:56:13.592             6.408          2333.750
       221   08 Jun 2027 08:56:59.181   08 Jun 2027 08:57:02.687             3.506          1275.719
       222   08 Jun 2027 08:57:05.875   08 Jun 2027 08:57:07.576             1.701            99.625
       223   08 Jun 2027 10:26:19.172   08 Jun 2027 10:26:40.090            20.918          6834.031
       224   08 Jun 2027 10:29:11.442   08 Jun 2027 10:29:11.442             0.000             0.000
       225   08 Jun 2027 10:30:41.193   08 Jun 2027 10:30:56.278            15.085          7115.781
       226   08 Jun 2027 10:31:53.605   08 Jun 2027 10:31:54.207             0.602           301.000
       227   08 Jun 2027 10:32:03.136   08 Jun 2027 10:32:06.597             3.461          1392.188
       228   08 Jun 2027 10:32:18.556   08 Jun 2027 10:32:24.350             5.794           373.719
       229   08 Jun 2027 10:33:08.836   08 Jun 2027 10:33:14.142             5.306          1211.438
       230   08 Jun 2027 10:33:24.164   08 Jun 2027 10:33:25.661             1.497           313.188
       231   09 Jun 2027 04:28:00.497   09 Jun 2027 04:29:24.899            84.402         42201.000
       232   09 Jun 2027 04:29:41.757   09 Jun 2027 04:30:02.914            21.157         10578.500
       233   09 Jun 2027 04:30:42.459   09 Jun 2027 04:31:07.297            24.838         12419.000
       234   09 Jun 2027 04:31:18.374   09 Jun 2027 04:31:18.374             0.000             0.000
       235   09 Jun 2027 05:51:27.033   09 Jun 2027 05:52:55.300            88.267         44133.500
       236   09 Jun 2027 07:27:41.417   09 Jun 2027 07:29:36.275           114.858         57429.000
       237   09 Jun 2027 07:31:11.060   09 Jun 2027 07:31:13.220             2.160          1080.000
       238   09 Jun 2027 09:01:13.974   09 Jun 2027 09:01:29.495            15.521          7726.126
       239   09 Jun 2027 09:02:00.372   09 Jun 2027 09:02:01.502             1.130           136.906
       240   09 Jun 2027 09:03:41.626   09 Jun 2027 09:03:44.914             3.288          1644.000
       241   09 Jun 2027 09:04:13.537   09 Jun 2027 09:04:16.967             3.430          1473.437
       242   09 Jun 2027 09:05:04.047   09 Jun 2027 09:05:09.116             5.069          1102.750
       243   09 Jun 2027 09:05:48.647   09 Jun 2027 09:05:48.985             0.338            27.438
       244   09 Jun 2027 09:06:09.415   09 Jun 2027 09:06:11.043             1.628           638.438
       245   09 Jun 2027 09:06:13.632   09 Jun 2027 09:06:16.838             3.206            80.906
       246   09 Jun 2027 09:06:34.303   09 Jun 2027 09:06:35.962             1.659           538.781
       247   09 Jun 2027 09:06:56.761   09 Jun 2027 09:06:56.894             0.133            50.219
       248   09 Jun 2027 09:07:05.997   09 Jun 2027 09:07:06.571             0.574           281.062
       249   09 Jun 2027 09:08:21.675   09 Jun 2027 09:08:24.292             2.617          1308.500
       250   09 Jun 2027 09:08:46.761   09 Jun 2027 09:08:52.612             5.851          1624.375
       251   09 Jun 2027 10:38:46.560   09 Jun 2027 10:39:04.544            17.984          7190.188
       252   09 Jun 2027 10:39:40.711   09 Jun 2027 10:39:41.875             1.164           168.219
       253   09 Jun 2027 10:40:46.442   09 Jun 2027 10:40:49.528             3.086           951.500
       254   09 Jun 2027 10:41:35.495   09 Jun 2027 10:41:38.167             2.672          1324.781
       255   09 Jun 2027 10:42:25.572   09 Jun 2027 10:42:30.890             5.318          1481.406
       256   09 Jun 2027 10:42:50.935   09 Jun 2027 10:42:52.727             1.792           626.406
       257   09 Jun 2027 10:43:11.078   09 Jun 2027 10:43:15.261             4.183           570.469
       258   09 Jun 2027 10:44:14.590   09 Jun 2027 10:44:21.222             6.632          1839.969
       259   09 Jun 2027 10:45:03.669   09 Jun 2027 10:45:06.452             2.783          1326.469
       260   09 Jun 2027 10:45:13.538   09 Jun 2027 10:45:15.604             2.066           221.438
       261   10 Jun 2027 03:02:17.445   10 Jun 2027 03:02:53.273            35.828         17914.000
       262   10 Jun 2027 03:02:54.781   10 Jun 2027 03:03:08.703            13.922          6961.000
       263   10 Jun 2027 03:03:55.045   10 Jun 2027 03:03:56.559             1.514           757.000
       264   10 Jun 2027 03:05:28.520   10 Jun 2027 03:05:43.049            14.529          7264.500
       265   10 Jun 2027 03:05:52.268   10 Jun 2027 03:06:01.300             9.032          4516.000
       266   10 Jun 2027 03:06:31.923   10 Jun 2027 03:06:32.896             0.973           486.500
       267   10 Jun 2027 03:07:15.489   10 Jun 2027 03:07:15.535             0.046            23.000
       268   10 Jun 2027 03:07:28.134   10 Jun 2027 03:07:45.499            17.365          8682.500
       269   10 Jun 2027 04:39:39.590   10 Jun 2027 04:40:56.701            77.111         38555.500
       270   10 Jun 2027 04:42:01.422   10 Jun 2027 04:42:02.370             0.948           474.000
       271   10 Jun 2027 04:42:39.304   10 Jun 2027 04:42:48.064             8.760          4380.000
       272   10 Jun 2027 06:03:18.602   10 Jun 2027 06:04:38.665            80.063         40031.500
       273   10 Jun 2027 07:39:45.824   10 Jun 2027 07:41:24.681            98.857         49360.468
       274   10 Jun 2027 07:41:41.130   10 Jun 2027 07:41:41.488             0.358           102.656
       275   10 Jun 2027 09:11:54.500   10 Jun 2027 09:12:04.028             9.528          4764.000
       276   10 Jun 2027 09:13:52.920   10 Jun 2027 09:13:59.118             6.198          2341.063
       277   10 Jun 2027 09:14:52.934   10 Jun 2027 09:14:59.291             6.357          1681.750
       278   10 Jun 2027 09:16:00.890   10 Jun 2027 09:16:00.890             0.000             0.000
       279   10 Jun 2027 09:16:30.664   10 Jun 2027 09:16:34.890             4.226          1642.250
       280   10 Jun 2027 09:20:20.604   10 Jun 2027 09:20:34.518            13.914          5965.969
       281   10 Jun 2027 09:21:02.072   10 Jun 2027 09:21:04.820             2.748           761.219
       282   10 Jun 2027 09:21:24.880   10 Jun 2027 09:21:26.086             1.206           537.500
       283   10 Jun 2027 09:21:33.037   10 Jun 2027 09:21:34.355             1.318           217.219
       284   10 Jun 2027 10:50:51.351   10 Jun 2027 10:51:08.507            17.156          8154.937
       285   10 Jun 2027 10:51:48.815   10 Jun 2027 10:51:51.103             2.288           433.563
       286   10 Jun 2027 10:53:06.094   10 Jun 2027 10:53:11.294             5.200          1628.937
       287   10 Jun 2027 10:53:34.962   10 Jun 2027 10:53:36.780             1.818           723.031
       288   10 Jun 2027 10:55:33.448   10 Jun 2027 10:55:38.354             4.906          1884.625
       289   10 Jun 2027 10:55:47.175   10 Jun 2027 10:55:48.186             1.011           153.906
       290   10 Jun 2027 10:55:59.838   10 Jun 2027 10:55:59.838             0.000             0.000
       291   10 Jun 2027 10:56:01.998   10 Jun 2027 10:56:02.766             0.768           232.313
       292   10 Jun 2027 10:56:56.294   10 Jun 2027 10:56:59.846             3.552          1672.750
       293   10 Jun 2027 10:57:16.275   10 Jun 2027 10:57:17.188             0.913           456.500
       294   10 Jun 2027 10:57:25.875   10 Jun 2027 10:57:26.902             1.027           280.094
       295   11 Jun 2027 03:13:44.672   11 Jun 2027 03:14:45.199            60.527         30263.500
       296   11 Jun 2027 03:15:20.211   11 Jun 2027 03:15:30.465            10.254          5127.000
       297   11 Jun 2027 03:16:21.497   11 Jun 2027 03:16:30.200             8.703          4351.500
       298   11 Jun 2027 03:17:16.547   11 Jun 2027 03:17:18.257             1.710           855.000
       299   11 Jun 2027 03:17:22.324   11 Jun 2027 03:17:26.154             3.830          1915.000
       300   11 Jun 2027 03:18:33.489   11 Jun 2027 03:18:34.969             1.480           740.000
       301   11 Jun 2027 03:19:07.213   11 Jun 2027 03:19:16.057             8.844          4422.000
       302   11 Jun 2027 03:19:34.223   11 Jun 2027 03:19:37.194             2.971          1485.500
       303   11 Jun 2027 04:52:52.738   11 Jun 2027 04:53:58.782            66.044         33022.000
       304   11 Jun 2027 04:54:28.002   11 Jun 2027 04:54:41.608            13.606          6803.000
       305   11 Jun 2027 04:55:39.514   11 Jun 2027 04:55:39.514             0.000             0.000
       306   11 Jun 2027 04:55:57.879   11 Jun 2027 04:56:21.066            23.187         11593.500
       307   11 Jun 2027 06:15:26.888   11 Jun 2027 06:16:16.959            50.071         25035.500
       308   11 Jun 2027 06:16:26.687   11 Jun 2027 06:16:26.687             0.000             0.000
       309   11 Jun 2027 06:17:13.104   11 Jun 2027 06:17:33.436            20.332         10166.000
       310   11 Jun 2027 07:51:55.975   11 Jun 2027 07:53:12.160            76.185         38092.500
       311   11 Jun 2027 07:53:28.590   11 Jun 2027 07:53:31.151             2.561          1280.500
       312   11 Jun 2027 07:54:25.339   11 Jun 2027 07:54:30.406             5.067          2518.031
       313   11 Jun 2027 09:27:07.139   11 Jun 2027 09:27:18.155            11.016          4863.187
       314   11 Jun 2027 09:28:13.816   11 Jun 2027 09:28:17.291             3.475          1645.437
       315   11 Jun 2027 09:28:23.676   11 Jun 2027 09:28:27.853             4.177           146.406
       316   11 Jun 2027 09:30:06.860   11 Jun 2027 09:30:06.860             0.000             0.000
       317   11 Jun 2027 09:30:31.171   11 Jun 2027 09:30:36.807             5.636          2166.750
       318   11 Jun 2027 09:31:00.883   11 Jun 2027 09:31:02.863             1.980           734.594
       319   11 Jun 2027 09:31:26.148   11 Jun 2027 09:31:27.046             0.898           172.938
       320   11 Jun 2027 09:31:38.991   11 Jun 2027 09:31:40.310             1.319           192.906
       321   11 Jun 2027 09:31:50.868   11 Jun 2027 09:31:53.155             2.287           286.375
       322   11 Jun 2027 09:33:04.851   11 Jun 2027 09:33:08.169             3.318          1536.188
       323   11 Jun 2027 09:33:34.262   11 Jun 2027 09:33:36.000             1.738           815.406
       324   11 Jun 2027 09:33:41.320   11 Jun 2027 09:33:42.365             1.045           153.000
       325   11 Jun 2027 11:03:26.229   11 Jun 2027 11:03:38.269            12.040          5846.750
       326   11 Jun 2027 11:05:07.924   11 Jun 2027 11:05:12.029             4.105          2052.500
       327   11 Jun 2027 11:05:30.734   11 Jun 2027 11:05:34.028             3.294           699.063
       328   11 Jun 2027 11:05:57.418   11 Jun 2027 11:06:00.775             3.357           730.937
       329   11 Jun 2027 11:06:43.533   11 Jun 2027 11:06:51.396             7.863          1336.188
       330   11 Jun 2027 11:07:18.678   11 Jun 2027 11:07:20.165             1.487           743.500
       331   11 Jun 2027 11:07:41.215   11 Jun 2027 11:07:45.517             4.302           666.031
       332   11 Jun 2027 11:07:54.753   11 Jun 2027 11:07:56.507             1.754           288.625
       333   11 Jun 2027 11:08:10.285   11 Jun 2027 11:08:11.192             0.907           430.562
       334   11 Jun 2027 11:08:58.161   11 Jun 2027 11:09:02.690             4.529          1290.656
       335   11 Jun 2027 11:09:22.409   11 Jun 2027 11:09:27.079             4.670           471.594
       336   12 Jun 2027 03:25:49.658   12 Jun 2027 03:26:08.932            19.274          9637.000
       337   12 Jun 2027 03:26:52.346   12 Jun 2027 03:28:29.050            96.704         48352.000
       338   12 Jun 2027 03:29:20.574   12 Jun 2027 03:29:31.506            10.932          5466.000
       339   12 Jun 2027 03:30:43.286   12 Jun 2027 03:30:43.871             0.585           292.500
       340   12 Jun 2027 03:34:07.090   12 Jun 2027 03:34:33.521            26.431         13215.500
       341   12 Jun 2027 05:04:01.335   12 Jun 2027 05:04:38.170            36.835         18417.500
       342   12 Jun 2027 05:05:06.944   12 Jun 2027 05:05:48.412            41.468         20734.000
       343   12 Jun 2027 05:05:59.517   12 Jun 2027 05:06:02.800             3.283          1641.500
       344   12 Jun 2027 05:06:16.544   12 Jun 2027 05:06:20.492             3.948          1974.000
       345   12 Jun 2027 05:06:51.773   12 Jun 2027 05:07:00.624             8.851          4425.500
       346   12 Jun 2027 06:28:09.600   12 Jun 2027 06:28:45.944            36.344         18172.000
       347   12 Jun 2027 06:28:50.462   12 Jun 2027 06:29:32.039            41.577         20788.500
       348   12 Jun 2027 08:03:53.433   12 Jun 2027 08:04:26.605            33.172         15586.688
       349   12 Jun 2027 08:04:36.038   12 Jun 2027 08:04:38.334             2.296           124.219
       350   12 Jun 2027 08:05:34.361   12 Jun 2027 08:05:38.285             3.924          1185.813
       351   12 Jun 2027 08:06:53.656   12 Jun 2027 08:06:59.792             6.136          2076.031
       352   12 Jun 2027 09:38:57.153   12 Jun 2027 09:39:08.698            11.545          4413.844
       353   12 Jun 2027 09:39:39.023   12 Jun 2027 09:39:44.617             5.594           796.406
       354   12 Jun 2027 09:40:26.893   12 Jun 2027 09:40:33.384             6.491           507.156
       355   12 Jun 2027 09:40:50.338   12 Jun 2027 09:40:50.338             0.000             0.000
       356   12 Jun 2027 09:41:07.158   12 Jun 2027 09:41:09.621             2.463          1055.438
       357   12 Jun 2027 09:41:52.763   12 Jun 2027 09:41:57.112             4.349           893.531
       358   12 Jun 2027 09:44:20.869   12 Jun 2027 09:44:36.934            16.065          4410.156
       359   12 Jun 2027 09:45:01.345   12 Jun 2027 09:45:01.345             0.000             0.000
       360   12 Jun 2027 09:45:16.008   12 Jun 2027 09:45:24.252             8.244          1144.906
       361   12 Jun 2027 09:45:38.103   12 Jun 2027 09:45:38.103             0.000             0.000
       362   12 Jun 2027 09:45:47.975   12 Jun 2027 09:45:49.491             1.516           512.375
       363   12 Jun 2027 11:15:02.948   12 Jun 2027 11:15:21.987            19.039          7679.688
       364   12 Jun 2027 11:15:35.287   12 Jun 2027 11:15:37.420             2.133           415.625
       365   12 Jun 2027 11:16:06.270   12 Jun 2027 11:16:08.443             2.173           690.250
       366   12 Jun 2027 11:17:13.425   12 Jun 2027 11:17:17.856             4.431          1647.469
       367   12 Jun 2027 11:17:43.612   12 Jun 2027 11:17:44.361             0.749           340.250
       368   12 Jun 2027 11:17:49.603   12 Jun 2027 11:17:53.507             3.904            63.375
       369   12 Jun 2027 11:19:15.154   12 Jun 2027 11:19:19.776             4.622          2070.094
       370   12 Jun 2027 11:19:39.224   12 Jun 2027 11:19:41.625             2.401           563.844
       371   12 Jun 2027 11:19:48.495   12 Jun 2027 11:19:51.342             2.847           193.875
       372   12 Jun 2027 11:20:11.029   12 Jun 2027 11:20:13.404             2.375           610.406
       373   12 Jun 2027 11:20:43.360   12 Jun 2027 11:20:50.770             7.410           779.781
       374   13 Jun 2027 03:38:54.367   13 Jun 2027 03:40:22.912            88.545         44272.500
       375   13 Jun 2027 03:40:23.789   13 Jun 2027 03:40:28.306             4.517          2258.500
       376   13 Jun 2027 03:40:55.692   13 Jun 2027 03:41:07.491            11.799          5899.500
       377   13 Jun 2027 03:41:37.421   13 Jun 2027 03:41:48.085            10.664          5332.000
       378   13 Jun 2027 03:45:33.290   13 Jun 2027 03:45:49.090            15.800          7900.000
       379   13 Jun 2027 03:45:51.887   13 Jun 2027 03:45:55.319             3.432          1716.000
       380   13 Jun 2027 05:04:57.578   13 Jun 2027 05:05:30.818            33.240         16620.000
       381   13 Jun 2027 05:15:57.216   13 Jun 2027 05:16:39.536            42.320         21160.000
       382   13 Jun 2027 06:39:15.530   13 Jun 2027 06:40:40.320            84.790         42395.000
       383   13 Jun 2027 06:41:01.893   13 Jun 2027 06:41:32.510            30.617         15308.500
       384   13 Jun 2027 08:14:30.088   13 Jun 2027 08:14:33.850             3.762          1881.000
       385   13 Jun 2027 08:15:38.296   13 Jun 2027 08:16:12.814            34.518         14726.562
       386   13 Jun 2027 08:16:36.552   13 Jun 2027 08:16:36.552             0.000             0.000
       387   13 Jun 2027 08:17:15.636   13 Jun 2027 08:17:19.954             4.318          1905.437
       388   13 Jun 2027 08:19:30.678   13 Jun 2027 08:19:38.483             7.805          2701.500
       389   13 Jun 2027 09:50:24.357   13 Jun 2027 09:50:26.297             1.940           970.000
       390   13 Jun 2027 09:50:57.878   13 Jun 2027 09:51:11.858            13.980          4732.063
       391   13 Jun 2027 09:51:58.689   13 Jun 2027 09:51:59.855             1.166           514.844
       392   13 Jun 2027 09:52:05.256   13 Jun 2027 09:52:05.695             0.439            33.219
       393   13 Jun 2027 09:52:17.349   13 Jun 2027 09:52:19.223             1.874           348.875
       394   13 Jun 2027 09:53:19.029   13 Jun 2027 09:53:21.323             2.294          1147.000
       395   13 Jun 2027 09:56:20.034   13 Jun 2027 09:56:34.961            14.927          6306.656
       396   13 Jun 2027 09:57:12.068   13 Jun 2027 09:57:13.854             1.786           193.844
       397   13 Jun 2027 09:57:41.790   13 Jun 2027 09:57:44.300             2.510           873.000
       398   13 Jun 2027 11:27:14.939   13 Jun 2027 11:27:34.389            19.450          8355.687
       399   13 Jun 2027 11:27:43.458   13 Jun 2027 11:27:44.394             0.936           253.750
       400   13 Jun 2027 11:29:05.463   13 Jun 2027 11:29:11.159             5.696          2381.750
       401   13 Jun 2027 11:29:31.891   13 Jun 2027 11:29:36.197             4.306           465.594
       402   13 Jun 2027 11:30:04.570   13 Jun 2027 11:30:09.428             4.858           886.656
       403   13 Jun 2027 11:30:17.809   13 Jun 2027 11:30:20.272             2.463           241.125
       404   13 Jun 2027 11:30:54.046   13 Jun 2027 11:30:54.046             0.000             0.000
       405   13 Jun 2027 11:30:57.668   13 Jun 2027 11:30:59.347             1.679           801.656
       406   13 Jun 2027 11:31:14.325   13 Jun 2027 11:31:17.514             3.189           432.125
       407   13 Jun 2027 11:31:46.148   13 Jun 2027 11:31:50.392             4.244           319.281
       408   13 Jun 2027 11:31:57.101   13 Jun 2027 11:31:58.088             0.987           209.656
       409   13 Jun 2027 11:32:19.039   13 Jun 2027 11:32:22.224             3.185           654.719
       410   13 Jun 2027 11:32:54.132   13 Jun 2027 11:33:01.137             7.005           496.688
       411   13 Jun 2027 11:33:09.130   13 Jun 2027 11:33:13.079             3.949           216.250
       412   13 Jun 2027 11:33:24.386   13 Jun 2027 11:33:27.683             3.297           100.688
