uniorb/output/strategy_1/Camera/Camera_KinoSat_111204.txt

KinoSat_111204
-------------------------
    Access    *     Start Time (UTCG)     *     Stop Time (UTCG)  *   Duration (s) *   Data (Mbytes)
         1   01 Jun 2027 03:41:27.673   01 Jun 2027 03:41:58.024            30.351         15175.500
         2   01 Jun 2027 03:42:16.597   01 Jun 2027 03:44:03.912           107.315         53657.500
         3   01 Jun 2027 03:44:46.906   01 Jun 2027 03:45:07.387            20.481         10240.500
         4   01 Jun 2027 05:04:50.078   01 Jun 2027 05:06:09.064            78.986         39493.000
         5   01 Jun 2027 06:41:21.954   01 Jun 2027 06:43:13.593           111.639         55819.500
         6   01 Jun 2027 08:16:31.941   01 Jun 2027 08:18:28.059           116.118         58059.000
         7   01 Jun 2027 08:20:23.483   01 Jun 2027 08:20:32.879             9.396          4698.000
         8   01 Jun 2027 08:22:47.912   01 Jun 2027 08:23:05.457            17.545          8772.500
         9   01 Jun 2027 09:52:57.453   01 Jun 2027 09:54:18.374            80.921         40460.500
        10   01 Jun 2027 09:55:16.842   01 Jun 2027 09:55:31.488            14.646          7323.000
        11   01 Jun 2027 09:56:57.180   01 Jun 2027 09:57:19.607            22.427         11213.500
        12   01 Jun 2027 09:58:27.776   01 Jun 2027 09:58:36.528             8.752          4376.000
        13   01 Jun 2027 09:58:58.690   01 Jun 2027 09:59:05.928             7.238          3619.000
        14   01 Jun 2027 11:30:11.903   01 Jun 2027 11:30:51.051            39.148         19574.000
        15   01 Jun 2027 11:31:22.737   01 Jun 2027 11:31:33.044            10.307          5153.500
        16   01 Jun 2027 11:31:44.147   01 Jun 2027 11:32:17.024            32.877         16438.500
        17   01 Jun 2027 11:33:16.345   01 Jun 2027 11:34:16.759            60.414         30207.000
        18   02 Jun 2027 03:53:24.388   02 Jun 2027 03:54:03.187            38.799         19399.500
        19   02 Jun 2027 03:54:28.325   02 Jun 2027 03:55:22.503            54.178         27089.000
        20   02 Jun 2027 03:55:48.822   02 Jun 2027 03:56:06.548            17.726          8863.000
        21   02 Jun 2027 05:16:52.861   02 Jun 2027 05:17:57.314            64.453         32226.500
        22   02 Jun 2027 05:18:29.369   02 Jun 2027 05:18:30.890             1.521           760.500
        23   02 Jun 2027 05:18:55.914   02 Jun 2027 05:19:39.423            43.509         21754.500
        24   02 Jun 2027 06:53:15.031   02 Jun 2027 06:54:44.169            89.138         44569.000
        25   02 Jun 2027 06:56:29.984   02 Jun 2027 06:56:39.089             9.105          4552.500
        26   02 Jun 2027 06:57:03.276   02 Jun 2027 06:57:05.985             2.709          1354.500
        27   02 Jun 2027 08:28:11.122   02 Jun 2027 08:30:16.109           124.987         62493.500
        28   02 Jun 2027 08:34:48.619   02 Jun 2027 08:35:15.355            26.736         13368.000
        29   02 Jun 2027 10:04:29.907   02 Jun 2027 10:06:32.041           122.134         61067.000
        30   02 Jun 2027 10:08:51.463   02 Jun 2027 10:08:54.239             2.776          1388.000
        31   02 Jun 2027 10:09:34.622   02 Jun 2027 10:09:44.260             9.638          4819.000
        32   02 Jun 2027 11:42:45.309   02 Jun 2027 11:44:29.304           103.995         51997.500
        33   02 Jun 2027 11:46:28.235   02 Jun 2027 11:46:30.851             2.616          1308.000
        34   03 Jun 2027 03:54:09.195   03 Jun 2027 03:54:18.455             9.260          4630.000
        35   03 Jun 2027 03:54:40.312   03 Jun 2027 03:54:59.295            18.983          9491.500
        36   03 Jun 2027 04:05:20.721   03 Jun 2027 04:06:33.122            72.401         36200.500
        37   03 Jun 2027 04:07:26.107   03 Jun 2027 04:07:37.864            11.757          5878.500
        38   03 Jun 2027 05:28:16.986   03 Jun 2027 05:29:36.802            79.816         39908.000
        39   03 Jun 2027 05:29:55.453   03 Jun 2027 05:29:55.453             0.000             0.000
        40   03 Jun 2027 05:30:00.370   03 Jun 2027 05:30:09.735             9.365          4682.500
        41   03 Jun 2027 07:03:33.750   03 Jun 2027 07:04:07.496            33.746         16873.000
        42   03 Jun 2027 07:04:58.989   03 Jun 2027 07:05:48.315            49.326         24663.000
        43   03 Jun 2027 07:06:56.000   03 Jun 2027 07:07:48.850            52.850         26425.000
        44   03 Jun 2027 07:08:10.295   03 Jun 2027 07:08:10.295             0.000             0.000
        45   03 Jun 2027 07:08:41.651   03 Jun 2027 07:08:52.442            10.791          5395.500
        46   03 Jun 2027 08:39:44.524   03 Jun 2027 08:41:37.909           113.385         56692.500
        47   03 Jun 2027 08:42:18.466   03 Jun 2027 08:42:45.147            26.681         13340.500
        48   03 Jun 2027 08:45:18.554   03 Jun 2027 08:45:26.687             8.133          4066.500
        49   03 Jun 2027 10:16:49.387   03 Jun 2027 10:18:04.606            75.219         36900.751
        50   03 Jun 2027 10:19:24.354   03 Jun 2027 10:19:28.657             4.303          1764.562
        51   03 Jun 2027 10:20:18.738   03 Jun 2027 10:20:19.941             1.203           601.500
        52   03 Jun 2027 10:21:05.910   03 Jun 2027 10:21:05.910             0.000             0.000
        53   03 Jun 2027 10:21:16.063   03 Jun 2027 10:21:21.545             5.482          2654.437
        54   03 Jun 2027 10:22:03.796   03 Jun 2027 10:22:09.838             6.042          1217.125
        55   03 Jun 2027 11:54:48.391   03 Jun 2027 11:55:09.239            20.848         10255.656
        56   03 Jun 2027 11:55:10.549   03 Jun 2027 11:55:11.131             0.582            40.938
        57   03 Jun 2027 11:55:50.196   03 Jun 2027 11:55:53.957             3.761          1220.781
        58   03 Jun 2027 11:56:52.222   03 Jun 2027 11:56:56.998             4.776          1718.344
        59   03 Jun 2027 11:57:08.363   03 Jun 2027 11:57:09.377             1.014           355.156
        60   03 Jun 2027 11:58:08.843   03 Jun 2027 11:58:13.005             4.162          1858.313
        61   03 Jun 2027 11:58:23.422   03 Jun 2027 11:58:24.974             1.552           229.188
        62   03 Jun 2027 11:58:36.245   03 Jun 2027 11:58:38.779             2.534           352.219
        63   03 Jun 2027 11:58:42.884   03 Jun 2027 11:58:42.884             0.000             0.000
        64   04 Jun 2027 04:05:40.358   04 Jun 2027 04:06:19.895            39.537         19768.500
        65   04 Jun 2027 04:17:23.561   04 Jun 2027 04:18:04.038            40.477         20238.500
        66   04 Jun 2027 05:39:36.302   04 Jun 2027 05:40:46.994            70.692         35346.000
        67   04 Jun 2027 05:41:37.043   04 Jun 2027 05:42:09.102            32.059         16029.500
        68   04 Jun 2027 05:44:21.033   04 Jun 2027 05:44:30.938             9.905          4952.500
        69   04 Jun 2027 07:14:40.242   04 Jun 2027 07:16:23.693           103.451         51725.500
        70   04 Jun 2027 07:16:43.521   04 Jun 2027 07:17:10.224            26.703         13351.500
        71   04 Jun 2027 07:17:48.436   04 Jun 2027 07:17:54.710             6.274          3137.000
        72   04 Jun 2027 07:19:49.404   04 Jun 2027 07:19:49.404             0.000             0.000
        73   04 Jun 2027 07:20:06.917   04 Jun 2027 07:20:23.409            16.492          8246.000
        74   04 Jun 2027 08:52:02.661   04 Jun 2027 08:52:27.562            24.901         10778.062
        75   04 Jun 2027 08:54:03.729   04 Jun 2027 08:54:12.564             8.835          2293.500
        76   04 Jun 2027 08:54:36.337   04 Jun 2027 08:54:38.324             1.987           595.500
        77   04 Jun 2027 08:54:48.350   04 Jun 2027 08:54:51.036             2.686            50.969
        78   04 Jun 2027 08:55:08.804   04 Jun 2027 08:55:15.285             6.481           469.094
        79   04 Jun 2027 08:55:37.988   04 Jun 2027 08:55:39.424             1.436           573.188
        80   04 Jun 2027 08:56:50.226   04 Jun 2027 08:56:55.170             4.944          2208.000
        81   04 Jun 2027 08:56:57.754   04 Jun 2027 08:57:00.007             2.253            80.750
        82   04 Jun 2027 08:57:35.520   04 Jun 2027 08:57:36.025             0.505           252.500
        83   04 Jun 2027 08:58:15.826   04 Jun 2027 08:58:20.266             4.440          1988.219
        84   04 Jun 2027 08:58:41.612   04 Jun 2027 08:58:45.762             4.150           567.312
        85   04 Jun 2027 10:28:51.040   04 Jun 2027 10:29:08.557            17.517          8318.406
        86   04 Jun 2027 10:29:49.363   04 Jun 2027 10:29:52.734             3.371          1266.125
        87   04 Jun 2027 10:30:27.201   04 Jun 2027 10:30:28.657             1.456           584.219
        88   04 Jun 2027 10:31:00.262   04 Jun 2027 10:31:03.472             3.210           987.656
        89   04 Jun 2027 10:31:10.310   04 Jun 2027 10:31:12.098             1.788           213.688
        90   04 Jun 2027 10:31:32.067   04 Jun 2027 10:31:34.958             2.891           605.844
        91   04 Jun 2027 10:31:45.855   04 Jun 2027 10:31:45.979             0.124            62.000
        92   04 Jun 2027 10:31:55.642   04 Jun 2027 10:31:59.230             3.588           580.500
        93   04 Jun 2027 10:32:03.625   04 Jun 2027 10:32:07.084             3.459           137.344
        94   04 Jun 2027 10:32:22.752   04 Jun 2027 10:32:25.678             2.926           382.000
        95   04 Jun 2027 10:33:02.218   04 Jun 2027 10:33:06.787             4.569           970.531
        96   04 Jun 2027 10:33:16.473   04 Jun 2027 10:33:16.656             0.183            91.500
        97   04 Jun 2027 10:33:55.086   04 Jun 2027 10:34:01.454             6.368          1412.125
        98   04 Jun 2027 10:34:20.230   04 Jun 2027 10:34:22.814             2.584           479.281
        99   04 Jun 2027 10:34:53.073   04 Jun 2027 10:34:56.082             3.009           573.312
       100   04 Jun 2027 10:35:00.005   04 Jun 2027 10:35:00.498             0.493           122.594
       101   04 Jun 2027 10:35:11.424   04 Jun 2027 10:35:14.612             3.188           341.438
       102   05 Jun 2027 04:17:10.983   05 Jun 2027 04:17:56.206            45.223         22611.500
       103   05 Jun 2027 04:18:02.492   05 Jun 2027 04:18:20.479            17.987          8993.500
       104   05 Jun 2027 04:29:24.318   05 Jun 2027 04:29:56.144            31.826         15913.000
       105   05 Jun 2027 05:51:20.296   05 Jun 2027 05:52:34.440            74.144         37072.000
       106   05 Jun 2027 05:53:23.066   05 Jun 2027 05:53:58.807            35.741         17870.500
       107   05 Jun 2027 05:56:27.328   05 Jun 2027 05:56:27.328             0.000             0.000
       108   05 Jun 2027 07:26:08.466   05 Jun 2027 07:28:04.182           115.716         57858.000
       109   05 Jun 2027 07:29:38.061   05 Jun 2027 07:29:55.730            17.669          8113.875
       110   05 Jun 2027 07:30:04.599   05 Jun 2027 07:30:09.533             4.934           277.156
       111   05 Jun 2027 07:33:01.139   05 Jun 2027 07:33:07.920             6.781          3390.500
       112   05 Jun 2027 07:33:41.502   05 Jun 2027 07:33:47.086             5.584          2792.000
       113   05 Jun 2027 07:35:01.148   05 Jun 2027 07:35:01.452             0.304           152.000
       114   05 Jun 2027 07:35:01.955   05 Jun 2027 07:35:09.470             7.515          2307.125
       115   05 Jun 2027 09:03:57.630   05 Jun 2027 09:04:18.870            21.240          9128.094
       116   05 Jun 2027 09:06:48.254   05 Jun 2027 09:06:58.304            10.050          4638.469
       117   05 Jun 2027 09:08:03.385   05 Jun 2027 09:08:07.354             3.969          1984.500
       118   05 Jun 2027 09:08:10.926   05 Jun 2027 09:08:13.716             2.790           160.906
       119   05 Jun 2027 09:09:17.813   05 Jun 2027 09:09:24.781             6.968          2003.031
       120   05 Jun 2027 09:09:40.009   05 Jun 2027 09:09:40.009             0.000             0.000
       121   05 Jun 2027 09:10:05.851   05 Jun 2027 09:10:07.785             1.934           967.000
       122   05 Jun 2027 09:10:11.779   05 Jun 2027 09:10:13.776             1.997           441.250
       123   05 Jun 2027 09:10:47.031   05 Jun 2027 09:10:49.222             2.191          1039.219
       124   05 Jun 2027 10:40:42.034   05 Jun 2027 10:40:56.553            14.519          6996.250
       125   05 Jun 2027 10:41:12.051   05 Jun 2027 10:41:14.685             2.634           281.281
       126   05 Jun 2027 10:41:37.676   05 Jun 2027 10:41:43.360             5.684           706.281
       127   05 Jun 2027 10:41:53.421   05 Jun 2027 10:41:53.842             0.421           166.656
       128   05 Jun 2027 10:42:04.012   05 Jun 2027 10:42:18.318            14.306           108.906
       129   05 Jun 2027 10:42:44.938   05 Jun 2027 10:42:47.448             2.510           831.875
       130   05 Jun 2027 10:44:06.813   05 Jun 2027 10:44:13.742             6.929          1797.594
       131   05 Jun 2027 10:44:55.339   05 Jun 2027 10:44:58.129             2.790          1294.281
       132   05 Jun 2027 10:44:59.118   05 Jun 2027 10:45:01.911             2.793            30.906
       133   05 Jun 2027 10:45:20.511   05 Jun 2027 10:45:22.543             2.032           469.844
       134   05 Jun 2027 10:45:40.676   05 Jun 2027 10:45:42.165             1.489           148.813
       135   05 Jun 2027 10:46:13.502   05 Jun 2027 10:46:17.633             4.131           717.750
       136   05 Jun 2027 10:47:02.593   05 Jun 2027 10:47:14.720            12.127          1405.000
       137   06 Jun 2027 03:05:08.033   06 Jun 2027 03:05:43.649            35.616         17808.000
       138   06 Jun 2027 03:06:25.067   06 Jun 2027 03:06:47.851            22.784         11392.000
       139   06 Jun 2027 03:07:19.973   06 Jun 2027 03:07:23.153             3.180          1590.000
       140   06 Jun 2027 03:08:26.581   06 Jun 2027 03:08:36.106             9.525          4762.500
       141   06 Jun 2027 03:08:48.477   06 Jun 2027 03:08:48.477             0.000             0.000
       142   06 Jun 2027 03:08:51.894   06 Jun 2027 03:08:56.656             4.762          2381.000
       143   06 Jun 2027 03:09:08.632   06 Jun 2027 03:09:23.843            15.211          7605.500
       144   06 Jun 2027 04:29:09.712   06 Jun 2027 04:29:47.942            38.230         19115.000
       145   06 Jun 2027 06:05:06.404   06 Jun 2027 06:06:51.709           105.305         52652.500
       146   06 Jun 2027 06:07:39.338   06 Jun 2027 06:07:56.645            17.307          8653.500
       147   06 Jun 2027 07:38:57.190   06 Jun 2027 07:40:36.328            99.138         49415.532
       148   06 Jun 2027 07:42:28.480   06 Jun 2027 07:42:34.811             6.331          2705.969
       149   06 Jun 2027 07:44:13.070   06 Jun 2027 07:44:18.853             5.783          2866.406
       150   06 Jun 2027 07:44:24.583   06 Jun 2027 07:44:25.213             0.630           179.063
       151   06 Jun 2027 07:45:03.805   06 Jun 2027 07:45:07.352             3.547          1089.000
       152   06 Jun 2027 07:46:06.250   06 Jun 2027 07:46:15.091             8.841          1600.750
       153   06 Jun 2027 07:46:28.691   06 Jun 2027 07:46:30.188             1.497           300.688
       154   06 Jun 2027 07:46:51.599   06 Jun 2027 07:46:51.825             0.226           113.000
       155   06 Jun 2027 09:16:04.169   06 Jun 2027 09:16:20.071            15.902          7070.844
       156   06 Jun 2027 09:16:48.234   06 Jun 2027 09:16:48.656             0.422           170.031
       157   06 Jun 2027 09:17:16.473   06 Jun 2027 09:17:19.602             3.129           562.125
       158   06 Jun 2027 09:17:56.933   06 Jun 2027 09:17:58.742             1.809           750.781
       159   06 Jun 2027 09:18:43.991   06 Jun 2027 09:18:43.991             0.000             0.000
       160   06 Jun 2027 09:20:11.861   06 Jun 2027 09:20:23.004            11.143          4083.781
       161   06 Jun 2027 09:20:58.389   06 Jun 2027 09:21:05.045             6.656           850.125
       162   06 Jun 2027 09:21:17.550   06 Jun 2027 09:21:17.849             0.299            57.750
       163   06 Jun 2027 09:21:25.679   06 Jun 2027 09:21:30.247             4.568           244.687
       164   06 Jun 2027 09:21:30.860   06 Jun 2027 09:21:31.248             0.388            19.156
       165   06 Jun 2027 09:21:45.641   06 Jun 2027 09:21:53.524             7.883           441.438
       166   06 Jun 2027 09:22:48.164   06 Jun 2027 09:22:53.382             5.218          1649.781
       167   06 Jun 2027 09:23:10.810   06 Jun 2027 09:23:11.479             0.669           334.500
       168   06 Jun 2027 10:53:07.054   06 Jun 2027 10:53:15.854             8.800          4400.000
       169   06 Jun 2027 10:53:32.029   06 Jun 2027 10:53:40.909             8.880          3577.812
       170   06 Jun 2027 10:55:25.548   06 Jun 2027 10:55:31.053             5.505          1900.500
       171   06 Jun 2027 10:55:48.050   06 Jun 2027 10:55:52.362             4.312            28.625
       172   06 Jun 2027 10:56:01.891   06 Jun 2027 10:56:03.844             1.953           297.781
       173   06 Jun 2027 10:56:53.378   06 Jun 2027 10:56:58.465             5.087           855.969
       174   06 Jun 2027 10:57:34.050   06 Jun 2027 10:57:37.903             3.853           947.219
       175   06 Jun 2027 10:57:49.872   06 Jun 2027 10:57:50.878             1.006           374.031
       176   06 Jun 2027 10:58:38.795   06 Jun 2027 10:58:41.989             3.194          1049.875
       177   07 Jun 2027 03:17:42.697   07 Jun 2027 03:19:08.722            86.025         43012.500
       178   07 Jun 2027 03:19:25.662   07 Jun 2027 03:19:29.007             3.345          1672.500
       179   07 Jun 2027 03:20:28.025   07 Jun 2027 03:20:33.272             5.247          2623.500
       180   07 Jun 2027 03:20:39.228   07 Jun 2027 03:20:44.126             4.898          2449.000
       181   07 Jun 2027 04:41:04.027   07 Jun 2027 04:41:41.387            37.360         18680.000
       182   07 Jun 2027 06:17:28.261   07 Jun 2027 06:19:20.147           111.886         55943.000
       183   07 Jun 2027 06:19:46.539   07 Jun 2027 06:19:46.539             0.000             0.000
       184   07 Jun 2027 06:20:40.841   07 Jun 2027 06:20:54.317            13.476          6738.000
       185   07 Jun 2027 07:51:09.912   07 Jun 2027 07:52:29.765            79.853         38243.500
       186   07 Jun 2027 07:53:01.412   07 Jun 2027 07:53:02.694             1.282           223.500
       187   07 Jun 2027 07:53:22.743   07 Jun 2027 07:53:25.918             3.175           589.531
       188   07 Jun 2027 07:54:16.842   07 Jun 2027 07:54:21.296             4.454          1546.187
       189   07 Jun 2027 07:56:36.138   07 Jun 2027 07:56:45.208             9.070          4012.375
       190   07 Jun 2027 07:57:58.887   07 Jun 2027 07:57:58.887             0.000             0.000
       191   07 Jun 2027 07:58:44.046   07 Jun 2027 07:58:50.917             6.871          3435.500
       192   07 Jun 2027 07:59:06.858   07 Jun 2027 07:59:08.469             1.611           606.094
       193   07 Jun 2027 09:28:30.508   07 Jun 2027 09:28:47.384            16.876          8173.906
       194   07 Jun 2027 09:29:42.560   07 Jun 2027 09:29:47.796             5.236           270.062
       195   07 Jun 2027 09:30:13.838   07 Jun 2027 09:30:15.668             1.830           606.531
       196   07 Jun 2027 09:30:53.373   07 Jun 2027 09:30:55.515             2.142           734.156
       197   07 Jun 2027 09:31:25.020   07 Jun 2027 09:31:26.250             1.230           151.312
       198   07 Jun 2027 09:31:39.981   07 Jun 2027 09:31:43.068             3.087           272.844
       199   07 Jun 2027 09:32:07.361   07 Jun 2027 09:32:11.057             3.696           745.594
       200   07 Jun 2027 09:33:00.591   07 Jun 2027 09:33:05.645             5.054          1547.938
       201   07 Jun 2027 09:33:23.847   07 Jun 2027 09:33:26.350             2.503           568.812
       202   07 Jun 2027 09:33:50.474   07 Jun 2027 09:33:52.874             2.400           753.875
       203   07 Jun 2027 09:34:38.600   07 Jun 2027 09:34:40.801             2.201          1006.125
       204   07 Jun 2027 09:35:09.993   07 Jun 2027 09:35:12.345             2.352           912.250
       205   07 Jun 2027 11:05:27.371   07 Jun 2027 11:05:46.877            19.506          8477.313
       206   07 Jun 2027 11:06:50.165   07 Jun 2027 11:06:56.180             6.015           667.906
       207   07 Jun 2027 11:07:07.869   07 Jun 2027 11:07:08.559             0.690           342.844
       208   07 Jun 2027 11:07:18.729   07 Jun 2027 11:07:21.146             2.417           306.375
       209   07 Jun 2027 11:07:49.044   07 Jun 2027 11:07:52.856             3.812            71.156
       210   07 Jun 2027 11:08:35.367   07 Jun 2027 11:08:38.631             3.264          1328.469
       211   07 Jun 2027 11:09:18.009   07 Jun 2027 11:09:19.712             1.703           851.500
       212   07 Jun 2027 11:09:50.850   07 Jun 2027 11:09:57.447             6.597          1303.625
       213   07 Jun 2027 11:10:33.750   07 Jun 2027 11:10:37.344             3.594          1134.469
       214   07 Jun 2027 11:10:56.201   07 Jun 2027 11:10:59.794             3.593           481.187
       215   08 Jun 2027 03:29:20.467   08 Jun 2027 03:31:08.222           107.755         53877.500
       216   08 Jun 2027 03:31:17.221   08 Jun 2027 03:31:39.477            22.256         11128.000
       217   08 Jun 2027 03:31:42.998   08 Jun 2027 03:31:46.043             3.045          1522.500
       218   08 Jun 2027 03:32:16.305   08 Jun 2027 03:32:26.367            10.062          5031.000
       219   08 Jun 2027 04:52:51.281   08 Jun 2027 04:53:17.090            25.809         12904.500
       220   08 Jun 2027 04:53:23.267   08 Jun 2027 04:53:23.267             0.000             0.000
       221   08 Jun 2027 04:54:04.232   08 Jun 2027 04:54:08.744             4.512          2256.000
       222   08 Jun 2027 06:29:30.856   08 Jun 2027 06:31:24.911           114.055         57027.500
       223   08 Jun 2027 08:04:30.425   08 Jun 2027 08:05:23.799            53.374         26687.000
       224   08 Jun 2027 08:05:39.416   08 Jun 2027 08:05:45.788             6.372          1923.219
       225   08 Jun 2027 08:06:04.158   08 Jun 2027 08:06:05.649             1.491           477.656
       226   08 Jun 2027 08:07:45.589   08 Jun 2027 08:07:51.117             5.528          2723.438
       227   08 Jun 2027 08:08:32.407   08 Jun 2027 08:08:32.407             0.000             0.000
       228   08 Jun 2027 08:08:49.356   08 Jun 2027 08:09:04.616            15.260          1710.875
       229   08 Jun 2027 08:09:41.415   08 Jun 2027 08:09:42.418             1.003           289.875
       230   08 Jun 2027 08:09:50.138   08 Jun 2027 08:09:51.840             1.702            88.688
       231   08 Jun 2027 08:10:09.037   08 Jun 2027 08:10:13.943             4.906           497.594
       232   08 Jun 2027 08:10:50.606   08 Jun 2027 08:10:55.374             4.768           885.875
       233   08 Jun 2027 08:11:08.203   08 Jun 2027 08:11:11.644             3.441           342.344
       234   08 Jun 2027 08:11:19.548   08 Jun 2027 08:11:22.954             3.406           187.875
       235   08 Jun 2027 09:40:38.083   08 Jun 2027 09:40:52.148            14.065          6366.938
       236   08 Jun 2027 09:41:35.896   08 Jun 2027 09:41:38.946             3.050           995.844
       237   08 Jun 2027 09:42:22.315   08 Jun 2027 09:42:29.682             7.367          1266.750
       238   08 Jun 2027 09:43:03.601   08 Jun 2027 09:43:07.731             4.130           700.812
       239   08 Jun 2027 09:43:09.640   08 Jun 2027 09:43:12.927             3.287            59.656
       240   08 Jun 2027 09:43:25.698   08 Jun 2027 09:43:28.295             2.597           345.063
       241   08 Jun 2027 09:43:45.165   08 Jun 2027 09:43:47.104             1.939           439.281
       242   08 Jun 2027 09:43:57.070   08 Jun 2027 09:43:57.878             0.808            43.469
       243   08 Jun 2027 09:44:14.152   08 Jun 2027 09:44:21.114             6.962            45.000
       244   08 Jun 2027 09:44:32.057   08 Jun 2027 09:44:32.057             0.000             0.000
       245   08 Jun 2027 09:45:08.056   08 Jun 2027 09:45:10.743             2.687          1178.094
       246   08 Jun 2027 09:45:30.746   08 Jun 2027 09:45:33.379             2.633           251.437
       247   08 Jun 2027 09:46:25.952   08 Jun 2027 09:46:29.324             3.372          1553.344
       248   08 Jun 2027 09:46:48.096   08 Jun 2027 09:46:50.147             2.051           586.625
       249   08 Jun 2027 11:18:22.192   08 Jun 2027 11:18:35.363            13.171          6466.688
       250   08 Jun 2027 11:18:46.557   08 Jun 2027 11:18:48.563             2.006           349.812
       251   08 Jun 2027 11:18:59.551   08 Jun 2027 11:19:01.702             2.151           343.375
       252   08 Jun 2027 11:19:43.845   08 Jun 2027 11:19:51.883             8.038          1316.969
       253   08 Jun 2027 11:20:10.536   08 Jun 2027 11:20:12.079             1.543           398.906
       254   08 Jun 2027 11:20:24.833   08 Jun 2027 11:20:29.307             4.474           398.562
       255   08 Jun 2027 11:20:48.121   08 Jun 2027 11:20:50.533             2.412           587.938
       256   08 Jun 2027 11:21:00.894   08 Jun 2027 11:21:01.728             0.834           279.469
       257   08 Jun 2027 11:21:08.506   08 Jun 2027 11:21:11.509             3.003           169.219
       258   08 Jun 2027 11:21:49.870   08 Jun 2027 11:21:53.972             4.102          1179.719
       259   08 Jun 2027 11:22:33.614   08 Jun 2027 11:22:42.435             8.821          1169.625
       260   09 Jun 2027 03:41:43.314   09 Jun 2027 03:42:14.221            30.907         15453.500
       261   09 Jun 2027 03:42:32.773   09 Jun 2027 03:43:51.149            78.376         39188.000
       262   09 Jun 2027 03:44:27.339   09 Jun 2027 03:44:31.895             4.556          2278.000
       263   09 Jun 2027 03:45:02.683   09 Jun 2027 03:45:22.682            19.999          9999.500
       264   09 Jun 2027 05:05:05.817   09 Jun 2027 05:05:57.726            51.909         25954.500
       265   09 Jun 2027 05:05:59.880   09 Jun 2027 05:06:06.661             6.781          3390.500
       266   09 Jun 2027 05:06:47.349   09 Jun 2027 05:07:03.770            16.421          8210.500
       267   09 Jun 2027 06:41:37.632   09 Jun 2027 06:43:03.534            85.902         42951.000
       268   09 Jun 2027 06:43:38.202   09 Jun 2027 06:43:40.404             2.202          1101.000
       269   09 Jun 2027 06:43:51.432   09 Jun 2027 06:44:02.560            11.128          5564.000
       270   09 Jun 2027 08:16:47.891   09 Jun 2027 08:17:25.220            37.329         16521.656
       271   09 Jun 2027 08:18:19.669   09 Jun 2027 08:18:21.939             2.270           425.531
       272   09 Jun 2027 08:19:06.065   09 Jun 2027 08:19:06.065             0.000             0.000
       273   09 Jun 2027 08:19:40.501   09 Jun 2027 08:19:45.894             5.393          2364.594
       274   09 Jun 2027 08:19:47.077   09 Jun 2027 08:19:50.433             3.356            20.844
       275   09 Jun 2027 08:20:50.195   09 Jun 2027 08:20:54.448             4.253          1400.406
       276   09 Jun 2027 08:21:18.527   09 Jun 2027 08:21:26.693             8.166           399.250
       277   09 Jun 2027 08:21:50.747   09 Jun 2027 08:21:53.969             3.222           658.562
       278   09 Jun 2027 08:22:17.775   09 Jun 2027 08:22:20.419             2.644           640.156
       279   09 Jun 2027 08:22:38.800   09 Jun 2027 08:22:40.714             1.914           432.344
       280   09 Jun 2027 08:22:50.646   09 Jun 2027 08:22:51.379             0.733            76.250
       281   09 Jun 2027 08:23:04.690   09 Jun 2027 08:23:04.929             0.239           119.500
       282   09 Jun 2027 08:23:12.850   09 Jun 2027 08:23:14.506             1.656           544.000
       283   09 Jun 2027 09:53:11.656   09 Jun 2027 09:53:28.230            16.574          8280.938
       284   09 Jun 2027 09:54:15.284   09 Jun 2027 09:54:17.299             2.015            84.844
       285   09 Jun 2027 09:55:01.492   09 Jun 2027 09:55:03.729             2.237           899.844
       286   09 Jun 2027 09:56:20.807   09 Jun 2027 09:56:24.329             3.522          1602.594
       287   09 Jun 2027 09:56:40.435   09 Jun 2027 09:56:40.435             0.000             0.000
       288   09 Jun 2027 09:57:30.441   09 Jun 2027 09:57:33.233             2.792          1396.000
       289   09 Jun 2027 09:57:47.403   09 Jun 2027 09:57:51.756             4.353           836.156
       290   09 Jun 2027 09:58:42.654   09 Jun 2027 09:58:45.264             2.610           902.812
       291   09 Jun 2027 09:58:53.598   09 Jun 2027 09:58:54.036             0.438            92.281
       292   09 Jun 2027 09:59:04.081   09 Jun 2027 09:59:05.018             0.937           197.906
       293   09 Jun 2027 11:30:28.237   09 Jun 2027 11:30:46.442            18.205          5958.500
       294   09 Jun 2027 11:30:49.339   09 Jun 2027 11:30:49.556             0.217            90.531
       295   09 Jun 2027 11:31:13.818   09 Jun 2027 11:31:13.916             0.098            49.000
       296   09 Jun 2027 11:31:30.450   09 Jun 2027 11:31:33.604             3.154          1112.125
       297   09 Jun 2027 11:31:36.609   09 Jun 2027 11:31:37.356             0.747            58.469
       298   09 Jun 2027 11:32:01.903   09 Jun 2027 11:32:04.059             2.156           400.844
       299   09 Jun 2027 11:32:30.922   09 Jun 2027 11:32:34.033             3.111           839.469
       300   09 Jun 2027 11:32:42.709   09 Jun 2027 11:32:43.856             1.147           100.156
       301   09 Jun 2027 11:33:22.531   09 Jun 2027 11:33:24.897             2.366          1132.000
       302   09 Jun 2027 11:34:00.603   09 Jun 2027 11:34:02.832             2.229           946.562
       303   09 Jun 2027 11:34:33.685   09 Jun 2027 11:34:33.685             0.000             0.000
       304   10 Jun 2027 03:53:40.060   10 Jun 2027 03:54:19.065            39.005         19502.500
       305   10 Jun 2027 03:54:42.344   10 Jun 2027 03:55:58.931            76.587         38293.500
       306   10 Jun 2027 05:17:35.668   10 Jun 2027 05:18:44.585            68.917         34458.500
       307   10 Jun 2027 05:18:58.153   10 Jun 2027 05:19:12.487            14.334          7167.000
       308   10 Jun 2027 06:53:30.358   10 Jun 2027 06:53:57.805            27.447         13723.500
       309   10 Jun 2027 06:55:11.150   10 Jun 2027 06:56:13.549            62.399         31199.500
       310   10 Jun 2027 06:56:30.137   10 Jun 2027 06:56:54.334            24.197         12098.500
       311   10 Jun 2027 06:57:23.770   10 Jun 2027 06:57:33.017             9.247          4623.500
       312   10 Jun 2027 08:28:26.454   10 Jun 2027 08:28:40.009            13.555          6777.500
       313   10 Jun 2027 08:29:23.616   10 Jun 2027 08:29:29.972             6.356          1936.500
       314   10 Jun 2027 08:30:37.500   10 Jun 2027 08:30:44.809             7.309          2001.469
       315   10 Jun 2027 08:31:41.476   10 Jun 2027 08:31:45.436             3.960           934.438
       316   10 Jun 2027 08:32:48.490   10 Jun 2027 08:32:53.549             5.059          1309.781
       317   10 Jun 2027 08:34:00.914   10 Jun 2027 08:34:00.914             0.000             0.000
       318   10 Jun 2027 08:34:08.626   10 Jun 2027 08:34:18.027             9.401          2346.156
       319   10 Jun 2027 08:35:26.209   10 Jun 2027 08:35:32.459             6.250          2130.687
       320   10 Jun 2027 10:04:45.622   10 Jun 2027 10:05:04.914            19.292          8015.938
       321   10 Jun 2027 10:06:51.260   10 Jun 2027 10:06:56.891             5.631          2329.812
       322   10 Jun 2027 10:07:20.327   10 Jun 2027 10:07:23.578             3.251           265.000
       323   10 Jun 2027 10:07:47.959   10 Jun 2027 10:07:55.326             7.367           507.750
       324   10 Jun 2027 10:09:11.333   10 Jun 2027 10:09:17.420             6.087          2201.938
       325   10 Jun 2027 10:10:28.767   10 Jun 2027 10:10:34.051             5.284          1931.344
       326   10 Jun 2027 11:43:01.118   10 Jun 2027 11:43:16.516            15.398          7557.813
       327   10 Jun 2027 11:43:40.019   10 Jun 2027 11:43:41.714             1.695           516.344
       328   10 Jun 2027 11:44:04.006   10 Jun 2027 11:44:04.668             0.662           331.000
       329   10 Jun 2027 11:44:36.978   10 Jun 2027 11:44:42.161             5.183          1372.625
       330   10 Jun 2027 11:45:07.503   10 Jun 2027 11:45:09.383             1.880           704.031
       331   10 Jun 2027 11:45:13.978   10 Jun 2027 11:45:15.991             2.013           143.594
       332   10 Jun 2027 11:45:24.097   10 Jun 2027 11:45:25.279             1.182           109.375
       333   10 Jun 2027 11:45:41.890   10 Jun 2027 11:45:43.400             1.510           146.344
       334   10 Jun 2027 11:46:34.670   10 Jun 2027 11:46:43.010             8.340           998.531
       335   11 Jun 2027 03:54:23.096   11 Jun 2027 03:54:31.562             8.466          4233.000
       336   11 Jun 2027 04:05:36.418   11 Jun 2027 04:07:11.347            94.929         47464.500
       337   11 Jun 2027 04:07:44.582   11 Jun 2027 04:07:52.416             7.834          3917.000
       338   11 Jun 2027 05:28:12.862   11 Jun 2027 05:28:42.952            30.090         15045.000
       339   11 Jun 2027 05:29:02.005   11 Jun 2027 05:29:51.927            49.922         24961.000
       340   11 Jun 2027 05:30:17.492   11 Jun 2027 05:30:25.146             7.654          3827.000
       341   11 Jun 2027 05:32:08.614   11 Jun 2027 05:32:14.119             5.505          2752.500
       342   11 Jun 2027 07:03:48.457   11 Jun 2027 07:04:28.868            40.411         20205.500
       343   11 Jun 2027 07:05:14.766   11 Jun 2027 07:06:37.210            82.444         41222.000
       344   11 Jun 2027 07:06:57.933   11 Jun 2027 07:07:08.495            10.562          3709.719
       345   11 Jun 2027 07:07:52.939   11 Jun 2027 07:07:59.110             6.171          1388.875
       346   11 Jun 2027 08:39:59.746   11 Jun 2027 08:40:19.244            19.498          7847.625
       347   11 Jun 2027 08:41:05.670   11 Jun 2027 08:41:09.065             3.395          1057.312
       348   11 Jun 2027 08:41:18.250   11 Jun 2027 08:41:23.362             5.112           273.375
       349   11 Jun 2027 08:41:40.997   11 Jun 2027 08:41:41.262             0.265           129.187
       350   11 Jun 2027 08:41:52.616   11 Jun 2027 08:41:56.240             3.624           240.094
       351   11 Jun 2027 08:43:05.270   11 Jun 2027 08:43:07.500             2.230          1115.000
       352   11 Jun 2027 08:43:14.256   11 Jun 2027 08:43:17.813             3.557           485.625
       353   11 Jun 2027 08:44:22.123   11 Jun 2027 08:44:29.702             7.579          1982.469
       354   11 Jun 2027 08:45:15.179   11 Jun 2027 08:45:17.866             2.687           923.594
       355   11 Jun 2027 08:45:53.241   11 Jun 2027 08:45:55.637             2.396           351.750
       356   11 Jun 2027 08:46:19.907   11 Jun 2027 08:46:23.126             3.219           758.438
       357   11 Jun 2027 08:47:24.052   11 Jun 2027 08:47:28.507             4.455          1815.187
       358   11 Jun 2027 10:17:05.556   11 Jun 2027 10:17:23.669            18.113          8354.406
       359   11 Jun 2027 10:18:01.776   11 Jun 2027 10:18:05.599             3.823           930.000
       360   11 Jun 2027 10:18:48.130   11 Jun 2027 10:18:52.644             4.514           125.344
       361   11 Jun 2027 10:19:00.444   11 Jun 2027 10:19:00.884             0.440           111.781
       362   11 Jun 2027 10:19:10.852   11 Jun 2027 10:19:10.998             0.146            21.156
       363   11 Jun 2027 10:19:22.382   11 Jun 2027 10:19:23.462             1.080           355.750
       364   11 Jun 2027 10:20:02.484   11 Jun 2027 10:20:07.141             4.657           911.094
       365   11 Jun 2027 10:20:59.797   11 Jun 2027 10:21:07.984             8.187          1633.000
       366   11 Jun 2027 10:21:23.162   11 Jun 2027 10:21:24.566             1.404           461.531
       367   11 Jun 2027 10:21:52.731   11 Jun 2027 10:21:57.447             4.716           796.062
       368   11 Jun 2027 10:23:07.187   11 Jun 2027 10:23:15.477             8.290          2179.375
       369   11 Jun 2027 11:55:03.845   11 Jun 2027 11:55:25.524            21.679          9442.906
       370   11 Jun 2027 11:56:33.890   11 Jun 2027 11:56:40.915             7.025          2136.437
       371   11 Jun 2027 11:57:35.395   11 Jun 2027 11:57:40.073             4.678          1647.781
       372   11 Jun 2027 11:58:45.034   11 Jun 2027 11:58:53.309             8.275          1495.750
       373   11 Jun 2027 11:58:59.047   11 Jun 2027 11:58:59.047             0.000             0.000
       374   12 Jun 2027 04:05:55.754   12 Jun 2027 04:06:26.048            30.294         15147.000
       375   12 Jun 2027 04:07:07.504   12 Jun 2027 04:07:29.095            21.591         10795.500
       376   12 Jun 2027 04:17:39.367   12 Jun 2027 04:18:27.406            48.039         24019.500
       377   12 Jun 2027 05:39:52.410   12 Jun 2027 05:41:02.119            69.709         34854.500
       378   12 Jun 2027 05:41:52.503   12 Jun 2027 05:42:20.633            28.130         14065.000
       379   12 Jun 2027 05:44:07.957   12 Jun 2027 05:44:16.786             8.829          4414.500
       380   12 Jun 2027 07:14:54.888   12 Jun 2027 07:16:38.930           104.042         52021.000
       381   12 Jun 2027 07:16:59.077   12 Jun 2027 07:17:17.124            18.047          9023.500
       382   12 Jun 2027 07:21:44.849   12 Jun 2027 07:22:00.729            15.880          7940.000
       383   12 Jun 2027 08:52:19.276   12 Jun 2027 08:52:35.514            16.238          8033.344
       384   12 Jun 2027 08:53:08.067   12 Jun 2027 08:53:08.067             0.000             0.000
       385   12 Jun 2027 08:54:20.554   12 Jun 2027 08:54:27.254             6.700          3282.500
       386   12 Jun 2027 08:54:53.481   12 Jun 2027 08:54:57.409             3.928           636.875
       387   12 Jun 2027 08:54:59.716   12 Jun 2027 08:55:01.347             1.631            72.094
       388   12 Jun 2027 08:55:04.071   12 Jun 2027 08:55:07.553             3.482            85.125
       389   12 Jun 2027 08:55:24.335   12 Jun 2027 08:55:31.380             7.045           414.156
       390   12 Jun 2027 08:55:57.573   12 Jun 2027 08:55:58.571             0.998           458.312
       391   12 Jun 2027 08:57:10.203   12 Jun 2027 08:57:15.143             4.940          2201.500
       392   12 Jun 2027 08:57:56.400   12 Jun 2027 08:57:56.974             0.574           287.000
       393   12 Jun 2027 08:58:24.919   12 Jun 2027 08:58:31.152             6.233          1353.875
       394   12 Jun 2027 08:59:18.991   12 Jun 2027 08:59:23.521             4.530          1494.969
       395   12 Jun 2027 08:59:30.864   12 Jun 2027 08:59:33.694             2.830           195.219
       396   12 Jun 2027 10:29:07.105   12 Jun 2027 10:29:23.393            16.288          7637.156
       397   12 Jun 2027 10:30:06.547   12 Jun 2027 10:30:09.514             2.967          1282.437
       398   12 Jun 2027 10:31:46.039   12 Jun 2027 10:31:51.113             5.074          2537.000
       399   12 Jun 2027 10:32:47.155   12 Jun 2027 10:32:57.237            10.082          1765.750
       400   12 Jun 2027 10:33:01.874   12 Jun 2027 10:33:07.768             5.894            52.844
       401   12 Jun 2027 10:33:35.187   12 Jun 2027 10:33:42.464             7.277           780.469
       402   12 Jun 2027 10:34:23.508   12 Jun 2027 10:34:26.569             3.061           883.375
       403   12 Jun 2027 10:35:23.233   12 Jun 2027 10:35:26.087             2.854          1427.000
       404   13 Jun 2027 03:00:00.000   13 Jun 2027 03:00:10.902            10.902          5451.000
       405   13 Jun 2027 04:17:27.213   13 Jun 2027 04:18:11.748            44.535         22267.500
       406   13 Jun 2027 04:19:25.750   13 Jun 2027 04:19:39.405            13.655          6827.500
       407   13 Jun 2027 04:29:40.132   13 Jun 2027 04:30:11.847            31.715         15857.500
       408   13 Jun 2027 05:51:35.213   13 Jun 2027 05:52:49.114            73.901         36950.500
       409   13 Jun 2027 05:53:38.201   13 Jun 2027 05:53:50.065            11.864          5932.000
       410   13 Jun 2027 05:56:24.934   13 Jun 2027 05:56:42.930            17.996          8998.000
       411   13 Jun 2027 05:56:54.674   13 Jun 2027 05:56:54.879             0.205           102.500
       412   13 Jun 2027 07:26:23.490   13 Jun 2027 07:28:20.452           116.962         58481.000
       413   13 Jun 2027 07:28:23.027   13 Jun 2027 07:28:23.027             0.000             0.000
       414   13 Jun 2027 07:29:09.247   13 Jun 2027 07:29:15.511             6.264          3132.000
       415   13 Jun 2027 07:29:53.350   13 Jun 2027 07:29:53.350             0.000             0.000
       416   13 Jun 2027 07:32:27.751   13 Jun 2027 07:32:47.755            20.004          9496.094
       417   13 Jun 2027 07:33:42.297   13 Jun 2027 07:33:46.275             3.978          1704.438
       418   13 Jun 2027 07:35:17.015   13 Jun 2027 07:35:21.778             4.763          2381.500
       419   13 Jun 2027 07:35:25.364   13 Jun 2027 07:35:26.060             0.696           171.469
       420   13 Jun 2027 09:04:13.314   13 Jun 2027 09:04:33.875            20.561         10216.781
       421   13 Jun 2027 09:06:19.629   13 Jun 2027 09:06:19.629             0.000             0.000
       422   13 Jun 2027 09:07:05.755   13 Jun 2027 09:07:18.093            12.338          4626.969
       423   13 Jun 2027 09:07:50.351   13 Jun 2027 09:07:52.726             2.375            70.812
       424   13 Jun 2027 09:07:55.976   13 Jun 2027 09:08:00.741             4.765            42.500
       425   13 Jun 2027 09:09:19.609   13 Jun 2027 09:09:29.646            10.037          1814.969
       426   13 Jun 2027 09:09:48.128   13 Jun 2027 09:09:48.717             0.589           294.500
       427   13 Jun 2027 09:09:54.634   13 Jun 2027 09:09:55.529             0.895           302.844
       428   13 Jun 2027 09:10:00.445   13 Jun 2027 09:10:02.442             1.997            10.656
       429   13 Jun 2027 09:10:51.012   13 Jun 2027 09:10:53.577             2.565          1051.969
       430   13 Jun 2027 09:11:14.275   13 Jun 2027 09:11:15.489             1.214           416.000
       431   13 Jun 2027 10:40:57.792   13 Jun 2027 10:41:15.570            17.778          7155.406
       432   13 Jun 2027 10:42:03.969   13 Jun 2027 10:42:06.937             2.968          1476.094
       433   13 Jun 2027 10:42:19.303   13 Jun 2027 10:42:32.820            13.517            96.844
       434   13 Jun 2027 10:43:00.705   13 Jun 2027 10:43:03.109             2.404           871.406
       435   13 Jun 2027 10:44:22.366   13 Jun 2027 10:44:28.515             6.149          1812.000
       436   13 Jun 2027 10:45:11.821   13 Jun 2027 10:45:17.224             5.403          1353.313
       437   13 Jun 2027 10:45:42.131   13 Jun 2027 10:45:50.617             8.486           641.656
       438   13 Jun 2027 10:45:57.356   13 Jun 2027 10:45:59.544             2.188           210.594
       439   13 Jun 2027 10:46:20.264   13 Jun 2027 10:46:20.869             0.605           302.500
       440   13 Jun 2027 10:46:39.629   13 Jun 2027 10:46:42.806             3.177           931.250
       441   13 Jun 2027 10:46:52.255   13 Jun 2027 10:46:52.871             0.616           295.281
       442   13 Jun 2027 10:47:06.662   13 Jun 2027 10:47:06.662             0.000             0.000
       443   13 Jun 2027 10:47:41.601   13 Jun 2027 10:47:43.542             1.941           970.500
