uniorb/output/strategy_1/Camera/Camera_KinoSat_110503.txt

KinoSat_110503
-------------------------
    Access    *     Start Time (UTCG)     *     Stop Time (UTCG)  *   Duration (s) *   Data (Mbytes)
         1   01 Jun 2027 04:04:09.944   01 Jun 2027 04:06:14.357           124.413         62206.500
         2   01 Jun 2027 04:07:18.878   01 Jun 2027 04:07:18.878             0.000             0.000
         3   01 Jun 2027 04:07:25.521   01 Jun 2027 04:07:54.083            28.562         14281.000
         4   01 Jun 2027 04:10:33.298   01 Jun 2027 04:10:42.595             9.297          4648.500
         5   01 Jun 2027 04:11:30.003   01 Jun 2027 04:11:37.005             7.002          3501.000
         6   01 Jun 2027 04:11:49.704   01 Jun 2027 04:12:03.810            14.106          7053.000
         7   01 Jun 2027 04:13:07.901   01 Jun 2027 04:13:07.901             0.000             0.000
         8   01 Jun 2027 04:13:31.568   01 Jun 2027 04:13:47.163            15.595          7797.500
         9   01 Jun 2027 05:42:20.050   01 Jun 2027 05:44:42.113           142.063         71031.500
        10   01 Jun 2027 05:45:46.569   01 Jun 2027 05:46:06.713            20.144         10072.000
        11   01 Jun 2027 05:46:31.458   01 Jun 2027 05:46:39.963             8.505          4252.500
        12   01 Jun 2027 05:47:29.728   01 Jun 2027 05:47:38.634             8.906          4453.000
        13   01 Jun 2027 05:48:21.745   01 Jun 2027 05:48:34.774            13.029          6514.500
        14   01 Jun 2027 07:19:14.797   01 Jun 2027 07:21:39.107           144.310         72155.000
        15   01 Jun 2027 07:22:07.356   01 Jun 2027 07:22:13.162             5.806          2903.000
        16   01 Jun 2027 07:22:49.137   01 Jun 2027 07:23:09.211            20.074         10037.000
        17   01 Jun 2027 07:23:14.526   01 Jun 2027 07:23:17.453             2.927          1463.500
        18   01 Jun 2027 07:23:32.117   01 Jun 2027 07:23:40.846             8.729          4364.500
        19   01 Jun 2027 07:25:16.666   01 Jun 2027 07:25:36.507            19.841          9920.500
        20   01 Jun 2027 08:56:21.210   01 Jun 2027 08:58:27.707           126.497         63248.500
        21   01 Jun 2027 08:58:37.308   01 Jun 2027 08:58:52.488            15.180          7590.000
        22   01 Jun 2027 08:59:15.657   01 Jun 2027 08:59:29.768            14.111          7055.500
        23   01 Jun 2027 10:31:20.050   01 Jun 2027 10:32:06.857            46.807         23403.500
        24   01 Jun 2027 10:33:03.450   01 Jun 2027 10:34:23.946            80.496         40248.000
        25   01 Jun 2027 10:34:26.300   01 Jun 2027 10:34:35.291             8.991          4495.500
        26   01 Jun 2027 10:35:28.071   01 Jun 2027 10:36:04.965            36.894         18447.000
        27   02 Jun 2027 04:17:13.873   02 Jun 2027 04:23:43.475           389.602        194801.000
        28   02 Jun 2027 04:24:06.044   02 Jun 2027 04:24:06.044             0.000             0.000
        29   02 Jun 2027 04:24:12.357   02 Jun 2027 04:24:19.275             6.918          3459.000
        30   02 Jun 2027 04:25:26.035   02 Jun 2027 04:25:30.403             4.368          2184.000
        31   02 Jun 2027 05:54:46.186   02 Jun 2027 05:57:02.638           136.452         68226.000
        32   02 Jun 2027 05:58:08.955   02 Jun 2027 05:58:52.566            43.611         21805.500
        33   02 Jun 2027 05:59:45.108   02 Jun 2027 05:59:49.339             4.231          2115.500
        34   02 Jun 2027 06:00:10.502   02 Jun 2027 06:00:16.537             6.035          3017.500
        35   02 Jun 2027 07:31:41.906   02 Jun 2027 07:32:36.471            54.565         27282.500
        36   02 Jun 2027 07:33:01.401   02 Jun 2027 07:35:07.681           126.280         63140.000
        37   02 Jun 2027 07:35:46.378   02 Jun 2027 07:35:46.834             0.456           228.000
        38   02 Jun 2027 07:36:17.595   02 Jun 2027 07:36:51.763            34.168         17084.000
        39   02 Jun 2027 07:37:07.627   02 Jun 2027 07:37:10.277             2.650          1325.000
        40   02 Jun 2027 09:08:32.997   02 Jun 2027 09:11:00.253           147.256         73628.000
        41   02 Jun 2027 09:11:26.813   02 Jun 2027 09:11:44.716            17.903          8951.500
        42   02 Jun 2027 10:46:05.992   02 Jun 2027 10:48:08.182           122.190         61095.000
        43   03 Jun 2027 04:29:53.433   03 Jun 2027 04:36:40.398           406.965        203482.500
        44   03 Jun 2027 04:36:43.068   03 Jun 2027 04:37:28.351            45.283         22641.500
        45   03 Jun 2027 04:37:34.935   03 Jun 2027 04:37:36.997             2.062          1031.000
        46   03 Jun 2027 06:06:51.969   03 Jun 2027 06:09:11.219           139.250         69625.000
        47   03 Jun 2027 06:10:14.305   03 Jun 2027 06:10:24.154             9.849          4924.500
        48   03 Jun 2027 06:11:07.077   03 Jun 2027 06:11:09.280             2.203          1101.500
        49   03 Jun 2027 06:12:48.802   03 Jun 2027 06:13:23.430            34.628         17314.000
        50   03 Jun 2027 07:44:30.027   03 Jun 2027 07:47:37.233           187.206         93603.000
        51   03 Jun 2027 07:47:51.986   03 Jun 2027 07:48:07.180            15.194          7597.000
        52   03 Jun 2027 09:20:36.363   03 Jun 2027 09:23:07.204           150.841         75420.500
        53   03 Jun 2027 09:23:55.406   03 Jun 2027 09:24:12.655            17.249          8624.500
        54   03 Jun 2027 09:25:04.932   03 Jun 2027 09:25:12.608             7.676          3838.000
        55   03 Jun 2027 10:59:19.593   03 Jun 2027 10:59:23.074             3.481          1740.500
        56   04 Jun 2027 03:07:56.024   04 Jun 2027 03:11:31.181           215.157        107578.500
        57   04 Jun 2027 04:43:06.123   04 Jun 2027 04:45:56.622           170.499         85249.500
        58   04 Jun 2027 04:47:42.779   04 Jun 2027 04:48:32.071            49.292         24646.000
        59   04 Jun 2027 04:49:13.586   04 Jun 2027 04:49:29.877            16.291          8145.500
        60   04 Jun 2027 04:49:41.395   04 Jun 2027 04:49:42.897             1.502           751.000
        61   04 Jun 2027 06:19:28.111   04 Jun 2027 06:21:38.602           130.491         65245.500
        62   04 Jun 2027 06:22:15.219   04 Jun 2027 06:22:39.855            24.636         12318.000
        63   04 Jun 2027 06:23:51.370   04 Jun 2027 06:24:15.040            23.670         11835.000
        64   04 Jun 2027 07:56:46.339   04 Jun 2027 07:58:55.185           128.846         64423.000
        65   04 Jun 2027 07:59:55.205   04 Jun 2027 08:00:03.354             8.149          4074.500
        66   04 Jun 2027 08:00:30.927   04 Jun 2027 08:00:35.521             4.594          2297.000
        67   04 Jun 2027 08:01:08.652   04 Jun 2027 08:01:18.586             9.934          4967.000
        68   04 Jun 2027 09:32:58.081   04 Jun 2027 09:33:29.606            31.525         15762.500
        69   04 Jun 2027 09:33:57.070   04 Jun 2027 09:34:22.147            25.077         12538.500
        70   04 Jun 2027 09:35:55.129   04 Jun 2027 09:36:04.255             9.126          4563.000
        71   04 Jun 2027 09:36:58.537   04 Jun 2027 09:37:14.699            16.162          8081.000
        72   05 Jun 2027 03:19:51.118   05 Jun 2027 03:23:09.739           198.621         99310.500
        73   05 Jun 2027 03:23:19.658   05 Jun 2027 03:23:27.701             8.043          4021.500
        74   05 Jun 2027 04:54:48.761   05 Jun 2027 04:57:25.368           156.607         78303.500
        75   05 Jun 2027 04:58:46.862   05 Jun 2027 04:59:01.056            14.194          7097.000
        76   05 Jun 2027 05:00:06.421   05 Jun 2027 05:00:19.624            13.203          6601.500
        77   05 Jun 2027 05:00:59.456   05 Jun 2027 05:01:30.557            31.101         15550.500
        78   05 Jun 2027 05:01:46.980   05 Jun 2027 05:01:48.596             1.616           808.000
        79   05 Jun 2027 06:31:00.991   05 Jun 2027 06:33:24.647           143.656         71828.000
        80   05 Jun 2027 06:34:02.267   05 Jun 2027 06:34:09.228             6.961          3480.500
        81   05 Jun 2027 06:35:05.337   05 Jun 2027 06:35:22.543            17.206          8603.000
        82   05 Jun 2027 06:35:48.442   05 Jun 2027 06:35:58.328             9.886          4943.000
        83   05 Jun 2027 06:36:38.056   05 Jun 2027 06:36:41.590             3.534          1767.000
        84   05 Jun 2027 06:37:06.754   05 Jun 2027 06:37:27.568            20.814         10407.000
        85   05 Jun 2027 08:09:01.590   05 Jun 2027 08:10:18.472            76.882         38441.000
        86   05 Jun 2027 08:10:29.829   05 Jun 2027 08:10:37.391             7.562          3781.000
        87   05 Jun 2027 08:11:22.817   05 Jun 2027 08:11:26.485             3.668          1834.000
        88   05 Jun 2027 08:11:52.610   05 Jun 2027 08:12:06.275            13.665          6832.500
        89   05 Jun 2027 08:12:17.284   05 Jun 2027 08:12:21.574             4.290          2145.000
        90   05 Jun 2027 09:44:42.249   05 Jun 2027 09:45:24.992            42.743         21371.500
        91   05 Jun 2027 09:47:22.661   05 Jun 2027 09:47:40.875            18.214          9107.000
        92   05 Jun 2027 09:49:00.768   05 Jun 2027 09:49:05.739             4.971          2485.500
        93   05 Jun 2027 09:49:19.562   05 Jun 2027 09:49:26.631             7.069          3534.500
        94   05 Jun 2027 09:49:40.450   05 Jun 2027 09:49:45.627             5.177          2588.500
        95   06 Jun 2027 03:30:27.132   06 Jun 2027 03:30:33.213             6.081          3040.500
        96   06 Jun 2027 03:31:36.775   06 Jun 2027 03:34:27.724           170.949         85474.500
        97   06 Jun 2027 03:34:39.589   06 Jun 2027 03:34:49.768            10.179          5089.500
        98   06 Jun 2027 03:34:51.375   06 Jun 2027 03:35:03.461            12.086          6043.000
        99   06 Jun 2027 03:35:10.372   06 Jun 2027 03:35:13.666             3.294          1647.000
       100   06 Jun 2027 03:35:33.993   06 Jun 2027 03:35:47.457            13.464          6732.000
       101   06 Jun 2027 05:06:22.604   06 Jun 2027 05:08:53.279           150.675         75337.500
       102   06 Jun 2027 05:10:21.665   06 Jun 2027 05:10:27.216             5.551          2775.500
       103   06 Jun 2027 05:10:38.406   06 Jun 2027 05:10:46.902             8.496          4248.000
       104   06 Jun 2027 05:11:26.202   06 Jun 2027 05:11:42.409            16.207          8103.500
       105   06 Jun 2027 05:12:17.343   06 Jun 2027 05:12:20.909             3.566          1783.000
       106   06 Jun 2027 05:13:03.407   06 Jun 2027 05:13:30.309            26.902         13451.000
       107   06 Jun 2027 05:13:51.762   06 Jun 2027 05:13:55.620             3.858          1929.000
       108   06 Jun 2027 06:43:22.141   06 Jun 2027 06:45:53.161           151.020         75510.000
       109   06 Jun 2027 06:46:53.290   06 Jun 2027 06:46:59.370             6.080          3040.000
       110   06 Jun 2027 06:47:10.153   06 Jun 2027 06:47:18.636             8.483          4241.500
       111   06 Jun 2027 06:47:42.566   06 Jun 2027 06:47:52.311             9.745          4872.500
       112   06 Jun 2027 06:48:24.014   06 Jun 2027 06:48:24.098             0.084            42.000
       113   06 Jun 2027 08:21:23.185   06 Jun 2027 08:22:18.772            55.587         27793.500
       114   06 Jun 2027 08:23:45.793   06 Jun 2027 08:24:09.566            23.773         11886.500
       115   06 Jun 2027 08:24:40.648   06 Jun 2027 08:24:46.661             6.013          3006.500
       116   06 Jun 2027 08:24:56.933   06 Jun 2027 08:24:58.926             1.993           996.500
       117   06 Jun 2027 08:25:15.045   06 Jun 2027 08:25:19.775             4.730          2365.000
       118   06 Jun 2027 09:54:38.222   06 Jun 2027 09:55:21.099            42.877         21438.500
       119   06 Jun 2027 09:57:13.818   06 Jun 2027 09:57:31.879            18.061          9030.500
       120   06 Jun 2027 09:58:28.687   06 Jun 2027 09:58:30.687             2.000          1000.000
       121   06 Jun 2027 09:59:24.239   06 Jun 2027 09:59:37.565            13.326          6663.000
       122   06 Jun 2027 09:59:48.533   06 Jun 2027 09:59:49.731             1.198           599.000
       123   06 Jun 2027 10:00:06.544   06 Jun 2027 10:00:27.267            20.723         10361.500
       124   06 Jun 2027 10:01:42.605   06 Jun 2027 10:01:44.671             2.066          1033.000
       125   06 Jun 2027 10:02:05.636   06 Jun 2027 10:02:21.408            15.772          7886.000
       126   07 Jun 2027 03:41:19.665   07 Jun 2027 03:42:51.413            91.748         45874.000
       127   07 Jun 2027 03:43:20.195   07 Jun 2027 03:45:47.380           147.185         73592.500
       128   07 Jun 2027 03:47:05.380   07 Jun 2027 03:47:09.638             4.258          2129.000
       129   07 Jun 2027 03:47:27.461   07 Jun 2027 03:47:38.549            11.088          5544.000
       130   07 Jun 2027 03:47:46.458   07 Jun 2027 03:48:16.980            30.522         15261.000
       131   07 Jun 2027 05:18:30.349   07 Jun 2027 05:20:23.484           113.135         56567.500
       132   07 Jun 2027 05:20:53.805   07 Jun 2027 05:20:55.270             1.465           732.500
       133   07 Jun 2027 05:22:57.359   07 Jun 2027 05:24:04.363            67.004         33502.000
       134   07 Jun 2027 05:24:38.444   07 Jun 2027 05:24:43.798             5.354          2677.000
       135   07 Jun 2027 05:25:30.940   07 Jun 2027 05:25:35.008             4.068          2034.000
       136   07 Jun 2027 05:25:55.770   07 Jun 2027 05:25:56.317             0.547           273.500
       137   07 Jun 2027 06:55:27.630   07 Jun 2027 06:57:29.266           121.636         60818.000
       138   07 Jun 2027 06:58:32.421   07 Jun 2027 06:59:15.771            43.350         21675.000
       139   07 Jun 2027 06:59:31.335   07 Jun 2027 06:59:37.410             6.075          3037.500
       140   07 Jun 2027 06:59:48.291   07 Jun 2027 06:59:49.147             0.856           428.000
       141   07 Jun 2027 07:00:28.750   07 Jun 2027 07:00:37.797             9.047          4523.500
       142   07 Jun 2027 08:33:20.654   07 Jun 2027 08:34:06.460            45.806         22903.000
       143   07 Jun 2027 08:35:47.992   07 Jun 2027 08:36:13.794            25.802         12901.000
       144   07 Jun 2027 08:36:33.446   07 Jun 2027 08:36:33.446             0.000             0.000
       145   07 Jun 2027 08:36:53.868   07 Jun 2027 08:36:58.753             4.885          2442.500
       146   07 Jun 2027 08:37:07.173   07 Jun 2027 08:37:08.570             1.397           698.500
       147   07 Jun 2027 10:06:48.155   07 Jun 2027 10:07:13.944            25.789         12894.500
       148   07 Jun 2027 10:07:23.494   07 Jun 2027 10:07:26.148             2.654          1327.000
       149   07 Jun 2027 10:08:41.135   07 Jun 2027 10:08:45.684             4.549          2274.500
       150   07 Jun 2027 10:09:28.570   07 Jun 2027 10:09:40.621            12.051          6025.500
       151   07 Jun 2027 10:10:29.106   07 Jun 2027 10:10:39.322            10.216          5108.000
       152   07 Jun 2027 10:11:18.844   07 Jun 2027 10:11:39.697            20.853         10426.500
       153   07 Jun 2027 10:13:04.452   07 Jun 2027 10:13:17.324            12.872          6436.000
       154   07 Jun 2027 10:13:31.689   07 Jun 2027 10:13:35.364             3.675          1837.500
       155   07 Jun 2027 10:13:56.706   07 Jun 2027 10:14:04.176             7.470          3735.000
       156   08 Jun 2027 03:52:48.768   08 Jun 2027 03:57:33.942           285.174        142587.000
       157   08 Jun 2027 03:57:45.598   08 Jun 2027 03:57:45.598             0.000             0.000
       158   08 Jun 2027 03:59:10.660   08 Jun 2027 03:59:44.363            33.703         16851.500
       159   08 Jun 2027 04:01:22.793   08 Jun 2027 04:01:30.465             7.672          3836.000
       160   08 Jun 2027 04:01:38.072   08 Jun 2027 04:01:41.730             3.658          1829.000
       161   08 Jun 2027 05:30:31.550   08 Jun 2027 05:33:04.909           153.359         76679.500
       162   08 Jun 2027 05:33:19.729   08 Jun 2027 05:33:25.205             5.476          2738.000
       163   08 Jun 2027 05:34:26.538   08 Jun 2027 05:34:36.301             9.763          4881.500
       164   08 Jun 2027 05:36:19.879   08 Jun 2027 05:37:03.079            43.200         21600.000
       165   08 Jun 2027 05:37:44.777   08 Jun 2027 05:37:53.478             8.701          4350.500
       166   08 Jun 2027 07:07:19.739   08 Jun 2027 07:10:11.252           171.513         85756.500
       167   08 Jun 2027 07:10:40.205   08 Jun 2027 07:10:44.469             4.264          2132.000
       168   08 Jun 2027 07:11:07.201   08 Jun 2027 07:11:16.496             9.295          4647.500
       169   08 Jun 2027 07:11:31.555   08 Jun 2027 07:11:32.932             1.377           688.500
       170   08 Jun 2027 07:12:00.183   08 Jun 2027 07:12:05.019             4.836          2418.000
       171   08 Jun 2027 07:13:07.798   08 Jun 2027 07:13:13.763             5.965          2982.500
       172   08 Jun 2027 08:45:21.599   08 Jun 2027 08:45:55.450            33.851         16925.500
       173   08 Jun 2027 08:46:54.301   08 Jun 2027 08:47:09.821            15.520          7760.000
       174   08 Jun 2027 08:48:01.981   08 Jun 2027 08:48:10.814             8.833          4416.500
       175   08 Jun 2027 08:48:16.936   08 Jun 2027 08:48:21.864             4.928          2464.000
       176   08 Jun 2027 08:49:24.715   08 Jun 2027 08:49:31.455             6.740          3370.000
       177   08 Jun 2027 10:19:14.084   08 Jun 2027 10:19:25.358            11.274          5637.000
       178   08 Jun 2027 10:19:55.875   08 Jun 2027 10:20:08.395            12.520          6260.000
       179   08 Jun 2027 10:20:40.294   08 Jun 2027 10:20:49.136             8.842          4421.000
       180   08 Jun 2027 10:21:31.852   08 Jun 2027 10:21:44.237            12.385          6192.500
       181   08 Jun 2027 10:22:54.853   08 Jun 2027 10:23:02.647             7.794          3897.000
       182   08 Jun 2027 10:23:54.196   08 Jun 2027 10:24:20.440            26.244         13122.000
       183   08 Jun 2027 10:25:37.959   08 Jun 2027 10:25:44.640             6.681          3340.500
       184   09 Jun 2027 04:05:32.248   09 Jun 2027 04:10:38.205           305.957        152978.500
       185   09 Jun 2027 04:12:47.209   09 Jun 2027 04:12:51.685             4.476          2238.000
       186   09 Jun 2027 04:13:01.458   09 Jun 2027 04:13:21.247            19.789          9894.500
       187   09 Jun 2027 04:13:47.312   09 Jun 2027 04:14:01.776            14.464          7232.000
       188   09 Jun 2027 05:42:34.841   09 Jun 2027 05:45:30.205           175.364         87682.000
       189   09 Jun 2027 05:46:46.047   09 Jun 2027 05:47:01.783            15.736          7868.000
       190   09 Jun 2027 05:49:22.840   09 Jun 2027 05:49:55.804            32.964         16482.000
       191   09 Jun 2027 07:19:29.613   09 Jun 2027 07:21:59.318           149.705         74852.500
       192   09 Jun 2027 07:22:11.612   09 Jun 2027 07:22:23.102            11.490          5745.000
       193   09 Jun 2027 07:23:28.546   09 Jun 2027 07:23:32.265             3.719          1859.500
       194   09 Jun 2027 07:23:47.005   09 Jun 2027 07:23:47.797             0.792           396.000
       195   09 Jun 2027 07:24:07.113   09 Jun 2027 07:24:32.963            25.850         12925.000
       196   09 Jun 2027 08:56:35.800   09 Jun 2027 08:57:08.890            33.090         16545.000
       197   09 Jun 2027 08:57:40.413   09 Jun 2027 08:57:52.483            12.070          6035.000
       198   09 Jun 2027 08:58:11.211   09 Jun 2027 08:58:13.510             2.299          1149.500
       199   09 Jun 2027 08:58:34.280   09 Jun 2027 08:58:43.002             8.722          4361.000
       200   09 Jun 2027 08:58:56.174   09 Jun 2027 08:59:02.524             6.350          3175.000
       201   09 Jun 2027 09:00:08.399   09 Jun 2027 09:00:20.111            11.712          5856.000
       202   09 Jun 2027 09:01:22.744   09 Jun 2027 09:01:29.495             6.751          3375.500
       203   09 Jun 2027 10:31:35.264   09 Jun 2027 10:32:02.004            26.740         13370.000
       204   09 Jun 2027 10:33:23.672   09 Jun 2027 10:33:25.636             1.964           982.000
       205   09 Jun 2027 10:34:20.417   09 Jun 2027 10:34:34.688            14.271          7135.500
       206   09 Jun 2027 10:34:39.581   09 Jun 2027 10:34:40.328             0.747           373.500
       207   09 Jun 2027 10:34:49.883   09 Jun 2027 10:34:55.846             5.963          2981.500
       208   09 Jun 2027 10:35:33.507   09 Jun 2027 10:35:42.573             9.066          4533.000
       209   09 Jun 2027 10:36:36.650   09 Jun 2027 10:36:37.752             1.102           551.000
       210   10 Jun 2027 04:17:28.723   10 Jun 2027 04:21:51.701           262.978        131489.000
       211   10 Jun 2027 04:22:29.836   10 Jun 2027 04:23:58.308            88.472         44236.000
       212   10 Jun 2027 04:24:09.430   10 Jun 2027 04:24:14.049             4.619          2309.500
       213   10 Jun 2027 04:25:33.090   10 Jun 2027 04:25:51.434            18.344          9172.000
       214   10 Jun 2027 05:55:00.736   10 Jun 2027 05:57:20.569           139.833         69916.500
       215   10 Jun 2027 05:58:24.580   10 Jun 2027 05:58:45.032            20.452         10226.000
       216   10 Jun 2027 06:00:31.010   10 Jun 2027 06:01:17.472            46.462         23231.000
       217   10 Jun 2027 07:31:57.052   10 Jun 2027 07:33:15.976            78.924         39462.000
       218   10 Jun 2027 07:34:07.953   10 Jun 2027 07:35:25.885            77.932         38966.000
       219   10 Jun 2027 07:36:09.094   10 Jun 2027 07:36:23.018            13.924          6962.000
       220   10 Jun 2027 07:36:28.672   10 Jun 2027 07:36:32.619             3.947          1973.500
       221   10 Jun 2027 07:37:22.116   10 Jun 2027 07:37:29.639             7.523          3761.500
       222   10 Jun 2027 09:08:47.682   10 Jun 2027 09:09:42.617            54.935         27467.500
       223   10 Jun 2027 09:10:06.769   10 Jun 2027 09:10:12.519             5.750          2875.000
       224   10 Jun 2027 09:11:30.297   10 Jun 2027 09:12:01.222            30.925         15462.500
       225   10 Jun 2027 10:46:23.857   10 Jun 2027 10:46:32.253             8.396          4198.000
       226   10 Jun 2027 10:47:11.544   10 Jun 2027 10:47:24.994            13.450          6725.000
       227   10 Jun 2027 10:47:50.925   10 Jun 2027 10:48:22.406            31.481         15740.500
       228   11 Jun 2027 04:30:08.266   11 Jun 2027 04:35:22.632           314.366        157183.000
       229   11 Jun 2027 04:35:51.331   11 Jun 2027 04:35:57.984             6.653          3326.500
       230   11 Jun 2027 04:36:51.197   11 Jun 2027 04:36:55.050             3.853          1926.500
       231   11 Jun 2027 04:36:57.727   11 Jun 2027 04:37:07.715             9.988          4994.000
       232   11 Jun 2027 04:37:54.280   11 Jun 2027 04:37:55.902             1.622           811.000
       233   11 Jun 2027 06:07:06.754   11 Jun 2027 06:08:54.390           107.636         53818.000
       234   11 Jun 2027 06:09:02.676   11 Jun 2027 06:09:37.905            35.229         17614.500
       235   11 Jun 2027 06:10:24.417   11 Jun 2027 06:10:53.058            28.641         14320.500
       236   11 Jun 2027 06:13:16.838   11 Jun 2027 06:13:37.575            20.737         10368.500
       237   11 Jun 2027 06:13:46.865   11 Jun 2027 06:13:50.267             3.402          1701.000
       238   11 Jun 2027 07:44:45.980   11 Jun 2027 07:46:43.592           117.612         58806.000
       239   11 Jun 2027 07:46:59.548   11 Jun 2027 07:47:08.373             8.825          4412.500
       240   11 Jun 2027 07:48:05.962   11 Jun 2027 07:48:18.802            12.840          6420.000
       241   11 Jun 2027 07:49:02.985   11 Jun 2027 07:49:12.368             9.383          4691.500
       242   11 Jun 2027 09:20:50.719   11 Jun 2027 09:21:32.377            41.658         20829.000
       243   11 Jun 2027 09:22:37.331   11 Jun 2027 09:22:52.964            15.633          7816.500
       244   11 Jun 2027 09:23:46.289   11 Jun 2027 09:23:59.135            12.846          6423.000
       245   11 Jun 2027 09:24:28.040   11 Jun 2027 09:24:28.249             0.209           104.500
       246   11 Jun 2027 09:24:56.410   11 Jun 2027 09:25:03.658             7.248          3624.000
       247   11 Jun 2027 09:25:27.391   11 Jun 2027 09:25:36.945             9.554          4777.000
       248   11 Jun 2027 10:59:34.456   11 Jun 2027 10:59:37.250             2.794          1397.000
       249   12 Jun 2027 03:08:10.754   12 Jun 2027 03:11:42.684           211.930        105965.000
       250   12 Jun 2027 04:43:20.786   12 Jun 2027 04:45:37.055           136.269         68134.500
       251   12 Jun 2027 04:46:08.445   12 Jun 2027 04:46:11.454             3.009          1504.500
       252   12 Jun 2027 04:47:57.618   12 Jun 2027 04:48:19.552            21.934         10967.000
       253   12 Jun 2027 04:48:32.292   12 Jun 2027 04:48:47.030            14.738          7369.000
       254   12 Jun 2027 04:49:28.624   12 Jun 2027 04:49:40.929            12.305          6152.500
       255   12 Jun 2027 04:49:56.087   12 Jun 2027 04:49:57.597             1.510           755.000
       256   12 Jun 2027 06:19:42.810   12 Jun 2027 06:21:54.595           131.785         65892.500
       257   12 Jun 2027 06:22:31.470   12 Jun 2027 06:22:52.684            21.214         10607.000
       258   12 Jun 2027 06:23:24.698   12 Jun 2027 06:23:34.949            10.251          5125.500
       259   12 Jun 2027 06:23:57.777   12 Jun 2027 06:24:03.866             6.089          3044.500
       260   12 Jun 2027 07:57:00.465   12 Jun 2027 07:58:32.075            91.610         45805.000
       261   12 Jun 2027 07:58:43.934   12 Jun 2027 07:58:48.275             4.341          2170.500
       262   12 Jun 2027 07:59:22.822   12 Jun 2027 07:59:36.190            13.368          6684.000
       263   12 Jun 2027 07:59:44.616   12 Jun 2027 07:59:57.207            12.591          6295.500
       264   12 Jun 2027 08:01:33.672   12 Jun 2027 08:01:36.331             2.659          1329.500
       265   12 Jun 2027 09:33:12.832   12 Jun 2027 09:33:32.419            19.587          9793.500
       266   12 Jun 2027 09:34:12.034   12 Jun 2027 09:34:31.269            19.235          9617.500
       267   12 Jun 2027 09:35:29.739   12 Jun 2027 09:35:34.058             4.319          2159.500
       268   12 Jun 2027 09:35:59.211   12 Jun 2027 09:36:04.079             4.868          2434.000
       269   12 Jun 2027 09:36:19.669   12 Jun 2027 09:36:23.916             4.247          2123.500
       270   12 Jun 2027 09:37:02.615   12 Jun 2027 09:37:12.795            10.180          5090.000
       271   12 Jun 2027 09:37:43.644   12 Jun 2027 09:37:53.004             9.360          4680.000
       272   13 Jun 2027 03:20:05.600   13 Jun 2027 03:23:34.964           209.364        104682.000
       273   13 Jun 2027 03:23:44.702   13 Jun 2027 03:23:45.246             0.544           272.000
       274   13 Jun 2027 04:55:03.039   13 Jun 2027 04:57:07.229           124.190         62095.000
       275   13 Jun 2027 04:57:25.031   13 Jun 2027 04:57:38.111            13.080          6540.000
       276   13 Jun 2027 04:58:06.268   13 Jun 2027 04:58:26.985            20.717         10358.500
       277   13 Jun 2027 05:00:04.015   13 Jun 2027 05:00:21.478            17.463          8731.500
       278   13 Jun 2027 05:00:46.890   13 Jun 2027 05:00:56.376             9.486          4743.000
       279   13 Jun 2027 05:01:24.439   13 Jun 2027 05:01:45.270            20.831         10415.500
       280   13 Jun 2027 05:02:01.661   13 Jun 2027 05:02:05.049             3.388          1694.000
       281   13 Jun 2027 06:31:15.505   13 Jun 2027 06:33:41.500           145.995         72997.500
       282   13 Jun 2027 06:34:37.586   13 Jun 2027 06:34:41.526             3.940          1970.000
       283   13 Jun 2027 06:34:50.732   13 Jun 2027 06:35:03.658            12.926          6463.000
       284   13 Jun 2027 06:35:21.524   13 Jun 2027 06:35:37.238            15.714          7857.000
       285   13 Jun 2027 06:36:10.292   13 Jun 2027 06:36:16.456             6.164          3082.000
       286   13 Jun 2027 06:36:25.098   13 Jun 2027 06:36:25.098             0.000             0.000
       287   13 Jun 2027 06:37:34.473   13 Jun 2027 06:37:42.423             7.950          3975.000
       288   13 Jun 2027 08:09:16.664   13 Jun 2027 08:10:33.391            76.727         38363.500
       289   13 Jun 2027 08:10:59.854   13 Jun 2027 08:11:02.903             3.049          1524.500
       290   13 Jun 2027 08:11:19.505   13 Jun 2027 08:11:37.841            18.336          9168.000
       291   13 Jun 2027 08:12:21.157   13 Jun 2027 08:12:24.254             3.097          1548.500
       292   13 Jun 2027 08:12:32.090   13 Jun 2027 08:12:36.236             4.146          2073.000
       293   13 Jun 2027 08:12:47.406   13 Jun 2027 08:12:47.406             0.000             0.000
       294   13 Jun 2027 08:13:07.801   13 Jun 2027 08:13:12.653             4.852          2426.000
       295   13 Jun 2027 09:44:56.549   13 Jun 2027 09:45:40.201            43.652         21826.000
       296   13 Jun 2027 09:47:39.661   13 Jun 2027 09:47:57.059            17.398          8699.000
       297   13 Jun 2027 09:48:03.486   13 Jun 2027 09:48:07.766             4.280          2140.000
       298   13 Jun 2027 09:48:37.889   13 Jun 2027 09:48:56.414            18.525          9262.500
       299   13 Jun 2027 09:49:51.037   13 Jun 2027 09:49:55.441             4.404          2202.000
