uniorb/output/strategy_1/Camera/Camera_KinoSat_111804.txt

KinoSat_111804
-------------------------
    Access    *     Start Time (UTCG)     *     Stop Time (UTCG)  *   Duration (s) *   Data (Mbytes)
         1   01 Jun 2027 03:14:15.176   01 Jun 2027 03:15:56.264           101.088         50544.000
         2   01 Jun 2027 03:16:09.046   01 Jun 2027 03:16:13.615             4.569          2284.500
         3   01 Jun 2027 03:18:52.429   01 Jun 2027 03:19:01.956             9.527          4763.500
         4   01 Jun 2027 03:20:04.850   01 Jun 2027 03:20:17.610            12.760          6380.000
         5   01 Jun 2027 03:20:25.642   01 Jun 2027 03:20:38.112            12.470          6235.000
         6   01 Jun 2027 03:20:50.389   01 Jun 2027 03:20:51.323             0.934           467.000
         7   01 Jun 2027 04:53:30.992   01 Jun 2027 04:54:53.477            82.485         41242.500
         8   01 Jun 2027 04:55:55.325   01 Jun 2027 04:56:03.629             8.304          4152.000
         9   01 Jun 2027 04:57:20.278   01 Jun 2027 04:57:20.278             0.000             0.000
        10   01 Jun 2027 04:57:28.891   01 Jun 2027 04:57:32.891             4.000          2000.000
        11   01 Jun 2027 04:57:48.523   01 Jun 2027 04:57:54.390             5.867          2933.500
        12   01 Jun 2027 04:57:58.093   01 Jun 2027 04:58:03.210             5.117          2558.500
        13   01 Jun 2027 05:00:28.213   01 Jun 2027 05:01:05.518            37.305         18652.500
        14   01 Jun 2027 06:19:37.034   01 Jun 2027 06:20:06.522            29.488         14744.000
        15   01 Jun 2027 06:30:33.404   01 Jun 2027 06:31:34.789            61.385         30692.500
        16   01 Jun 2027 07:53:52.908   01 Jun 2027 07:55:21.117            88.209         44104.500
        17   01 Jun 2027 09:30:15.598   01 Jun 2027 09:30:35.692            20.094         10047.000
        18   01 Jun 2027 09:32:27.452   01 Jun 2027 09:33:03.087            35.635         17817.500
        19   01 Jun 2027 09:33:33.180   01 Jun 2027 09:34:35.581            62.401         31200.500
        20   01 Jun 2027 11:05:00.768   01 Jun 2027 11:05:38.326            37.558         18779.000
        21   01 Jun 2027 11:08:25.188   01 Jun 2027 11:08:29.033             3.845          1922.500
        22   01 Jun 2027 11:11:54.896   01 Jun 2027 11:12:33.227            38.331         19165.500
        23   02 Jun 2027 03:26:53.436   02 Jun 2027 03:28:34.490           101.054         50527.000
        24   02 Jun 2027 03:28:40.644   02 Jun 2027 03:28:44.796             4.152          2076.000
        25   02 Jun 2027 03:28:55.372   02 Jun 2027 03:29:03.902             8.530          4265.000
        26   02 Jun 2027 03:29:17.382   02 Jun 2027 03:29:22.178             4.796          2398.000
        27   02 Jun 2027 03:32:51.507   02 Jun 2027 03:33:05.578            14.071          7035.500
        28   02 Jun 2027 05:05:54.917   02 Jun 2027 05:07:14.671            79.754         39877.000
        29   02 Jun 2027 05:07:22.446   02 Jun 2027 05:07:24.545             2.099          1049.500
        30   02 Jun 2027 05:08:30.818   02 Jun 2027 05:08:44.261            13.443          6721.500
        31   02 Jun 2027 05:10:17.740   02 Jun 2027 05:10:30.707            12.967          6483.500
        32   02 Jun 2027 06:30:55.264   02 Jun 2027 06:32:04.974            69.710         34855.000
        33   02 Jun 2027 06:42:35.297   02 Jun 2027 06:43:09.762            34.465         17232.500
        34   02 Jun 2027 08:04:51.203   02 Jun 2027 08:06:07.074            75.871         37935.500
        35   02 Jun 2027 08:06:48.229   02 Jun 2027 08:07:07.253            19.024          9512.000
        36   02 Jun 2027 08:08:42.233   02 Jun 2027 08:08:59.421            17.188          8594.000
        37   02 Jun 2027 09:40:03.321   02 Jun 2027 09:40:18.459            15.138          7569.000
        38   02 Jun 2027 09:44:42.641   02 Jun 2027 09:44:42.641             0.000             0.000
        39   02 Jun 2027 09:46:29.567   02 Jun 2027 09:46:54.175            24.608         12304.000
        40   02 Jun 2027 11:17:08.025   02 Jun 2027 11:18:21.756            73.731         36865.500
        41   02 Jun 2027 11:20:19.420   02 Jun 2027 11:20:22.375             2.955          1477.500
        42   02 Jun 2027 11:22:08.247   02 Jun 2027 11:24:33.547           145.300         72650.000
        43   03 Jun 2027 03:39:11.375   03 Jun 2027 03:40:49.661            98.286         49143.000
        44   03 Jun 2027 03:41:32.334   03 Jun 2027 03:41:32.736             0.402           201.000
        45   03 Jun 2027 03:42:03.846   03 Jun 2027 03:42:10.084             6.238          3119.000
        46   03 Jun 2027 03:43:07.751   03 Jun 2027 03:43:26.460            18.709          9354.500
        47   03 Jun 2027 03:43:29.495   03 Jun 2027 03:43:33.428             3.933          1966.500
        48   03 Jun 2027 03:43:59.157   03 Jun 2027 03:44:09.250            10.093          5046.500
        49   03 Jun 2027 03:44:51.938   03 Jun 2027 03:44:51.938             0.000             0.000
        50   03 Jun 2027 05:18:13.693   03 Jun 2027 05:19:25.272            71.579         35789.500
        51   03 Jun 2027 05:19:58.280   03 Jun 2027 05:20:07.742             9.462          4731.000
        52   03 Jun 2027 05:21:03.761   03 Jun 2027 05:21:22.362            18.601          9300.500
        53   03 Jun 2027 05:22:31.287   03 Jun 2027 05:22:46.329            15.042          7521.000
        54   03 Jun 2027 05:24:57.529   03 Jun 2027 05:25:11.711            14.182          7091.000
        55   03 Jun 2027 06:42:17.155   03 Jun 2027 06:42:56.484            39.329         19664.500
        56   03 Jun 2027 06:43:31.895   03 Jun 2027 06:44:14.103            42.208         21104.000
        57   03 Jun 2027 06:54:32.345   03 Jun 2027 06:55:11.220            38.875         19437.500
        58   03 Jun 2027 08:16:32.957   03 Jun 2027 08:17:54.294            81.337         40668.500
        59   03 Jun 2027 08:18:38.740   03 Jun 2027 08:19:09.226            30.486         15243.000
        60   03 Jun 2027 08:21:02.376   03 Jun 2027 08:21:18.829            16.453          8226.500
        61   03 Jun 2027 09:51:30.879   03 Jun 2027 09:52:14.796            43.917         21958.500
        62   03 Jun 2027 09:53:04.938   03 Jun 2027 09:53:04.938             0.000             0.000
        63   03 Jun 2027 09:56:59.217   03 Jun 2027 09:57:37.529            38.312         19156.000
        64   03 Jun 2027 11:33:00.253   03 Jun 2027 11:33:56.439            56.186         26982.438
        65   03 Jun 2027 11:34:19.653   03 Jun 2027 11:34:22.590             2.937           725.438
        66   03 Jun 2027 11:34:27.424   03 Jun 2027 11:34:27.424             0.000             0.000
        67   03 Jun 2027 11:34:39.661   03 Jun 2027 11:34:41.070             1.409           525.344
        68   03 Jun 2027 11:36:00.680   03 Jun 2027 11:36:05.101             4.421          2022.844
        69   04 Jun 2027 03:51:57.389   04 Jun 2027 03:52:22.608            25.219         12609.500
        70   04 Jun 2027 03:52:24.955   04 Jun 2027 03:53:29.060            64.105         32052.500
        71   04 Jun 2027 03:56:04.245   04 Jun 2027 03:56:25.069            20.824         10412.000
        72   04 Jun 2027 05:30:19.564   04 Jun 2027 05:31:53.809            94.245         47122.500
        73   04 Jun 2027 05:32:28.554   04 Jun 2027 05:32:36.209             7.655          3827.500
        74   04 Jun 2027 05:34:24.028   04 Jun 2027 05:34:44.821            20.793         10396.500
        75   04 Jun 2027 06:54:24.672   04 Jun 2027 06:56:01.275            96.603         48301.500
        76   04 Jun 2027 08:28:12.655   04 Jun 2027 08:28:50.380            37.725         18862.500
        77   04 Jun 2027 08:30:17.219   04 Jun 2027 08:30:25.587             8.368          3669.687
        78   04 Jun 2027 08:31:10.882   04 Jun 2027 08:31:17.783             6.901          1411.625
        79   04 Jun 2027 10:03:04.779   04 Jun 2027 10:03:16.958            12.179          5816.125
        80   04 Jun 2027 10:05:07.158   04 Jun 2027 10:05:12.359             5.201          2035.875
        81   04 Jun 2027 10:06:30.681   04 Jun 2027 10:06:41.267            10.586          2157.781
        82   04 Jun 2027 10:10:13.761   04 Jun 2027 10:10:29.735            15.974          6486.719
        83   04 Jun 2027 10:11:09.822   04 Jun 2027 10:11:17.942             8.120          1252.719
        84   04 Jun 2027 10:11:40.643   04 Jun 2027 10:11:43.623             2.980           666.750
        85   04 Jun 2027 10:12:05.910   04 Jun 2027 10:12:08.065             2.155           689.031
        86   04 Jun 2027 11:41:12.964   04 Jun 2027 11:41:32.575            19.611          6630.656
        87   04 Jun 2027 11:42:19.631   04 Jun 2027 11:42:22.090             2.459          1211.719
        88   04 Jun 2027 11:43:42.676   04 Jun 2027 11:43:47.667             4.991          2285.312
        89   04 Jun 2027 11:46:47.256   04 Jun 2027 11:47:00.530            13.274          5577.562
        90   04 Jun 2027 11:47:55.345   04 Jun 2027 11:47:58.546             3.201          1391.281
        91   05 Jun 2027 04:04:30.131   05 Jun 2027 04:05:02.316            32.185         16092.500
        92   05 Jun 2027 04:05:32.108   05 Jun 2027 04:06:14.047            41.939         20969.500
        93   05 Jun 2027 04:06:14.597   05 Jun 2027 04:06:43.507            28.910         14455.000
        94   05 Jun 2027 04:08:25.439   05 Jun 2027 04:08:39.095            13.656          6828.000
        95   05 Jun 2027 04:09:19.859   05 Jun 2027 04:09:29.660             9.801          4900.500
        96   05 Jun 2027 05:42:54.294   05 Jun 2027 05:43:34.162            39.868         19934.000
        97   05 Jun 2027 05:44:37.787   05 Jun 2027 05:46:11.678            93.891         46945.500
        98   05 Jun 2027 07:06:20.197   05 Jun 2027 07:07:53.317            93.120         46560.000
        99   05 Jun 2027 07:08:22.886   05 Jun 2027 07:08:35.412            12.526          6001.312
       100   05 Jun 2027 08:42:35.051   05 Jun 2027 08:42:54.008            18.957          7826.344
       101   05 Jun 2027 08:43:08.686   05 Jun 2027 08:43:11.166             2.480           281.625
       102   05 Jun 2027 08:44:57.031   05 Jun 2027 08:45:05.284             8.253          3276.875
       103   05 Jun 2027 08:45:40.241   05 Jun 2027 08:45:43.907             3.666          1015.219
       104   05 Jun 2027 10:16:07.597   05 Jun 2027 10:16:16.890             9.293          4582.875
       105   05 Jun 2027 10:18:04.074   05 Jun 2027 10:18:08.763             4.689          1750.906
       106   05 Jun 2027 10:18:29.460   05 Jun 2027 10:18:34.948             5.488           622.094
       107   05 Jun 2027 10:18:52.049   05 Jun 2027 10:18:54.619             2.570           380.969
       108   05 Jun 2027 10:19:22.915   05 Jun 2027 10:19:26.726             3.811           820.937
       109   05 Jun 2027 10:19:56.885   05 Jun 2027 10:19:58.124             1.239           392.656
       110   05 Jun 2027 10:20:06.161   05 Jun 2027 10:20:08.395             2.234           251.156
       111   05 Jun 2027 10:20:31.262   05 Jun 2027 10:20:36.514             5.252           573.875
       112   05 Jun 2027 10:23:41.178   05 Jun 2027 10:23:53.414            12.236          5655.125
       113   05 Jun 2027 10:24:17.719   05 Jun 2027 10:24:18.889             1.170           495.281
       114   05 Jun 2027 11:53:40.173   05 Jun 2027 11:53:56.914            16.741          7587.375
       115   05 Jun 2027 11:57:35.582   05 Jun 2027 11:57:45.849            10.267          3607.687
       116   05 Jun 2027 11:57:56.250   05 Jun 2027 11:57:59.485             3.235           250.062
       117   05 Jun 2027 11:58:50.689   05 Jun 2027 11:58:51.752             1.063           531.500
       118   05 Jun 2027 11:59:29.432   05 Jun 2027 11:59:31.997             2.565          1282.500
       119   05 Jun 2027 11:59:59.004   05 Jun 2027 12:00:00.000             0.996           498.000
       120   06 Jun 2027 04:16:29.966   06 Jun 2027 04:16:31.899             1.933           966.500
       121   06 Jun 2027 04:17:27.532   06 Jun 2027 04:18:26.094            58.562         29281.000
       122   06 Jun 2027 04:19:50.484   06 Jun 2027 04:20:22.254            31.770         15885.000
       123   06 Jun 2027 04:20:45.111   06 Jun 2027 04:20:57.225            12.114          6057.000
       124   06 Jun 2027 04:21:34.164   06 Jun 2027 04:21:40.003             5.839          2919.500
       125   06 Jun 2027 05:54:33.192   06 Jun 2027 05:55:28.759            55.567         27783.500
       126   06 Jun 2027 05:56:09.691   06 Jun 2027 05:57:35.868            86.177         43088.500
       127   06 Jun 2027 05:58:48.554   06 Jun 2027 05:58:51.536             2.982          1491.000
       128   06 Jun 2027 05:59:11.482   06 Jun 2027 05:59:19.776             8.294          4147.000
       129   06 Jun 2027 07:18:12.212   06 Jun 2027 07:19:54.107           101.895         48151.030
       130   06 Jun 2027 08:54:39.411   06 Jun 2027 08:54:50.845            11.434          5717.000
       131   06 Jun 2027 08:56:09.103   06 Jun 2027 08:56:19.015             9.912          4758.250
       132   06 Jun 2027 08:57:44.624   06 Jun 2027 08:57:47.346             2.722          1361.000
       133   06 Jun 2027 08:57:50.075   06 Jun 2027 08:57:56.166             6.091          1033.344
       134   06 Jun 2027 10:26:54.510   06 Jun 2027 10:26:56.701             2.191          1095.500
       135   06 Jun 2027 10:29:08.422   06 Jun 2027 10:29:28.503            20.081          7760.188
       136   06 Jun 2027 10:33:48.190   06 Jun 2027 10:34:02.250            14.060          6035.813
       137   06 Jun 2027 10:34:49.299   06 Jun 2027 10:34:53.555             4.256          1470.281
       138   06 Jun 2027 10:35:57.279   06 Jun 2027 10:36:01.661             4.382          1361.125
       139   06 Jun 2027 10:36:15.326   06 Jun 2027 10:36:18.174             2.848           424.687
       140   06 Jun 2027 10:36:35.890   06 Jun 2027 10:36:36.050             0.160            80.000
       141   07 Jun 2027 04:28:38.364   07 Jun 2027 04:29:38.480            60.116         30058.000
       142   07 Jun 2027 04:29:47.443   07 Jun 2027 04:29:49.560             2.117          1058.500
       143   07 Jun 2027 04:30:15.371   07 Jun 2027 04:31:06.240            50.869         25434.500
       144   07 Jun 2027 04:32:36.566   07 Jun 2027 04:32:52.197            15.631          7815.500
       145   07 Jun 2027 04:33:55.129   07 Jun 2027 04:33:57.000             1.871           935.500
       146   07 Jun 2027 06:06:58.292   07 Jun 2027 06:07:25.216            26.924         13462.000
       147   07 Jun 2027 06:07:46.522   07 Jun 2027 06:08:50.776            64.254         32127.000
       148   07 Jun 2027 06:08:54.817   07 Jun 2027 06:08:59.241             4.424          2212.000
       149   07 Jun 2027 06:09:18.535   07 Jun 2027 06:09:27.796             9.261          4630.500
       150   07 Jun 2027 06:10:15.996   07 Jun 2027 06:10:15.996             0.000             0.000
       151   07 Jun 2027 06:10:33.518   07 Jun 2027 06:10:41.589             8.071          4035.500
       152   07 Jun 2027 07:30:20.534   07 Jun 2027 07:31:50.054            89.520         44760.000
       153   07 Jun 2027 07:31:57.753   07 Jun 2027 07:32:08.479            10.726          5299.751
       154   07 Jun 2027 09:06:49.946   07 Jun 2027 09:07:03.569            13.623          5832.750
       155   07 Jun 2027 09:09:23.836   07 Jun 2027 09:09:34.041            10.205          4231.938
       156   07 Jun 2027 10:42:00.961   07 Jun 2027 10:42:10.591             9.630          4815.000
       157   07 Jun 2027 10:42:35.015   07 Jun 2027 10:42:41.694             6.679          1015.125
       158   07 Jun 2027 10:43:21.666   07 Jun 2027 10:43:21.666             0.000             0.000
       159   07 Jun 2027 10:44:54.731   07 Jun 2027 10:45:03.444             8.713          3337.187
       160   07 Jun 2027 10:45:35.356   07 Jun 2027 10:45:38.023             2.667           700.250
       161   07 Jun 2027 10:46:31.914   07 Jun 2027 10:46:35.695             3.781          1359.281
       162   07 Jun 2027 10:46:49.248   07 Jun 2027 10:46:50.903             1.655           101.469
       163   07 Jun 2027 10:47:33.927   07 Jun 2027 10:47:36.448             2.521           884.688
       164   07 Jun 2027 10:48:01.962   07 Jun 2027 10:48:07.852             5.890           783.250
       165   07 Jun 2027 10:48:30.042   07 Jun 2027 10:48:31.768             1.726           693.437
       166   07 Jun 2027 10:48:38.429   07 Jun 2027 10:48:39.224             0.795           208.156
       167   08 Jun 2027 03:02:26.703   08 Jun 2027 03:02:42.265            15.562          7781.000
       168   08 Jun 2027 03:03:08.075   08 Jun 2027 03:03:42.515            34.440         17220.000
       169   08 Jun 2027 03:06:59.497   08 Jun 2027 03:07:04.924             5.427          2713.500
       170   08 Jun 2027 03:08:41.568   08 Jun 2027 03:09:04.477            22.909         11454.500
       171   08 Jun 2027 04:40:43.226   08 Jun 2027 04:40:56.793            13.567          6783.500
       172   08 Jun 2027 04:41:45.568   08 Jun 2027 04:42:48.078            62.510         31255.000
       173   08 Jun 2027 04:42:50.124   08 Jun 2027 04:42:56.420             6.296          3148.000
       174   08 Jun 2027 04:43:06.095   08 Jun 2027 04:43:16.599            10.504          5252.000
       175   08 Jun 2027 04:44:01.420   08 Jun 2027 04:44:18.580            17.160          8580.000
       176   08 Jun 2027 04:44:45.201   08 Jun 2027 04:44:45.201             0.000             0.000
       177   08 Jun 2027 04:48:56.847   08 Jun 2027 04:49:17.345            20.498         10249.000
       178   08 Jun 2027 06:18:54.312   08 Jun 2027 06:19:32.266            37.954         18977.000
       179   08 Jun 2027 06:20:01.850   08 Jun 2027 06:20:35.155            33.305         16652.500
       180   08 Jun 2027 06:22:01.448   08 Jun 2027 06:22:18.069            16.621          8310.500
       181   08 Jun 2027 07:43:03.454   08 Jun 2027 07:44:20.309            76.855         36277.000
       182   08 Jun 2027 09:18:46.866   08 Jun 2027 09:19:01.573            14.707          7272.719
       183   08 Jun 2027 09:20:41.001   08 Jun 2027 09:20:47.738             6.737          3107.125
       184   08 Jun 2027 09:21:43.673   08 Jun 2027 09:21:47.965             4.292          1675.219
       185   08 Jun 2027 09:22:08.045   08 Jun 2027 09:22:11.272             3.227           557.656
       186   08 Jun 2027 10:53:44.759   08 Jun 2027 10:53:58.475            13.716          5277.562
       187   08 Jun 2027 10:55:34.299   08 Jun 2027 10:55:39.983             5.684          2563.219
       188   08 Jun 2027 11:00:22.085   08 Jun 2027 11:00:41.109            19.024          7845.000
       189   09 Jun 2027 03:15:02.033   09 Jun 2027 03:16:59.996           117.963         58981.500
       190   09 Jun 2027 03:17:46.835   09 Jun 2027 03:17:59.094            12.259          6129.500
       191   09 Jun 2027 04:53:48.698   09 Jun 2027 04:54:36.364            47.666         23833.000
       192   09 Jun 2027 04:55:10.753   09 Jun 2027 04:55:46.762            36.009         18004.500
       193   09 Jun 2027 04:58:20.833   09 Jun 2027 04:58:28.507             7.674          3837.000
       194   09 Jun 2027 04:58:38.917   09 Jun 2027 04:58:58.408            19.491          9745.500
       195   09 Jun 2027 06:19:51.032   09 Jun 2027 06:20:24.848            33.816         16908.000
       196   09 Jun 2027 06:30:50.606   09 Jun 2027 06:31:35.977            45.371         22685.500
       197   09 Jun 2027 06:32:48.285   09 Jun 2027 06:32:56.413             8.128          4064.000
       198   09 Jun 2027 06:33:43.987   09 Jun 2027 06:33:43.987             0.000             0.000
       199   09 Jun 2027 07:53:51.554   09 Jun 2027 07:54:42.023            50.469         22919.094
       200   09 Jun 2027 07:54:46.229   09 Jun 2027 07:54:46.919             0.690           108.125
       201   09 Jun 2027 07:56:58.983   09 Jun 2027 07:57:06.786             7.803          3521.313
       202   09 Jun 2027 09:29:23.006   09 Jun 2027 09:29:28.386             5.380          2690.000
       203   09 Jun 2027 09:32:47.907   09 Jun 2027 09:33:15.400            27.493          9365.594
       204   09 Jun 2027 09:33:16.256   09 Jun 2027 09:33:16.256             0.000             0.000
       205   09 Jun 2027 09:33:19.614   09 Jun 2027 09:33:20.525             0.911           131.687
       206   09 Jun 2027 11:05:18.298   09 Jun 2027 11:05:34.754            16.456          6751.625
       207   09 Jun 2027 11:09:11.453   09 Jun 2027 11:09:35.485            24.032          6576.813
       208   09 Jun 2027 11:09:52.630   09 Jun 2027 11:09:53.663             1.033           200.531
       209   09 Jun 2027 11:10:16.112   09 Jun 2027 11:10:18.505             2.393           595.531
       210   09 Jun 2027 11:10:29.964   09 Jun 2027 11:10:31.336             1.372           204.531
       211   09 Jun 2027 11:10:51.358   09 Jun 2027 11:10:59.735             8.377           301.656
       212   09 Jun 2027 11:11:25.513   09 Jun 2027 11:11:28.517             3.004           805.563
       213   09 Jun 2027 11:12:10.044   09 Jun 2027 11:12:12.250             2.206          1072.187
       214   10 Jun 2027 03:27:12.187   10 Jun 2027 03:29:14.672           122.485         61242.500
       215   10 Jun 2027 03:30:47.993   10 Jun 2027 03:30:55.953             7.960          3980.000
       216   10 Jun 2027 03:31:46.067   10 Jun 2027 03:31:55.066             8.999          4499.500
       217   10 Jun 2027 03:32:30.337   10 Jun 2027 03:32:45.265            14.928          7464.000
       218   10 Jun 2027 05:06:14.988   10 Jun 2027 05:07:22.125            67.137         33568.500
       219   10 Jun 2027 05:08:22.722   10 Jun 2027 05:08:31.317             8.595          4297.500
       220   10 Jun 2027 05:10:18.352   10 Jun 2027 05:10:32.897            14.545          7272.500
       221   10 Jun 2027 06:31:11.556   10 Jun 2027 06:32:22.403            70.847         35423.500
       222   10 Jun 2027 06:42:53.282   10 Jun 2027 06:43:06.594            13.312          6656.000
       223   10 Jun 2027 06:43:24.017   10 Jun 2027 06:43:51.559            27.542         13771.000
       224   10 Jun 2027 08:05:07.334   10 Jun 2027 08:05:34.174            26.840         13420.000
       225   10 Jun 2027 08:07:24.580   10 Jun 2027 08:07:33.498             8.918          3690.000
       226   10 Jun 2027 08:09:39.602   10 Jun 2027 08:09:48.450             8.848          3796.187
       227   10 Jun 2027 09:40:15.631   10 Jun 2027 09:40:25.753            10.122          4226.563
       228   10 Jun 2027 09:44:01.244   10 Jun 2027 09:44:14.197            12.953          6306.063
       229   10 Jun 2027 09:44:46.014   10 Jun 2027 09:44:49.709             3.695           798.406
       230   10 Jun 2027 11:17:26.015   10 Jun 2027 11:17:46.265            20.250          9130.125
       231   10 Jun 2027 11:18:04.695   10 Jun 2027 11:18:06.261             1.566           288.844
       232   10 Jun 2027 11:18:29.873   10 Jun 2027 11:18:34.635             4.762           694.812
       233   10 Jun 2027 11:23:56.368   10 Jun 2027 11:24:17.058            20.690          9953.969
       234   11 Jun 2027 03:39:29.572   11 Jun 2027 03:40:02.315            32.743         16371.500
       235   11 Jun 2027 03:40:02.746   11 Jun 2027 03:41:19.278            76.532         38266.000
       236   11 Jun 2027 03:43:22.262   11 Jun 2027 03:43:28.707             6.445          3222.500
       237   11 Jun 2027 03:44:16.690   11 Jun 2027 03:44:37.818            21.128         10564.000
       238   11 Jun 2027 03:45:17.373   11 Jun 2027 03:45:26.697             9.324          4662.000
       239   11 Jun 2027 05:18:28.767   11 Jun 2027 05:19:43.150            74.383         37191.500
       240   11 Jun 2027 05:20:13.042   11 Jun 2027 05:20:24.704            11.662          5831.000
       241   11 Jun 2027 05:23:20.231   11 Jun 2027 05:23:35.081            14.850          7425.000
       242   11 Jun 2027 05:25:15.273   11 Jun 2027 05:25:29.502            14.229          7114.500
       243   11 Jun 2027 06:42:37.038   11 Jun 2027 06:43:49.181            72.143         36071.500
       244   11 Jun 2027 06:44:31.687   11 Jun 2027 06:44:51.742            20.055         10027.500
       245   11 Jun 2027 06:54:50.724   11 Jun 2027 06:55:26.219            35.495         17747.500
       246   11 Jun 2027 08:16:52.514   11 Jun 2027 08:17:13.284            20.770         10385.000
       247   11 Jun 2027 08:17:46.606   11 Jun 2027 08:17:53.240             6.634          3241.812
       248   11 Jun 2027 08:18:55.757   11 Jun 2027 08:19:01.655             5.898          1669.625
       249   11 Jun 2027 08:19:43.166   11 Jun 2027 08:19:48.084             4.918           519.938
       250   11 Jun 2027 08:21:20.326   11 Jun 2027 08:21:28.833             8.507          2569.187
       251   11 Jun 2027 09:52:30.669   11 Jun 2027 09:52:45.193            14.524          6485.750
       252   11 Jun 2027 09:54:16.643   11 Jun 2027 09:54:16.876             0.233           116.500
       253   11 Jun 2027 09:56:50.189   11 Jun 2027 09:56:50.189             0.000             0.000
       254   11 Jun 2027 09:58:33.851   11 Jun 2027 09:58:44.808            10.957          5478.500
       255   11 Jun 2027 11:29:27.744   11 Jun 2027 11:29:46.873            19.129          7616.156
       256   11 Jun 2027 11:30:24.459   11 Jun 2027 11:30:25.152             0.693           346.500
       257   11 Jun 2027 11:30:30.595   11 Jun 2027 11:30:33.375             2.780           934.250
       258   11 Jun 2027 11:31:02.295   11 Jun 2027 11:31:08.896             6.601           903.750
       259   11 Jun 2027 11:31:41.496   11 Jun 2027 11:31:43.854             2.358          1018.750
       260   11 Jun 2027 11:35:34.955   11 Jun 2027 11:35:49.400            14.445          6417.000
       261   11 Jun 2027 11:35:53.557   11 Jun 2027 11:35:54.740             1.183           129.906
       262   11 Jun 2027 11:36:21.373   11 Jun 2027 11:36:23.633             2.260           832.281
       263   12 Jun 2027 03:52:15.457   12 Jun 2027 03:53:39.730            84.273         42136.500
       264   12 Jun 2027 03:56:18.905   12 Jun 2027 03:56:47.032            28.127         14063.500
       265   12 Jun 2027 03:56:56.164   12 Jun 2027 03:57:08.487            12.323          6161.500
       266   12 Jun 2027 05:30:38.448   12 Jun 2027 05:32:21.009           102.561         51280.500
       267   12 Jun 2027 05:34:24.847   12 Jun 2027 05:34:39.461            14.614          7307.000
       268   12 Jun 2027 05:34:43.473   12 Jun 2027 05:34:59.769            16.296          8148.000
       269   12 Jun 2027 06:54:41.918   12 Jun 2027 06:55:50.773            68.855         34427.500
       270   12 Jun 2027 08:28:27.975   12 Jun 2027 08:28:58.348            30.373         14201.532
       271   12 Jun 2027 08:30:36.512   12 Jun 2027 08:30:42.964             6.452          2815.219
       272   12 Jun 2027 08:31:28.154   12 Jun 2027 08:31:34.664             6.510          1412.188
       273   12 Jun 2027 08:33:41.563   12 Jun 2027 08:33:50.188             8.625          3925.531
       274   12 Jun 2027 10:04:28.682   12 Jun 2027 10:04:46.025            17.343          5576.406
       275   12 Jun 2027 10:05:37.758   12 Jun 2027 10:05:38.751             0.993           396.375
       276   12 Jun 2027 10:06:12.985   12 Jun 2027 10:06:14.592             1.607           638.750
       277   12 Jun 2027 10:06:25.081   12 Jun 2027 10:06:25.946             0.865           285.531
       278   12 Jun 2027 10:06:56.735   12 Jun 2027 10:07:00.220             3.485           947.625
       279   12 Jun 2027 10:09:16.867   12 Jun 2027 10:09:27.576            10.709          4270.219
       280   12 Jun 2027 10:11:59.497   12 Jun 2027 10:11:59.497             0.000             0.000
       281   12 Jun 2027 10:12:21.681   12 Jun 2027 10:12:34.773            13.092          5280.500
       282   12 Jun 2027 11:41:31.511   12 Jun 2027 11:41:47.958            16.447          7153.781
       283   12 Jun 2027 11:42:02.294   12 Jun 2027 11:42:06.245             3.951           235.875
       284   12 Jun 2027 11:42:50.320   12 Jun 2027 11:42:54.793             4.473          1254.812
       285   12 Jun 2027 11:43:52.710   12 Jun 2027 11:43:55.922             3.212          1556.969
       286   12 Jun 2027 11:44:46.338   12 Jun 2027 11:44:50.232             3.894          1487.406
       287   12 Jun 2027 11:45:28.145   12 Jun 2027 11:45:33.681             5.536           867.437
       288   12 Jun 2027 11:46:52.456   12 Jun 2027 11:46:54.972             2.516          1258.000
       289   12 Jun 2027 11:47:33.947   12 Jun 2027 11:47:37.854             3.907          1953.500
       290   12 Jun 2027 11:48:10.026   12 Jun 2027 11:48:15.395             5.369          1201.750
       291   13 Jun 2027 04:04:49.948   13 Jun 2027 04:05:38.722            48.774         24387.000
       292   13 Jun 2027 04:06:57.909   13 Jun 2027 04:08:12.310            74.401         37200.500
       293   13 Jun 2027 04:09:24.798   13 Jun 2027 04:09:30.570             5.772          2886.000
       294   13 Jun 2027 05:43:12.387   13 Jun 2027 05:44:56.298           103.911         51955.500
       295   13 Jun 2027 05:46:03.010   13 Jun 2027 05:46:28.073            25.063         12531.500
       296   13 Jun 2027 07:06:36.902   13 Jun 2027 07:08:09.174            92.272         46136.000
       297   13 Jun 2027 07:08:35.403   13 Jun 2027 07:08:54.554            19.151          9575.500
       298   13 Jun 2027 08:42:56.153   13 Jun 2027 08:43:06.562            10.409          5204.500
       299   13 Jun 2027 08:43:27.836   13 Jun 2027 08:43:40.399            12.563          5881.844
       300   13 Jun 2027 10:16:26.491   13 Jun 2027 10:16:41.599            15.108          7043.656
       301   13 Jun 2027 10:21:16.147   13 Jun 2027 10:21:33.056            16.909          7192.000
       302   13 Jun 2027 10:23:55.791   13 Jun 2027 10:23:56.604             0.813           406.500
       303   13 Jun 2027 10:23:56.777   13 Jun 2027 10:24:02.655             5.878          2894.031
       304   13 Jun 2027 10:24:57.245   13 Jun 2027 10:24:58.421             1.176           588.000
       305   13 Jun 2027 11:54:01.952   13 Jun 2027 11:54:18.141            16.189          7702.281
       306   13 Jun 2027 11:54:44.784   13 Jun 2027 11:54:52.479             7.695           789.156
       307   13 Jun 2027 11:55:20.856   13 Jun 2027 11:55:21.544             0.688           297.437
       308   13 Jun 2027 11:56:14.727   13 Jun 2027 11:56:15.667             0.940           433.281
       309   13 Jun 2027 11:57:38.283   13 Jun 2027 11:57:41.887             3.604          1802.000
       310   13 Jun 2027 11:58:50.711   13 Jun 2027 11:58:58.858             8.147          2930.500
       311   13 Jun 2027 11:59:38.457   13 Jun 2027 11:59:41.435             2.978          1029.531
       312   13 Jun 2027 11:59:56.763   13 Jun 2027 12:00:00.000             3.237           379.187
