uniorb/output/strategy_1/Camera/Camera_KinoSat_111102.txt

KinoSat_111102
-------------------------
    Access    *     Start Time (UTCG)     *     Stop Time (UTCG)  *   Duration (s) *   Data (Mbytes)
         1   01 Jun 2027 03:52:07.671   01 Jun 2027 03:54:12.440           124.769         62384.500
         2   01 Jun 2027 04:04:20.320   01 Jun 2027 04:04:51.998            31.678         15839.000
         3   01 Jun 2027 05:26:14.612   01 Jun 2027 05:27:28.185            73.573         36786.500
         4   01 Jun 2027 05:28:54.730   01 Jun 2027 05:28:58.808             4.078          2039.000
         5   01 Jun 2027 05:29:26.431   01 Jun 2027 05:29:34.787             8.356          4178.000
         6   01 Jun 2027 05:29:53.416   01 Jun 2027 05:30:23.870            30.454         15227.000
         7   01 Jun 2027 07:01:03.107   01 Jun 2027 07:02:57.300           114.193         57096.500
         8   01 Jun 2027 07:07:45.395   01 Jun 2027 07:07:52.272             6.877          3438.500
         9   01 Jun 2027 07:08:11.282   01 Jun 2027 07:08:30.301            19.019          9509.500
        10   01 Jun 2027 07:09:56.324   01 Jun 2027 07:10:06.720            10.396          5198.000
        11   01 Jun 2027 08:38:53.545   01 Jun 2027 08:40:34.416           100.871         50435.500
        12   01 Jun 2027 08:40:41.885   01 Jun 2027 08:40:51.699             9.814          4907.000
        13   01 Jun 2027 08:44:06.887   01 Jun 2027 08:44:22.662            15.775          7887.500
        14   01 Jun 2027 08:45:22.554   01 Jun 2027 08:45:31.711             9.157          4578.500
        15   01 Jun 2027 10:15:38.265   01 Jun 2027 10:16:08.878            30.613         15306.500
        16   01 Jun 2027 10:16:09.511   01 Jun 2027 10:17:12.184            62.673         31336.500
        17   01 Jun 2027 10:18:20.949   01 Jun 2027 10:18:44.290            23.341         11670.500
        18   01 Jun 2027 10:20:06.376   01 Jun 2027 10:20:07.577             1.201           600.500
        19   01 Jun 2027 10:21:05.045   01 Jun 2027 10:21:11.830             6.785          3392.500
        20   01 Jun 2027 10:21:57.866   01 Jun 2027 10:22:02.958             5.092          2546.000
        21   01 Jun 2027 11:53:46.844   01 Jun 2027 11:55:28.969           102.125         51062.500
        22   01 Jun 2027 11:57:29.808   01 Jun 2027 11:57:43.359            13.551          6775.500
        23   02 Jun 2027 04:04:05.414   02 Jun 2027 04:04:54.014            48.600         24300.000
        24   02 Jun 2027 04:05:21.155   02 Jun 2027 04:05:21.155             0.000             0.000
        25   02 Jun 2027 04:05:50.035   02 Jun 2027 04:05:59.441             9.406          4703.000
        26   02 Jun 2027 05:40:02.682   02 Jun 2027 05:42:11.919           129.237         64618.500
        27   02 Jun 2027 05:42:49.529   02 Jun 2027 05:42:54.456             4.927          2463.500
        28   02 Jun 2027 07:13:51.293   02 Jun 2027 07:16:02.217           130.924         65462.000
        29   02 Jun 2027 07:17:17.961   02 Jun 2027 07:17:28.255            10.294          5147.000
        30   02 Jun 2027 07:20:02.190   02 Jun 2027 07:20:13.346            11.156          5578.000
        31   02 Jun 2027 07:21:02.065   02 Jun 2027 07:21:10.627             8.562          4281.000
        32   02 Jun 2027 08:51:00.749   02 Jun 2027 08:52:50.834           110.085         55042.500
        33   02 Jun 2027 08:53:03.545   02 Jun 2027 08:53:19.168            15.623          7811.500
        34   02 Jun 2027 08:53:43.208   02 Jun 2027 08:53:44.162             0.954           477.000
        35   02 Jun 2027 08:55:18.243   02 Jun 2027 08:55:18.243             0.000             0.000
        36   02 Jun 2027 08:55:50.865   02 Jun 2027 08:56:05.296            14.431          7215.500
        37   02 Jun 2027 08:56:08.953   02 Jun 2027 08:56:10.871             1.918           959.000
        38   02 Jun 2027 10:28:03.632   02 Jun 2027 10:28:46.059            42.427         21213.500
        39   02 Jun 2027 10:29:14.014   02 Jun 2027 10:29:37.337            23.323         11661.500
        40   02 Jun 2027 10:30:18.198   02 Jun 2027 10:30:43.076            24.878         12439.000
        41   02 Jun 2027 10:31:36.704   02 Jun 2027 10:32:11.872            35.168         17584.000
        42   02 Jun 2027 10:33:38.800   02 Jun 2027 10:33:44.428             5.628          2814.000
        43   02 Jun 2027 10:34:07.217   02 Jun 2027 10:34:09.432             2.215          1107.500
        44   03 Jun 2027 04:15:58.073   03 Jun 2027 04:16:49.751            51.678         25839.000
        45   03 Jun 2027 05:52:20.455   03 Jun 2027 05:54:31.637           131.182         65591.000
        46   03 Jun 2027 05:55:13.656   03 Jun 2027 05:55:21.999             8.343          4171.500
        47   03 Jun 2027 07:26:12.211   03 Jun 2027 07:28:25.725           133.514         66757.000
        48   03 Jun 2027 07:29:06.243   03 Jun 2027 07:29:06.243             0.000             0.000
        49   03 Jun 2027 07:31:41.715   03 Jun 2027 07:31:50.450             8.735          4367.500
        50   03 Jun 2027 07:32:50.171   03 Jun 2027 07:32:53.125             2.954          1477.000
        51   03 Jun 2027 07:33:05.668   03 Jun 2027 07:33:20.343            14.675          7337.500
        52   03 Jun 2027 07:33:21.410   03 Jun 2027 07:33:28.377             6.967          3483.500
        53   03 Jun 2027 07:34:20.158   03 Jun 2027 07:34:22.317             2.159          1079.500
        54   03 Jun 2027 09:03:27.359   03 Jun 2027 09:05:43.732           136.373         68186.500
        55   03 Jun 2027 09:06:20.448   03 Jun 2027 09:06:22.384             1.936           968.000
        56   03 Jun 2027 10:40:28.379   03 Jun 2027 10:41:36.080            67.701         33141.874
        57   03 Jun 2027 10:41:51.450   03 Jun 2027 10:41:52.971             1.521           301.031
        58   03 Jun 2027 10:42:45.430   03 Jun 2027 10:42:46.497             1.067           533.500
        59   03 Jun 2027 10:43:46.162   03 Jun 2027 10:43:50.896             4.734          2367.000
        60   03 Jun 2027 10:43:53.528   03 Jun 2027 10:43:56.172             2.644           560.469
        61   03 Jun 2027 10:44:03.125   03 Jun 2027 10:44:03.569             0.444           217.281
        62   03 Jun 2027 10:44:23.106   03 Jun 2027 10:44:31.963             8.857           548.562
        63   03 Jun 2027 10:45:04.643   03 Jun 2027 10:45:08.160             3.517          1021.250
        64   03 Jun 2027 10:45:19.697   03 Jun 2027 10:45:21.145             1.448           267.750
        65   04 Jun 2027 03:04:16.636   04 Jun 2027 03:05:29.961            73.325         36662.500
        66   04 Jun 2027 03:08:34.056   04 Jun 2027 03:08:51.666            17.610          8805.000
        67   04 Jun 2027 04:27:46.799   04 Jun 2027 04:28:32.713            45.914         22957.000
        68   04 Jun 2027 06:04:23.925   04 Jun 2027 06:05:51.117            87.192         43596.000
        69   04 Jun 2027 06:06:10.248   04 Jun 2027 06:06:28.978            18.730          9365.000
        70   04 Jun 2027 07:39:29.844   04 Jun 2027 07:41:43.074           133.230         66489.500
        71   04 Jun 2027 07:43:39.932   04 Jun 2027 07:43:39.932             0.000             0.000
        72   04 Jun 2027 07:45:02.124   04 Jun 2027 07:45:10.054             7.930          3965.000
        73   04 Jun 2027 07:45:24.884   04 Jun 2027 07:45:27.112             2.228          1114.000
        74   04 Jun 2027 07:45:55.412   04 Jun 2027 07:46:01.513             6.101          2467.563
        75   04 Jun 2027 09:15:50.629   04 Jun 2027 09:16:11.034            20.405          9619.156
        76   04 Jun 2027 09:17:14.986   04 Jun 2027 09:17:18.502             3.516          1055.937
        77   04 Jun 2027 09:17:29.118   04 Jun 2027 09:17:30.008             0.890           331.750
        78   04 Jun 2027 09:17:56.272   04 Jun 2027 09:17:58.036             1.764           820.750
        79   04 Jun 2027 09:18:05.658   04 Jun 2027 09:18:07.206             1.548           174.312
        80   04 Jun 2027 09:18:35.520   04 Jun 2027 09:18:38.855             3.335           479.812
        81   04 Jun 2027 09:19:19.024   04 Jun 2027 09:19:25.117             6.093           318.125
        82   04 Jun 2027 09:19:58.844   04 Jun 2027 09:19:58.844             0.000             0.000
        83   04 Jun 2027 09:20:21.743   04 Jun 2027 09:20:26.561             4.818          1769.562
        84   04 Jun 2027 09:20:28.037   04 Jun 2027 09:20:29.040             1.003             6.469
        85   04 Jun 2027 09:21:31.294   04 Jun 2027 09:21:35.242             3.948          1738.531
        86   04 Jun 2027 09:21:42.578   04 Jun 2027 09:21:46.650             4.072           229.250
        87   04 Jun 2027 09:22:06.433   04 Jun 2027 09:22:07.090             0.657           208.062
        88   04 Jun 2027 10:53:20.322   04 Jun 2027 10:53:35.528            15.206          7343.281
        89   04 Jun 2027 10:54:03.061   04 Jun 2027 10:54:04.291             1.230           505.469
        90   04 Jun 2027 10:54:12.953   04 Jun 2027 10:54:13.628             0.675           193.344
        91   04 Jun 2027 10:55:14.149   04 Jun 2027 10:55:19.674             5.525          1362.750
        92   04 Jun 2027 10:55:28.811   04 Jun 2027 10:55:30.605             1.794           285.531
        93   04 Jun 2027 10:55:43.814   04 Jun 2027 10:55:43.814             0.000             0.000
        94   04 Jun 2027 10:55:53.450   04 Jun 2027 10:55:54.881             1.431           647.906
        95   04 Jun 2027 10:56:04.741   04 Jun 2027 10:56:07.170             2.429           112.969
        96   04 Jun 2027 10:56:42.589   04 Jun 2027 10:56:44.724             2.135          1067.500
        97   04 Jun 2027 10:56:54.285   04 Jun 2027 10:56:55.191             0.906           338.125
        98   05 Jun 2027 03:17:45.575   05 Jun 2027 03:19:12.772            87.197         43598.500
        99   05 Jun 2027 04:40:00.629   05 Jun 2027 04:40:48.069            47.440         23720.000
       100   05 Jun 2027 04:42:52.301   05 Jun 2027 04:42:58.960             6.659          3329.500
       101   05 Jun 2027 06:16:33.859   05 Jun 2027 06:18:26.489           112.630         56315.000
       102   05 Jun 2027 07:51:44.107   05 Jun 2027 07:53:05.882            81.775         40727.594
       103   05 Jun 2027 07:53:54.459   05 Jun 2027 07:53:55.500             1.041           520.500
       104   05 Jun 2027 07:55:06.124   05 Jun 2027 07:55:11.179             5.055          2527.500
       105   05 Jun 2027 07:56:07.185   05 Jun 2027 07:56:16.291             9.106          2427.218
       106   05 Jun 2027 07:56:47.729   05 Jun 2027 07:56:50.855             3.126           982.438
       107   05 Jun 2027 07:57:05.318   05 Jun 2027 07:57:05.318             0.000             0.000
       108   05 Jun 2027 07:58:00.042   05 Jun 2027 07:58:04.649             4.607          2162.094
       109   05 Jun 2027 09:28:05.622   05 Jun 2027 09:28:21.516            15.894          7033.281
       110   05 Jun 2027 09:29:31.106   05 Jun 2027 09:29:35.187             4.081          1626.313
       111   05 Jun 2027 09:30:17.899   05 Jun 2027 09:30:20.248             2.349          1148.344
       112   05 Jun 2027 09:30:39.368   05 Jun 2027 09:30:39.545             0.177            55.937
       113   05 Jun 2027 09:30:50.312   05 Jun 2027 09:30:55.091             4.779           179.594
       114   05 Jun 2027 09:31:06.754   05 Jun 2027 09:31:08.019             1.265           215.844
       115   05 Jun 2027 09:32:14.764   05 Jun 2027 09:32:19.976             5.212          2017.938
       116   05 Jun 2027 09:32:33.297   05 Jun 2027 09:32:37.674             4.377           367.156
       117   05 Jun 2027 09:33:08.718   05 Jun 2027 09:33:10.220             1.502           617.156
       118   05 Jun 2027 09:33:13.965   05 Jun 2027 09:33:14.423             0.458            43.813
       119   05 Jun 2027 11:05:23.993   05 Jun 2027 11:05:36.624            12.631          6315.500
       120   05 Jun 2027 11:05:42.301   05 Jun 2027 11:05:45.240             2.939           770.719
       121   05 Jun 2027 11:06:24.901   05 Jun 2027 11:06:28.063             3.162          1059.687
       122   05 Jun 2027 11:07:22.547   05 Jun 2027 11:07:25.535             2.988          1300.688
       123   05 Jun 2027 11:08:28.030   05 Jun 2027 11:08:32.443             4.413          1764.250
       124   05 Jun 2027 11:09:25.233   05 Jun 2027 11:09:36.874            11.641          1336.125
       125   06 Jun 2027 03:28:36.038   06 Jun 2027 03:29:14.897            38.859         19429.500
       126   06 Jun 2027 03:29:37.053   06 Jun 2027 03:30:39.264            62.211         31105.500
       127   06 Jun 2027 04:52:30.265   06 Jun 2027 04:53:07.118            36.853         18426.500
       128   06 Jun 2027 04:53:24.844   06 Jun 2027 04:53:37.226            12.382          6191.000
       129   06 Jun 2027 06:28:25.036   06 Jun 2027 06:30:09.762           104.726         52363.000
       130   06 Jun 2027 06:30:51.938   06 Jun 2027 06:30:56.448             4.510          2255.000
       131   06 Jun 2027 08:03:18.803   06 Jun 2027 08:04:12.046            53.243         26361.969
       132   06 Jun 2027 08:04:31.468   06 Jun 2027 08:04:34.339             2.871           570.562
       133   06 Jun 2027 08:05:22.632   06 Jun 2027 08:05:25.750             3.118          1053.312
       134   06 Jun 2027 08:05:57.437   06 Jun 2027 08:05:57.437             0.000             0.000
       135   06 Jun 2027 08:06:08.083   06 Jun 2027 08:06:11.815             3.732          1322.906
       136   06 Jun 2027 08:06:46.588   06 Jun 2027 08:06:52.380             5.792           749.187
       137   06 Jun 2027 08:07:20.738   06 Jun 2027 08:07:23.360             2.622           886.188
       138   06 Jun 2027 08:08:06.057   06 Jun 2027 08:08:11.047             4.990          1334.281
       139   06 Jun 2027 08:09:03.749   06 Jun 2027 08:09:08.406             4.657          1646.937
       140   06 Jun 2027 08:09:53.774   06 Jun 2027 08:09:58.623             4.849          1417.750
       141   06 Jun 2027 08:10:12.593   06 Jun 2027 08:10:14.276             1.683           226.125
       142   06 Jun 2027 08:10:24.828   06 Jun 2027 08:10:28.796             3.968           147.844
       143   06 Jun 2027 09:39:41.659   06 Jun 2027 09:40:02.150            20.491          9568.938
       144   06 Jun 2027 09:40:45.763   06 Jun 2027 09:40:51.111             5.348          1209.812
       145   06 Jun 2027 09:42:08.415   06 Jun 2027 09:42:13.937             5.522           840.969
       146   06 Jun 2027 09:42:19.057   06 Jun 2027 09:42:19.965             0.908           104.344
       147   06 Jun 2027 09:43:02.879   06 Jun 2027 09:43:11.283             8.404           619.094
       148   06 Jun 2027 09:44:03.066   06 Jun 2027 09:44:12.111             9.045          1603.406
       149   06 Jun 2027 09:44:17.216   06 Jun 2027 09:44:17.656             0.440            83.562
       150   06 Jun 2027 09:44:53.283   06 Jun 2027 09:44:59.362             6.079           965.125
       151   06 Jun 2027 09:45:07.964   06 Jun 2027 09:45:08.672             0.708           268.813
       152   06 Jun 2027 09:45:49.792   06 Jun 2027 09:45:52.611             2.819          1259.375
       153   06 Jun 2027 11:17:58.379   06 Jun 2027 11:18:15.878            17.499          6423.750
       154   06 Jun 2027 11:19:40.641   06 Jun 2027 11:19:46.448             5.807          2523.781
       155   06 Jun 2027 11:19:52.390   06 Jun 2027 11:19:54.885             2.495           128.469
       156   06 Jun 2027 11:20:14.143   06 Jun 2027 11:20:14.934             0.791           252.750
       157   06 Jun 2027 11:20:37.278   06 Jun 2027 11:20:39.702             2.424           590.437
       158   06 Jun 2027 11:20:50.201   06 Jun 2027 11:20:55.360             5.159           328.094
       159   07 Jun 2027 03:29:15.339   07 Jun 2027 03:30:00.242            44.903         22451.500
       160   07 Jun 2027 03:40:31.898   07 Jun 2027 03:41:40.328            68.430         34215.000
       161   07 Jun 2027 03:42:12.042   07 Jun 2027 03:42:12.606             0.564           282.000
       162   07 Jun 2027 03:43:10.168   07 Jun 2027 03:43:26.343            16.175          8087.500
       163   07 Jun 2027 05:03:07.751   07 Jun 2027 05:03:48.923            41.172         20586.000
       164   07 Jun 2027 05:04:21.357   07 Jun 2027 05:04:24.168             2.811          1405.500
       165   07 Jun 2027 05:04:47.631   07 Jun 2027 05:04:57.403             9.772          4886.000
       166   07 Jun 2027 05:07:44.297   07 Jun 2027 05:07:44.297             0.000             0.000
       167   07 Jun 2027 06:38:42.428   07 Jun 2027 06:39:26.577            44.149         22074.500
       168   07 Jun 2027 06:40:08.864   07 Jun 2027 06:41:17.579            68.715         34357.500
       169   07 Jun 2027 06:41:55.777   07 Jun 2027 06:42:02.714             6.937          3468.500
       170   07 Jun 2027 06:43:38.682   07 Jun 2027 06:43:40.539             1.857           928.500
       171   07 Jun 2027 06:44:22.894   07 Jun 2027 06:44:36.639            13.745          6872.500
       172   07 Jun 2027 08:14:55.152   07 Jun 2027 08:15:26.128            30.976         15488.000
       173   07 Jun 2027 08:16:14.270   07 Jun 2027 08:16:22.783             8.513          2121.718
       174   07 Jun 2027 08:16:28.606   07 Jun 2027 08:16:29.149             0.543           181.969
       175   07 Jun 2027 08:16:52.243   07 Jun 2027 08:16:57.523             5.280           707.750
       176   07 Jun 2027 08:17:08.670   07 Jun 2027 08:17:10.141             1.471           348.344
       177   07 Jun 2027 08:17:57.475   07 Jun 2027 08:18:01.296             3.821          1479.188
       178   07 Jun 2027 08:19:16.155   07 Jun 2027 08:19:17.878             1.723           861.500
       179   07 Jun 2027 08:19:34.486   07 Jun 2027 08:19:40.541             6.055          1996.844
       180   07 Jun 2027 08:21:11.351   07 Jun 2027 08:21:16.759             5.408          2559.969
       181   07 Jun 2027 08:21:23.499   07 Jun 2027 08:21:25.483             1.984           210.625
       182   07 Jun 2027 08:21:38.826   07 Jun 2027 08:21:44.781             5.955            61.031
       183   07 Jun 2027 09:52:01.529   07 Jun 2027 09:52:22.735            21.206         10387.594
       184   07 Jun 2027 09:54:15.543   07 Jun 2027 09:54:17.844             2.301           488.031
       185   07 Jun 2027 09:55:03.300   07 Jun 2027 09:55:07.919             4.619          1281.937
       186   07 Jun 2027 09:55:26.502   07 Jun 2027 09:55:28.787             2.285           580.719
       187   07 Jun 2027 09:56:07.217   07 Jun 2027 09:56:13.636             6.419          1200.937
       188   07 Jun 2027 09:56:16.876   07 Jun 2027 09:56:19.061             2.185           101.250
       189   07 Jun 2027 09:56:31.917   07 Jun 2027 09:56:32.353             0.436           218.000
       190   07 Jun 2027 09:56:41.467   07 Jun 2027 09:56:43.516             2.049           468.562
       191   07 Jun 2027 09:56:52.709   07 Jun 2027 09:56:53.791             1.082           268.000
       192   07 Jun 2027 09:57:54.812   07 Jun 2027 09:57:58.945             4.133          1906.906
       193   07 Jun 2027 09:58:08.436   07 Jun 2027 09:58:13.278             4.842           190.250
       194   07 Jun 2027 11:29:59.479   07 Jun 2027 11:30:13.224            13.745          6872.500
       195   07 Jun 2027 11:31:00.235   07 Jun 2027 11:31:08.859             8.624          1943.156
       196   07 Jun 2027 11:31:28.929   07 Jun 2027 11:31:32.805             3.876           317.219
       197   07 Jun 2027 11:32:30.272   07 Jun 2027 11:32:34.143             3.871          1700.594
       198   07 Jun 2027 11:32:48.289   07 Jun 2027 11:32:49.504             1.215            12.781
       199   07 Jun 2027 11:33:49.817   07 Jun 2027 11:33:55.500             5.683          1884.781
       200   08 Jun 2027 03:40:50.863   08 Jun 2027 03:41:35.169            44.306         22153.000
       201   08 Jun 2027 03:42:20.935   08 Jun 2027 03:42:20.935             0.000             0.000
       202   08 Jun 2027 03:52:34.412   08 Jun 2027 03:53:40.948            66.536         33268.000
       203   08 Jun 2027 05:14:49.895   08 Jun 2027 05:15:34.692            44.797         22398.500
       204   08 Jun 2027 05:15:43.990   08 Jun 2027 05:15:56.363            12.373          6186.500
       205   08 Jun 2027 05:17:09.935   08 Jun 2027 05:17:40.560            30.625         15312.500
       206   08 Jun 2027 05:19:21.020   08 Jun 2027 05:19:21.020             0.000             0.000
       207   08 Jun 2027 05:19:45.724   08 Jun 2027 05:20:00.909            15.185          7592.500
       208   08 Jun 2027 06:49:49.160   08 Jun 2027 06:51:20.804            91.644         45822.000
       209   08 Jun 2027 06:51:52.708   08 Jun 2027 06:52:12.956            20.248         10124.000
       210   08 Jun 2027 06:56:34.363   08 Jun 2027 06:56:56.154            21.791         10895.500
       211   08 Jun 2027 08:27:15.113   08 Jun 2027 08:27:31.042            15.929          7964.500
       212   08 Jun 2027 08:28:00.416   08 Jun 2027 08:28:00.416             0.000             0.000
       213   08 Jun 2027 08:29:09.891   08 Jun 2027 08:29:15.738             5.847          2923.500
       214   08 Jun 2027 08:30:09.413   08 Jun 2027 08:30:15.498             6.085          2822.499
       215   08 Jun 2027 08:30:44.851   08 Jun 2027 08:30:44.851             0.000             0.000
       216   08 Jun 2027 08:31:19.520   08 Jun 2027 08:31:26.267             6.747          1962.375
       217   08 Jun 2027 08:32:14.461   08 Jun 2027 08:32:18.856             4.395          1346.750
       218   08 Jun 2027 08:32:49.529   08 Jun 2027 08:32:52.913             3.384           896.344
       219   08 Jun 2027 08:33:29.864   08 Jun 2027 08:33:32.698             2.834          1154.719
       220   08 Jun 2027 08:34:11.803   08 Jun 2027 08:34:11.803             0.000             0.000
       221   08 Jun 2027 10:04:01.992   08 Jun 2027 10:04:23.343            21.351          8096.438
       222   08 Jun 2027 10:04:48.787   08 Jun 2027 10:04:55.565             6.778           565.406
       223   08 Jun 2027 10:05:08.566   08 Jun 2027 10:05:16.163             7.597           406.281
       224   08 Jun 2027 10:05:29.695   08 Jun 2027 10:05:31.565             1.870           386.531
       225   08 Jun 2027 10:06:17.974   08 Jun 2027 10:06:18.885             0.911            14.875
       226   08 Jun 2027 10:06:55.364   08 Jun 2027 10:06:58.222             2.858           667.563
       227   08 Jun 2027 10:07:24.648   08 Jun 2027 10:07:31.182             6.534           237.937
       228   08 Jun 2027 10:07:42.175   08 Jun 2027 10:07:44.842             2.667           323.594
       229   08 Jun 2027 10:07:58.720   08 Jun 2027 10:08:01.818             3.098           372.656
       230   08 Jun 2027 10:08:16.124   08 Jun 2027 10:08:18.235             2.111           447.063
       231   08 Jun 2027 10:08:20.812   08 Jun 2027 10:08:22.584             1.772            80.531
       232   08 Jun 2027 10:08:33.454   08 Jun 2027 10:08:33.783             0.329           164.500
       233   08 Jun 2027 10:08:44.396   08 Jun 2027 10:08:48.792             4.396           493.594
       234   08 Jun 2027 10:09:50.065   08 Jun 2027 10:09:54.607             4.542          1877.812
       235   08 Jun 2027 10:10:25.007   08 Jun 2027 10:10:30.340             5.333           801.188
       236   08 Jun 2027 11:42:00.060   08 Jun 2027 11:42:17.375            17.315          8499.813
       237   08 Jun 2027 11:42:51.452   08 Jun 2027 11:42:54.698             3.246           762.625
       238   08 Jun 2027 11:42:59.735   08 Jun 2027 11:43:01.937             2.202           157.406
       239   08 Jun 2027 11:43:01.972   08 Jun 2027 11:43:05.863             3.891             1.094
       240   08 Jun 2027 11:43:39.242   08 Jun 2027 11:43:39.242             0.000             0.000
       241   08 Jun 2027 11:43:48.055   08 Jun 2027 11:43:48.253             0.198            99.000
       242   08 Jun 2027 11:45:03.557   08 Jun 2027 11:45:17.428            13.871          3572.750
       243   09 Jun 2027 03:52:23.246   09 Jun 2027 03:53:27.414            64.168         32084.000
       244   09 Jun 2027 04:04:35.866   09 Jun 2027 04:05:07.455            31.589         15794.500
       245   09 Jun 2027 05:26:29.731   09 Jun 2027 05:27:42.848            73.117         36558.500
       246   09 Jun 2027 05:28:32.556   09 Jun 2027 05:29:12.635            40.079         20039.500
       247   09 Jun 2027 05:31:37.000   09 Jun 2027 05:31:37.000             0.000             0.000
       248   09 Jun 2027 07:01:17.670   09 Jun 2027 07:03:13.322           115.652         57826.000
       249   09 Jun 2027 07:04:50.162   09 Jun 2027 07:04:52.132             1.970           985.000
       250   09 Jun 2027 07:05:18.942   09 Jun 2027 07:05:18.942             0.000             0.000
       251   09 Jun 2027 07:05:44.250   09 Jun 2027 07:05:44.433             0.183            91.500
       252   09 Jun 2027 07:06:19.406   09 Jun 2027 07:06:27.210             7.804          3902.000
       253   09 Jun 2027 07:06:32.038   09 Jun 2027 07:06:42.131            10.093          3315.688
       254   09 Jun 2027 07:06:52.776   09 Jun 2027 07:06:53.969             1.193           332.656
       255   09 Jun 2027 07:09:10.146   09 Jun 2027 07:09:13.779             3.633          1816.500
       256   09 Jun 2027 07:10:11.216   09 Jun 2027 07:10:21.711            10.495          4113.594
       257   09 Jun 2027 08:39:09.252   09 Jun 2027 08:39:33.163            23.911         10340.375
       258   09 Jun 2027 08:40:05.269   09 Jun 2027 08:40:08.305             3.036          1003.312
       259   09 Jun 2027 08:40:53.015   09 Jun 2027 08:40:55.796             2.781          1336.875
       260   09 Jun 2027 08:41:11.823   09 Jun 2027 08:41:13.359             1.536           478.750
       261   09 Jun 2027 08:41:46.629   09 Jun 2027 08:41:48.833             2.204          1039.687
       262   09 Jun 2027 08:43:08.492   09 Jun 2027 08:43:14.463             5.971          2003.250
       263   09 Jun 2027 08:44:09.058   09 Jun 2027 08:44:15.156             6.098          1612.719
       264   09 Jun 2027 08:44:38.981   09 Jun 2027 08:44:41.781             2.800           725.438
       265   09 Jun 2027 08:45:13.768   09 Jun 2027 08:45:16.345             2.577           946.125
       266   09 Jun 2027 08:46:11.501   09 Jun 2027 08:46:15.769             4.268          1723.625
       267   09 Jun 2027 08:46:27.502   09 Jun 2027 08:46:28.128             0.626            88.813
       268   09 Jun 2027 10:15:53.699   09 Jun 2027 10:16:14.492            20.793          8890.250
       269   09 Jun 2027 10:16:25.685   09 Jun 2027 10:16:31.314             5.629            85.813
       270   09 Jun 2027 10:17:56.329   09 Jun 2027 10:18:04.942             8.613          2199.250
       271   09 Jun 2027 10:18:24.342   09 Jun 2027 10:18:27.017             2.675           345.437
       272   09 Jun 2027 10:18:50.919   09 Jun 2027 10:18:56.863             5.944           442.563
       273   09 Jun 2027 10:19:53.015   09 Jun 2027 10:19:59.862             6.847          1662.750
       274   09 Jun 2027 10:20:15.708   09 Jun 2027 10:20:16.534             0.826           396.781
       275   09 Jun 2027 10:20:55.503   09 Jun 2027 10:20:59.643             4.140          1206.844
       276   09 Jun 2027 10:21:12.468   09 Jun 2027 10:21:14.232             1.764           234.906
       277   09 Jun 2027 10:22:07.282   09 Jun 2027 10:22:10.977             3.695          1657.812
       278   09 Jun 2027 11:54:02.888   09 Jun 2027 11:54:17.264            14.376          6114.594
       279   09 Jun 2027 11:54:29.159   09 Jun 2027 11:54:30.506             1.347           371.719
       280   09 Jun 2027 11:54:58.144   09 Jun 2027 11:55:02.748             4.604           863.688
       281   09 Jun 2027 11:55:39.102   09 Jun 2027 11:55:39.102             0.000             0.000
       282   09 Jun 2027 11:55:43.933   09 Jun 2027 11:55:45.722             1.789           620.156
       283   09 Jun 2027 11:56:12.188   09 Jun 2027 11:56:13.273             1.085           542.500
       284   09 Jun 2027 11:56:19.633   09 Jun 2027 11:56:21.766             2.133           480.438
       285   09 Jun 2027 11:56:45.992   09 Jun 2027 11:56:50.999             5.007           519.125
       286   09 Jun 2027 11:56:54.905   09 Jun 2027 11:56:57.307             2.402           122.062
       287   10 Jun 2027 04:04:20.617   10 Jun 2027 04:05:35.646            75.029         37514.500
       288   10 Jun 2027 05:40:18.679   10 Jun 2027 05:41:43.926            85.247         42623.500
       289   10 Jun 2027 05:41:53.004   10 Jun 2027 05:42:16.741            23.737         11868.500
       290   10 Jun 2027 05:43:11.206   10 Jun 2027 05:43:32.479            21.273         10636.500
       291   10 Jun 2027 07:14:06.800   10 Jun 2027 07:16:14.250           127.450         61001.093
       292   10 Jun 2027 07:16:38.749   10 Jun 2027 07:16:38.749             0.000             0.000
       293   10 Jun 2027 07:18:57.199   10 Jun 2027 07:19:08.311            11.112          5065.750
       294   10 Jun 2027 07:20:28.199   10 Jun 2027 07:20:35.345             7.146          2496.500
       295   10 Jun 2027 07:21:16.787   10 Jun 2027 07:21:21.260             4.473          1295.063
       296   10 Jun 2027 07:22:12.970   10 Jun 2027 07:22:19.305             6.335          1419.594
       297   10 Jun 2027 08:51:16.332   10 Jun 2027 08:51:34.990            18.658          8691.906
       298   10 Jun 2027 08:52:39.824   10 Jun 2027 08:52:44.121             4.297          1398.469
       299   10 Jun 2027 08:53:17.179   10 Jun 2027 08:53:20.230             3.051           809.312
       300   10 Jun 2027 08:53:51.504   10 Jun 2027 08:53:54.075             2.571           930.437
       301   10 Jun 2027 08:54:22.885   10 Jun 2027 08:54:30.159             7.274           800.906
       302   10 Jun 2027 08:54:37.090   10 Jun 2027 08:54:38.470             1.380           122.969
       303   10 Jun 2027 08:54:44.915   10 Jun 2027 08:54:46.848             1.933           201.406
       304   10 Jun 2027 08:54:57.414   10 Jun 2027 08:54:59.791             2.377           232.687
       305   10 Jun 2027 08:55:38.567   10 Jun 2027 08:55:41.208             2.641           509.781
       306   10 Jun 2027 08:56:24.438   10 Jun 2027 08:56:27.152             2.714           657.469
       307   10 Jun 2027 08:56:38.633   10 Jun 2027 08:56:38.633             0.000             0.000
       308   10 Jun 2027 08:56:41.401   10 Jun 2027 08:56:42.374             0.973           445.281
       309   10 Jun 2027 08:57:07.115   10 Jun 2027 08:57:08.051             0.936           468.000
       310   10 Jun 2027 08:57:52.077   10 Jun 2027 08:57:57.743             5.666          1596.188
       311   10 Jun 2027 08:58:05.490   10 Jun 2027 08:58:07.595             2.105           242.094
       312   10 Jun 2027 08:58:25.735   10 Jun 2027 08:58:26.213             0.478           239.000
       313   10 Jun 2027 08:58:34.826   10 Jun 2027 08:58:34.826             0.000             0.000
       314   10 Jun 2027 10:28:20.343   10 Jun 2027 10:28:27.130             6.787          3393.500
       315   10 Jun 2027 10:28:45.011   10 Jun 2027 10:28:55.275            10.264          4966.531
       316   10 Jun 2027 10:29:49.015   10 Jun 2027 10:29:50.400             1.385           285.219
       317   10 Jun 2027 10:30:18.373   10 Jun 2027 10:30:18.937             0.564           282.000
       318   10 Jun 2027 10:30:33.836   10 Jun 2027 10:30:37.887             4.051           810.406
       319   10 Jun 2027 10:30:58.698   10 Jun 2027 10:31:00.304             1.606           426.938
       320   10 Jun 2027 10:32:04.426   10 Jun 2027 10:32:07.373             2.947          1473.500
       321   10 Jun 2027 10:32:18.555   10 Jun 2027 10:32:20.838             2.283           608.250
       322   10 Jun 2027 10:32:27.236   10 Jun 2027 10:32:27.614             0.378           105.156
       323   10 Jun 2027 10:33:14.590   10 Jun 2027 10:33:24.447             9.857          1461.625
       324   10 Jun 2027 10:33:47.396   10 Jun 2027 10:33:52.312             4.916           717.156
       325   11 Jun 2027 04:16:13.256   11 Jun 2027 04:17:38.627            85.371         42685.500
       326   11 Jun 2027 05:52:35.666   11 Jun 2027 05:54:25.653           109.987         54993.500
       327   11 Jun 2027 05:55:01.428   11 Jun 2027 05:55:21.968            20.540         10270.000
       328   11 Jun 2027 07:26:28.531   11 Jun 2027 07:28:22.328           113.797         56898.500
       329   11 Jun 2027 07:31:25.951   11 Jun 2027 07:31:36.006            10.055          5027.500
       330   11 Jun 2027 07:33:09.500   11 Jun 2027 07:33:14.154             4.654          2327.000
       331   11 Jun 2027 07:33:57.357   11 Jun 2027 07:34:05.829             8.472          3160.531
       332   11 Jun 2027 09:03:42.660   11 Jun 2027 09:04:03.350            20.690          9186.000
       333   11 Jun 2027 09:04:39.999   11 Jun 2027 09:04:49.655             9.656            75.187
       334   11 Jun 2027 09:06:02.334   11 Jun 2027 09:06:13.689            11.355          2029.875
       335   11 Jun 2027 09:06:48.500   11 Jun 2027 09:06:51.139             2.639          1022.938
       336   11 Jun 2027 09:07:05.851   11 Jun 2027 09:07:08.602             2.751           459.750
       337   11 Jun 2027 09:08:07.862   11 Jun 2027 09:08:12.193             4.331          1430.531
       338   11 Jun 2027 09:08:58.621   11 Jun 2027 09:08:58.621             0.000             0.000
       339   11 Jun 2027 09:09:08.185   11 Jun 2027 09:09:12.560             4.375          1749.750
       340   11 Jun 2027 09:10:20.597   11 Jun 2027 09:10:23.093             2.496          1219.250
       341   11 Jun 2027 10:40:44.666   11 Jun 2027 10:41:05.267            20.601          9811.406
       342   11 Jun 2027 10:41:13.563   11 Jun 2027 10:41:14.818             1.255           259.250
       343   11 Jun 2027 10:42:10.572   11 Jun 2027 10:42:19.059             8.487          1086.906
       344   11 Jun 2027 10:42:43.267   11 Jun 2027 10:42:49.688             6.421           756.500
       345   11 Jun 2027 10:43:56.494   11 Jun 2027 10:44:00.515             4.021          1461.437
       346   11 Jun 2027 10:44:08.019   11 Jun 2027 10:44:11.167             3.148           202.750
       347   11 Jun 2027 10:44:11.333   11 Jun 2027 10:44:14.114             2.781             5.188
       348   11 Jun 2027 10:44:51.984   11 Jun 2027 10:44:54.137             2.153           992.844
       349   11 Jun 2027 10:45:30.260   11 Jun 2027 10:45:34.566             4.306          1128.844
       350   11 Jun 2027 10:45:58.271   11 Jun 2027 10:46:02.314             4.043           720.500
       351   12 Jun 2027 03:05:08.561   12 Jun 2027 03:06:10.789            62.228         31114.000
       352   12 Jun 2027 03:06:47.676   12 Jun 2027 03:06:48.165             0.489           244.500
       353   12 Jun 2027 03:06:52.242   12 Jun 2027 03:07:06.785            14.543          7271.500
       354   12 Jun 2027 03:08:12.250   12 Jun 2027 03:08:16.404             4.154          2077.000
       355   12 Jun 2027 04:28:02.719   12 Jun 2027 04:28:31.222            28.503         14251.500
       356   12 Jun 2027 04:29:27.884   12 Jun 2027 04:29:36.469             8.585          4292.500
       357   12 Jun 2027 04:30:48.264   12 Jun 2027 04:30:49.340             1.076           538.000
       358   12 Jun 2027 06:04:38.983   12 Jun 2027 06:06:05.730            86.747         43373.500
       359   12 Jun 2027 06:06:24.246   12 Jun 2027 06:06:39.494            15.248          7624.000
       360   12 Jun 2027 06:07:28.582   12 Jun 2027 06:07:34.901             6.319          3159.500
       361   12 Jun 2027 06:07:42.538   12 Jun 2027 06:07:52.541            10.003          5001.500
       362   12 Jun 2027 07:39:46.219   12 Jun 2027 07:41:20.732            94.513         47256.500
       363   12 Jun 2027 07:41:24.473   12 Jun 2027 07:41:24.473             0.000             0.000
       364   12 Jun 2027 07:42:00.534   12 Jun 2027 07:42:08.600             8.066          1500.374
       365   12 Jun 2027 07:42:21.732   12 Jun 2027 07:42:23.000             1.268           410.375
       366   12 Jun 2027 07:43:12.413   12 Jun 2027 07:43:23.837            11.424          1543.969
       367   12 Jun 2027 07:44:28.240   12 Jun 2027 07:44:35.041             6.801          2012.594
       368   12 Jun 2027 07:44:57.885   12 Jun 2027 07:45:01.115             3.230           519.250
       369   12 Jun 2027 07:45:24.242   12 Jun 2027 07:45:30.243             6.001           697.063
       370   12 Jun 2027 09:16:06.655   12 Jun 2027 09:16:28.032            21.377          8407.344
       371   12 Jun 2027 09:17:01.036   12 Jun 2027 09:17:01.738             0.702           338.313
       372   12 Jun 2027 09:18:03.567   12 Jun 2027 09:18:10.698             7.131          1106.031
       373   12 Jun 2027 09:18:18.601   12 Jun 2027 09:18:18.813             0.212           106.000
       374   12 Jun 2027 09:18:21.089   12 Jun 2027 09:18:21.130             0.041            20.500
       375   12 Jun 2027 09:18:35.639   12 Jun 2027 09:18:37.056             1.417           528.469
       376   12 Jun 2027 09:18:38.674   12 Jun 2027 09:18:39.017             0.343            36.344
       377   12 Jun 2027 09:19:07.314   12 Jun 2027 09:19:09.825             2.511           884.281
       378   12 Jun 2027 09:20:03.657   12 Jun 2027 09:20:09.205             5.548          1255.000
       379   12 Jun 2027 09:20:24.057   12 Jun 2027 09:20:25.324             1.267           317.594
       380   12 Jun 2027 09:20:31.893   12 Jun 2027 09:20:38.435             6.542           113.656
       381   12 Jun 2027 09:20:50.882   12 Jun 2027 09:20:55.670             4.788           362.563
       382   12 Jun 2027 09:21:57.821   12 Jun 2027 09:22:02.984             5.163          1849.812
       383   12 Jun 2027 10:53:37.118   12 Jun 2027 10:53:53.050            15.932          7660.906
       384   12 Jun 2027 10:54:08.954   12 Jun 2027 10:54:17.199             8.245            90.844
       385   12 Jun 2027 10:54:42.789   12 Jun 2027 10:54:44.417             1.628           711.688
       386   12 Jun 2027 10:55:28.600   12 Jun 2027 10:55:33.980             5.380          1354.250
       387   12 Jun 2027 10:56:19.637   12 Jun 2027 10:56:23.577             3.940          1233.375
       388   12 Jun 2027 10:56:26.383   12 Jun 2027 10:56:28.077             1.694            12.375
       389   12 Jun 2027 10:56:39.166   12 Jun 2027 10:56:43.733             4.567           346.531
       390   12 Jun 2027 10:57:03.428   12 Jun 2027 10:57:07.951             4.523           615.469
       391   13 Jun 2027 03:17:44.026   13 Jun 2027 03:18:44.033            60.007         30003.500
       392   13 Jun 2027 03:19:15.054   13 Jun 2027 03:19:35.699            20.645         10322.500
       393   13 Jun 2027 03:20:07.204   13 Jun 2027 03:20:08.069             0.865           432.500
       394   13 Jun 2027 04:40:15.622   13 Jun 2027 04:41:02.957            47.335         23667.500
       395   13 Jun 2027 06:16:50.074   13 Jun 2027 06:18:41.351           111.277         55638.500
       396   13 Jun 2027 06:19:29.129   13 Jun 2027 06:19:42.528            13.399          6699.500
       397   13 Jun 2027 07:51:59.444   13 Jun 2027 07:53:15.134            75.690         37743.656
       398   13 Jun 2027 07:53:24.128   13 Jun 2027 07:53:25.656             1.528           281.062
       399   13 Jun 2027 07:55:31.037   13 Jun 2027 07:55:38.526             7.489          3744.500
       400   13 Jun 2027 07:56:35.898   13 Jun 2027 07:56:40.754             4.856          1966.531
       401   13 Jun 2027 07:57:03.594   13 Jun 2027 07:57:07.107             3.513           700.906
       402   13 Jun 2027 07:58:16.877   13 Jun 2027 07:58:22.711             5.834          2180.312
       403   13 Jun 2027 09:28:20.783   13 Jun 2027 09:28:38.815            18.032          8216.375
       404   13 Jun 2027 09:29:45.280   13 Jun 2027 09:29:50.569             5.289          1596.844
       405   13 Jun 2027 09:30:06.271   13 Jun 2027 09:30:07.673             1.402            47.750
       406   13 Jun 2027 09:30:31.930   13 Jun 2027 09:30:34.752             2.822           758.031
       407   13 Jun 2027 09:30:37.372   13 Jun 2027 09:30:40.939             3.567            10.312
       408   13 Jun 2027 09:30:54.058   13 Jun 2027 09:30:55.200             1.142            22.500
       409   13 Jun 2027 09:31:24.838   13 Jun 2027 09:31:26.720             1.882           899.500
       410   13 Jun 2027 09:31:49.657   13 Jun 2027 09:31:49.657             0.000             0.000
       411   13 Jun 2027 09:32:03.187   13 Jun 2027 09:32:04.258             1.071           535.500
       412   13 Jun 2027 09:32:30.177   13 Jun 2027 09:32:36.374             6.197          1388.969
       413   13 Jun 2027 09:32:49.837   13 Jun 2027 09:32:53.790             3.953           420.719
       414   13 Jun 2027 09:33:23.805   13 Jun 2027 09:33:25.585             1.780           630.344
       415   13 Jun 2027 09:33:29.644   13 Jun 2027 09:33:29.724             0.080            33.937
       416   13 Jun 2027 11:05:38.501   13 Jun 2027 11:05:51.452            12.951          6475.500
       417   13 Jun 2027 11:05:58.753   13 Jun 2027 11:06:00.642             1.889           596.406
       418   13 Jun 2027 11:06:40.917   13 Jun 2027 11:06:43.656             2.739          1091.187
       419   13 Jun 2027 11:07:42.528   13 Jun 2027 11:07:46.127             3.599          1523.563
       420   13 Jun 2027 11:08:08.060   13 Jun 2027 11:08:14.290             6.230           348.063
       421   13 Jun 2027 11:08:26.518   13 Jun 2027 11:08:30.567             4.049           297.531
       422   13 Jun 2027 11:08:53.753   13 Jun 2027 11:08:54.755             1.002           244.156
       423   13 Jun 2027 11:09:09.695   13 Jun 2027 11:09:10.857             1.162           372.500
       424   13 Jun 2027 11:09:55.546   13 Jun 2027 11:09:59.668             4.122          1331.094
       425   13 Jun 2027 11:10:05.393   13 Jun 2027 11:10:06.702             1.309           178.906
