uniorb/output/strategy_1/Camera/Camera_KinoSat_111801.txt

KinoSat_111801
-------------------------
    Access    *     Start Time (UTCG)     *     Stop Time (UTCG)  *   Duration (s) *   Data (Mbytes)
         1   01 Jun 2027 03:44:00.441   01 Jun 2027 03:44:27.026            26.585         13292.500
         2   01 Jun 2027 03:44:32.009   01 Jun 2027 03:45:06.600            34.591         17295.500
         3   01 Jun 2027 03:45:10.324   01 Jun 2027 03:46:26.709            76.385         38192.500
         4   01 Jun 2027 03:48:35.030   01 Jun 2027 03:48:49.736            14.706          7353.000
         5   01 Jun 2027 03:49:09.215   01 Jun 2027 03:49:23.518            14.303          7151.500
         6   01 Jun 2027 05:22:46.934   01 Jun 2027 05:24:11.648            84.714         42357.000
         7   01 Jun 2027 05:24:37.148   01 Jun 2027 05:24:51.436            14.288          7144.000
         8   01 Jun 2027 05:25:04.383   01 Jun 2027 05:25:04.383             0.000             0.000
         9   01 Jun 2027 05:25:22.234   01 Jun 2027 05:25:32.079             9.845          4922.500
        10   01 Jun 2027 05:25:59.526   01 Jun 2027 05:26:05.204             5.678          2839.000
        11   01 Jun 2027 05:28:01.717   01 Jun 2027 05:28:03.373             1.656           828.000
        12   01 Jun 2027 05:29:25.874   01 Jun 2027 05:29:41.158            15.284          7642.000
        13   01 Jun 2027 05:29:44.935   01 Jun 2027 05:29:47.945             3.010          1505.000
        14   01 Jun 2027 06:47:07.707   01 Jun 2027 06:48:15.368            67.661         33830.500
        15   01 Jun 2027 06:59:24.339   01 Jun 2027 06:59:52.013            27.674         13837.000
        16   01 Jun 2027 08:21:14.755   01 Jun 2027 08:22:28.587            73.832         36916.000
        17   01 Jun 2027 08:23:23.748   01 Jun 2027 08:23:52.741            28.993         14496.500
        18   01 Jun 2027 08:25:46.128   01 Jun 2027 08:25:58.841            12.713          6356.500
        19   01 Jun 2027 09:56:02.834   01 Jun 2027 09:57:27.283            84.449         42224.500
        20   01 Jun 2027 09:58:06.941   01 Jun 2027 09:58:33.787            26.846         13423.000
        21   01 Jun 2027 10:04:59.165   01 Jun 2027 10:04:59.282             0.117            58.500
        22   01 Jun 2027 11:36:08.816   01 Jun 2027 11:36:08.816             0.000             0.000
        23   01 Jun 2027 11:37:59.947   01 Jun 2027 11:38:06.104             6.157          3078.500
        24   01 Jun 2027 11:39:52.182   01 Jun 2027 11:41:19.853            87.671         43835.500
        25   02 Jun 2027 03:56:43.208   02 Jun 2027 03:56:59.329            16.121          8060.500
        26   02 Jun 2027 03:57:07.405   02 Jun 2027 03:58:02.146            54.741         27370.500
        27   02 Jun 2027 03:58:07.986   02 Jun 2027 03:58:19.877            11.891          5945.500
        28   02 Jun 2027 03:58:47.567   02 Jun 2027 03:59:39.140            51.573         25786.500
        29   02 Jun 2027 05:35:11.369   02 Jun 2027 05:36:53.383           102.014         51007.000
        30   02 Jun 2027 06:59:05.891   02 Jun 2027 07:00:48.458           102.567         51283.500
        31   02 Jun 2027 08:35:03.138   02 Jun 2027 08:37:21.096           137.958         68979.000
        32   02 Jun 2027 10:08:51.731   02 Jun 2027 10:09:50.172            58.441         29220.500
        33   02 Jun 2027 10:10:27.173   02 Jun 2027 10:10:57.109            29.936         14968.000
        34   02 Jun 2027 11:46:01.317   02 Jun 2027 11:47:04.298            62.981         31490.500
        35   02 Jun 2027 11:51:11.781   02 Jun 2027 11:52:02.954            51.173         25586.500
        36   02 Jun 2027 11:52:36.221   02 Jun 2027 11:53:19.110            42.889         21444.500
        37   03 Jun 2027 04:09:27.656   03 Jun 2027 04:09:46.909            19.253          9626.500
        38   03 Jun 2027 04:10:01.229   03 Jun 2027 04:10:55.701            54.472         27236.000
        39   03 Jun 2027 04:10:57.231   03 Jun 2027 04:11:28.927            31.696         15848.000
        40   03 Jun 2027 04:12:38.838   03 Jun 2027 04:12:44.014             5.176          2588.000
        41   03 Jun 2027 05:47:35.368   03 Jun 2027 05:49:24.277           108.909         54454.500
        42   03 Jun 2027 05:50:15.562   03 Jun 2027 05:50:31.608            16.046          8023.000
        43   03 Jun 2027 07:10:58.830   03 Jun 2027 07:13:02.567           123.737         61868.500
        44   03 Jun 2027 08:47:21.165   03 Jun 2027 08:49:27.221           126.056         63028.000
        45   03 Jun 2027 10:21:13.544   03 Jun 2027 10:21:50.878            37.334         18667.000
        46   03 Jun 2027 10:24:01.414   03 Jun 2027 10:24:15.089            13.675          6837.500
        47   03 Jun 2027 10:28:10.104   03 Jun 2027 10:28:21.405            11.301          5650.500
        48   03 Jun 2027 10:28:22.125   03 Jun 2027 10:29:02.698            40.573         20106.718
        49   03 Jun 2027 10:29:09.380   03 Jun 2027 10:29:10.088             0.708           149.531
        50   03 Jun 2027 11:58:28.083   03 Jun 2027 11:58:43.974            15.891          7867.937
        51   03 Jun 2027 11:59:35.088   03 Jun 2027 11:59:37.075             1.987           909.250
        52   04 Jun 2027 04:22:13.141   04 Jun 2027 04:22:27.486            14.345          7172.500
        53   04 Jun 2027 04:22:33.336   04 Jun 2027 04:23:11.214            37.878         18939.000
        54   04 Jun 2027 04:24:28.050   04 Jun 2027 04:25:23.848            55.798         27899.000
        55   04 Jun 2027 05:59:54.498   04 Jun 2027 06:01:56.249           121.751         60875.500
        56   04 Jun 2027 06:02:41.681   04 Jun 2027 06:02:41.681             0.000             0.000
        57   04 Jun 2027 06:03:24.757   04 Jun 2027 06:03:47.585            22.828         11414.000
        58   04 Jun 2027 07:22:47.823   04 Jun 2027 07:24:35.233           107.410         53705.000
        59   04 Jun 2027 07:25:33.526   04 Jun 2027 07:25:33.526             0.000             0.000
        60   04 Jun 2027 08:59:24.767   04 Jun 2027 08:59:54.497            29.730         14865.000
        61   04 Jun 2027 09:00:17.066   04 Jun 2027 09:00:17.066             0.000             0.000
        62   04 Jun 2027 09:02:06.934   04 Jun 2027 09:02:15.847             8.913          4404.656
        63   04 Jun 2027 10:34:31.523   04 Jun 2027 10:34:42.868            11.345          4657.719
        64   04 Jun 2027 10:35:36.100   04 Jun 2027 10:35:36.100             0.000             0.000
        65   04 Jun 2027 10:35:37.743   04 Jun 2027 10:35:42.584             4.841           722.844
        66   04 Jun 2027 10:36:29.673   04 Jun 2027 10:36:30.549             0.876           340.188
        67   04 Jun 2027 10:37:00.509   04 Jun 2027 10:37:02.713             2.204           936.250
        68   04 Jun 2027 10:37:26.483   04 Jun 2027 10:37:33.430             6.947           673.250
        69   04 Jun 2027 10:40:29.568   04 Jun 2027 10:40:43.620            14.052          5489.500
        70   04 Jun 2027 10:41:09.728   04 Jun 2027 10:41:10.486             0.758           379.000
        71   05 Jun 2027 03:00:00.000   05 Jun 2027 03:00:45.896            45.896         22948.000
        72   05 Jun 2027 03:01:19.707   05 Jun 2027 03:01:22.525             2.818          1409.000
        73   05 Jun 2027 04:33:21.870   05 Jun 2027 04:34:18.028            56.158         28079.000
        74   05 Jun 2027 04:35:17.534   05 Jun 2027 04:35:37.801            20.267         10133.500
        75   05 Jun 2027 04:36:02.511   05 Jun 2027 04:36:06.790             4.279          2139.500
        76   05 Jun 2027 04:36:57.767   05 Jun 2027 04:37:12.321            14.554          7277.000
        77   05 Jun 2027 04:37:31.257   05 Jun 2027 04:37:34.376             3.119          1559.500
        78   05 Jun 2027 04:38:05.793   05 Jun 2027 04:38:15.746             9.953          4976.500
        79   05 Jun 2027 04:39:30.362   05 Jun 2027 04:39:33.938             3.576          1788.000
        80   05 Jun 2027 06:11:38.987   05 Jun 2027 06:12:13.794            34.807         17403.500
        81   05 Jun 2027 06:12:27.653   05 Jun 2027 06:13:29.654            62.001         31000.500
        82   05 Jun 2027 06:13:59.067   05 Jun 2027 06:14:14.049            14.982          7491.000
        83   05 Jun 2027 07:35:01.709   05 Jun 2027 07:36:20.406            78.697         39348.500
        84   05 Jun 2027 07:38:05.121   05 Jun 2027 07:38:05.121             0.000             0.000
        85   05 Jun 2027 09:11:35.513   05 Jun 2027 09:12:04.824            29.311         13398.220
        86   05 Jun 2027 09:14:06.170   05 Jun 2027 09:14:06.170             0.000             0.000
        87   05 Jun 2027 10:46:45.259   05 Jun 2027 10:47:00.080            14.821          7322.031
        88   05 Jun 2027 10:49:59.357   05 Jun 2027 10:49:59.357             0.000             0.000
        89   05 Jun 2027 10:53:03.403   05 Jun 2027 10:53:21.399            17.996          8998.000
        90   06 Jun 2027 03:07:10.691   06 Jun 2027 03:07:26.775            16.084          8042.000
        91   06 Jun 2027 03:07:38.130   06 Jun 2027 03:08:16.814            38.684         19342.000
        92   06 Jun 2027 03:08:38.326   06 Jun 2027 03:08:43.780             5.454          2727.000
        93   06 Jun 2027 03:08:48.477   06 Jun 2027 03:08:51.894             3.417          1708.500
        94   06 Jun 2027 03:10:58.670   06 Jun 2027 03:11:20.809            22.139         11069.500
        95   06 Jun 2027 03:11:57.871   06 Jun 2027 03:11:58.200             0.329           164.500
        96   06 Jun 2027 03:13:12.007   06 Jun 2027 03:13:13.555             1.548           774.000
        97   06 Jun 2027 03:13:27.643   06 Jun 2027 03:13:47.994            20.351         10175.500
        98   06 Jun 2027 04:46:28.462   06 Jun 2027 04:47:54.561            86.099         43049.500
        99   06 Jun 2027 04:48:36.612   06 Jun 2027 04:48:36.612             0.000             0.000
       100   06 Jun 2027 04:49:02.301   06 Jun 2027 04:49:03.470             1.169           584.500
       101   06 Jun 2027 04:50:35.725   06 Jun 2027 04:50:39.358             3.633          1816.500
       102   06 Jun 2027 04:51:26.913   06 Jun 2027 04:51:35.069             8.156          4078.000
       103   06 Jun 2027 04:52:52.344   06 Jun 2027 04:52:55.134             2.790          1395.000
       104   06 Jun 2027 04:53:19.062   06 Jun 2027 04:54:02.180            43.118         21559.000
       105   06 Jun 2027 06:23:35.727   06 Jun 2027 06:24:27.783            52.056         26028.000
       106   06 Jun 2027 06:24:33.516   06 Jun 2027 06:25:03.628            30.112         15056.000
       107   06 Jun 2027 07:47:31.688   06 Jun 2027 07:48:20.977            49.289         24644.500
       108   06 Jun 2027 07:50:13.560   06 Jun 2027 07:50:15.789             2.229          1114.500
       109   06 Jun 2027 09:23:26.084   06 Jun 2027 09:23:40.592            14.508          7223.780
       110   06 Jun 2027 10:58:19.047   06 Jun 2027 10:58:35.508            16.461          7920.094
       111   06 Jun 2027 11:00:27.904   06 Jun 2027 11:00:34.103             6.199          3092.781
       112   06 Jun 2027 11:00:35.364   06 Jun 2027 11:00:37.040             1.676            31.250
       113   06 Jun 2027 11:01:02.393   06 Jun 2027 11:01:02.669             0.276            61.188
       114   06 Jun 2027 11:05:01.194   06 Jun 2027 11:05:15.341            14.147          7065.437
       115   06 Jun 2027 11:05:22.521   06 Jun 2027 11:05:24.084             1.563           197.344
       116   07 Jun 2027 03:19:52.075   07 Jun 2027 03:21:11.594            79.519         39759.500
       117   07 Jun 2027 03:23:49.496   07 Jun 2027 03:24:27.304            37.808         18904.000
       118   07 Jun 2027 04:58:32.902   07 Jun 2027 04:59:50.812            77.910         38955.000
       119   07 Jun 2027 05:01:33.796   07 Jun 2027 05:01:40.188             6.392          3196.000
       120   07 Jun 2027 05:02:14.014   07 Jun 2027 05:02:15.111             1.097           548.500
       121   07 Jun 2027 05:02:41.937   07 Jun 2027 05:02:44.343             2.406          1203.000
       122   07 Jun 2027 05:03:04.338   07 Jun 2027 05:03:14.251             9.913          4956.500
       123   07 Jun 2027 05:03:18.391   07 Jun 2027 05:03:20.546             2.155          1077.500
       124   07 Jun 2027 05:05:04.856   07 Jun 2027 05:06:06.710            61.854         30927.000
       125   07 Jun 2027 06:24:17.234   07 Jun 2027 06:24:57.111            39.877         19938.500
       126   07 Jun 2027 06:35:32.929   07 Jun 2027 06:36:00.628            27.699         13849.500
       127   07 Jun 2027 06:36:38.433   07 Jun 2027 06:37:05.368            26.935         13467.500
       128   07 Jun 2027 07:58:08.798   07 Jun 2027 07:58:59.695            50.897         23091.594
       129   07 Jun 2027 08:01:32.138   07 Jun 2027 08:01:41.483             9.345          4205.719
       130   07 Jun 2027 08:01:58.164   07 Jun 2027 08:02:00.580             2.416           505.844
       131   07 Jun 2027 08:02:02.094   07 Jun 2027 08:02:03.616             1.522            47.312
       132   07 Jun 2027 09:33:42.728   07 Jun 2027 09:33:59.320            16.592          6687.531
       133   07 Jun 2027 09:36:45.399   07 Jun 2027 09:37:00.214            14.815          5117.250
       134   07 Jun 2027 11:13:00.286   07 Jun 2027 11:13:26.577            26.291         13145.500
       135   07 Jun 2027 11:14:21.479   07 Jun 2027 11:14:27.437             5.958          1922.719
       136   07 Jun 2027 11:14:43.903   07 Jun 2027 11:14:44.756             0.853           348.312
       137   07 Jun 2027 11:14:58.262   07 Jun 2027 11:14:59.333             1.071            32.031
       138   07 Jun 2027 11:15:57.129   07 Jun 2027 11:16:05.042             7.913          1518.656
       139   07 Jun 2027 11:16:50.792   07 Jun 2027 11:16:57.069             6.277          1232.063
       140   08 Jun 2027 03:31:58.192   08 Jun 2027 03:33:55.160           116.968         58484.000
       141   08 Jun 2027 03:36:14.991   08 Jun 2027 03:36:25.926            10.935          5467.500
       142   08 Jun 2027 03:37:43.951   08 Jun 2027 03:37:50.352             6.401          3200.500
       143   08 Jun 2027 03:37:55.605   08 Jun 2027 03:38:03.021             7.416          3708.000
       144   08 Jun 2027 05:11:03.072   08 Jun 2027 05:12:16.887            73.815         36907.500
       145   08 Jun 2027 05:13:03.511   08 Jun 2027 05:13:16.691            13.180          6590.000
       146   08 Jun 2027 05:15:04.005   08 Jun 2027 05:15:24.536            20.531         10265.500
       147   08 Jun 2027 06:35:52.803   08 Jun 2027 06:37:08.601            75.798         37899.000
       148   08 Jun 2027 06:47:32.934   08 Jun 2027 06:48:12.287            39.353         19676.500
       149   08 Jun 2027 08:09:51.840   08 Jun 2027 08:10:20.590            28.750         12984.001
       150   08 Jun 2027 08:13:23.387   08 Jun 2027 08:13:36.221            12.834          5712.406
       151   08 Jun 2027 09:45:19.968   08 Jun 2027 09:45:33.379            13.411          6580.375
       152   08 Jun 2027 09:46:13.945   08 Jun 2027 09:46:13.945             0.000             0.000
       153   08 Jun 2027 09:49:05.013   08 Jun 2027 09:49:20.697            15.684          6441.375
       154   08 Jun 2027 11:23:40.787   08 Jun 2027 11:24:05.174            24.387         11294.000
       155   08 Jun 2027 11:25:16.526   08 Jun 2027 11:25:18.892             2.366          1183.000
       156   08 Jun 2027 11:28:32.073   08 Jun 2027 11:28:47.819            15.746          6607.437
       157   08 Jun 2027 11:29:03.939   08 Jun 2027 11:29:05.743             1.804           503.750
       158   08 Jun 2027 11:29:12.866   08 Jun 2027 11:29:16.096             3.230           222.594
       159   08 Jun 2027 11:29:35.362   08 Jun 2027 11:29:35.760             0.398           199.000
       160   09 Jun 2027 03:44:18.474   09 Jun 2027 03:45:23.805            65.331         32665.500
       161   09 Jun 2027 03:45:27.876   09 Jun 2027 03:46:21.772            53.896         26948.000
       162   09 Jun 2027 03:46:23.713   09 Jun 2027 03:46:30.895             7.182          3591.000
       163   09 Jun 2027 03:46:33.697   09 Jun 2027 03:46:34.717             1.020           510.000
       164   09 Jun 2027 03:47:04.089   09 Jun 2027 03:47:09.799             5.710          2855.000
       165   09 Jun 2027 03:47:27.612   09 Jun 2027 03:48:10.630            43.018         21509.000
       166   09 Jun 2027 05:23:05.563   09 Jun 2027 05:24:28.363            82.800         41400.000
       167   09 Jun 2027 05:26:14.147   09 Jun 2027 05:26:21.431             7.284          3642.000
       168   09 Jun 2027 05:27:26.523   09 Jun 2027 05:27:44.128            17.605          8802.500
       169   09 Jun 2027 05:30:03.341   09 Jun 2027 05:30:03.833             0.492           246.000
       170   09 Jun 2027 06:47:25.763   09 Jun 2027 06:48:32.647            66.884         33442.000
       171   09 Jun 2027 06:49:18.732   09 Jun 2027 06:49:18.732             0.000             0.000
       172   09 Jun 2027 06:59:41.632   09 Jun 2027 07:00:08.644            27.012         13506.000
       173   09 Jun 2027 08:21:28.827   09 Jun 2027 08:21:53.969            25.142         12471.875
       174   09 Jun 2027 08:22:29.833   09 Jun 2027 08:22:35.125             5.292          1120.750
       175   09 Jun 2027 08:24:19.800   09 Jun 2027 08:24:27.526             7.726          2501.344
       176   09 Jun 2027 08:25:00.739   09 Jun 2027 08:25:01.944             1.205           524.531
       177   09 Jun 2027 08:26:02.232   09 Jun 2027 08:26:09.112             6.880          1884.000
       178   09 Jun 2027 08:26:29.132   09 Jun 2027 08:26:31.017             1.885           419.094
       179   09 Jun 2027 09:56:18.010   09 Jun 2027 09:56:27.542             9.532          4336.312
       180   09 Jun 2027 09:58:07.034   09 Jun 2027 09:58:10.651             3.617          1807.125
       181   09 Jun 2027 09:58:24.856   09 Jun 2027 09:58:27.873             3.017           208.281
       182   09 Jun 2027 10:01:51.201   09 Jun 2027 10:01:53.218             2.017          1008.500
       183   09 Jun 2027 10:02:56.652   09 Jun 2027 10:03:11.924            15.272          7327.813
       184   09 Jun 2027 11:36:49.095   09 Jun 2027 11:37:08.449            19.354          9677.000
       185   09 Jun 2027 11:40:07.057   09 Jun 2027 11:40:21.062            14.005          7002.500
       186   09 Jun 2027 11:41:02.349   09 Jun 2027 11:41:02.349             0.000             0.000
       187   09 Jun 2027 11:41:05.119   09 Jun 2027 11:41:08.628             3.509          1514.031
       188   10 Jun 2027 03:57:01.376   10 Jun 2027 03:57:15.268            13.892          6946.000
       189   10 Jun 2027 03:57:24.855   10 Jun 2027 03:58:17.607            52.752         26376.000
       190   10 Jun 2027 03:59:53.519   10 Jun 2027 04:00:47.132            53.613         26806.500
       191   10 Jun 2027 04:01:13.440   10 Jun 2027 04:01:35.704            22.264         11132.000
       192   10 Jun 2027 05:35:31.504   10 Jun 2027 05:37:09.036            97.532         48766.000
       193   10 Jun 2027 05:37:45.161   10 Jun 2027 05:37:48.455             3.294          1647.000
       194   10 Jun 2027 05:38:14.550   10 Jun 2027 05:38:19.693             5.143          2571.500
       195   10 Jun 2027 05:38:33.609   10 Jun 2027 05:38:37.573             3.964          1982.000
       196   10 Jun 2027 05:39:10.709   10 Jun 2027 05:39:17.411             6.702          3351.000
       197   10 Jun 2027 06:59:22.481   10 Jun 2027 07:00:48.234            85.753         42367.093
       198   10 Jun 2027 08:35:22.229   10 Jun 2027 08:35:42.225            19.996          9998.000
       199   10 Jun 2027 08:36:53.505   10 Jun 2027 08:36:58.825             5.320          2459.406
       200   10 Jun 2027 08:38:11.323   10 Jun 2027 08:38:14.902             3.579          1066.437
       201   10 Jun 2027 10:09:10.471   10 Jun 2027 10:09:21.975            11.504          4981.688
       202   10 Jun 2027 10:09:59.850   10 Jun 2027 10:10:04.252             4.402           350.625
       203   10 Jun 2027 10:11:17.185   10 Jun 2027 10:11:17.928             0.743           371.500
       204   10 Jun 2027 10:11:25.117   10 Jun 2027 10:11:25.117             0.000             0.000
       205   10 Jun 2027 10:13:59.381   10 Jun 2027 10:14:16.221            16.840          6830.875
       206   10 Jun 2027 10:14:41.909   10 Jun 2027 10:14:43.580             1.671           759.469
       207   10 Jun 2027 10:15:34.998   10 Jun 2027 10:15:39.070             4.072           857.406
       208   10 Jun 2027 10:16:56.330   10 Jun 2027 10:17:01.801             5.471          2346.906
       209   10 Jun 2027 10:17:11.799   10 Jun 2027 10:17:13.846             2.047           302.094
       210   10 Jun 2027 11:46:19.254   10 Jun 2027 11:46:34.670            15.416          5522.062
       211   10 Jun 2027 11:46:49.300   10 Jun 2027 11:46:50.527             1.227            93.063
       212   10 Jun 2027 11:47:20.417   10 Jun 2027 11:47:26.773             6.356           877.750
       213   10 Jun 2027 11:48:54.057   10 Jun 2027 11:48:54.057             0.000             0.000
       214   10 Jun 2027 11:51:24.321   10 Jun 2027 11:51:39.871            15.550          7327.531
       215   10 Jun 2027 11:52:21.502   10 Jun 2027 11:52:28.831             7.329          1268.812
       216   10 Jun 2027 11:52:50.905   10 Jun 2027 11:52:52.942             2.037           615.281
       217   10 Jun 2027 11:52:54.354   10 Jun 2027 11:52:58.651             4.297            44.125
       218   11 Jun 2027 04:09:41.866   11 Jun 2027 04:09:49.180             7.314          3657.000
       219   11 Jun 2027 04:10:23.804   11 Jun 2027 04:12:09.232           105.428         52714.000
       220   11 Jun 2027 04:13:52.955   11 Jun 2027 04:14:05.551            12.596          6298.000
       221   11 Jun 2027 04:14:54.107   11 Jun 2027 04:14:56.266             2.159          1079.500
       222   11 Jun 2027 04:15:04.916   11 Jun 2027 04:15:05.567             0.651           325.500
       223   11 Jun 2027 04:15:41.191   11 Jun 2027 04:15:44.166             2.975          1487.500
       224   11 Jun 2027 05:47:52.565   11 Jun 2027 05:49:34.263           101.698         50849.000
       225   11 Jun 2027 05:50:38.066   11 Jun 2027 05:51:07.465            29.399         14699.500
       226   11 Jun 2027 07:11:15.949   11 Jun 2027 07:12:57.145           101.196         50598.000
       227   11 Jun 2027 08:47:38.079   11 Jun 2027 08:48:11.539            33.460         16302.657
       228   11 Jun 2027 08:48:28.370   11 Jun 2027 08:48:30.214             1.844           491.781
       229   11 Jun 2027 08:49:41.367   11 Jun 2027 08:49:46.095             4.728          1107.344
       230   11 Jun 2027 08:50:41.613   11 Jun 2027 08:50:41.613             0.000             0.000
       231   11 Jun 2027 10:21:34.618   11 Jun 2027 10:21:47.938            13.320          5189.750
       232   11 Jun 2027 10:22:20.158   11 Jun 2027 10:22:26.376             6.218           869.844
       233   11 Jun 2027 10:22:48.215   11 Jun 2027 10:22:51.284             3.069            79.875
       234   11 Jun 2027 10:23:35.157   11 Jun 2027 10:23:36.507             1.350           484.563
       235   11 Jun 2027 10:24:27.594   11 Jun 2027 10:24:35.906             8.312          1574.656
       236   11 Jun 2027 10:28:23.808   11 Jun 2027 10:28:38.342            14.534          7002.656
       237   11 Jun 2027 10:28:56.639   11 Jun 2027 10:28:58.077             1.438           571.781
       238   11 Jun 2027 10:29:28.104   11 Jun 2027 10:29:31.750             3.646           938.344
       239   11 Jun 2027 11:58:45.051   11 Jun 2027 11:59:03.242            18.191          7185.469
       240   12 Jun 2027 04:21:44.576   12 Jun 2027 04:21:45.918             1.342           671.000
       241   12 Jun 2027 04:22:28.066   12 Jun 2027 04:22:44.924            16.858          8429.000
       242   12 Jun 2027 04:22:50.706   12 Jun 2027 04:23:58.747            68.041         34020.500
       243   12 Jun 2027 04:24:24.132   12 Jun 2027 04:24:47.400            23.268         11634.000
       244   12 Jun 2027 04:27:27.372   12 Jun 2027 04:27:48.573            21.201         10600.500
       245   12 Jun 2027 06:00:45.182   12 Jun 2027 06:02:47.705           122.523         61261.500
       246   12 Jun 2027 06:03:41.434   12 Jun 2027 06:03:45.760             4.326          2163.000
       247   12 Jun 2027 06:04:13.437   12 Jun 2027 06:04:15.017             1.580           790.000
       248   12 Jun 2027 07:23:08.516   12 Jun 2027 07:24:36.731            88.215         44107.500
       249   12 Jun 2027 08:59:42.225   12 Jun 2027 09:00:11.194            28.969         13272.718
       250   12 Jun 2027 09:01:37.907   12 Jun 2027 09:01:47.451             9.544          2707.438
       251   12 Jun 2027 09:02:46.028   12 Jun 2027 09:02:48.337             2.309          1079.281
       252   12 Jun 2027 09:03:09.539   12 Jun 2027 09:03:14.737             5.198           662.562
       253   12 Jun 2027 10:34:51.167   12 Jun 2027 10:35:09.995            18.828          8165.844
       254   12 Jun 2027 10:37:56.515   12 Jun 2027 10:37:56.515             0.000             0.000
       255   12 Jun 2027 10:38:39.495   12 Jun 2027 10:38:52.873            13.378          5889.250
       256   12 Jun 2027 10:40:08.953   12 Jun 2027 10:40:10.441             1.488           744.000
       257   12 Jun 2027 10:40:13.462   12 Jun 2027 10:40:18.214             4.752           824.969
       258   12 Jun 2027 10:41:26.956   12 Jun 2027 10:41:31.356             4.400          2041.062
       259   13 Jun 2027 03:00:00.000   13 Jun 2027 03:00:35.916            35.916         17958.000
       260   13 Jun 2027 04:33:40.091   13 Jun 2027 04:34:36.664            56.573         28286.500
       261   13 Jun 2027 04:34:46.969   13 Jun 2027 04:35:11.868            24.899         12449.500
       262   13 Jun 2027 04:35:27.711   13 Jun 2027 04:35:32.559             4.848          2424.000
       263   13 Jun 2027 04:37:58.412   13 Jun 2027 04:38:20.524            22.112         11056.000
       264   13 Jun 2027 06:11:56.177   13 Jun 2027 06:13:44.892           108.715         54357.500
       265   13 Jun 2027 06:14:15.593   13 Jun 2027 06:14:32.531            16.938          8469.000
       266   13 Jun 2027 07:35:17.851   13 Jun 2027 07:36:48.668            90.817         45408.500
       267   13 Jun 2027 09:11:53.041   13 Jun 2027 09:12:05.586            12.545          6272.500
       268   13 Jun 2027 09:13:04.133   13 Jun 2027 09:13:14.042             9.909          4655.125
       269   13 Jun 2027 09:13:40.067   13 Jun 2027 09:13:42.991             2.924           813.281
       270   13 Jun 2027 10:48:19.992   13 Jun 2027 10:48:40.411            20.419         10109.312
       271   13 Jun 2027 10:50:14.048   13 Jun 2027 10:50:24.845            10.797          2846.781
       272   13 Jun 2027 10:50:42.156   13 Jun 2027 10:50:43.809             1.653            16.531
       273   13 Jun 2027 10:51:36.170   13 Jun 2027 10:51:45.228             9.058          1471.562
       274   13 Jun 2027 10:52:15.132   13 Jun 2027 10:52:25.389            10.257           864.188
       275   13 Jun 2027 10:53:02.194   13 Jun 2027 10:53:07.173             4.979           795.187
       276   13 Jun 2027 10:53:24.239   13 Jun 2027 10:53:24.763             0.524           262.000
       277   13 Jun 2027 10:53:26.883   13 Jun 2027 10:53:30.336             3.453           258.000
