uniorb/output/strategy_1/Camera/Camera_KinoSat_110209.txt

KinoSat_110209
-------------------------
    Access    *     Start Time (UTCG)     *     Stop Time (UTCG)  *   Duration (s) *   Data (Mbytes)
         1   01 Jun 2027 03:22:44.171   01 Jun 2027 03:24:06.441            82.270         41135.000
         2   01 Jun 2027 03:24:22.641   01 Jun 2027 03:25:11.966            49.325         24662.500
         3   01 Jun 2027 03:27:38.878   01 Jun 2027 03:27:38.878             0.000             0.000
         4   01 Jun 2027 03:29:11.646   01 Jun 2027 03:30:10.154            58.508         29254.000
         5   01 Jun 2027 04:59:41.496   01 Jun 2027 05:02:27.677           166.181         83090.500
         6   01 Jun 2027 05:03:07.768   01 Jun 2027 05:03:15.516             7.748          3874.000
         7   01 Jun 2027 05:04:26.894   01 Jun 2027 05:04:43.594            16.700          8350.000
         8   01 Jun 2027 05:05:45.840   01 Jun 2027 05:05:50.137             4.297          2148.500
         9   01 Jun 2027 06:37:34.514   01 Jun 2027 06:40:11.594           157.080         78540.000
        10   01 Jun 2027 06:41:12.828   01 Jun 2027 06:41:35.902            23.074         11537.000
        11   01 Jun 2027 08:11:02.381   01 Jun 2027 08:13:16.020           133.639         66819.500
        12   01 Jun 2027 08:15:14.290   01 Jun 2027 08:15:37.090            22.800         11400.000
        13   01 Jun 2027 08:16:16.721   01 Jun 2027 08:16:30.502            13.781          6890.500
        14   01 Jun 2027 08:16:52.452   01 Jun 2027 08:17:28.546            36.094         18047.000
        15   02 Jun 2027 03:34:45.506   02 Jun 2027 03:40:34.322           348.816        174408.000
        16   02 Jun 2027 03:40:49.518   02 Jun 2027 03:42:12.012            82.494         41247.000
        17   02 Jun 2027 05:11:33.700   02 Jun 2027 05:13:44.425           130.725         65362.500
        18   02 Jun 2027 05:13:56.015   02 Jun 2027 05:13:59.421             3.406          1703.000
        19   02 Jun 2027 05:14:06.221   02 Jun 2027 05:15:04.999            58.778         29389.000
        20   02 Jun 2027 05:15:50.560   02 Jun 2027 05:15:55.085             4.525          2262.500
        21   02 Jun 2027 05:17:48.457   02 Jun 2027 05:18:16.386            27.929         13964.500
        22   02 Jun 2027 06:49:35.818   02 Jun 2027 06:52:29.156           173.338         86669.000
        23   02 Jun 2027 06:53:18.014   02 Jun 2027 06:53:26.279             8.265          4132.500
        24   02 Jun 2027 08:23:28.036   02 Jun 2027 08:25:57.690           149.654         74827.000
        25   02 Jun 2027 08:26:56.282   02 Jun 2027 08:27:08.210            11.928          5964.000
        26   02 Jun 2027 08:27:55.157   02 Jun 2027 08:28:10.119            14.962          7481.000
        27   02 Jun 2027 08:29:13.304   02 Jun 2027 08:29:21.364             8.060          4030.000
        28   02 Jun 2027 08:29:30.364   02 Jun 2027 08:29:45.949            15.585          7792.500
        29   03 Jun 2027 03:46:48.835   03 Jun 2027 03:54:09.736           440.901        220450.500
        30   03 Jun 2027 05:24:16.622   03 Jun 2027 05:28:16.050           239.428        119714.000
        31   03 Jun 2027 05:29:14.699   03 Jun 2027 05:29:23.317             8.618          4309.000
        32   03 Jun 2027 05:29:43.628   03 Jun 2027 05:29:46.454             2.826          1413.000
        33   03 Jun 2027 07:00:49.698   03 Jun 2027 07:03:26.585           156.887         78443.500
        34   03 Jun 2027 07:03:40.313   03 Jun 2027 07:03:44.425             4.112          2056.000
        35   03 Jun 2027 07:04:46.242   03 Jun 2027 07:05:04.804            18.562          9281.000
        36   03 Jun 2027 07:05:33.583   03 Jun 2027 07:05:41.719             8.136          4068.000
        37   03 Jun 2027 08:35:49.693   03 Jun 2027 08:36:35.230            45.537         22768.500
        38   03 Jun 2027 08:37:31.406   03 Jun 2027 08:38:53.278            81.872         40936.000
        39   03 Jun 2027 08:39:09.778   03 Jun 2027 08:39:21.631            11.853          5926.500
        40   03 Jun 2027 08:39:57.328   03 Jun 2027 08:39:57.328             0.000             0.000
        41   03 Jun 2027 08:40:04.641   03 Jun 2027 08:40:12.551             7.910          3955.000
        42   04 Jun 2027 03:59:14.623   04 Jun 2027 04:05:59.888           405.265        202632.500
        43   04 Jun 2027 05:36:11.115   04 Jun 2027 05:39:07.603           176.488         88244.000
        44   04 Jun 2027 05:39:23.639   04 Jun 2027 05:40:00.563            36.924         18462.000
        45   04 Jun 2027 05:40:11.807   04 Jun 2027 05:40:12.624             0.817           408.500
        46   04 Jun 2027 05:40:42.605   04 Jun 2027 05:40:46.974             4.369          2184.500
        47   04 Jun 2027 05:41:36.016   04 Jun 2027 05:41:47.648            11.632          5816.000
        48   04 Jun 2027 07:13:01.747   04 Jun 2027 07:15:31.809           150.062         75031.000
        49   04 Jun 2027 07:15:46.563   04 Jun 2027 07:16:05.472            18.909          9454.500
        50   04 Jun 2027 07:17:02.618   04 Jun 2027 07:17:24.719            22.101         11050.500
        51   04 Jun 2027 08:50:38.007   04 Jun 2027 08:51:04.609            26.602         13301.000
        52   04 Jun 2027 08:51:47.965   04 Jun 2027 08:52:11.164            23.199         11599.500
        53   05 Jun 2027 04:11:20.837   05 Jun 2027 04:17:36.554           375.717        187858.500
        54   05 Jun 2027 05:49:00.957   05 Jun 2027 05:51:47.926           166.969         83484.500
        55   05 Jun 2027 05:52:08.901   05 Jun 2027 05:52:29.239            20.338         10169.000
        56   05 Jun 2027 05:53:23.984   05 Jun 2027 05:53:29.326             5.342          2671.000
        57   05 Jun 2027 07:25:04.488   05 Jun 2027 07:27:40.135           155.647         77823.500
        58   05 Jun 2027 07:28:46.078   05 Jun 2027 07:28:53.411             7.333          3666.500
        59   05 Jun 2027 09:03:48.730   05 Jun 2027 09:03:50.822             2.092          1046.000
        60   06 Jun 2027 04:23:56.912   06 Jun 2027 04:30:10.473           373.561        186780.500
        61   06 Jun 2027 06:01:13.960   06 Jun 2027 06:04:03.334           169.374         84687.000
        62   06 Jun 2027 07:37:26.951   06 Jun 2027 07:40:13.076           166.125         83062.500
        63   06 Jun 2027 07:41:33.616   06 Jun 2027 07:41:44.830            11.214          5607.000
        64   06 Jun 2027 07:41:59.838   06 Jun 2027 07:42:07.075             7.237          3618.500
        65   07 Jun 2027 03:00:00.000   07 Jun 2027 03:04:07.011           247.011        123505.500
        66   07 Jun 2027 03:04:19.252   07 Jun 2027 03:04:55.707            36.455         18227.500
        67   07 Jun 2027 03:05:10.616   07 Jun 2027 03:05:14.007             3.391          1695.500
        68   07 Jun 2027 03:05:38.836   07 Jun 2027 03:05:47.958             9.122          4561.000
        69   07 Jun 2027 04:35:29.391   07 Jun 2027 04:37:40.723           131.332         65666.000
        70   07 Jun 2027 04:38:47.435   07 Jun 2027 04:39:15.753            28.318         14159.000
        71   07 Jun 2027 04:39:37.029   07 Jun 2027 04:40:29.859            52.830         26415.000
        72   07 Jun 2027 04:40:53.965   07 Jun 2027 04:41:03.279             9.314          4657.000
        73   07 Jun 2027 04:41:19.167   07 Jun 2027 04:41:19.167             0.000             0.000
        74   07 Jun 2027 04:41:33.942   07 Jun 2027 04:41:51.614            17.672          8836.000
        75   07 Jun 2027 06:13:30.532   07 Jun 2027 06:16:32.795           182.263         91131.500
        76   07 Jun 2027 06:17:17.417   07 Jun 2027 06:17:26.340             8.923          4461.500
        77   07 Jun 2027 07:49:10.309   07 Jun 2027 07:51:19.037           128.728         64364.000
        78   07 Jun 2027 07:53:03.847   07 Jun 2027 07:53:21.114            17.267          8633.500
        79   07 Jun 2027 07:54:21.296   07 Jun 2027 07:54:29.176             7.880          3940.000
        80   08 Jun 2027 03:10:50.525   08 Jun 2027 03:14:28.078           217.553        108776.500
        81   08 Jun 2027 03:15:08.016   08 Jun 2027 03:16:06.686            58.670         29335.000
        82   08 Jun 2027 03:17:41.804   08 Jun 2027 03:18:10.456            28.652         14326.000
        83   08 Jun 2027 04:47:51.012   08 Jun 2027 04:50:54.078           183.066         91533.000
        84   08 Jun 2027 04:51:55.109   08 Jun 2027 04:52:12.984            17.875          8937.500
        85   08 Jun 2027 04:52:46.170   08 Jun 2027 04:53:01.012            14.842          7421.000
        86   08 Jun 2027 04:53:23.351   08 Jun 2027 04:53:34.433            11.082          5541.000
        87   08 Jun 2027 06:25:52.009   08 Jun 2027 06:28:16.635           144.626         72313.000
        88   08 Jun 2027 06:28:44.113   08 Jun 2027 06:29:11.527            27.414         13707.000
        89   08 Jun 2027 07:59:05.986   08 Jun 2027 08:00:47.660           101.674         50837.000
        90   08 Jun 2027 08:01:52.350   08 Jun 2027 08:02:00.744             8.394          4197.000
        91   08 Jun 2027 08:02:07.056   08 Jun 2027 08:02:15.971             8.915          4457.500
        92   08 Jun 2027 08:03:22.992   08 Jun 2027 08:03:27.165             4.173          2086.500
        93   08 Jun 2027 08:04:09.801   08 Jun 2027 08:04:24.386            14.585          7292.500
        94   08 Jun 2027 08:04:28.640   08 Jun 2027 08:04:28.709             0.069            34.500
        95   08 Jun 2027 08:04:34.079   08 Jun 2027 08:04:34.310             0.231           115.500
        96   08 Jun 2027 08:04:51.311   08 Jun 2027 08:04:57.189             5.878          2939.000
        97   08 Jun 2027 08:04:59.541   08 Jun 2027 08:05:00.469             0.928           464.000
        98   08 Jun 2027 08:05:31.904   08 Jun 2027 08:05:35.962             4.058          2029.000
        99   08 Jun 2027 08:05:52.380   08 Jun 2027 08:06:04.158            11.778          5889.000
       100   08 Jun 2027 08:06:53.653   08 Jun 2027 08:06:58.359             4.706          2353.000
       101   09 Jun 2027 03:22:59.061   09 Jun 2027 03:27:53.823           294.762        147381.000
       102   09 Jun 2027 03:29:26.180   09 Jun 2027 03:30:25.010            58.830         29415.000
       103   09 Jun 2027 04:59:56.450   09 Jun 2027 05:02:41.900           165.450         82725.000
       104   09 Jun 2027 05:05:28.561   09 Jun 2027 05:06:03.844            35.283         17641.500
       105   09 Jun 2027 06:37:49.384   09 Jun 2027 06:40:28.282           158.898         79449.000
       106   09 Jun 2027 06:41:05.141   09 Jun 2027 06:41:26.812            21.671         10835.500
       107   09 Jun 2027 08:11:17.851   09 Jun 2027 08:11:48.033            30.182         15091.000
       108   09 Jun 2027 08:12:45.876   09 Jun 2027 08:13:26.884            41.008         20504.000
       109   09 Jun 2027 08:15:19.051   09 Jun 2027 08:15:22.759             3.708          1854.000
       110   09 Jun 2027 08:15:25.028   09 Jun 2027 08:15:32.722             7.694          3847.000
       111   09 Jun 2027 08:16:30.999   09 Jun 2027 08:16:38.572             7.573          3786.500
       112   09 Jun 2027 08:16:56.200   09 Jun 2027 08:17:04.161             7.961          3980.500
       113   09 Jun 2027 08:18:07.738   09 Jun 2027 08:18:15.295             7.557          3778.500
       114   09 Jun 2027 08:18:35.174   09 Jun 2027 08:18:55.903            20.729         10364.500
       115   10 Jun 2027 03:35:00.657   10 Jun 2027 03:40:13.337           312.680        156340.000
       116   10 Jun 2027 03:40:27.366   10 Jun 2027 03:40:49.256            21.890         10945.000
       117   10 Jun 2027 03:41:03.913   10 Jun 2027 03:41:22.270            18.357          9178.500
       118   10 Jun 2027 03:41:32.864   10 Jun 2027 03:42:08.028            35.164         17582.000
       119   10 Jun 2027 03:42:25.809   10 Jun 2027 03:42:26.835             1.026           513.000
       120   10 Jun 2027 05:11:48.697   10 Jun 2027 05:14:54.479           185.782         92891.000
       121   10 Jun 2027 05:15:07.878   10 Jun 2027 05:15:09.298             1.420           710.000
       122   10 Jun 2027 05:15:39.170   10 Jun 2027 05:15:52.584            13.414          6707.000
       123   10 Jun 2027 05:16:52.618   10 Jun 2027 05:17:04.185            11.567          5783.500
       124   10 Jun 2027 05:17:15.411   10 Jun 2027 05:17:23.739             8.328          4164.000
       125   10 Jun 2027 05:17:25.274   10 Jun 2027 05:17:25.708             0.434           217.000
       126   10 Jun 2027 05:18:14.773   10 Jun 2027 05:18:30.035            15.262          7631.000
       127   10 Jun 2027 06:49:51.335   10 Jun 2027 06:52:33.553           162.218         81109.000
       128   10 Jun 2027 06:52:44.211   10 Jun 2027 06:52:47.333             3.122          1561.000
       129   10 Jun 2027 06:53:00.615   10 Jun 2027 06:53:01.599             0.984           492.000
       130   10 Jun 2027 06:53:24.918   10 Jun 2027 06:53:26.299             1.381           690.500
       131   10 Jun 2027 06:53:41.523   10 Jun 2027 06:53:53.648            12.125          6062.500
       132   10 Jun 2027 08:23:42.999   10 Jun 2027 08:24:00.069            17.070          8535.000
       133   10 Jun 2027 08:24:58.147   10 Jun 2027 08:25:22.140            23.993         11996.500
       134   10 Jun 2027 08:26:15.911   10 Jun 2027 08:27:10.284            54.373         27186.500
       135   10 Jun 2027 08:30:10.794   10 Jun 2027 08:30:24.123            13.329          6664.500
       136   11 Jun 2027 03:47:03.840   11 Jun 2027 03:53:50.232           406.392        203196.000
       137   11 Jun 2027 03:53:51.118   11 Jun 2027 03:53:51.149             0.031            15.500
       138   11 Jun 2027 05:23:58.533   11 Jun 2027 05:27:54.593           236.060        118030.000
       139   11 Jun 2027 05:28:09.062   11 Jun 2027 05:28:12.722             3.660          1830.000
       140   11 Jun 2027 05:28:44.057   11 Jun 2027 05:28:46.624             2.567          1283.500
       141   11 Jun 2027 05:30:00.640   11 Jun 2027 05:30:01.556             0.916           458.000
       142   11 Jun 2027 05:30:19.399   11 Jun 2027 05:30:19.431             0.032            16.000
       143   11 Jun 2027 07:01:04.632   11 Jun 2027 07:03:34.583           149.951         74975.500
       144   11 Jun 2027 07:03:58.304   11 Jun 2027 07:04:15.622            17.318          8659.000
       145   11 Jun 2027 08:36:05.399   11 Jun 2027 08:36:49.801            44.402         22201.000
       146   11 Jun 2027 08:37:46.018   11 Jun 2027 08:37:55.161             9.143          4571.500
       147   11 Jun 2027 08:38:24.500   11 Jun 2027 08:39:10.693            46.193         23096.500
       148   12 Jun 2027 03:59:29.546   12 Jun 2027 04:06:14.731           405.185        202592.500
       149   12 Jun 2027 05:36:25.962   12 Jun 2027 05:39:50.723           204.761        102380.500
       150   12 Jun 2027 05:41:50.674   12 Jun 2027 05:42:12.953            22.279         11139.500
       151   12 Jun 2027 07:13:16.503   12 Jun 2027 07:15:44.423           147.920         73960.000
       152   12 Jun 2027 07:15:53.461   12 Jun 2027 07:15:56.637             3.176          1588.000
       153   12 Jun 2027 07:16:09.862   12 Jun 2027 07:16:20.260            10.398          5199.000
       154   12 Jun 2027 07:17:06.215   12 Jun 2027 07:17:17.197            10.982          5491.000
       155   12 Jun 2027 08:50:53.229   12 Jun 2027 08:51:18.983            25.754         12877.000
       156   13 Jun 2027 04:11:35.941   13 Jun 2027 04:18:03.750           387.809        193904.500
       157   13 Jun 2027 05:49:16.754   13 Jun 2027 05:52:23.413           186.659         93329.500
       158   13 Jun 2027 05:52:43.411   13 Jun 2027 05:52:55.558            12.147          6073.500
       159   13 Jun 2027 05:53:16.340   13 Jun 2027 05:53:44.636            28.296         14148.000
       160   13 Jun 2027 07:25:19.048   13 Jun 2027 07:27:54.753           155.705         77852.500
       161   13 Jun 2027 07:29:01.091   13 Jun 2027 07:29:11.505            10.414          5207.000
       162   13 Jun 2027 07:29:31.401   13 Jun 2027 07:29:39.712             8.311          4155.500
