uniorb/output/strategy_1/Camera/Camera_KinoSat_111303.txt

KinoSat_111303
-------------------------
    Access    *     Start Time (UTCG)     *     Stop Time (UTCG)  *   Duration (s) *   Data (Mbytes)
         1   01 Jun 2027 03:47:13.558   01 Jun 2027 03:49:36.889           143.331         71665.500
         2   01 Jun 2027 03:49:58.094   01 Jun 2027 03:50:02.441             4.347          2173.500
         3   01 Jun 2027 03:51:11.319   01 Jun 2027 03:51:21.780            10.461          5230.500
         4   01 Jun 2027 05:10:35.330   01 Jun 2027 05:11:34.294            58.964         29482.000
         5   01 Jun 2027 05:11:41.962   01 Jun 2027 05:11:52.678            10.716          5358.000
         6   01 Jun 2027 05:12:04.905   01 Jun 2027 05:12:17.982            13.077          6538.500
         7   01 Jun 2027 06:46:57.533   01 Jun 2027 06:48:35.213            97.680         48840.000
         8   01 Jun 2027 06:49:12.117   01 Jun 2027 06:49:23.722            11.605          5802.500
         9   01 Jun 2027 06:49:56.683   01 Jun 2027 06:50:02.873             6.190          3095.000
        10   01 Jun 2027 06:50:18.089   01 Jun 2027 06:50:30.683            12.594          6297.000
        11   01 Jun 2027 08:19:14.558   01 Jun 2027 08:19:33.816            19.258          9629.000
        12   01 Jun 2027 08:21:01.616   01 Jun 2027 08:22:31.262            89.646         44823.000
        13   01 Jun 2027 08:22:35.190   01 Jun 2027 08:22:45.857            10.667          5333.500
        14   01 Jun 2027 08:27:37.747   01 Jun 2027 08:27:47.776            10.029          5014.500
        15   01 Jun 2027 09:58:05.965   01 Jun 2027 10:00:07.867           121.902         60951.000
        16   01 Jun 2027 10:04:09.991   01 Jun 2027 10:04:11.452             1.461           730.500
        17   01 Jun 2027 11:35:02.455   01 Jun 2027 11:37:20.496           138.041         69020.500
        18   01 Jun 2027 11:37:26.442   01 Jun 2027 11:37:38.308            11.866          5933.000
        19   02 Jun 2027 03:59:41.877   02 Jun 2027 04:01:19.363            97.486         48743.000
        20   02 Jun 2027 04:01:46.839   02 Jun 2027 04:01:50.984             4.145          2072.500
        21   02 Jun 2027 04:02:36.200   02 Jun 2027 04:02:44.208             8.008          4004.000
        22   02 Jun 2027 04:02:56.732   02 Jun 2027 04:03:05.397             8.665          4332.500
        23   02 Jun 2027 05:22:38.941   02 Jun 2027 05:23:30.558            51.617         25808.500
        24   02 Jun 2027 05:23:56.749   02 Jun 2027 05:24:15.374            18.625          9312.500
        25   02 Jun 2027 06:59:08.214   02 Jun 2027 07:00:59.425           111.211         55605.500
        26   02 Jun 2027 07:01:11.508   02 Jun 2027 07:01:13.372             1.864           932.000
        27   02 Jun 2027 08:34:13.070   02 Jun 2027 08:36:35.229           142.159         71079.500
        28   02 Jun 2027 10:10:34.634   02 Jun 2027 10:12:15.757           101.123         50561.500
        29   02 Jun 2027 10:12:40.502   02 Jun 2027 10:13:03.320            22.818         11409.000
        30   02 Jun 2027 10:14:59.343   02 Jun 2027 10:15:12.186            12.843          6421.500
        31   02 Jun 2027 11:48:05.442   02 Jun 2027 11:48:16.466            11.024          5512.000
        32   02 Jun 2027 11:48:48.543   02 Jun 2027 11:49:28.377            39.834         19917.000
        33   02 Jun 2027 11:50:07.234   02 Jun 2027 11:50:49.063            41.829         20914.500
        34   02 Jun 2027 11:51:21.919   02 Jun 2027 11:51:44.597            22.678         11339.000
        35   03 Jun 2027 04:11:16.272   03 Jun 2027 04:11:52.604            36.332         18166.000
        36   03 Jun 2027 04:12:05.366   03 Jun 2027 04:12:56.258            50.892         25446.000
        37   03 Jun 2027 05:34:35.410   03 Jun 2027 05:36:11.643            96.233         48116.500
        38   03 Jun 2027 07:11:13.241   03 Jun 2027 07:13:27.216           133.975         66987.500
        39   03 Jun 2027 07:14:20.448   03 Jun 2027 07:14:30.700            10.252          5126.000
        40   03 Jun 2027 08:46:23.288   03 Jun 2027 08:48:10.705           107.417         53708.500
        41   03 Jun 2027 08:49:27.221   03 Jun 2027 08:49:44.392            17.171          8585.500
        42   03 Jun 2027 08:50:55.395   03 Jun 2027 08:51:01.884             6.489          3244.500
        43   03 Jun 2027 08:51:52.064   03 Jun 2027 08:52:12.336            20.272         10136.000
        44   03 Jun 2027 08:52:21.000   03 Jun 2027 08:52:22.773             1.773           886.500
        45   03 Jun 2027 10:22:39.262   03 Jun 2027 10:23:48.330            69.068         33996.594
        46   03 Jun 2027 10:26:28.658   03 Jun 2027 10:26:35.143             6.485          3242.500
        47   03 Jun 2027 10:26:58.406   03 Jun 2027 10:27:01.418             3.012          1506.000
        48   03 Jun 2027 10:27:05.466   03 Jun 2027 10:27:07.159             1.693           846.500
        49   03 Jun 2027 10:28:00.548   03 Jun 2027 10:28:08.412             7.864          1937.125
        50   03 Jun 2027 10:28:42.598   03 Jun 2027 10:28:44.621             2.023          1011.500
        51   04 Jun 2027 04:12:25.192   04 Jun 2027 04:12:38.480            13.288          6644.000
        52   04 Jun 2027 04:23:12.828   04 Jun 2027 04:23:54.915            42.087         21043.500
        53   04 Jun 2027 04:24:01.009   04 Jun 2027 04:24:12.988            11.979          5989.500
        54   04 Jun 2027 04:25:43.023   04 Jun 2027 04:26:06.247            23.224         11612.000
        55   04 Jun 2027 05:47:11.558   04 Jun 2027 05:48:23.836            72.278         36139.000
        56   04 Jun 2027 05:48:49.414   04 Jun 2027 05:49:15.542            26.128         13064.000
        57   04 Jun 2027 07:22:56.864   04 Jun 2027 07:25:20.221           143.357         71678.500
        58   04 Jun 2027 07:26:08.721   04 Jun 2027 07:26:16.498             7.777          3836.094
        59   04 Jun 2027 08:57:48.140   04 Jun 2027 08:58:15.011            26.871         10477.375
        60   04 Jun 2027 08:59:56.102   04 Jun 2027 09:00:04.331             8.229          2994.875
        61   04 Jun 2027 09:01:03.358   04 Jun 2027 09:01:05.902             2.544          1272.000
        62   04 Jun 2027 09:01:53.619   04 Jun 2027 09:01:53.619             0.000             0.000
        63   04 Jun 2027 09:02:28.131   04 Jun 2027 09:02:33.420             5.289          2590.375
        64   04 Jun 2027 09:02:53.042   04 Jun 2027 09:02:58.571             5.529           613.187
        65   04 Jun 2027 09:03:48.088   04 Jun 2027 09:03:52.296             4.208          1061.219
        66   04 Jun 2027 09:04:22.177   04 Jun 2027 09:04:23.431             1.254           567.156
        67   04 Jun 2027 09:04:35.125   04 Jun 2027 09:04:35.960             0.835           365.438
        68   04 Jun 2027 09:04:58.695   04 Jun 2027 09:04:58.695             0.000             0.000
        69   04 Jun 2027 10:34:23.750   04 Jun 2027 10:34:42.868            19.118          8677.437
        70   04 Jun 2027 10:34:49.233   04 Jun 2027 10:34:53.073             3.840           192.969
        71   04 Jun 2027 10:35:19.010   04 Jun 2027 10:35:22.097             3.087           810.531
        72   04 Jun 2027 10:36:24.754   04 Jun 2027 10:36:29.673             4.919          1597.031
        73   04 Jun 2027 10:36:40.118   04 Jun 2027 10:36:42.973             2.855           326.406
        74   04 Jun 2027 10:36:53.042   04 Jun 2027 10:36:55.493             2.451           314.656
        75   04 Jun 2027 10:37:01.018   04 Jun 2027 10:37:01.897             0.879            15.906
        76   04 Jun 2027 10:37:23.068   04 Jun 2027 10:37:26.483             3.415           574.313
        77   04 Jun 2027 10:37:40.306   04 Jun 2027 10:37:41.951             1.645           431.969
        78   04 Jun 2027 10:38:48.567   04 Jun 2027 10:38:55.975             7.408          1744.156
        79   04 Jun 2027 10:39:35.933   04 Jun 2027 10:39:43.196             7.263          1138.531
        80   04 Jun 2027 10:40:40.006   04 Jun 2027 10:40:43.620             3.614          1775.312
        81   05 Jun 2027 03:00:00.000   05 Jun 2027 03:00:18.746            18.746          9373.000
        82   05 Jun 2027 03:01:47.552   05 Jun 2027 03:01:56.221             8.669          4334.500
        83   05 Jun 2027 03:02:27.122   05 Jun 2027 03:02:33.773             6.651          3325.500
        84   05 Jun 2027 03:02:40.480   05 Jun 2027 03:03:05.571            25.091         12545.500
        85   05 Jun 2027 03:04:28.540   05 Jun 2027 03:04:37.693             9.153          4576.500
        86   05 Jun 2027 03:05:00.248   05 Jun 2027 03:05:01.876             1.628           814.000
        87   05 Jun 2027 03:05:16.008   05 Jun 2027 03:05:51.282            35.274         17637.000
        88   05 Jun 2027 04:23:41.796   05 Jun 2027 04:23:53.051            11.255          5627.500
        89   05 Jun 2027 04:24:35.774   05 Jun 2027 04:24:36.165             0.391           195.500
        90   05 Jun 2027 04:35:10.813   05 Jun 2027 04:36:02.511            51.698         25849.000
        91   05 Jun 2027 04:36:44.386   05 Jun 2027 04:36:49.317             4.931          2465.500
        92   05 Jun 2027 05:57:50.136   05 Jun 2027 05:58:49.132            58.996         29498.000
        93   05 Jun 2027 05:59:25.877   05 Jun 2027 05:59:48.167            22.290         11145.000
        94   05 Jun 2027 05:59:53.800   05 Jun 2027 05:59:53.800             0.000             0.000
        95   05 Jun 2027 06:02:14.709   05 Jun 2027 06:02:21.730             7.021          3510.500
        96   05 Jun 2027 07:33:10.116   05 Jun 2027 07:34:08.859            58.743         29371.500
        97   05 Jun 2027 07:34:42.064   05 Jun 2027 07:35:30.640            48.576         24288.000
        98   05 Jun 2027 07:36:01.132   05 Jun 2027 07:36:01.132             0.000             0.000
        99   05 Jun 2027 07:37:41.726   05 Jun 2027 07:37:41.726             0.000             0.000
       100   05 Jun 2027 07:38:00.295   05 Jun 2027 07:38:05.121             4.826          2413.000
       101   05 Jun 2027 07:38:18.282   05 Jun 2027 07:38:18.282             0.000             0.000
       102   05 Jun 2027 09:09:40.282   05 Jun 2027 09:09:58.978            18.696          9348.000
       103   05 Jun 2027 09:10:35.726   05 Jun 2027 09:10:42.500             6.774          2912.906
       104   05 Jun 2027 09:11:03.954   05 Jun 2027 09:11:03.988             0.034            17.000
       105   05 Jun 2027 09:11:18.476   05 Jun 2027 09:11:23.513             5.037           595.063
       106   05 Jun 2027 09:11:58.931   05 Jun 2027 09:12:01.369             2.438          1058.250
       107   05 Jun 2027 09:12:28.286   05 Jun 2027 09:12:29.724             1.438           324.969
       108   05 Jun 2027 09:13:03.206   05 Jun 2027 09:13:06.185             2.979           767.500
       109   05 Jun 2027 09:13:21.813   05 Jun 2027 09:13:24.218             2.405           488.375
       110   05 Jun 2027 09:14:32.638   05 Jun 2027 09:14:38.823             6.185          1785.438
       111   05 Jun 2027 09:14:56.267   05 Jun 2027 09:15:00.890             4.623           234.219
       112   05 Jun 2027 09:15:35.173   05 Jun 2027 09:15:35.911             0.738           369.000
       113   05 Jun 2027 09:16:19.729   05 Jun 2027 09:16:23.947             4.218          1678.500
       114   05 Jun 2027 09:16:56.404   05 Jun 2027 09:17:02.756             6.352           569.219
       115   05 Jun 2027 09:17:09.867   05 Jun 2027 09:17:09.916             0.049            24.500
       116   05 Jun 2027 10:46:44.951   05 Jun 2027 10:47:01.391            16.440          8169.094
       117   05 Jun 2027 10:48:24.796   05 Jun 2027 10:48:32.288             7.492          2606.406
       118   05 Jun 2027 10:49:00.530   05 Jun 2027 10:49:05.506             4.976           879.031
       119   05 Jun 2027 10:49:40.926   05 Jun 2027 10:49:41.418             0.492           246.000
       120   05 Jun 2027 10:50:08.577   05 Jun 2027 10:50:12.557             3.980          1461.563
       121   05 Jun 2027 10:50:37.537   05 Jun 2027 10:50:38.883             1.346           155.219
       122   05 Jun 2027 10:50:48.355   05 Jun 2027 10:50:48.355             0.000             0.000
       123   05 Jun 2027 10:51:33.809   05 Jun 2027 10:51:38.588             4.779          1575.813
       124   05 Jun 2027 10:52:13.265   05 Jun 2027 10:52:18.295             5.030           885.094
       125   05 Jun 2027 10:52:44.983   05 Jun 2027 10:52:53.223             8.240           750.094
       126   06 Jun 2027 03:10:40.682   06 Jun 2027 03:11:57.871            77.189         38594.500
       127   06 Jun 2027 03:13:48.313   06 Jun 2027 03:13:59.312            10.999          5499.500
       128   06 Jun 2027 03:14:26.799   06 Jun 2027 03:14:26.799             0.000             0.000
       129   06 Jun 2027 03:16:04.706   06 Jun 2027 03:16:25.725            21.019         10509.500
       130   06 Jun 2027 03:17:30.173   06 Jun 2027 03:17:32.466             2.293          1146.500
       131   06 Jun 2027 04:34:57.758   06 Jun 2027 04:35:22.636            24.878         12439.000
       132   06 Jun 2027 04:35:41.738   06 Jun 2027 04:35:53.633            11.895          5947.500
       133   06 Jun 2027 04:36:30.768   06 Jun 2027 04:36:31.400             0.632           316.000
       134   06 Jun 2027 04:47:10.105   06 Jun 2027 04:47:54.561            44.456         22228.000
       135   06 Jun 2027 06:09:26.087   06 Jun 2027 06:10:28.643            62.556         31278.000
       136   06 Jun 2027 06:11:56.515   06 Jun 2027 06:12:20.303            23.788         11894.000
       137   06 Jun 2027 06:12:26.875   06 Jun 2027 06:12:26.875             0.000             0.000
       138   06 Jun 2027 06:13:44.445   06 Jun 2027 06:13:45.487             1.042           521.000
       139   06 Jun 2027 06:13:46.867   06 Jun 2027 06:13:56.628             9.761          4880.500
       140   06 Jun 2027 07:44:19.692   06 Jun 2027 07:45:33.154            73.462         36731.000
       141   06 Jun 2027 07:46:19.069   06 Jun 2027 07:46:22.755             3.686          1580.094
       142   06 Jun 2027 07:48:20.977   06 Jun 2027 07:48:20.977             0.000             0.000
       143   06 Jun 2027 07:49:38.426   06 Jun 2027 07:49:50.437            12.011          6005.500
       144   06 Jun 2027 07:50:55.347   06 Jun 2027 07:51:00.324             4.977          2082.156
       145   06 Jun 2027 07:52:28.589   06 Jun 2027 07:52:34.224             5.635          2578.219
       146   06 Jun 2027 09:21:53.524   06 Jun 2027 09:22:07.256            13.732          6262.687
       147   06 Jun 2027 09:22:26.155   06 Jun 2027 09:22:27.125             0.970           353.750
       148   06 Jun 2027 09:22:39.481   06 Jun 2027 09:22:40.661             1.180           335.938
       149   06 Jun 2027 09:22:50.944   06 Jun 2027 09:22:53.382             2.438           321.344
       150   06 Jun 2027 09:23:14.781   06 Jun 2027 09:23:16.708             1.927            69.969
       151   06 Jun 2027 09:23:27.598   06 Jun 2027 09:23:28.379             0.781           223.688
       152   06 Jun 2027 09:24:39.057   06 Jun 2027 09:24:43.199             4.142          1921.000
       153   06 Jun 2027 09:25:41.504   06 Jun 2027 09:25:43.722             2.218          1109.000
       154   06 Jun 2027 09:26:44.544   06 Jun 2027 09:26:50.659             6.115          2507.875
       155   06 Jun 2027 09:27:04.186   06 Jun 2027 09:27:06.325             2.139           419.125
       156   06 Jun 2027 09:28:21.423   06 Jun 2027 09:28:28.403             6.980          2346.813
       157   06 Jun 2027 09:28:53.515   06 Jun 2027 09:28:53.515             0.000             0.000
       158   06 Jun 2027 10:58:36.083   06 Jun 2027 10:58:54.904            18.821          7537.781
       159   06 Jun 2027 10:59:17.678   06 Jun 2027 10:59:19.391             1.713           711.688
       160   06 Jun 2027 10:59:41.575   06 Jun 2027 10:59:43.079             1.504           498.250
       161   06 Jun 2027 10:59:48.939   06 Jun 2027 10:59:54.097             5.158           168.938
       162   06 Jun 2027 11:00:09.711   06 Jun 2027 11:00:15.025             5.314           333.500
       163   06 Jun 2027 11:01:22.155   06 Jun 2027 11:01:28.962             6.807          2061.219
       164   06 Jun 2027 11:01:36.254   06 Jun 2027 11:01:37.362             1.108           227.875
       165   06 Jun 2027 11:01:59.537   06 Jun 2027 11:01:59.537             0.000             0.000
       166   06 Jun 2027 11:02:43.951   06 Jun 2027 11:02:49.731             5.780          1949.094
       167   06 Jun 2027 11:02:56.405   06 Jun 2027 11:02:57.444             1.039           208.563
       168   06 Jun 2027 11:03:03.802   06 Jun 2027 11:03:05.173             1.371           128.625
       169   06 Jun 2027 11:04:43.564   06 Jun 2027 11:04:46.987             3.423          1711.500
       170   07 Jun 2027 03:22:44.912   07 Jun 2027 03:24:07.471            82.559         41279.500
       171   07 Jun 2027 03:24:50.295   07 Jun 2027 03:24:50.295             0.000             0.000
       172   07 Jun 2027 03:25:07.097   07 Jun 2027 03:25:28.864            21.767         10883.500
       173   07 Jun 2027 03:28:51.230   07 Jun 2027 03:29:11.812            20.582         10291.000
       174   07 Jun 2027 04:47:03.523   07 Jun 2027 04:47:44.608            41.085         20542.500
       175   07 Jun 2027 04:47:58.219   07 Jun 2027 04:48:09.327            11.108          5554.000
       176   07 Jun 2027 04:59:24.668   07 Jun 2027 04:59:43.831            19.163          9581.500
       177   07 Jun 2027 06:20:55.270   07 Jun 2027 06:22:18.516            83.246         41623.000
       178   07 Jun 2027 06:24:57.111   07 Jun 2027 06:24:57.111             0.000             0.000
       179   07 Jun 2027 06:26:06.258   07 Jun 2027 06:26:17.154            10.896          5448.000
       180   07 Jun 2027 07:55:50.395   07 Jun 2027 07:57:02.132            71.737         34551.970
       181   07 Jun 2027 07:58:25.002   07 Jun 2027 07:58:26.407             1.405           702.500
       182   07 Jun 2027 07:59:17.555   07 Jun 2027 07:59:23.626             6.071          1866.219
       183   07 Jun 2027 08:01:41.977   07 Jun 2027 08:01:53.253            11.276          4301.250
       184   07 Jun 2027 08:02:48.643   07 Jun 2027 08:02:52.244             3.601          1577.469
       185   07 Jun 2027 08:03:37.010   07 Jun 2027 08:03:41.800             4.790          1357.969
       186   07 Jun 2027 08:03:46.255   07 Jun 2027 08:03:47.754             1.499           139.219
       187   07 Jun 2027 09:33:47.565   07 Jun 2027 09:34:01.647            14.082          6955.688
       188   07 Jun 2027 09:36:45.399   07 Jun 2027 09:37:00.214            14.815          5117.250
       189   07 Jun 2027 09:37:07.053   07 Jun 2027 09:37:09.413             2.360            43.750
       190   07 Jun 2027 09:37:26.483   07 Jun 2027 09:37:27.800             1.317           533.438
       191   07 Jun 2027 09:37:55.678   07 Jun 2027 09:37:58.522             2.844           533.812
       192   07 Jun 2027 09:38:09.414   07 Jun 2027 09:38:10.172             0.758           340.375
       193   07 Jun 2027 09:38:57.002   07 Jun 2027 09:39:01.629             4.627          1111.437
       194   07 Jun 2027 09:39:31.900   07 Jun 2027 09:39:34.833             2.933           943.437
       195   07 Jun 2027 09:40:23.584   07 Jun 2027 09:40:27.492             3.908          1473.688
       196   07 Jun 2027 09:40:38.819   07 Jun 2027 09:40:40.003             1.184           130.094
       197   07 Jun 2027 09:40:52.286   07 Jun 2027 09:40:53.270             0.984           383.844
       198   07 Jun 2027 09:41:00.815   07 Jun 2027 09:41:05.781             4.966           235.781
       199   07 Jun 2027 11:10:42.021   07 Jun 2027 11:10:59.794            17.773          7385.594
       200   07 Jun 2027 11:11:47.302   07 Jun 2027 11:11:50.458             3.156           562.344
       201   07 Jun 2027 11:13:20.020   07 Jun 2027 11:13:26.577             6.557          1385.094
       202   07 Jun 2027 11:13:52.767   07 Jun 2027 11:13:55.907             3.140           715.187
       203   07 Jun 2027 11:14:39.565   07 Jun 2027 11:14:40.749             1.184           379.000
       204   07 Jun 2027 11:14:57.237   07 Jun 2027 11:14:59.333             2.096           515.250
       205   07 Jun 2027 11:15:27.270   07 Jun 2027 11:15:30.109             2.839           873.031
       206   07 Jun 2027 11:15:45.908   07 Jun 2027 11:15:47.440             1.532           343.969
       207   07 Jun 2027 11:16:23.647   07 Jun 2027 11:16:28.072             4.425           747.687
       208   07 Jun 2027 11:16:35.271   07 Jun 2027 11:16:36.011             0.740           224.969
       209   07 Jun 2027 11:17:10.384   07 Jun 2027 11:17:12.797             2.413          1074.156
       210   08 Jun 2027 03:35:10.934   08 Jun 2027 03:36:58.673           107.739         53869.500
       211   08 Jun 2027 03:37:50.352   08 Jun 2027 03:37:55.605             5.253          2626.500
       212   08 Jun 2027 03:38:24.558   08 Jun 2027 03:38:48.156            23.598         11799.000
       213   08 Jun 2027 04:58:59.392   08 Jun 2027 04:59:47.405            48.013         24006.500
       214   08 Jun 2027 06:34:59.214   08 Jun 2027 06:37:08.496           129.282         64641.000
       215   08 Jun 2027 08:08:43.820   08 Jun 2027 08:09:21.471            37.651         16108.406
       216   08 Jun 2027 08:11:05.824   08 Jun 2027 08:11:05.824             0.000             0.000
       217   08 Jun 2027 08:11:13.536   08 Jun 2027 08:11:16.672             3.136          1568.000
       218   08 Jun 2027 08:11:18.466   08 Jun 2027 08:11:19.548             1.082           541.000
       219   08 Jun 2027 08:13:41.193   08 Jun 2027 08:13:50.797             9.604          4629.844
       220   08 Jun 2027 08:14:11.634   08 Jun 2027 08:14:15.104             3.470           606.656
       221   08 Jun 2027 08:16:25.043   08 Jun 2027 08:16:32.942             7.899          3821.469
       222   08 Jun 2027 08:17:15.195   08 Jun 2027 08:17:15.195             0.000             0.000
       223   08 Jun 2027 09:46:08.654   08 Jun 2027 09:46:22.726            14.072          6460.188
       224   08 Jun 2027 09:47:10.078   08 Jun 2027 09:47:11.699             1.621            22.937
       225   08 Jun 2027 09:47:12.237   08 Jun 2027 09:47:14.097             1.860            12.938
       226   08 Jun 2027 09:47:30.204   08 Jun 2027 09:47:31.259             1.055           291.156
       227   08 Jun 2027 09:49:59.354   08 Jun 2027 09:49:59.354             0.000             0.000
       228   08 Jun 2027 09:50:39.307   08 Jun 2027 09:50:59.160            19.853          5876.500
       229   08 Jun 2027 09:51:19.530   08 Jun 2027 09:51:21.022             1.492           606.250
       230   08 Jun 2027 09:51:37.550   08 Jun 2027 09:51:41.237             3.687           516.500
       231   08 Jun 2027 09:51:47.361   08 Jun 2027 09:51:49.762             2.401           143.875
       232   08 Jun 2027 09:52:22.133   08 Jun 2027 09:52:22.133             0.000             0.000
       233   08 Jun 2027 09:52:49.908   08 Jun 2027 09:52:52.920             3.012          1200.344
       234   08 Jun 2027 09:53:02.139   08 Jun 2027 09:53:04.095             1.956           288.094
       235   08 Jun 2027 11:23:12.364   08 Jun 2027 11:23:25.607            13.243          6321.844
       236   08 Jun 2027 11:24:38.507   08 Jun 2027 11:24:43.977             5.470          2209.562
       237   08 Jun 2027 11:24:57.265   08 Jun 2027 11:24:59.796             2.531           415.250
       238   08 Jun 2027 11:25:02.573   08 Jun 2027 11:25:05.086             2.513            39.969
       239   08 Jun 2027 11:25:17.780   08 Jun 2027 11:25:18.892             1.112           396.687
       240   08 Jun 2027 11:25:36.241   08 Jun 2027 11:25:37.880             1.639           362.156
       241   08 Jun 2027 11:25:43.723   08 Jun 2027 11:25:43.723             0.000             0.000
       242   08 Jun 2027 11:26:42.643   08 Jun 2027 11:26:48.083             5.440          1975.031
       243   08 Jun 2027 11:27:14.809   08 Jun 2027 11:27:16.477             1.668           546.750
       244   08 Jun 2027 11:28:00.997   08 Jun 2027 11:28:04.650             3.653          1347.625
       245   08 Jun 2027 11:28:47.819   08 Jun 2027 11:28:51.409             3.590          1164.562
       246   09 Jun 2027 03:47:29.486   09 Jun 2027 03:49:48.461           138.975         69487.500
       247   09 Jun 2027 05:10:50.980   09 Jun 2027 05:11:50.112            59.132         29566.000
       248   09 Jun 2027 05:11:59.378   09 Jun 2027 05:12:03.344             3.966          1983.000
       249   09 Jun 2027 06:47:13.673   09 Jun 2027 06:48:51.126            97.453         48726.500
       250   09 Jun 2027 06:49:14.532   09 Jun 2027 06:49:18.732             4.200          2100.000
       251   09 Jun 2027 08:21:17.866   09 Jun 2027 08:21:53.969            36.103         17996.875
       252   09 Jun 2027 08:23:04.929   09 Jun 2027 08:23:09.046             4.117          1984.406
       253   09 Jun 2027 08:24:10.033   09 Jun 2027 08:24:10.033             0.000             0.000
       254   09 Jun 2027 08:24:43.954   09 Jun 2027 08:24:50.559             6.605          2847.000
       255   09 Jun 2027 08:25:10.813   09 Jun 2027 08:25:11.728             0.915           448.938
       256   09 Jun 2027 08:25:43.884   09 Jun 2027 08:25:44.695             0.811           405.500
       257   09 Jun 2027 08:26:15.597   09 Jun 2027 08:26:19.087             3.490          1339.781
       258   09 Jun 2027 08:27:45.530   09 Jun 2027 08:27:54.666             9.136          2554.625
       259   09 Jun 2027 08:28:01.900   09 Jun 2027 08:28:01.900             0.000             0.000
       260   09 Jun 2027 08:28:39.970   09 Jun 2027 08:28:46.261             6.291          1415.750
       261   09 Jun 2027 08:29:14.803   09 Jun 2027 08:29:14.803             0.000             0.000
       262   09 Jun 2027 09:58:22.263   09 Jun 2027 09:58:37.465            15.202          6118.031
       263   09 Jun 2027 09:58:50.645   09 Jun 2027 09:58:51.303             0.658           249.719
       264   09 Jun 2027 09:59:09.503   09 Jun 2027 09:59:10.457             0.954           169.438
       265   09 Jun 2027 10:00:38.685   09 Jun 2027 10:00:43.916             5.231          2143.156
       266   09 Jun 2027 10:00:57.711   09 Jun 2027 10:00:59.270             1.559           431.094
       267   09 Jun 2027 10:01:10.746   09 Jun 2027 10:01:11.547             0.801            95.469
       268   09 Jun 2027 10:01:34.019   09 Jun 2027 10:01:35.934             1.915           543.313
       269   09 Jun 2027 10:02:21.263   09 Jun 2027 10:02:26.006             4.743          1033.844
       270   09 Jun 2027 10:02:39.928   09 Jun 2027 10:02:41.225             1.297           435.063
       271   09 Jun 2027 10:02:59.000   09 Jun 2027 10:03:04.793             5.793           321.531
       272   09 Jun 2027 10:03:29.251   09 Jun 2027 10:03:31.211             1.960           541.469
       273   09 Jun 2027 10:04:27.459   09 Jun 2027 10:04:34.239             6.780          1458.563
       274   09 Jun 2027 10:04:54.298   09 Jun 2027 10:04:55.702             1.404           368.125
       275   09 Jun 2027 10:05:04.757   09 Jun 2027 10:05:04.856             0.099            49.500
       276   09 Jun 2027 11:35:18.133   09 Jun 2027 11:35:33.802            15.669          6799.906
       277   09 Jun 2027 11:36:27.559   09 Jun 2027 11:36:30.565             3.006          1096.344
       278   09 Jun 2027 11:36:40.772   09 Jun 2027 11:36:40.772             0.000             0.000
       279   09 Jun 2027 11:37:02.793   09 Jun 2027 11:37:06.129             3.336           930.219
       280   09 Jun 2027 11:37:41.748   09 Jun 2027 11:37:46.306             4.558           947.656
       281   09 Jun 2027 11:38:40.004   09 Jun 2027 11:38:44.574             4.570          1445.219
       282   09 Jun 2027 11:38:56.798   09 Jun 2027 11:39:00.600             3.802           382.000
       283   09 Jun 2027 11:39:07.486   09 Jun 2027 11:39:11.321             3.835           110.469
       284   10 Jun 2027 03:59:58.668   10 Jun 2027 04:02:07.794           129.126         64563.000
       285   10 Jun 2027 05:22:55.306   10 Jun 2027 05:23:44.916            49.610         24805.000
       286   10 Jun 2027 05:24:12.465   10 Jun 2027 05:24:37.795            25.330         12665.000
       287   10 Jun 2027 06:59:24.303   10 Jun 2027 07:01:26.321           122.018         59810.656
       288   10 Jun 2027 07:01:54.385   10 Jun 2027 07:01:54.385             0.000             0.000
       289   10 Jun 2027 07:01:59.728   10 Jun 2027 07:02:01.972             2.244          1043.969
       290   10 Jun 2027 08:34:29.646   10 Jun 2027 08:34:42.929            13.283          6641.500
       291   10 Jun 2027 08:34:50.998   10 Jun 2027 08:34:52.965             1.967           387.625
       292   10 Jun 2027 08:36:27.886   10 Jun 2027 08:36:36.543             8.657          2813.594
       293   10 Jun 2027 08:37:37.197   10 Jun 2027 08:37:40.302             3.105          1365.375
       294   10 Jun 2027 08:38:02.471   10 Jun 2027 08:38:03.250             0.779           122.719
       295   10 Jun 2027 08:38:11.323   10 Jun 2027 08:38:13.252             1.929           142.375
       296   10 Jun 2027 08:39:11.541   10 Jun 2027 08:39:15.070             3.529          1254.875
       297   10 Jun 2027 08:39:25.932   10 Jun 2027 08:39:27.305             1.373           339.437
       298   10 Jun 2027 08:39:34.346   10 Jun 2027 08:39:37.263             2.917           152.844
       299   10 Jun 2027 08:40:54.769   10 Jun 2027 08:41:02.294             7.525          1864.750
       300   10 Jun 2027 10:10:51.825   10 Jun 2027 10:11:09.320            17.495          6488.781
       301   10 Jun 2027 10:11:41.661   10 Jun 2027 10:11:44.211             2.550           798.250
       302   10 Jun 2027 10:12:35.731   10 Jun 2027 10:12:38.464             2.733           687.750
       303   10 Jun 2027 10:13:03.385   10 Jun 2027 10:13:06.365             2.980           778.781
       304   10 Jun 2027 10:13:13.962   10 Jun 2027 10:13:16.121             2.159           237.406
       305   10 Jun 2027 10:14:17.606   10 Jun 2027 10:14:26.466             8.860          1780.062
       306   10 Jun 2027 10:14:55.510   10 Jun 2027 10:14:58.280             2.770           907.625
       307   10 Jun 2027 10:15:27.871   10 Jun 2027 10:15:34.388             6.517           799.906
       308   10 Jun 2027 10:16:14.580   10 Jun 2027 10:16:19.084             4.504          1256.000
       309   10 Jun 2027 10:16:29.742   10 Jun 2027 10:16:30.929             1.187           333.063
       310   10 Jun 2027 10:17:02.132   10 Jun 2027 10:17:04.246             2.114           975.094
       311   10 Jun 2027 11:48:21.035   10 Jun 2027 11:48:34.070            13.035          6517.500
       312   10 Jun 2027 11:48:41.176   10 Jun 2027 11:48:42.776             1.600           596.812
       313   10 Jun 2027 11:48:59.930   10 Jun 2027 11:49:02.103             2.173           536.062
       314   10 Jun 2027 11:49:29.435   10 Jun 2027 11:49:30.977             1.542           771.000
       315   10 Jun 2027 11:49:42.771   10 Jun 2027 11:49:46.462             3.691           412.688
       316   10 Jun 2027 11:50:24.589   10 Jun 2027 11:50:32.179             7.590          1191.469
       317   10 Jun 2027 11:50:37.924   10 Jun 2027 11:50:37.924             0.000             0.000
       318   10 Jun 2027 11:50:48.321   10 Jun 2027 11:50:49.482             1.161           468.656
       319   10 Jun 2027 11:51:33.785   10 Jun 2027 11:51:34.876             1.091           545.500
       320   10 Jun 2027 11:52:18.161   10 Jun 2027 11:52:21.502             3.341          1670.500
       321   11 Jun 2027 04:11:31.450   11 Jun 2027 04:12:08.814            37.364         18682.000
       322   11 Jun 2027 04:12:21.331   11 Jun 2027 04:13:25.266            63.935         31967.500
       323   11 Jun 2027 04:14:05.551   11 Jun 2027 04:14:17.028            11.477          5738.500
       324   11 Jun 2027 05:34:51.217   11 Jun 2027 05:36:09.106            77.889         38944.500
       325   11 Jun 2027 07:11:28.865   11 Jun 2027 07:13:42.335           133.470         66462.094
       326   11 Jun 2027 08:46:39.268   11 Jun 2027 08:46:51.808            12.540          6270.000
       327   11 Jun 2027 08:48:10.579   11 Jun 2027 08:48:21.527            10.948          3823.281
       328   11 Jun 2027 08:49:05.932   11 Jun 2027 08:49:12.431             6.499          1173.813
       329   11 Jun 2027 08:49:42.577   11 Jun 2027 08:49:46.095             3.518           758.219
       330   11 Jun 2027 08:50:35.680   11 Jun 2027 08:50:41.613             5.933          1027.594
       331   11 Jun 2027 08:51:54.973   11 Jun 2027 08:52:01.986             7.013          2292.500
       332   11 Jun 2027 08:52:10.854   11 Jun 2027 08:52:11.474             0.620           111.000
       333   11 Jun 2027 08:52:38.817   11 Jun 2027 08:52:43.408             4.591           854.469
       334   11 Jun 2027 10:22:52.627   11 Jun 2027 10:23:07.187            14.560          7099.750
       335   11 Jun 2027 10:23:36.507   11 Jun 2027 10:23:39.193             2.686           844.094
       336   11 Jun 2027 10:24:06.937   11 Jun 2027 10:24:09.259             2.322           680.937
       337   11 Jun 2027 10:25:06.360   11 Jun 2027 10:25:09.930             3.570          1211.438
       338   11 Jun 2027 10:25:12.131   11 Jun 2027 10:25:12.363             0.232            38.031
       339   11 Jun 2027 10:25:22.545   11 Jun 2027 10:25:25.591             3.046           318.187
       340   11 Jun 2027 10:26:10.032   11 Jun 2027 10:26:12.941             2.909          1388.781
       341   11 Jun 2027 10:26:51.982   11 Jun 2027 10:26:56.747             4.765           892.719
       342   11 Jun 2027 10:27:21.184   11 Jun 2027 10:27:22.981             1.797           726.375
       343   11 Jun 2027 10:28:15.097   11 Jun 2027 10:28:18.536             3.439          1572.531
       344   11 Jun 2027 10:28:52.629   11 Jun 2027 10:28:56.639             4.010           862.000
       345   12 Jun 2027 04:12:39.170   12 Jun 2027 04:12:56.405            17.235          8617.500
       346   12 Jun 2027 04:23:28.686   12 Jun 2027 04:24:28.699            60.013         30006.500
       347   12 Jun 2027 04:24:57.203   12 Jun 2027 04:25:13.358            16.155          8077.500
       348   12 Jun 2027 05:47:26.847   12 Jun 2027 05:49:06.347            99.500         49750.000
       349   12 Jun 2027 07:23:13.065   12 Jun 2027 07:25:19.444           126.379         63189.500
       350   12 Jun 2027 07:25:24.897   12 Jun 2027 07:25:29.629             4.732          1896.750
       351   12 Jun 2027 07:26:57.208   12 Jun 2027 07:26:58.224             1.016           508.000
       352   12 Jun 2027 08:58:03.325   12 Jun 2027 08:58:14.482            11.157          5578.500
       353   12 Jun 2027 08:58:35.157   12 Jun 2027 08:58:42.294             7.137          3149.031
       354   12 Jun 2027 08:59:35.356   12 Jun 2027 08:59:37.168             1.812           906.000
       355   12 Jun 2027 08:59:56.070   12 Jun 2027 09:00:02.085             6.015          1342.875
       356   12 Jun 2027 09:00:38.139   12 Jun 2027 09:00:39.946             1.807           842.031
       357   12 Jun 2027 09:01:21.382   12 Jun 2027 09:01:24.022             2.640          1294.875
       358   12 Jun 2027 09:02:11.491   12 Jun 2027 09:02:17.623             6.132          1483.406
       359   12 Jun 2027 09:02:43.487   12 Jun 2027 09:02:46.028             2.541           464.156
       360   12 Jun 2027 09:03:54.197   12 Jun 2027 09:03:58.061             3.864          1932.000
       361   12 Jun 2027 09:05:21.495   12 Jun 2027 09:05:25.889             4.394          2197.000
       362   12 Jun 2027 10:34:39.689   12 Jun 2027 10:34:55.036            15.347          7594.875
       363   12 Jun 2027 10:35:51.256   12 Jun 2027 10:35:54.052             2.796           875.719
       364   12 Jun 2027 10:36:57.446   12 Jun 2027 10:36:58.643             1.197           385.906
       365   12 Jun 2027 10:37:19.804   12 Jun 2027 10:37:21.343             1.539           342.969
       366   12 Jun 2027 10:38:45.878   12 Jun 2027 10:38:52.873             6.995          2631.406
       367   12 Jun 2027 10:39:42.211   12 Jun 2027 10:39:46.393             4.182          1531.969
       368   12 Jun 2027 10:40:21.642   12 Jun 2027 10:40:25.181             3.539           969.812
       369   12 Jun 2027 10:40:49.339   12 Jun 2027 10:40:51.432             2.093           456.531
       370   12 Jun 2027 10:40:59.075   12 Jun 2027 10:40:59.622             0.547            53.781
       371   13 Jun 2027 03:00:00.000   13 Jun 2027 03:00:03.266             3.266          1633.000
       372   13 Jun 2027 03:00:08.137   13 Jun 2027 03:00:24.282            16.145          8072.500
       373   13 Jun 2027 03:00:35.916   13 Jun 2027 03:01:00.196            24.280         12140.000
       374   13 Jun 2027 03:04:24.172   13 Jun 2027 03:04:49.908            25.736         12868.000
       375   13 Jun 2027 03:05:32.664   13 Jun 2027 03:06:07.922            35.258         17629.000
       376   13 Jun 2027 04:23:55.426   13 Jun 2027 04:24:22.239            26.813         13406.500
       377   13 Jun 2027 04:35:26.950   13 Jun 2027 04:36:19.777            52.827         26413.500
       378   13 Jun 2027 05:58:05.960   13 Jun 2027 05:59:04.448            58.488         29244.000
       379   13 Jun 2027 05:59:41.527   13 Jun 2027 05:59:49.324             7.797          3898.500
       380   13 Jun 2027 06:02:39.559   13 Jun 2027 06:02:45.955             6.396          3198.000
       381   13 Jun 2027 07:33:14.253   13 Jun 2027 07:34:25.980            71.727         35863.500
       382   13 Jun 2027 07:34:56.963   13 Jun 2027 07:35:05.939             8.976          4488.000
       383   13 Jun 2027 07:36:11.224   13 Jun 2027 07:37:06.844            55.620         27239.281
       384   13 Jun 2027 07:38:34.739   13 Jun 2027 07:38:36.115             1.376           688.000
       385   13 Jun 2027 07:38:42.082   13 Jun 2027 07:38:51.306             9.224          1824.562
       386   13 Jun 2027 07:39:22.578   13 Jun 2027 07:39:22.578             0.000             0.000
       387   13 Jun 2027 09:09:57.891   13 Jun 2027 09:10:10.989            13.098          5776.469
       388   13 Jun 2027 09:12:13.422   13 Jun 2027 09:12:21.799             8.377          3826.031
       389   13 Jun 2027 09:12:42.440   13 Jun 2027 09:12:43.174             0.734           283.063
       390   13 Jun 2027 09:13:18.069   13 Jun 2027 09:13:19.750             1.681           732.000
       391   13 Jun 2027 09:13:32.425   13 Jun 2027 09:13:33.593             1.168           396.094
       392   13 Jun 2027 09:14:13.446   13 Jun 2027 09:14:23.727            10.281          1043.094
       393   13 Jun 2027 09:15:03.609   13 Jun 2027 09:15:08.202             4.593           977.469
       394   13 Jun 2027 09:15:34.756   13 Jun 2027 09:15:36.465             1.709           388.313
       395   13 Jun 2027 09:15:51.950   13 Jun 2027 09:15:52.455             0.505           252.500
       396   13 Jun 2027 09:15:59.314   13 Jun 2027 09:15:59.858             0.544           272.000
       397   13 Jun 2027 09:16:13.630   13 Jun 2027 09:16:15.490             1.860           577.781
       398   13 Jun 2027 09:17:17.393   13 Jun 2027 09:17:19.604             2.211          1105.500
       399   13 Jun 2027 10:47:00.953   13 Jun 2027 10:47:19.972            19.019          9373.094
       400   13 Jun 2027 10:48:23.698   13 Jun 2027 10:48:25.926             2.228           751.750
       401   13 Jun 2027 10:49:32.756   13 Jun 2027 10:49:36.339             3.583          1789.219
       402   13 Jun 2027 10:49:58.023   13 Jun 2027 10:50:00.081             2.058           628.156
       403   13 Jun 2027 10:50:24.845   13 Jun 2027 10:50:27.648             2.803           588.719
       404   13 Jun 2027 10:50:49.080   13 Jun 2027 10:50:51.976             2.896           660.563
       405   13 Jun 2027 10:51:16.988   13 Jun 2027 10:51:19.254             2.266           712.094
       406   13 Jun 2027 10:51:59.395   13 Jun 2027 10:52:06.412             7.017          1251.687
