uniorb/output/strategy_1/Camera/Camera_KinoSat_110903.txt

KinoSat_110903
-------------------------
    Access    *     Start Time (UTCG)     *     Stop Time (UTCG)  *   Duration (s) *   Data (Mbytes)
         1   01 Jun 2027 03:50:15.773   01 Jun 2027 03:51:54.597            98.824         49412.000
         2   01 Jun 2027 03:52:00.395   01 Jun 2027 03:52:09.983             9.588          4794.000
         3   01 Jun 2027 03:52:50.263   01 Jun 2027 03:52:50.263             0.000             0.000
         4   01 Jun 2027 03:53:12.813   01 Jun 2027 03:53:21.228             8.415          4207.500
         5   01 Jun 2027 05:26:44.006   01 Jun 2027 05:28:53.154           129.148         64574.000
         6   01 Jun 2027 05:30:01.428   01 Jun 2027 05:30:04.473             3.045          1522.500
         7   01 Jun 2027 07:01:56.696   01 Jun 2027 07:03:59.610           122.914         61457.000
         8   01 Jun 2027 07:05:27.386   01 Jun 2027 07:05:27.894             0.508           254.000
         9   01 Jun 2027 07:08:11.282   01 Jun 2027 07:08:24.031            12.749          6374.500
        10   01 Jun 2027 08:37:51.528   01 Jun 2027 08:39:43.950           112.422         56211.000
        11   01 Jun 2027 08:40:31.872   01 Jun 2027 08:40:41.265             9.393          4696.500
        12   01 Jun 2027 08:40:51.699   01 Jun 2027 08:41:18.392            26.693         13346.500
        13   01 Jun 2027 10:15:48.298   01 Jun 2027 10:17:40.833           112.535         56267.500
        14   01 Jun 2027 10:18:44.290   01 Jun 2027 10:18:52.428             8.138          4069.000
        15   01 Jun 2027 11:51:41.798   01 Jun 2027 11:53:17.289            95.491         47745.500
        16   01 Jun 2027 11:53:22.599   01 Jun 2027 11:53:36.975            14.376          7188.000
        17   01 Jun 2027 11:56:31.594   01 Jun 2027 11:56:36.312             4.718          2359.000
        18   02 Jun 2027 04:02:42.259   02 Jun 2027 04:03:25.532            43.273         21636.500
        19   02 Jun 2027 04:05:22.402   02 Jun 2027 04:05:31.823             9.421          4710.500
        20   02 Jun 2027 05:38:27.156   02 Jun 2027 05:40:39.795           132.639         66319.500
        21   02 Jun 2027 07:13:10.940   02 Jun 2027 07:15:29.558           138.618         69309.000
        22   02 Jun 2027 07:16:06.275   02 Jun 2027 07:16:22.045            15.770          7885.000
        23   02 Jun 2027 07:20:39.119   02 Jun 2027 07:20:43.767             4.648          2324.000
        24   02 Jun 2027 08:49:58.567   02 Jun 2027 08:51:33.237            94.670         47335.000
        25   02 Jun 2027 08:52:00.492   02 Jun 2027 08:52:42.189            41.697         20848.500
        26   02 Jun 2027 08:53:22.379   02 Jun 2027 08:53:28.940             6.561          3280.500
        27   02 Jun 2027 08:54:17.270   02 Jun 2027 08:54:17.932             0.662           331.000
        28   02 Jun 2027 08:55:05.621   02 Jun 2027 08:55:13.062             7.441          3720.500
        29   02 Jun 2027 10:28:13.849   02 Jun 2027 10:29:14.014            60.165         30082.500
        30   02 Jun 2027 10:29:37.337   02 Jun 2027 10:30:18.198            40.861         20430.500
        31   02 Jun 2027 10:30:43.076   02 Jun 2027 10:31:31.175            48.099         24049.500
        32   03 Jun 2027 04:13:18.064   03 Jun 2027 04:13:49.591            31.527         15763.500
        33   03 Jun 2027 04:15:27.059   03 Jun 2027 04:15:30.575             3.516          1758.000
        34   03 Jun 2027 04:15:53.883   03 Jun 2027 04:16:08.084            14.201          7100.500
        35   03 Jun 2027 04:16:56.011   03 Jun 2027 04:17:01.791             5.780          2890.000
        36   03 Jun 2027 04:17:56.366   03 Jun 2027 04:18:02.725             6.359          3179.500
        37   03 Jun 2027 05:48:21.954   03 Jun 2027 05:49:38.983            77.029         38514.500
        38   03 Jun 2027 05:50:11.640   03 Jun 2027 05:51:02.175            50.535         25267.500
        39   03 Jun 2027 05:51:09.846   03 Jun 2027 05:51:10.239             0.393           196.500
        40   03 Jun 2027 05:53:57.188   03 Jun 2027 05:54:08.846            11.658          5829.000
        41   03 Jun 2027 07:25:19.101   03 Jun 2027 07:26:59.118           100.017         50008.500
        42   03 Jun 2027 07:27:41.152   03 Jun 2027 07:28:13.469            32.317         16158.500
        43   03 Jun 2027 07:28:34.424   03 Jun 2027 07:28:49.019            14.595          7297.500
        44   03 Jun 2027 07:28:54.337   03 Jun 2027 07:28:56.924             2.587          1293.500
        45   03 Jun 2027 07:30:02.175   03 Jun 2027 07:30:04.258             2.083          1041.500
        46   03 Jun 2027 09:02:17.789   03 Jun 2027 09:04:21.630           123.841         61920.500
        47   03 Jun 2027 09:04:42.194   03 Jun 2027 09:04:52.619            10.425          5212.500
        48   03 Jun 2027 09:06:08.270   03 Jun 2027 09:06:26.698            18.428          9214.000
        49   03 Jun 2027 10:40:12.019   03 Jun 2027 10:41:13.831            61.812         30906.000
        50   03 Jun 2027 10:42:09.066   03 Jun 2027 10:42:17.276             8.210          2476.843
        51   03 Jun 2027 10:43:17.113   03 Jun 2027 10:43:26.061             8.948          1680.312
        52   04 Jun 2027 03:02:42.918   04 Jun 2027 03:03:39.965            57.047         28523.500
        53   04 Jun 2027 04:24:47.891   04 Jun 2027 04:25:06.770            18.879          9439.500
        54   04 Jun 2027 04:25:11.996   04 Jun 2027 04:25:30.922            18.926          9463.000
        55   04 Jun 2027 04:27:56.380   04 Jun 2027 04:27:56.801             0.421           210.500
        56   04 Jun 2027 04:29:13.881   04 Jun 2027 04:29:21.351             7.470          3735.000
        57   04 Jun 2027 04:30:07.208   04 Jun 2027 04:30:18.475            11.267          5633.500
        58   04 Jun 2027 05:59:46.923   04 Jun 2027 06:01:08.479            81.556         40778.000
        59   04 Jun 2027 06:01:38.724   04 Jun 2027 06:01:56.458            17.734          8867.000
        60   04 Jun 2027 06:03:04.636   04 Jun 2027 06:03:09.722             5.086          2543.000
        61   04 Jun 2027 06:04:15.924   04 Jun 2027 06:04:34.925            19.001          9500.500
        62   04 Jun 2027 06:05:27.334   04 Jun 2027 06:05:30.370             3.036          1518.000
        63   04 Jun 2027 07:37:23.118   04 Jun 2027 07:39:38.023           134.905         65317.812
        64   04 Jun 2027 07:41:48.045   04 Jun 2027 07:41:59.150            11.105          3908.375
        65   04 Jun 2027 07:42:19.596   04 Jun 2027 07:42:22.626             3.030           584.219
        66   04 Jun 2027 07:42:33.001   04 Jun 2027 07:42:33.284             0.283            99.813
        67   04 Jun 2027 07:44:21.887   04 Jun 2027 07:44:21.887             0.000             0.000
        68   04 Jun 2027 09:14:06.913   04 Jun 2027 09:14:30.482            23.569         10984.656
        69   04 Jun 2027 09:15:08.561   04 Jun 2027 09:15:12.595             4.034           786.594
        70   04 Jun 2027 09:15:22.882   04 Jun 2027 09:15:24.945             2.063           166.406
        71   04 Jun 2027 09:15:54.389   04 Jun 2027 09:15:58.125             3.736           861.250
        72   04 Jun 2027 09:16:40.972   04 Jun 2027 09:16:43.362             2.390          1061.625
        73   04 Jun 2027 09:17:00.054   04 Jun 2027 09:17:00.054             0.000             0.000
        74   04 Jun 2027 09:18:00.199   04 Jun 2027 09:18:05.658             5.459          2322.125
        75   04 Jun 2027 09:18:20.166   04 Jun 2027 09:18:21.911             1.745           453.375
        76   04 Jun 2027 09:18:22.214   04 Jun 2027 09:18:24.393             2.179             9.469
        77   04 Jun 2027 09:18:50.819   04 Jun 2027 09:18:53.314             2.495           825.813
        78   04 Jun 2027 09:19:16.855   04 Jun 2027 09:19:19.024             2.169           535.625
        79   04 Jun 2027 09:19:47.649   04 Jun 2027 09:19:49.914             2.265           894.531
        80   04 Jun 2027 09:20:38.504   04 Jun 2027 09:20:41.502             2.998          1334.719
        81   04 Jun 2027 10:52:11.435   04 Jun 2027 10:52:27.124            15.689          7800.781
        82   04 Jun 2027 10:53:22.609   04 Jun 2027 10:53:27.735             5.126          1733.906
        83   04 Jun 2027 10:53:51.045   04 Jun 2027 10:53:52.552             1.507           649.656
        84   04 Jun 2027 10:54:30.646   04 Jun 2027 10:54:33.659             3.013          1190.437
        85   04 Jun 2027 10:55:12.749   04 Jun 2027 10:55:14.149             1.400           700.000
        86   04 Jun 2027 10:55:24.751   04 Jun 2027 10:55:26.539             1.788           564.281
        87   04 Jun 2027 10:55:33.226   04 Jun 2027 10:55:35.624             2.398           183.250
        88   04 Jun 2027 10:56:08.939   04 Jun 2027 10:56:11.157             2.218           830.656
        89   05 Jun 2027 03:02:34.204   05 Jun 2027 03:02:47.321            13.117          6558.500
        90   05 Jun 2027 03:04:21.639   05 Jun 2027 03:04:28.716             7.077          3538.500
        91   05 Jun 2027 03:15:03.737   05 Jun 2027 03:15:14.143            10.406          5203.000
        92   05 Jun 2027 04:36:24.002   05 Jun 2027 04:37:32.075            68.073         34036.500
        93   05 Jun 2027 04:38:06.277   05 Jun 2027 04:38:20.916            14.639          7319.500
        94   05 Jun 2027 04:39:01.228   05 Jun 2027 04:39:01.228             0.000             0.000
        95   05 Jun 2027 04:39:17.185   05 Jun 2027 04:39:30.219            13.034          6517.000
        96   05 Jun 2027 04:41:08.818   05 Jun 2027 04:41:13.608             4.790          2395.000
        97   05 Jun 2027 06:11:17.523   05 Jun 2027 06:12:48.687            91.164         45582.000
        98   05 Jun 2027 06:13:09.468   05 Jun 2027 06:13:09.468             0.000             0.000
        99   05 Jun 2027 06:14:05.808   05 Jun 2027 06:14:07.700             1.892           946.000
       100   05 Jun 2027 06:15:35.314   05 Jun 2027 06:15:48.587            13.273          6636.500
       101   05 Jun 2027 06:16:16.247   05 Jun 2027 06:16:16.247             0.000             0.000
       102   05 Jun 2027 06:16:51.054   05 Jun 2027 06:16:58.778             7.724          3862.000
       103   05 Jun 2027 06:18:48.539   05 Jun 2027 06:18:55.159             6.620          3310.000
       104   05 Jun 2027 06:19:01.809   05 Jun 2027 06:19:10.270             8.461          4230.500
       105   05 Jun 2027 06:19:22.521   05 Jun 2027 06:19:27.736             5.215          2607.500
       106   05 Jun 2027 06:19:54.078   05 Jun 2027 06:20:02.154             8.076          4038.000
       107   05 Jun 2027 07:49:21.313   05 Jun 2027 07:50:52.001            90.688         44737.969
       108   05 Jun 2027 07:51:11.315   05 Jun 2027 07:51:13.256             1.941           490.875
       109   05 Jun 2027 07:52:00.862   05 Jun 2027 07:52:00.862             0.000             0.000
       110   05 Jun 2027 07:53:05.882   05 Jun 2027 07:53:09.025             3.143          1571.500
       111   05 Jun 2027 07:53:54.459   05 Jun 2027 07:54:01.101             6.642          2951.813
       112   05 Jun 2027 07:54:14.725   05 Jun 2027 07:54:19.173             4.448           370.500
       113   05 Jun 2027 07:55:06.106   05 Jun 2027 07:55:06.124             0.018             9.000
       114   05 Jun 2027 07:55:11.179   05 Jun 2027 07:55:23.744            12.565          1605.875
       115   05 Jun 2027 07:56:08.067   05 Jun 2027 07:56:09.669             1.602           801.000
       116   05 Jun 2027 07:56:16.291   05 Jun 2027 07:56:21.066             4.775           787.688
       117   05 Jun 2027 07:56:39.723   05 Jun 2027 07:56:43.722             3.999           583.031
       118   05 Jun 2027 09:26:14.530   05 Jun 2027 09:26:42.790            28.260         10815.062
       119   05 Jun 2027 09:26:57.593   05 Jun 2027 09:27:01.781             4.188           311.469
       120   05 Jun 2027 09:28:01.042   05 Jun 2027 09:28:05.392             4.350          1367.281
       121   05 Jun 2027 09:28:08.878   05 Jun 2027 09:28:09.230             0.352           108.938
       122   05 Jun 2027 09:28:38.744   05 Jun 2027 09:28:40.857             2.113           363.594
       123   05 Jun 2027 09:29:52.038   05 Jun 2027 09:29:53.156             1.118           559.000
       124   05 Jun 2027 09:31:02.492   05 Jun 2027 09:31:06.754             4.262          2131.000
       125   05 Jun 2027 09:31:58.426   05 Jun 2027 09:32:00.710             2.284          1142.000
       126   05 Jun 2027 09:32:10.690   05 Jun 2027 09:32:13.730             3.040           915.500
       127   05 Jun 2027 11:03:24.681   05 Jun 2027 11:03:43.190            18.509          8965.688
       128   05 Jun 2027 11:03:50.400   05 Jun 2027 11:03:51.547             1.147           225.313
       129   05 Jun 2027 11:04:28.264   05 Jun 2027 11:04:30.101             1.837           869.562
       130   05 Jun 2027 11:05:17.113   05 Jun 2027 11:05:19.299             2.186          1093.000
       131   05 Jun 2027 11:05:36.624   05 Jun 2027 11:05:39.963             3.339           908.062
       132   05 Jun 2027 11:06:24.901   05 Jun 2027 11:06:28.063             3.162          1331.250
       133   05 Jun 2027 11:07:41.590   05 Jun 2027 11:07:45.526             3.936          1956.031
       134   05 Jun 2027 11:08:01.627   05 Jun 2027 11:08:05.475             3.848           503.156
       135   06 Jun 2027 03:14:31.113   06 Jun 2027 03:14:46.277            15.164          7582.000
       136   06 Jun 2027 03:14:59.564   06 Jun 2027 03:15:22.604            23.040         11520.000
       137   06 Jun 2027 04:50:42.733   06 Jun 2027 04:52:21.129            98.396         49198.000
       138   06 Jun 2027 04:52:37.362   06 Jun 2027 04:52:55.620            18.258          9129.000
       139   06 Jun 2027 04:53:37.226   06 Jun 2027 04:53:49.296            12.070          6035.000
       140   06 Jun 2027 06:24:16.194   06 Jun 2027 06:25:38.898            82.704         41352.000
       141   06 Jun 2027 06:26:17.747   06 Jun 2027 06:26:28.420            10.673          5336.500
       142   06 Jun 2027 06:27:04.534   06 Jun 2027 06:27:08.944             4.410          2205.000
       143   06 Jun 2027 06:27:18.673   06 Jun 2027 06:27:18.673             0.000             0.000
       144   06 Jun 2027 06:28:59.777   06 Jun 2027 06:29:01.350             1.573           786.500
       145   06 Jun 2027 06:29:11.312   06 Jun 2027 06:29:13.380             2.068          1034.000
       146   06 Jun 2027 06:30:40.103   06 Jun 2027 06:30:51.938            11.835          5917.500
       147   06 Jun 2027 06:31:50.392   06 Jun 2027 06:32:10.944            20.552         10276.000
       148   06 Jun 2027 08:01:43.274   06 Jun 2027 08:02:44.703            61.429         29226.344
       149   06 Jun 2027 08:03:32.837   06 Jun 2027 08:03:38.860             6.023           901.000
       150   06 Jun 2027 08:04:47.726   06 Jun 2027 08:04:51.610             3.884          1912.063
       151   06 Jun 2027 08:05:09.920   06 Jun 2027 08:05:11.797             1.877           457.500
       152   06 Jun 2027 08:05:50.872   06 Jun 2027 08:05:55.040             4.168          1221.094
       153   06 Jun 2027 08:06:54.602   06 Jun 2027 08:06:58.490             3.888          1638.375
       154   06 Jun 2027 08:07:42.987   06 Jun 2027 08:07:51.198             8.211          1334.625
       155   06 Jun 2027 08:07:52.765   06 Jun 2027 08:07:57.584             4.819            48.969
       156   06 Jun 2027 09:38:43.437   06 Jun 2027 09:39:05.701            22.264         10261.937
       157   06 Jun 2027 09:40:05.617   06 Jun 2027 09:40:10.807             5.190          1763.937
       158   06 Jun 2027 09:40:52.192   06 Jun 2027 09:40:53.334             1.142           380.219
       159   06 Jun 2027 09:41:52.398   06 Jun 2027 09:41:57.360             4.962          1279.750
       160   06 Jun 2027 09:42:27.853   06 Jun 2027 09:42:30.173             2.320           844.187
       161   06 Jun 2027 09:43:19.152   06 Jun 2027 09:43:21.697             2.545          1106.562
       162   06 Jun 2027 09:43:26.956   06 Jun 2027 09:43:29.933             2.977           134.938
       163   06 Jun 2027 09:44:02.322   06 Jun 2027 09:44:06.257             3.935           801.781
       164   06 Jun 2027 09:44:22.399   06 Jun 2027 09:44:24.454             2.055           321.500
       165   06 Jun 2027 11:15:37.440   06 Jun 2027 11:15:54.079            16.639          6278.344
       166   06 Jun 2027 11:16:29.555   06 Jun 2027 11:16:31.839             2.284           990.250
       167   06 Jun 2027 11:17:14.491   06 Jun 2027 11:17:16.650             2.159           600.281
       168   06 Jun 2027 11:18:21.304   06 Jun 2027 11:18:23.941             2.637          1318.500
       169   06 Jun 2027 11:18:28.198   06 Jun 2027 11:18:29.802             1.604           797.219
       170   06 Jun 2027 11:19:40.641   06 Jun 2027 11:19:46.448             5.807          2007.719
       171   06 Jun 2027 11:20:05.704   06 Jun 2027 11:20:07.017             1.313           601.750
       172   06 Jun 2027 11:20:11.758   06 Jun 2027 11:20:13.215             1.457            69.875
       173   07 Jun 2027 03:26:21.404   07 Jun 2027 03:26:44.870            23.466         11733.000
       174   07 Jun 2027 03:27:37.649   07 Jun 2027 03:28:05.915            28.266         14133.000
       175   07 Jun 2027 03:28:17.975   07 Jun 2027 03:28:23.411             5.436          2718.000
       176   07 Jun 2027 05:02:48.317   07 Jun 2027 05:04:38.303           109.986         54993.000
       177   07 Jun 2027 05:04:57.403   07 Jun 2027 05:05:06.867             9.464          4732.000
       178   07 Jun 2027 06:34:59.053   07 Jun 2027 06:35:07.540             8.487          4243.500
       179   07 Jun 2027 06:36:55.080   07 Jun 2027 06:38:20.724            85.644         42822.000
       180   07 Jun 2027 06:38:39.198   07 Jun 2027 06:38:51.283            12.085          6042.500
       181   07 Jun 2027 06:39:00.308   07 Jun 2027 06:39:10.722            10.414          5207.000
       182   07 Jun 2027 06:42:02.714   07 Jun 2027 06:42:18.174            15.460          7730.000
       183   07 Jun 2027 06:43:38.682   07 Jun 2027 06:43:41.238             2.556          1278.000
       184   07 Jun 2027 06:43:59.484   07 Jun 2027 06:43:59.484             0.000             0.000
       185   07 Jun 2027 08:13:52.998   07 Jun 2027 08:14:39.313            46.315         22658.500
       186   07 Jun 2027 08:15:47.148   07 Jun 2027 08:15:55.297             8.149          1936.500
       187   07 Jun 2027 08:16:22.783   07 Jun 2027 08:16:24.591             1.808           266.031
       188   07 Jun 2027 08:16:42.227   07 Jun 2027 08:16:43.125             0.898           425.656
       189   07 Jun 2027 08:17:27.191   07 Jun 2027 08:17:29.639             2.448          1205.656
       190   07 Jun 2027 08:18:01.296   07 Jun 2027 08:18:05.194             3.898           816.813
       191   07 Jun 2027 08:18:36.925   07 Jun 2027 08:18:39.173             2.248           991.594
       192   07 Jun 2027 08:19:33.597   07 Jun 2027 08:19:40.541             6.944          1700.750
       193   07 Jun 2027 08:19:55.929   07 Jun 2027 08:20:00.506             4.577           480.875
       194   07 Jun 2027 09:51:09.328   07 Jun 2027 09:51:29.982            20.654         10327.000
       195   07 Jun 2027 09:52:13.891   07 Jun 2027 09:52:19.513             5.622          1668.031
       196   07 Jun 2027 09:52:50.781   07 Jun 2027 09:52:52.216             1.435           630.406
       197   07 Jun 2027 09:54:12.241   07 Jun 2027 09:54:15.039             2.798          1013.594
       198   07 Jun 2027 09:54:22.278   07 Jun 2027 09:54:25.201             2.923           226.219
       199   07 Jun 2027 09:54:41.575   07 Jun 2027 09:54:45.044             3.469           434.281
       200   07 Jun 2027 09:55:28.787   07 Jun 2027 09:55:31.323             2.536           796.469
       201   07 Jun 2027 11:27:38.419   07 Jun 2027 11:27:55.530            17.111          8173.063
       202   07 Jun 2027 11:28:30.982   07 Jun 2027 11:28:33.368             2.386          1098.062
       203   07 Jun 2027 11:29:23.907   07 Jun 2027 11:29:32.036             8.129          1181.719
       204   07 Jun 2027 11:30:16.406   07 Jun 2027 11:30:21.791             5.385          1156.781
       205   07 Jun 2027 11:30:54.185   07 Jun 2027 11:31:00.235             6.050           964.312
       206   07 Jun 2027 11:31:18.778   07 Jun 2027 11:31:21.668             2.890           209.687
       207   07 Jun 2027 11:31:53.708   07 Jun 2027 11:31:57.103             3.395           774.344
       208   07 Jun 2027 11:32:19.746   07 Jun 2027 11:32:21.681             1.935           442.000
       209   08 Jun 2027 03:38:29.265   08 Jun 2027 03:39:03.520            34.255         17127.500
       210   08 Jun 2027 03:39:20.990   08 Jun 2027 03:39:29.789             8.799          4399.500
       211   08 Jun 2027 03:40:09.780   08 Jun 2027 03:40:13.323             3.543          1771.500
       212   08 Jun 2027 03:40:37.710   08 Jun 2027 03:41:08.426            30.716         15358.000
       213   08 Jun 2027 05:14:57.352   08 Jun 2027 05:17:09.935           132.583         66291.500
       214   08 Jun 2027 06:50:07.931   08 Jun 2027 06:51:55.947           108.016         54008.000
       215   08 Jun 2027 06:52:27.609   08 Jun 2027 06:52:30.912             3.303          1651.500
       216   08 Jun 2027 06:52:34.621   08 Jun 2027 06:52:42.857             8.236          3751.906
       217   08 Jun 2027 06:56:01.563   08 Jun 2027 06:56:02.093             0.530           265.000
       218   08 Jun 2027 06:56:23.232   08 Jun 2027 06:56:33.349            10.117          5058.500
       219   08 Jun 2027 08:26:27.109   08 Jun 2027 08:26:56.644            29.535         13565.218
       220   08 Jun 2027 08:27:22.043   08 Jun 2027 08:27:24.133             2.090           166.437
       221   08 Jun 2027 08:28:00.997   08 Jun 2027 08:28:05.512             4.515           435.562
       222   08 Jun 2027 08:28:19.726   08 Jun 2027 08:28:25.953             6.227           444.188
       223   08 Jun 2027 08:28:35.281   08 Jun 2027 08:28:38.235             2.954           281.000
       224   08 Jun 2027 08:29:45.353   08 Jun 2027 08:29:45.839             0.486           243.000
       225   08 Jun 2027 08:30:06.542   08 Jun 2027 08:30:11.703             5.161          2001.063
       226   08 Jun 2027 08:30:38.716   08 Jun 2027 08:30:44.851             6.135           829.156
       227   08 Jun 2027 08:31:14.049   08 Jun 2027 08:31:16.647             2.598           732.063
       228   08 Jun 2027 08:32:04.583   08 Jun 2027 08:32:07.222             2.639          1319.500
       229   08 Jun 2027 08:32:20.740   08 Jun 2027 08:32:20.740             0.000             0.000
       230   08 Jun 2027 08:32:41.773   08 Jun 2027 08:32:44.015             2.242          1121.000
       231   08 Jun 2027 10:03:50.848   08 Jun 2027 10:04:07.801            16.953          8476.438
       232   08 Jun 2027 10:04:25.986   08 Jun 2027 10:04:27.945             1.959           568.281
       233   08 Jun 2027 10:04:38.284   08 Jun 2027 10:04:39.472             1.188           313.594
       234   08 Jun 2027 10:04:59.726   08 Jun 2027 10:05:08.566             8.840           632.938
       235   08 Jun 2027 10:05:28.975   08 Jun 2027 10:05:31.565             2.590           384.594
       236   08 Jun 2027 10:06:06.570   08 Jun 2027 10:06:07.107             0.537           268.500
       237   08 Jun 2027 10:06:34.168   08 Jun 2027 10:06:38.505             4.337          1547.594
       238   08 Jun 2027 10:06:43.500   08 Jun 2027 10:06:49.002             5.502           156.094
       239   08 Jun 2027 10:06:52.203   08 Jun 2027 10:06:53.214             1.011           100.031
       240   08 Jun 2027 10:07:17.034   08 Jun 2027 10:07:20.878             3.844           677.188
       241   08 Jun 2027 10:08:05.221   08 Jun 2027 10:08:10.888             5.667          1267.906
       242   08 Jun 2027 11:40:03.202   08 Jun 2027 11:40:18.084            14.882          7084.750
       243   08 Jun 2027 11:40:27.613   08 Jun 2027 11:40:32.514             4.901           166.969
       244   08 Jun 2027 11:40:51.028   08 Jun 2027 11:40:53.922             2.894           578.563
       245   08 Jun 2027 11:41:47.030   08 Jun 2027 11:41:48.113             1.083           541.500
       246   08 Jun 2027 11:41:52.574   08 Jun 2027 11:41:54.560             1.986           993.000
       247   08 Jun 2027 11:42:38.019   08 Jun 2027 11:42:41.325             3.306          1535.656
       248   08 Jun 2027 11:43:33.379   08 Jun 2027 11:43:38.321             4.942          1310.219
       249   08 Jun 2027 11:43:56.063   08 Jun 2027 11:43:59.367             3.304           525.656
       250   09 Jun 2027 03:50:30.589   09 Jun 2027 03:51:05.989            35.400         17700.000
       251   09 Jun 2027 03:51:17.376   09 Jun 2027 03:51:24.194             6.818          3409.000
       252   09 Jun 2027 03:52:01.699   09 Jun 2027 03:52:10.213             8.514          4257.000
       253   09 Jun 2027 05:26:58.539   09 Jun 2027 05:29:12.635           134.096         67048.000
       254   09 Jun 2027 07:02:11.242   09 Jun 2027 07:04:14.471           123.229         61614.500
       255   09 Jun 2027 07:06:27.210   09 Jun 2027 07:06:32.038             4.828          2414.000
       256   09 Jun 2027 07:07:35.507   09 Jun 2027 07:07:39.926             4.419          2209.500
       257   09 Jun 2027 07:08:49.215   09 Jun 2027 07:08:51.386             2.171          1085.500
       258   09 Jun 2027 08:38:06.317   09 Jun 2027 08:38:34.515            28.198         13767.875
       259   09 Jun 2027 08:39:14.754   09 Jun 2027 08:39:16.863             2.109           488.844
       260   09 Jun 2027 08:40:10.235   09 Jun 2027 08:40:15.402             5.167           769.125
       261   09 Jun 2027 08:40:46.426   09 Jun 2027 08:40:48.916             2.490           858.125
       262   09 Jun 2027 08:41:07.678   09 Jun 2027 08:41:08.979             1.301           565.406
       263   09 Jun 2027 08:41:48.231   09 Jun 2027 08:41:50.786             2.555          1137.750
       264   09 Jun 2027 08:42:07.523   09 Jun 2027 08:42:09.139             1.616           508.281
       265   09 Jun 2027 08:43:30.792   09 Jun 2027 08:43:35.813             5.021          2259.281
       266   09 Jun 2027 08:44:03.791   09 Jun 2027 08:44:08.826             5.035           694.031
       267   09 Jun 2027 08:44:15.767   09 Jun 2027 08:44:19.180             3.413           216.906
       268   09 Jun 2027 10:16:03.975   09 Jun 2027 10:16:21.787            17.812          7986.844
       269   09 Jun 2027 10:16:38.161   09 Jun 2027 10:16:39.681             1.520           185.313
       270   09 Jun 2027 10:17:06.501   09 Jun 2027 10:17:07.085             0.584           292.000
       271   09 Jun 2027 10:17:50.455   09 Jun 2027 10:17:56.329             5.874          1901.438
       272   09 Jun 2027 10:18:18.003   09 Jun 2027 10:18:21.236             3.233           623.469
       273   09 Jun 2027 10:19:30.569   09 Jun 2027 10:19:36.086             5.517          2069.594
       274   09 Jun 2027 10:20:22.266   09 Jun 2027 10:20:24.287             2.021           914.094
       275   09 Jun 2027 11:51:56.820   09 Jun 2027 11:52:10.877            14.057          6383.500
       276   09 Jun 2027 11:52:33.503   09 Jun 2027 11:52:34.123             0.620           310.000
       277   09 Jun 2027 11:53:08.537   09 Jun 2027 11:53:08.537             0.000             0.000
       278   09 Jun 2027 11:53:53.572   09 Jun 2027 11:53:58.511             4.939          2469.500
       279   09 Jun 2027 11:54:08.860   09 Jun 2027 11:54:10.287             1.427           380.344
       280   09 Jun 2027 11:54:37.016   09 Jun 2027 11:54:43.509             6.493           812.062
       281   09 Jun 2027 11:55:26.536   09 Jun 2027 11:55:39.102            12.566          1344.594
       282   09 Jun 2027 11:55:43.933   09 Jun 2027 11:55:45.722             1.789           150.969
       283   09 Jun 2027 11:56:15.715   09 Jun 2027 11:56:18.083             2.368           824.188
       284   09 Jun 2027 11:56:36.433   09 Jun 2027 11:56:38.771             2.338           525.000
       285   10 Jun 2027 04:02:56.938   10 Jun 2027 04:03:47.380            50.442         25221.000
       286   10 Jun 2027 04:04:40.099   10 Jun 2027 04:04:43.013             2.914          1457.000
       287   10 Jun 2027 04:04:54.950   10 Jun 2027 04:05:10.761            15.811          7905.500
       288   10 Jun 2027 04:05:35.646   10 Jun 2027 04:05:35.646             0.000             0.000
       289   10 Jun 2027 05:38:41.999   10 Jun 2027 05:40:43.075           121.076         60538.000
       290   10 Jun 2027 05:41:12.343   10 Jun 2027 05:41:12.343             0.000             0.000
       291   10 Jun 2027 05:42:45.650   10 Jun 2027 05:42:51.038             5.388          2694.000
       292   10 Jun 2027 07:13:25.889   10 Jun 2027 07:15:14.571           108.682         54341.000
       293   10 Jun 2027 07:15:31.588   10 Jun 2027 07:15:51.538            19.950          9674.937
       294   10 Jun 2027 07:16:15.095   10 Jun 2027 07:16:15.095             0.000             0.000
       295   10 Jun 2027 07:16:38.749   10 Jun 2027 07:16:42.920             4.171          1442.281
       296   10 Jun 2027 07:20:54.227   10 Jun 2027 07:20:58.884             4.657          2328.500
       297   10 Jun 2027 08:50:14.074   10 Jun 2027 08:50:44.855            30.781         13437.593
       298   10 Jun 2027 08:51:08.954   10 Jun 2027 08:51:11.159             2.205           612.531
       299   10 Jun 2027 08:52:18.530   10 Jun 2027 08:52:23.152             4.622          2079.437
       300   10 Jun 2027 08:52:36.840   10 Jun 2027 08:52:39.758             2.918           427.750
       301   10 Jun 2027 08:52:51.281   10 Jun 2027 08:52:57.402             6.121           358.031
       302   10 Jun 2027 08:53:41.455   10 Jun 2027 08:53:44.258             2.803          1376.656
       303   10 Jun 2027 08:54:31.791   10 Jun 2027 08:54:37.090             5.299          1485.406
       304   10 Jun 2027 08:54:39.911   10 Jun 2027 08:54:43.498             3.587            88.156
       305   10 Jun 2027 08:54:49.968   10 Jun 2027 08:54:53.898             3.930           157.906
       306   10 Jun 2027 08:55:22.254   10 Jun 2027 08:55:27.962             5.708           776.250
       307   10 Jun 2027 08:56:31.628   10 Jun 2027 08:56:34.820             3.192          1596.000
       308   10 Jun 2027 10:28:28.991   10 Jun 2027 10:28:44.762            15.771          7885.500
       309   10 Jun 2027 10:29:26.064   10 Jun 2027 10:29:30.103             4.039          1708.312
       310   10 Jun 2027 10:30:05.926   10 Jun 2027 10:30:08.893             2.967           940.719
       311   10 Jun 2027 10:30:45.036   10 Jun 2027 10:30:49.939             4.903           833.219
       312   10 Jun 2027 10:31:20.699   10 Jun 2027 10:31:23.943             3.244           888.313
       313   10 Jun 2027 10:32:03.203   10 Jun 2027 10:32:04.426             1.223           611.500
       314   10 Jun 2027 10:32:07.373   10 Jun 2027 10:32:09.856             2.483           707.469
       315   10 Jun 2027 10:32:16.746   10 Jun 2027 10:32:17.284             0.538           135.469
       316   11 Jun 2027 04:13:32.487   11 Jun 2027 04:14:14.717            42.230         21115.000
       317   11 Jun 2027 04:15:43.115   11 Jun 2027 04:15:49.096             5.981          2990.500
       318   11 Jun 2027 04:16:22.739   11 Jun 2027 04:16:45.044            22.305         11152.500
       319   11 Jun 2027 04:17:04.651   11 Jun 2027 04:17:12.776             8.125          4062.500
       320   11 Jun 2027 05:48:36.092   11 Jun 2027 05:49:54.292            78.200         39100.000
       321   11 Jun 2027 05:50:26.296   11 Jun 2027 05:50:54.788            28.492         14246.000
       322   11 Jun 2027 05:51:37.866   11 Jun 2027 05:52:00.923            23.057         11528.500
       323   11 Jun 2027 05:54:53.219   11 Jun 2027 05:55:01.428             8.209          4104.500
       324   11 Jun 2027 07:25:34.100   11 Jun 2027 07:27:34.974           120.874         60437.000
       325   11 Jun 2027 07:31:21.539   11 Jun 2027 07:31:25.951             4.412          2206.000
       326   11 Jun 2027 07:31:58.393   11 Jun 2027 07:32:15.898            17.505          7217.469
       327   11 Jun 2027 09:02:32.271   11 Jun 2027 09:02:58.773            26.502         12471.406
       328   11 Jun 2027 09:03:47.805   11 Jun 2027 09:03:52.093             4.288           210.875
       329   11 Jun 2027 09:05:02.115   11 Jun 2027 09:05:04.571             2.456          1124.156
       330   11 Jun 2027 09:05:14.345   11 Jun 2027 09:05:23.258             8.913           219.219
       331   11 Jun 2027 09:05:23.894   11 Jun 2027 09:05:24.463             0.569            19.875
       332   11 Jun 2027 09:05:43.746   11 Jun 2027 09:05:46.288             2.542           443.062
       333   11 Jun 2027 09:06:51.139   11 Jun 2027 09:06:59.278             8.139          1398.656
       334   11 Jun 2027 09:07:43.888   11 Jun 2027 09:07:47.637             3.749           685.156
       335   11 Jun 2027 09:08:31.240   11 Jun 2027 09:08:34.606             3.366          1362.594
       336   11 Jun 2027 10:40:27.145   11 Jun 2027 10:40:41.941            14.796          6953.531
       337   11 Jun 2027 10:41:28.503   11 Jun 2027 10:41:35.791             7.288          1414.594
       338   11 Jun 2027 10:41:40.424   11 Jun 2027 10:41:40.789             0.365           125.594
       339   11 Jun 2027 10:42:19.796   11 Jun 2027 10:42:23.582             3.786           826.219
       340   11 Jun 2027 10:42:24.859   11 Jun 2027 10:42:29.234             4.375            39.906
       341   11 Jun 2027 10:43:01.740   11 Jun 2027 10:43:02.742             1.002           270.469
       342   11 Jun 2027 10:44:01.531   11 Jun 2027 10:44:06.370             4.839          1837.156
       343   11 Jun 2027 10:44:11.167   11 Jun 2027 10:44:14.114             2.947           149.906
       344   12 Jun 2027 03:02:57.985   12 Jun 2027 03:03:53.831            55.846         27923.000
       345   12 Jun 2027 04:24:56.823   12 Jun 2027 04:25:22.293            25.470         12735.000
       346   12 Jun 2027 04:27:04.615   12 Jun 2027 04:27:36.165            31.550         15775.000
       347   12 Jun 2027 04:28:46.910   12 Jun 2027 04:28:46.910             0.000             0.000
       348   12 Jun 2027 04:29:19.672   12 Jun 2027 04:29:27.884             8.212          4106.000
       349   12 Jun 2027 04:30:22.121   12 Jun 2027 04:30:33.648            11.527          5763.500
       350   12 Jun 2027 06:00:01.043   12 Jun 2027 06:01:34.289            93.246         46623.000
       351   12 Jun 2027 06:01:54.007   12 Jun 2027 06:02:02.722             8.715          4357.500
       352   12 Jun 2027 06:03:26.560   12 Jun 2027 06:03:26.560             0.000             0.000
       353   12 Jun 2027 06:03:38.396   12 Jun 2027 06:03:47.613             9.217          4608.500
       354   12 Jun 2027 06:06:21.652   12 Jun 2027 06:06:24.246             2.594          1297.000
       355   12 Jun 2027 06:07:37.575   12 Jun 2027 06:07:38.791             1.216           608.000
       356   12 Jun 2027 06:08:07.474   12 Jun 2027 06:08:18.882            11.408          5704.000
       357   12 Jun 2027 07:37:37.001   12 Jun 2027 07:39:13.957            96.956         48478.000
       358   12 Jun 2027 07:40:01.603   12 Jun 2027 07:40:10.320             8.717          4102.938
       359   12 Jun 2027 07:40:51.626   12 Jun 2027 07:40:51.626             0.000             0.000
       360   12 Jun 2027 07:41:20.732   12 Jun 2027 07:41:24.473             3.741          1820.094
       361   12 Jun 2027 07:42:00.534   12 Jun 2027 07:42:00.534             0.000             0.000
       362   12 Jun 2027 07:43:28.595   12 Jun 2027 07:43:28.595             0.000             0.000
       363   12 Jun 2027 07:43:44.617   12 Jun 2027 07:43:48.577             3.960          1980.000
       364   12 Jun 2027 07:44:16.790   12 Jun 2027 07:44:22.102             5.312          2656.000
       365   12 Jun 2027 09:14:21.829   12 Jun 2027 09:14:46.208            24.379         10898.468
       366   12 Jun 2027 09:14:59.578   12 Jun 2027 09:15:02.612             3.034           175.406
       367   12 Jun 2027 09:15:36.613   12 Jun 2027 09:15:37.457             0.844           401.281
       368   12 Jun 2027 09:15:41.591   12 Jun 2027 09:15:46.195             4.604           129.187
       369   12 Jun 2027 09:16:50.210   12 Jun 2027 09:16:53.372             3.162          1234.156
       370   12 Jun 2027 09:17:28.174   12 Jun 2027 09:17:33.537             5.363           994.531
       371   12 Jun 2027 09:17:44.034   12 Jun 2027 09:17:47.371             3.337           328.031
       372   12 Jun 2027 09:18:18.813   12 Jun 2027 09:18:21.089             2.276           982.562
       373   12 Jun 2027 09:18:29.988   12 Jun 2027 09:18:35.639             5.651           278.094
       374   12 Jun 2027 09:19:28.701   12 Jun 2027 09:19:31.832             3.131          1565.500
       375   12 Jun 2027 09:19:51.074   12 Jun 2027 09:19:54.852             3.778           694.000
       376   12 Jun 2027 09:20:09.205   12 Jun 2027 09:20:13.894             4.689           362.531
       377   12 Jun 2027 09:20:39.280   12 Jun 2027 09:20:41.291             2.011           793.313
       378   12 Jun 2027 10:52:26.556   12 Jun 2027 10:52:41.787            15.231          7615.500
       379   12 Jun 2027 10:54:02.375   12 Jun 2027 10:54:08.954             6.579          2825.469
       380   12 Jun 2027 10:54:46.625   12 Jun 2027 10:54:50.956             4.331          1177.219
       381   12 Jun 2027 10:55:28.034   12 Jun 2027 10:55:33.980             5.946           949.531
       382   12 Jun 2027 10:55:44.021   12 Jun 2027 10:55:45.929             1.908           313.781
       383   12 Jun 2027 10:55:58.423   12 Jun 2027 10:55:59.199             0.776           308.500
       384   12 Jun 2027 10:56:08.287   12 Jun 2027 10:56:10.936             2.649           284.000
       385   12 Jun 2027 10:56:20.488   12 Jun 2027 10:56:20.840             0.352            50.938
       386   12 Jun 2027 10:56:28.077   12 Jun 2027 10:56:29.137             1.060           195.250
       387   13 Jun 2027 03:02:49.202   13 Jun 2027 03:03:01.948            12.746          6373.000
       388   13 Jun 2027 03:04:37.202   13 Jun 2027 03:04:43.796             6.594          3297.000
       389   13 Jun 2027 03:15:19.017   13 Jun 2027 03:15:25.058             6.041          3020.500
       390   13 Jun 2027 04:36:38.725   13 Jun 2027 04:38:06.985            88.260         44130.000
       391   13 Jun 2027 04:39:46.271   13 Jun 2027 04:39:51.668             5.397          2698.500
       392   13 Jun 2027 04:41:02.957   13 Jun 2027 04:41:17.827            14.870          7435.000
       393   13 Jun 2027 04:41:53.504   13 Jun 2027 04:41:59.630             6.126          3063.000
       394   13 Jun 2027 04:42:04.270   13 Jun 2027 04:42:10.145             5.875          2937.500
       395   13 Jun 2027 06:11:31.479   13 Jun 2027 06:13:02.948            91.469         45734.500
       396   13 Jun 2027 06:15:22.173   13 Jun 2027 06:15:25.344             3.171          1585.500
       397   13 Jun 2027 06:17:14.520   13 Jun 2027 06:17:25.226            10.706          5353.000
       398   13 Jun 2027 06:18:12.060   13 Jun 2027 06:18:13.368             1.308           654.000
       399   13 Jun 2027 06:18:54.397   13 Jun 2027 06:18:55.124             0.727           363.500
       400   13 Jun 2027 06:19:42.528   13 Jun 2027 06:19:46.720             4.192          2096.000
       401   13 Jun 2027 06:20:17.556   13 Jun 2027 06:20:31.230            13.674          6837.000
       402   13 Jun 2027 07:49:36.699   13 Jun 2027 07:51:06.738            90.039         42888.469
       403   13 Jun 2027 07:52:26.356   13 Jun 2027 07:52:34.468             8.112          2409.375
       404   13 Jun 2027 07:53:00.217   13 Jun 2027 07:53:03.229             3.012           373.281
       405   13 Jun 2027 07:53:49.669   13 Jun 2027 07:53:52.156             2.487          1243.500
       406   13 Jun 2027 07:55:20.696   13 Jun 2027 07:55:25.659             4.963          2481.500
       407   13 Jun 2027 07:56:25.554   13 Jun 2027 07:56:31.150             5.596          2159.375
       408   13 Jun 2027 07:56:41.165   13 Jun 2027 07:56:43.630             2.465           312.969
       409   13 Jun 2027 09:26:30.019   13 Jun 2027 09:26:59.780            29.761         10078.531
       410   13 Jun 2027 09:27:08.749   13 Jun 2027 09:27:10.183             1.434           163.281
       411   13 Jun 2027 09:27:25.311   13 Jun 2027 09:27:28.928             3.617           270.063
       412   13 Jun 2027 09:28:54.181   13 Jun 2027 09:29:00.114             5.933          2465.187
       413   13 Jun 2027 09:29:21.290   13 Jun 2027 09:29:25.156             3.866           490.812
       414   13 Jun 2027 09:30:07.714   13 Jun 2027 09:30:11.502             3.788          1290.219
       415   13 Jun 2027 09:30:33.175   13 Jun 2027 09:30:34.752             1.577           677.281
       416   13 Jun 2027 09:31:07.058   13 Jun 2027 09:31:09.842             2.784          1009.562
       417   13 Jun 2027 09:32:36.374   13 Jun 2027 09:32:43.898             7.524          2647.281
       418   13 Jun 2027 11:03:39.687   13 Jun 2027 11:03:53.224            13.537          6683.938
       419   13 Jun 2027 11:04:04.970   13 Jun 2027 11:04:06.355             1.385           186.844
       420   13 Jun 2027 11:04:42.998   13 Jun 2027 11:04:42.998             0.000             0.000
       421   13 Jun 2027 11:04:57.476   13 Jun 2027 11:05:01.309             3.833          1294.781
       422   13 Jun 2027 11:05:29.859   13 Jun 2027 11:05:31.769             1.910           779.562
       423   13 Jun 2027 11:06:32.612   13 Jun 2027 11:06:36.722             4.110          1901.344
       424   13 Jun 2027 11:06:53.774   13 Jun 2027 11:06:54.961             1.187           401.781
       425   13 Jun 2027 11:07:37.195   13 Jun 2027 11:07:41.636             4.441          1297.125
       426   13 Jun 2027 11:07:56.922   13 Jun 2027 11:07:59.180             2.258           449.812
       427   13 Jun 2027 11:08:01.243   13 Jun 2027 11:08:06.160             4.917            25.312
