uniorb/output/strategy_1/Camera/Camera_KinoSat_110310.txt

KinoSat_110310
-------------------------
    Access    *     Start Time (UTCG)     *     Stop Time (UTCG)  *   Duration (s) *   Data (Mbytes)
         1   01 Jun 2027 03:06:01.276   01 Jun 2027 03:06:34.393            33.117         16558.500
         2   01 Jun 2027 03:07:42.252   01 Jun 2027 03:08:17.626            35.374         17687.000
         3   01 Jun 2027 03:08:41.859   01 Jun 2027 03:08:56.296            14.437          7218.500
         4   01 Jun 2027 03:11:07.687   01 Jun 2027 03:11:13.181             5.494          2747.000
         5   01 Jun 2027 03:11:17.700   01 Jun 2027 03:11:34.269            16.569          8284.500
         6   01 Jun 2027 03:13:02.893   01 Jun 2027 03:13:27.124            24.231         12115.500
         7   01 Jun 2027 03:13:52.608   01 Jun 2027 03:14:13.261            20.653         10326.500
         8   01 Jun 2027 03:15:41.686   01 Jun 2027 03:15:44.576             2.890          1445.000
         9   01 Jun 2027 04:44:50.254   01 Jun 2027 04:47:05.873           135.619         67809.500
        10   01 Jun 2027 04:47:15.917   01 Jun 2027 04:48:04.355            48.438         24219.000
        11   01 Jun 2027 04:48:54.442   01 Jun 2027 04:48:58.277             3.835          1917.500
        12   01 Jun 2027 04:50:13.539   01 Jun 2027 04:50:17.395             3.856          1928.000
        13   01 Jun 2027 04:50:24.695   01 Jun 2027 04:50:40.111            15.416          7708.000
        14   01 Jun 2027 04:51:29.991   01 Jun 2027 04:51:32.227             2.236          1118.000
        15   01 Jun 2027 06:21:48.170   01 Jun 2027 06:24:23.580           155.410         77705.000
        16   01 Jun 2027 06:24:35.817   01 Jun 2027 06:24:38.937             3.120          1560.000
        17   01 Jun 2027 06:24:40.637   01 Jun 2027 06:24:48.567             7.930          3965.000
        18   01 Jun 2027 06:25:24.808   01 Jun 2027 06:25:28.257             3.449          1724.500
        19   01 Jun 2027 06:25:42.047   01 Jun 2027 06:25:50.110             8.063          4031.500
        20   01 Jun 2027 06:26:34.297   01 Jun 2027 06:26:37.166             2.869          1434.500
        21   01 Jun 2027 06:26:58.133   01 Jun 2027 06:26:58.424             0.291           145.500
        22   01 Jun 2027 07:58:35.393   01 Jun 2027 08:01:13.545           158.152         79076.000
        23   01 Jun 2027 08:02:37.367   01 Jun 2027 08:02:48.234            10.867          5433.500
        24   01 Jun 2027 09:36:45.851   01 Jun 2027 09:37:46.425            60.574         30287.000
        25   02 Jun 2027 03:20:55.270   02 Jun 2027 03:26:08.077           312.807        156403.500
        26   02 Jun 2027 03:26:15.942   02 Jun 2027 03:26:32.537            16.595          8297.500
        27   02 Jun 2027 03:27:36.199   02 Jun 2027 03:27:44.484             8.285          4142.500
        28   02 Jun 2027 04:57:15.785   02 Jun 2027 05:00:05.260           169.475         84737.500
        29   02 Jun 2027 05:00:40.162   02 Jun 2027 05:00:55.274            15.112          7556.000
        30   02 Jun 2027 05:01:01.750   02 Jun 2027 05:01:10.049             8.299          4149.500
        31   02 Jun 2027 05:01:38.094   02 Jun 2027 05:01:38.094             0.000             0.000
        32   02 Jun 2027 05:01:57.990   02 Jun 2027 05:02:08.039            10.049          5024.500
        33   02 Jun 2027 05:02:38.459   02 Jun 2027 05:02:41.700             3.241          1620.500
        34   02 Jun 2027 05:03:02.109   02 Jun 2027 05:03:09.885             7.776          3888.000
        35   02 Jun 2027 06:34:49.826   02 Jun 2027 06:37:07.158           137.332         68666.000
        36   02 Jun 2027 06:37:41.760   02 Jun 2027 06:37:48.691             6.931          3465.500
        37   02 Jun 2027 06:37:57.348   02 Jun 2027 06:38:05.390             8.042          4021.000
        38   02 Jun 2027 06:38:15.530   02 Jun 2027 06:38:17.616             2.086          1043.000
        39   02 Jun 2027 06:38:48.121   02 Jun 2027 06:38:54.045             5.924          2962.000
        40   02 Jun 2027 08:10:53.198   02 Jun 2027 08:12:57.180           123.982         61991.000
        41   02 Jun 2027 08:13:59.861   02 Jun 2027 08:14:51.125            51.264         25632.000
        42   03 Jun 2027 03:33:07.237   03 Jun 2027 03:39:42.968           395.731        197865.500
        43   03 Jun 2027 05:09:25.966   03 Jun 2027 05:12:37.033           191.067         95533.500
        44   03 Jun 2027 05:12:46.478   03 Jun 2027 05:12:48.572             2.094          1047.000
        45   03 Jun 2027 05:12:50.147   03 Jun 2027 05:12:52.436             2.289          1144.500
        46   03 Jun 2027 05:13:02.550   03 Jun 2027 05:13:03.105             0.555           277.500
        47   03 Jun 2027 05:13:13.377   03 Jun 2027 05:13:23.509            10.132          5066.000
        48   03 Jun 2027 05:14:56.792   03 Jun 2027 05:15:11.091            14.299          7149.500
        49   03 Jun 2027 05:15:18.848   03 Jun 2027 05:15:30.345            11.497          5748.500
        50   03 Jun 2027 06:46:53.802   03 Jun 2027 06:49:16.845           143.043         71521.500
        51   03 Jun 2027 06:49:51.572   03 Jun 2027 06:50:09.709            18.137          9068.500
        52   03 Jun 2027 06:50:41.156   03 Jun 2027 06:50:43.534             2.378          1189.000
        53   03 Jun 2027 08:22:57.293   03 Jun 2027 08:25:28.764           151.471         75735.500
        54   03 Jun 2027 08:26:12.657   03 Jun 2027 08:26:27.842            15.185          7592.500
        55   03 Jun 2027 08:26:52.411   03 Jun 2027 08:26:58.215             5.804          2902.000
        56   03 Jun 2027 08:27:21.680   03 Jun 2027 08:27:35.728            14.048          7024.000
        57   04 Jun 2027 03:44:36.281   04 Jun 2027 03:49:24.345           288.064        144032.000
        58   04 Jun 2027 03:49:48.667   04 Jun 2027 03:50:13.512            24.845         12422.500
        59   04 Jun 2027 03:50:34.991   04 Jun 2027 03:50:53.909            18.918          9459.000
        60   04 Jun 2027 03:51:28.863   04 Jun 2027 03:51:52.342            23.479         11739.500
        61   04 Jun 2027 05:21:06.721   04 Jun 2027 05:24:15.677           188.956         94478.000
        62   04 Jun 2027 05:24:34.571   04 Jun 2027 05:24:43.773             9.202          4601.000
        63   04 Jun 2027 05:25:57.272   04 Jun 2027 05:26:19.146            21.874         10937.000
        64   04 Jun 2027 05:27:09.749   04 Jun 2027 05:27:24.282            14.533          7266.500
        65   04 Jun 2027 06:59:24.848   04 Jun 2027 07:02:20.032           175.184         87592.000
        66   04 Jun 2027 07:02:40.062   04 Jun 2027 07:02:46.649             6.587          3293.500
        67   04 Jun 2027 08:34:50.105   04 Jun 2027 08:35:39.347            49.242         24621.000
        68   04 Jun 2027 08:35:57.556   04 Jun 2027 08:36:02.389             4.833          2416.500
        69   04 Jun 2027 08:38:06.249   04 Jun 2027 08:38:31.280            25.031         12515.500
        70   04 Jun 2027 08:38:38.303   04 Jun 2027 08:38:44.048             5.745          2872.500
        71   04 Jun 2027 08:39:13.938   04 Jun 2027 08:39:24.189            10.251          5125.500
        72   04 Jun 2027 08:40:10.996   04 Jun 2027 08:40:13.222             2.226          1113.000
        73   05 Jun 2027 03:56:20.560   05 Jun 2027 04:01:34.440           313.880        156940.000
        74   05 Jun 2027 04:02:28.184   05 Jun 2027 04:02:28.671             0.487           243.500
        75   05 Jun 2027 04:02:36.369   05 Jun 2027 04:02:36.369             0.000             0.000
        76   05 Jun 2027 04:02:40.856   05 Jun 2027 04:03:37.976            57.120         28560.000
        77   05 Jun 2027 05:33:26.595   05 Jun 2027 05:37:05.488           218.893        109446.500
        78   05 Jun 2027 05:39:24.266   05 Jun 2027 05:39:30.396             6.130          3065.000
        79   05 Jun 2027 07:11:22.129   05 Jun 2027 07:13:50.285           148.156         74078.000
        80   05 Jun 2027 07:14:15.723   05 Jun 2027 07:14:29.029            13.306          6653.000
        81   05 Jun 2027 07:14:54.649   05 Jun 2027 07:14:56.110             1.461           730.500
        82   05 Jun 2027 08:44:27.882   05 Jun 2027 08:45:15.384            47.502         23751.000
        83   05 Jun 2027 08:45:30.401   05 Jun 2027 08:45:47.596            17.195          8597.500
        84   05 Jun 2027 08:48:34.041   05 Jun 2027 08:48:51.289            17.248          8624.000
        85   05 Jun 2027 08:49:30.539   05 Jun 2027 08:49:45.184            14.645          7322.500
        86   05 Jun 2027 08:51:29.721   05 Jun 2027 08:51:42.230            12.509          6254.500
        87   06 Jun 2027 04:08:37.850   06 Jun 2027 04:13:56.353           318.503        159251.500
        88   06 Jun 2027 04:14:27.099   06 Jun 2027 04:14:38.283            11.184          5592.000
        89   06 Jun 2027 04:14:48.018   06 Jun 2027 04:15:02.608            14.590          7295.000
        90   06 Jun 2027 04:15:48.183   06 Jun 2027 04:15:51.248             3.065          1532.500
        91   06 Jun 2027 04:15:56.480   06 Jun 2027 04:15:56.579             0.099            49.500
        92   06 Jun 2027 05:45:22.612   06 Jun 2027 05:49:03.757           221.145        110572.500
        93   06 Jun 2027 05:49:38.362   06 Jun 2027 05:49:49.331            10.969          5484.500
        94   06 Jun 2027 05:50:10.931   06 Jun 2027 05:50:20.686             9.755          4877.500
        95   06 Jun 2027 05:50:55.313   06 Jun 2027 05:51:03.539             8.226          4113.000
        96   06 Jun 2027 05:51:40.046   06 Jun 2027 05:51:44.868             4.822          2411.000
        97   06 Jun 2027 07:23:21.389   06 Jun 2027 07:25:46.581           145.192         72596.000
        98   06 Jun 2027 07:26:03.400   06 Jun 2027 07:26:05.867             2.467          1233.500
        99   06 Jun 2027 07:26:24.373   06 Jun 2027 07:26:30.047             5.674          2837.000
       100   06 Jun 2027 08:56:58.902   06 Jun 2027 08:57:23.556            24.654         12327.000
       101   06 Jun 2027 08:57:35.641   06 Jun 2027 08:57:42.675             7.034          3517.000
       102   06 Jun 2027 08:58:55.645   06 Jun 2027 08:59:06.151            10.506          5253.000
       103   06 Jun 2027 08:59:31.988   06 Jun 2027 08:59:44.668            12.680          6340.000
       104   06 Jun 2027 09:00:30.088   06 Jun 2027 09:00:44.655            14.567          7283.500
       105   06 Jun 2027 09:01:57.186   06 Jun 2027 09:02:06.696             9.510          4755.000
       106   06 Jun 2027 09:02:16.945   06 Jun 2027 09:02:23.070             6.125          3062.500
       107   06 Jun 2027 09:03:40.805   06 Jun 2027 09:04:01.064            20.259         10129.500
       108   07 Jun 2027 04:20:31.841   07 Jun 2027 04:27:15.432           403.591        201795.500
       109   07 Jun 2027 04:27:25.149   07 Jun 2027 04:27:38.028            12.879          6439.500
       110   07 Jun 2027 05:57:16.263   07 Jun 2027 06:00:29.126           192.863         96431.500
       111   07 Jun 2027 06:00:36.012   07 Jun 2027 06:00:46.838            10.826          5413.000
       112   07 Jun 2027 06:01:06.331   07 Jun 2027 06:01:08.521             2.190          1095.000
       113   07 Jun 2027 06:01:30.201   07 Jun 2027 06:01:32.291             2.090          1045.000
       114   07 Jun 2027 06:03:33.695   07 Jun 2027 06:03:59.063            25.368         12684.000
       115   07 Jun 2027 07:35:09.430   07 Jun 2027 07:37:20.338           130.908         65454.000
       116   07 Jun 2027 07:37:53.396   07 Jun 2027 07:37:56.003             2.607          1303.500
       117   07 Jun 2027 07:38:09.652   07 Jun 2027 07:38:14.787             5.135          2567.500
       118   07 Jun 2027 07:38:33.926   07 Jun 2027 07:39:09.797            35.871         17935.500
       119   07 Jun 2027 09:11:07.425   07 Jun 2027 09:11:33.473            26.048         13024.000
       120   07 Jun 2027 09:11:58.685   07 Jun 2027 09:12:10.250            11.565          5782.500
       121   07 Jun 2027 09:12:57.207   07 Jun 2027 09:13:18.449            21.242         10621.000
       122   07 Jun 2027 09:14:40.003   07 Jun 2027 09:14:50.392            10.389          5194.500
       123   08 Jun 2027 03:00:00.000   08 Jun 2027 03:02:55.976           175.976         87988.000
       124   08 Jun 2027 03:03:00.900   08 Jun 2027 03:04:00.969            60.069         30034.500
       125   08 Jun 2027 04:32:41.036   08 Jun 2027 04:34:56.346           135.310         67655.000
       126   08 Jun 2027 04:35:39.615   08 Jun 2027 04:35:53.517            13.902          6951.000
       127   08 Jun 2027 04:36:43.089   08 Jun 2027 04:37:00.358            17.269          8634.500
       128   08 Jun 2027 04:37:18.561   08 Jun 2027 04:37:34.845            16.284          8142.000
       129   08 Jun 2027 04:38:16.314   08 Jun 2027 04:38:25.126             8.812          4406.000
       130   08 Jun 2027 04:39:18.554   08 Jun 2027 04:39:37.174            18.620          9310.000
       131   08 Jun 2027 06:09:55.005   08 Jun 2027 06:12:11.214           136.209         68104.500
       132   08 Jun 2027 06:12:17.759   08 Jun 2027 06:12:34.702            16.943          8471.500
       133   08 Jun 2027 06:13:44.594   08 Jun 2027 06:13:59.947            15.353          7676.500
       134   08 Jun 2027 06:14:58.765   08 Jun 2027 06:15:18.118            19.353          9676.500
       135   08 Jun 2027 06:15:26.593   08 Jun 2027 06:15:27.477             0.884           442.000
       136   08 Jun 2027 07:46:35.503   08 Jun 2027 07:48:54.952           139.449         69724.500
       137   08 Jun 2027 07:49:43.286   08 Jun 2027 07:49:50.362             7.076          3538.000
       138   08 Jun 2027 07:50:36.244   08 Jun 2027 07:50:41.706             5.462          2731.000
       139   08 Jun 2027 07:51:24.981   08 Jun 2027 07:51:27.936             2.955          1477.500
       140   08 Jun 2027 09:21:48.305   08 Jun 2027 09:22:01.899            13.594          6797.000
       141   08 Jun 2027 09:25:11.377   08 Jun 2027 09:25:40.820            29.443         14721.500
       142   08 Jun 2027 09:26:04.304   08 Jun 2027 09:26:18.326            14.022          7011.000
       143   09 Jun 2027 03:06:16.430   09 Jun 2027 03:06:49.171            32.741         16370.500
       144   09 Jun 2027 03:07:57.870   09 Jun 2027 03:10:49.019           171.149         85574.500
       145   09 Jun 2027 03:10:55.375   09 Jun 2027 03:10:59.534             4.159          2079.500
       146   09 Jun 2027 03:11:24.082   09 Jun 2027 03:11:28.732             4.650          2325.000
       147   09 Jun 2027 03:11:32.326   09 Jun 2027 03:11:51.062            18.736          9368.000
       148   09 Jun 2027 03:13:12.971   09 Jun 2027 03:13:28.921            15.950          7975.000
       149   09 Jun 2027 03:14:05.070   09 Jun 2027 03:14:27.890            22.820         11410.000
       150   09 Jun 2027 03:15:56.335   09 Jun 2027 03:15:59.234             2.899          1449.500
       151   09 Jun 2027 04:45:04.937   09 Jun 2027 04:47:15.767           130.830         65415.000
       152   09 Jun 2027 04:48:44.811   09 Jun 2027 04:49:31.158            46.347         23173.500
       153   09 Jun 2027 04:50:20.325   09 Jun 2027 04:50:34.163            13.838          6919.000
       154   09 Jun 2027 04:51:41.499   09 Jun 2027 04:51:45.981             4.482          2241.000
       155   09 Jun 2027 06:22:02.687   09 Jun 2027 06:24:18.453           135.766         67883.000
       156   09 Jun 2027 06:24:21.311   09 Jun 2027 06:24:32.648            11.337          5668.500
       157   09 Jun 2027 06:25:02.108   09 Jun 2027 06:25:08.431             6.323          3161.500
       158   09 Jun 2027 06:25:23.732   09 Jun 2027 06:25:31.658             7.926          3963.000
       159   09 Jun 2027 06:25:54.152   09 Jun 2027 06:25:54.858             0.706           353.000
       160   09 Jun 2027 06:26:07.869   09 Jun 2027 06:26:12.678             4.809          2404.500
       161   09 Jun 2027 06:26:15.617   09 Jun 2027 06:26:19.990             4.373          2186.500
       162   09 Jun 2027 06:26:40.377   09 Jun 2027 06:26:48.712             8.335          4167.500
       163   09 Jun 2027 07:58:50.191   09 Jun 2027 08:00:29.627            99.436         49718.000
       164   09 Jun 2027 08:01:16.924   09 Jun 2027 08:01:28.203            11.279          5639.500
       165   09 Jun 2027 08:02:28.929   09 Jun 2027 08:02:37.603             8.674          4337.000
       166   09 Jun 2027 08:03:06.885   09 Jun 2027 08:03:11.528             4.643          2321.500
       167   09 Jun 2027 09:37:00.476   09 Jun 2027 09:37:22.396            21.920         10960.000
       168   10 Jun 2027 03:21:09.894   10 Jun 2027 03:24:43.397           213.503        106751.500
       169   10 Jun 2027 03:25:05.761   10 Jun 2027 03:25:37.581            31.820         15910.000
       170   10 Jun 2027 03:26:15.911   10 Jun 2027 03:26:47.833            31.922         15961.000
       171   10 Jun 2027 03:27:50.826   10 Jun 2027 03:27:59.266             8.440          4220.000
       172   10 Jun 2027 04:57:30.422   10 Jun 2027 04:59:39.378           128.956         64478.000
       173   10 Jun 2027 05:00:48.493   10 Jun 2027 05:01:05.964            17.471          8735.500
       174   10 Jun 2027 05:01:09.871   10 Jun 2027 05:01:16.491             6.620          3310.000
       175   10 Jun 2027 05:01:52.421   10 Jun 2027 05:01:58.245             5.824          2912.000
       176   10 Jun 2027 05:02:50.267   10 Jun 2027 05:03:16.227            25.960         12980.000
       177   10 Jun 2027 06:35:04.480   10 Jun 2027 06:37:16.725           132.245         66122.500
       178   10 Jun 2027 06:38:00.638   10 Jun 2027 06:38:11.662            11.024          5512.000
       179   10 Jun 2027 06:39:21.298   10 Jun 2027 06:39:27.359             6.061          3030.500
       180   10 Jun 2027 08:11:07.821   10 Jun 2027 08:12:19.024            71.203         35601.500
       181   10 Jun 2027 08:12:36.944   10 Jun 2027 08:12:37.143             0.199            99.500
       182   10 Jun 2027 08:13:12.721   10 Jun 2027 08:13:28.939            16.218          8109.000
       183   10 Jun 2027 08:14:32.524   10 Jun 2027 08:14:53.478            20.954         10477.000
       184   11 Jun 2027 03:33:21.900   11 Jun 2027 03:37:24.767           242.867        121433.500
       185   11 Jun 2027 03:38:19.883   11 Jun 2027 03:38:50.638            30.755         15377.500
       186   11 Jun 2027 03:39:43.489   11 Jun 2027 03:39:57.736            14.247          7123.500
       187   11 Jun 2027 05:09:39.865   11 Jun 2027 05:11:46.909           127.044         63522.000
       188   11 Jun 2027 05:12:03.256   11 Jun 2027 05:12:55.538            52.282         26141.000
       189   11 Jun 2027 05:14:06.046   11 Jun 2027 05:14:37.596            31.550         15775.000
       190   11 Jun 2027 05:15:33.723   11 Jun 2027 05:15:44.822            11.099          5549.500
       191   11 Jun 2027 06:47:08.742   11 Jun 2027 06:49:51.638           162.896         81448.000
       192   11 Jun 2027 06:50:26.281   11 Jun 2027 06:50:30.431             4.150          2075.000
       193   11 Jun 2027 06:50:35.922   11 Jun 2027 06:50:36.471             0.549           274.500
       194   11 Jun 2027 08:23:12.017   11 Jun 2027 08:23:55.258            43.241         21620.500
       195   11 Jun 2027 08:24:08.847   11 Jun 2027 08:24:21.043            12.196          6098.000
       196   11 Jun 2027 08:25:45.795   11 Jun 2027 08:26:09.181            23.386         11693.000
       197   11 Jun 2027 08:27:07.985   11 Jun 2027 08:27:14.928             6.943          3471.500
       198   11 Jun 2027 08:27:30.244   11 Jun 2027 08:27:36.153             5.909          2954.500
       199   12 Jun 2027 03:44:50.729   12 Jun 2027 03:49:01.259           250.530        125265.000
       200   12 Jun 2027 03:49:26.954   12 Jun 2027 03:49:32.628             5.674          2837.000
       201   12 Jun 2027 03:49:40.866   12 Jun 2027 03:50:03.476            22.610         11305.000
       202   12 Jun 2027 03:50:29.867   12 Jun 2027 03:50:29.867             0.000             0.000
       203   12 Jun 2027 03:50:51.701   12 Jun 2027 03:51:06.265            14.564          7282.000
       204   12 Jun 2027 03:51:47.287   12 Jun 2027 03:52:07.191            19.904          9952.000
       205   12 Jun 2027 05:21:21.385   12 Jun 2027 05:24:18.658           177.273         88636.500
       206   12 Jun 2027 05:25:27.079   12 Jun 2027 05:25:38.609            11.530          5765.000
       207   12 Jun 2027 05:26:02.923   12 Jun 2027 05:26:53.784            50.861         25430.500
       208   12 Jun 2027 06:59:39.826   12 Jun 2027 07:02:26.171           166.345         83172.500
       209   12 Jun 2027 07:02:38.151   12 Jun 2027 07:02:43.227             5.076          2538.000
       210   12 Jun 2027 07:02:54.785   12 Jun 2027 07:02:56.694             1.909           954.500
       211   12 Jun 2027 07:03:09.387   12 Jun 2027 07:03:13.810             4.423          2211.500
       212   12 Jun 2027 08:35:04.713   12 Jun 2027 08:35:40.151            35.438         17719.000
       213   12 Jun 2027 08:36:13.037   12 Jun 2027 08:36:17.429             4.392          2196.000
       214   12 Jun 2027 08:36:43.225   12 Jun 2027 08:36:58.490            15.265          7632.500
       215   12 Jun 2027 08:37:58.664   12 Jun 2027 08:38:07.286             8.622          4311.000
       216   12 Jun 2027 08:38:28.508   12 Jun 2027 08:38:32.559             4.051          2025.500
       217   12 Jun 2027 08:39:05.482   12 Jun 2027 08:39:08.787             3.305          1652.500
       218   12 Jun 2027 08:39:39.477   12 Jun 2027 08:39:49.798            10.321          5160.500
       219   12 Jun 2027 08:40:15.270   12 Jun 2027 08:40:16.810             1.540           770.000
       220   13 Jun 2027 03:56:35.373   13 Jun 2027 04:01:05.715           270.342        135171.000
       221   13 Jun 2027 04:02:21.045   13 Jun 2027 04:02:21.045             0.000             0.000
       222   13 Jun 2027 04:02:43.283   13 Jun 2027 04:04:07.706            84.423         42211.500
       223   13 Jun 2027 05:33:41.372   13 Jun 2027 05:36:52.484           191.112         95556.000
       224   13 Jun 2027 05:38:29.210   13 Jun 2027 05:38:56.221            27.011         13505.500
       225   13 Jun 2027 05:39:27.438   13 Jun 2027 05:39:38.653            11.215          5607.500
       226   13 Jun 2027 07:11:36.936   13 Jun 2027 07:14:16.500           159.564         79782.000
       227   13 Jun 2027 08:44:42.732   13 Jun 2027 08:45:36.121            53.389         26694.500
       228   13 Jun 2027 08:45:45.088   13 Jun 2027 08:46:02.502            17.414          8707.000
       229   13 Jun 2027 08:47:50.756   13 Jun 2027 08:47:59.845             9.089          4544.500
       230   13 Jun 2027 08:48:37.351   13 Jun 2027 08:48:46.488             9.137          4568.500
       231   13 Jun 2027 08:50:00.215   13 Jun 2027 08:50:21.658            21.443         10721.500
       232   13 Jun 2027 08:50:58.947   13 Jun 2027 08:51:03.546             4.599          2299.500
       233   13 Jun 2027 08:52:15.501   13 Jun 2027 08:52:29.937            14.436          7218.000
