uniorb/output/strategy_1/Camera/Camera_KinoSat_110407.txt

KinoSat_110407
-------------------------
    Access    *     Start Time (UTCG)     *     Stop Time (UTCG)  *   Duration (s) *   Data (Mbytes)
         1   01 Jun 2027 03:31:25.486   01 Jun 2027 03:32:38.405            72.919         36459.500
         2   01 Jun 2027 03:32:56.215   01 Jun 2027 03:33:15.128            18.913          9456.500
         3   01 Jun 2027 03:33:43.057   01 Jun 2027 03:33:43.057             0.000             0.000
         4   01 Jun 2027 03:34:23.562   01 Jun 2027 03:34:41.142            17.580          8790.000
         5   01 Jun 2027 03:36:31.282   01 Jun 2027 03:36:47.461            16.179          8089.500
         6   01 Jun 2027 03:37:32.108   01 Jun 2027 03:37:46.269            14.161          7080.500
         7   01 Jun 2027 03:38:29.226   01 Jun 2027 03:38:29.226             0.000             0.000
         8   01 Jun 2027 03:38:30.580   01 Jun 2027 03:38:36.549             5.969          2984.500
         9   01 Jun 2027 03:38:55.882   01 Jun 2027 03:39:21.527            25.645         12822.500
        10   01 Jun 2027 05:08:32.961   01 Jun 2027 05:10:57.613           144.652         72326.000
        11   01 Jun 2027 05:11:36.621   01 Jun 2027 05:11:41.962             5.341          2670.500
        12   01 Jun 2027 05:11:52.678   01 Jun 2027 05:12:18.025            25.347         12673.500
        13   01 Jun 2027 05:13:31.014   01 Jun 2027 05:13:37.384             6.370          3185.000
        14   01 Jun 2027 05:13:43.477   01 Jun 2027 05:13:59.529            16.052          8026.000
        15   01 Jun 2027 05:15:25.687   01 Jun 2027 05:15:52.422            26.735         13367.500
        16   01 Jun 2027 06:45:36.008   01 Jun 2027 06:48:07.074           151.066         75533.000
        17   01 Jun 2027 06:48:14.768   01 Jun 2027 06:48:23.818             9.050          4525.000
        18   01 Jun 2027 06:48:51.539   01 Jun 2027 06:49:03.621            12.082          6041.000
        19   01 Jun 2027 06:49:23.722   01 Jun 2027 06:49:32.694             8.972          4486.000
        20   01 Jun 2027 06:49:37.709   01 Jun 2027 06:49:56.683            18.974          9487.000
        21   01 Jun 2027 08:22:33.539   01 Jun 2027 08:24:39.367           125.828         62914.000
        22   01 Jun 2027 08:24:53.259   01 Jun 2027 08:25:05.699            12.440          6220.000
        23   01 Jun 2027 08:25:26.834   01 Jun 2027 08:25:29.275             2.441          1220.500
        24   01 Jun 2027 08:25:58.841   01 Jun 2027 08:26:08.464             9.623          4811.500
        25   01 Jun 2027 08:27:22.248   01 Jun 2027 08:27:25.538             3.290          1645.000
        26   01 Jun 2027 09:57:36.867   01 Jun 2027 09:58:01.682            24.815         12407.500
        27   01 Jun 2027 09:59:16.744   01 Jun 2027 10:00:51.908            95.164         47582.000
        28   01 Jun 2027 10:01:21.504   01 Jun 2027 10:01:30.343             8.839          4419.500
        29   02 Jun 2027 03:43:39.256   02 Jun 2027 03:49:28.118           348.862        174431.000
        30   02 Jun 2027 03:50:28.018   02 Jun 2027 03:50:28.934             0.916           458.000
        31   02 Jun 2027 03:50:47.185   02 Jun 2027 03:50:53.030             5.845          2922.500
        32   02 Jun 2027 03:50:54.157   02 Jun 2027 03:50:56.964             2.807          1403.500
        33   02 Jun 2027 03:51:16.415   02 Jun 2027 03:51:24.382             7.967          3983.500
        34   02 Jun 2027 03:51:52.441   02 Jun 2027 03:51:54.916             2.475          1237.500
        35   02 Jun 2027 05:20:59.231   02 Jun 2027 05:23:48.397           169.166         84583.000
        36   02 Jun 2027 05:24:39.574   02 Jun 2027 05:25:10.608            31.034         15517.000
        37   02 Jun 2027 05:26:53.149   02 Jun 2027 05:26:57.560             4.411          2205.500
        38   02 Jun 2027 05:27:29.069   02 Jun 2027 05:27:39.736            10.667          5333.500
        39   02 Jun 2027 06:57:56.001   02 Jun 2027 07:00:15.087           139.086         69543.000
        40   02 Jun 2027 07:00:37.534   02 Jun 2027 07:01:03.650            26.116         13058.000
        41   02 Jun 2027 07:01:18.188   02 Jun 2027 07:01:21.704             3.516          1758.000
        42   02 Jun 2027 07:03:13.914   02 Jun 2027 07:03:26.605            12.691          6345.500
        43   02 Jun 2027 08:34:46.432   02 Jun 2027 08:37:05.125           138.693         69346.500
        44   02 Jun 2027 08:37:20.993   02 Jun 2027 08:37:34.313            13.320          6660.000
        45   02 Jun 2027 08:38:13.381   02 Jun 2027 08:38:24.012            10.631          5315.500
        46   02 Jun 2027 10:12:27.507   02 Jun 2027 10:14:03.091            95.584         47792.000
        47   03 Jun 2027 03:56:58.854   03 Jun 2027 04:02:48.974           350.120        175060.000
        48   03 Jun 2027 04:03:45.551   03 Jun 2027 04:03:51.726             6.175          3087.500
        49   03 Jun 2027 05:33:06.785   03 Jun 2027 05:36:22.519           195.734         97867.000
        50   03 Jun 2027 05:37:26.869   03 Jun 2027 05:37:57.874            31.005         15502.500
        51   03 Jun 2027 05:39:12.575   03 Jun 2027 05:39:21.231             8.656          4328.000
        52   03 Jun 2027 05:39:42.261   03 Jun 2027 05:39:46.670             4.409          2204.500
        53   03 Jun 2027 07:10:51.095   03 Jun 2027 07:13:46.954           175.859         87929.500
        54   03 Jun 2027 07:14:09.581   03 Jun 2027 07:14:19.993            10.412          5206.000
        55   03 Jun 2027 07:14:35.702   03 Jun 2027 07:14:42.697             6.995          3497.500
        56   03 Jun 2027 07:15:01.058   03 Jun 2027 07:15:02.988             1.930           965.000
        57   03 Jun 2027 08:46:56.626   03 Jun 2027 08:49:21.626           145.000         72500.000
        58   03 Jun 2027 08:49:45.939   03 Jun 2027 08:49:48.436             2.497          1248.500
        59   03 Jun 2027 08:50:13.867   03 Jun 2027 08:50:29.711            15.844          7922.000
        60   03 Jun 2027 08:50:49.391   03 Jun 2027 08:50:52.317             2.926          1463.000
        61   04 Jun 2027 04:09:16.248   04 Jun 2027 04:15:23.139           366.891        183445.500
        62   04 Jun 2027 04:15:51.793   04 Jun 2027 04:15:52.406             0.613           306.500
        63   04 Jun 2027 05:45:39.504   04 Jun 2027 05:48:21.382           161.878         80939.000
        64   04 Jun 2027 05:48:39.660   04 Jun 2027 05:48:56.631            16.971          8485.500
        65   04 Jun 2027 05:49:09.062   04 Jun 2027 05:49:23.756            14.694          7347.000
        66   04 Jun 2027 05:50:04.331   04 Jun 2027 05:50:08.861             4.530          2265.000
        67   04 Jun 2027 07:22:56.545   04 Jun 2027 07:25:43.358           166.813         83406.500
        68   04 Jun 2027 07:26:42.888   04 Jun 2027 07:26:49.565             6.677          3338.500
        69   04 Jun 2027 08:59:09.601   04 Jun 2027 08:59:46.657            37.056         18528.000
        70   04 Jun 2027 09:00:08.631   04 Jun 2027 09:00:23.621            14.990          7495.000
        71   04 Jun 2027 09:01:44.262   04 Jun 2027 09:02:07.856            23.594         11797.000
        72   04 Jun 2027 09:02:45.117   04 Jun 2027 09:02:53.042             7.925          3962.500
        73   04 Jun 2027 09:03:17.106   04 Jun 2027 09:03:18.968             1.862           931.000
        74   04 Jun 2027 09:03:44.769   04 Jun 2027 09:03:52.296             7.527          3763.500
        75   05 Jun 2027 04:20:54.288   05 Jun 2027 04:26:27.787           333.499        166749.500
        76   05 Jun 2027 04:27:57.175   05 Jun 2027 04:28:01.317             4.142          2071.000
        77   05 Jun 2027 05:57:13.650   05 Jun 2027 06:00:10.366           176.716         88358.000
        78   05 Jun 2027 06:00:53.443   05 Jun 2027 06:01:16.173            22.730         11365.000
        79   05 Jun 2027 06:01:24.264   05 Jun 2027 06:01:31.080             6.816          3408.000
        80   05 Jun 2027 06:01:43.380   05 Jun 2027 06:01:45.721             2.341          1170.500
        81   05 Jun 2027 06:02:32.406   05 Jun 2027 06:02:39.529             7.123          3561.500
        82   05 Jun 2027 06:03:13.494   05 Jun 2027 06:03:34.602            21.108         10554.000
        83   05 Jun 2027 07:35:29.401   05 Jun 2027 07:37:45.419           136.018         68009.000
        84   05 Jun 2027 07:37:58.452   05 Jun 2027 07:38:03.185             4.733          2366.500
        85   05 Jun 2027 07:38:20.069   05 Jun 2027 07:38:23.833             3.764          1882.000
        86   05 Jun 2027 07:38:45.739   05 Jun 2027 07:38:52.888             7.149          3574.500
        87   05 Jun 2027 07:39:10.405   05 Jun 2027 07:39:13.945             3.540          1770.000
        88   05 Jun 2027 09:10:49.998   05 Jun 2027 09:11:15.775            25.777         12888.500
        89   05 Jun 2027 09:12:08.350   05 Jun 2027 09:12:28.311            19.961          9980.500
        90   05 Jun 2027 09:12:51.750   05 Jun 2027 09:12:57.050             5.300          2650.000
        91   05 Jun 2027 09:13:14.067   05 Jun 2027 09:13:14.067             0.000             0.000
        92   05 Jun 2027 09:13:31.268   05 Jun 2027 09:13:43.339            12.071          6035.500
        93   05 Jun 2027 09:14:20.230   05 Jun 2027 09:14:25.709             5.479          2739.500
        94   05 Jun 2027 09:14:44.564   05 Jun 2027 09:14:47.863             3.299          1649.500
        95   05 Jun 2027 09:15:21.773   05 Jun 2027 09:15:35.173            13.400          6700.000
        96   05 Jun 2027 09:16:12.497   05 Jun 2027 09:16:20.339             7.842          3921.000
        97   06 Jun 2027 03:00:00.000   06 Jun 2027 03:02:16.527           136.527         68263.500
        98   06 Jun 2027 04:32:27.690   06 Jun 2027 04:35:41.738           194.048         97024.000
        99   06 Jun 2027 04:35:53.633   06 Jun 2027 04:35:55.659             2.026          1013.000
       100   06 Jun 2027 04:36:56.982   06 Jun 2027 04:37:13.717            16.735          8367.500
       101   06 Jun 2027 04:37:40.815   06 Jun 2027 04:37:48.580             7.765          3882.500
       102   06 Jun 2027 04:38:30.324   06 Jun 2027 04:38:38.004             7.680          3840.000
       103   06 Jun 2027 04:38:48.196   06 Jun 2027 04:38:56.617             8.421          4210.500
       104   06 Jun 2027 04:39:18.888   06 Jun 2027 04:39:24.679             5.791          2895.500
       105   06 Jun 2027 06:09:33.511   06 Jun 2027 06:12:45.675           192.164         96082.000
       106   06 Jun 2027 06:13:08.176   06 Jun 2027 06:13:12.015             3.839          1919.500
       107   06 Jun 2027 06:15:51.435   06 Jun 2027 06:15:55.882             4.447          2223.500
       108   06 Jun 2027 07:47:31.760   06 Jun 2027 07:49:30.568           118.808         59404.000
       109   06 Jun 2027 07:50:13.130   06 Jun 2027 07:50:15.802             2.672          1336.000
       110   06 Jun 2027 07:50:43.638   06 Jun 2027 07:50:55.347            11.709          5854.500
       111   06 Jun 2027 07:51:00.324   06 Jun 2027 07:51:06.484             6.160          3080.000
       112   06 Jun 2027 09:20:40.610   06 Jun 2027 09:21:13.822            33.212         16606.000
       113   06 Jun 2027 09:21:54.343   06 Jun 2027 09:21:55.371             1.028           514.000
       114   06 Jun 2027 09:22:48.164   06 Jun 2027 09:23:07.236            19.072          9536.000
       115   06 Jun 2027 09:23:50.426   06 Jun 2027 09:23:53.381             2.955          1477.500
       116   06 Jun 2027 09:24:13.726   06 Jun 2027 09:24:32.315            18.589          9294.500
       117   06 Jun 2027 09:25:23.815   06 Jun 2027 09:25:31.338             7.523          3761.500
       118   06 Jun 2027 09:26:34.313   06 Jun 2027 09:26:46.455            12.142          6071.000
       119   06 Jun 2027 09:27:21.742   06 Jun 2027 09:27:28.876             7.134          3567.000
       120   06 Jun 2027 09:27:39.854   06 Jun 2027 09:27:44.528             4.674          2337.000
       121   06 Jun 2027 09:28:02.148   06 Jun 2027 09:28:13.235            11.087          5543.500
       122   07 Jun 2027 03:07:22.783   07 Jun 2027 03:09:06.722           103.939         51969.500
       123   07 Jun 2027 03:09:26.842   07 Jun 2027 03:11:07.192           100.350         50175.000
       124   07 Jun 2027 03:11:38.370   07 Jun 2027 03:11:51.539            13.169          6584.500
       125   07 Jun 2027 03:12:12.377   07 Jun 2027 03:12:26.032            13.655          6827.500
       126   07 Jun 2027 03:12:51.594   07 Jun 2027 03:12:56.403             4.809          2404.500
       127   07 Jun 2027 03:12:59.590   07 Jun 2027 03:13:40.312            40.722         20361.000
       128   07 Jun 2027 04:44:47.104   07 Jun 2027 04:46:26.122            99.018         49509.000
       129   07 Jun 2027 04:46:31.261   07 Jun 2027 04:46:40.006             8.745          4372.500
       130   07 Jun 2027 04:47:16.543   07 Jun 2027 04:47:16.543             0.000             0.000
       131   07 Jun 2027 04:47:44.608   07 Jun 2027 04:47:58.219            13.611          6805.500
       132   07 Jun 2027 04:49:41.401   07 Jun 2027 04:49:57.587            16.186          8093.000
       133   07 Jun 2027 04:50:50.169   07 Jun 2027 04:51:23.622            33.453         16726.500
       134   07 Jun 2027 06:21:34.937   07 Jun 2027 06:24:33.900           178.963         89481.500
       135   07 Jun 2027 06:27:32.075   07 Jun 2027 06:28:03.345            31.270         15635.000
       136   07 Jun 2027 07:59:32.001   07 Jun 2027 08:00:55.788            83.787         41893.500
       137   07 Jun 2027 08:01:11.773   07 Jun 2027 08:01:31.707            19.934          9967.000
       138   07 Jun 2027 08:02:34.900   07 Jun 2027 08:02:34.900             0.000             0.000
       139   07 Jun 2027 08:02:46.049   07 Jun 2027 08:02:53.937             7.888          3944.000
       140   07 Jun 2027 08:03:00.674   07 Jun 2027 08:03:09.091             8.417          4208.500
       141   07 Jun 2027 09:33:07.705   07 Jun 2027 09:33:32.953            25.248         12624.000
       142   07 Jun 2027 09:34:38.236   07 Jun 2027 09:34:41.554             3.318          1659.000
       143   07 Jun 2027 09:34:52.469   07 Jun 2027 09:34:59.705             7.236          3618.000
       144   07 Jun 2027 09:35:38.994   07 Jun 2027 09:35:49.938            10.944          5472.000
       145   07 Jun 2027 09:36:19.560   07 Jun 2027 09:36:34.222            14.662          7331.000
       146   07 Jun 2027 09:37:44.042   07 Jun 2027 09:38:10.172            26.130         13065.000
       147   07 Jun 2027 09:40:32.818   07 Jun 2027 09:40:35.018             2.200          1100.000
       148   08 Jun 2027 03:18:51.304   08 Jun 2027 03:22:23.976           212.672        106336.000
       149   08 Jun 2027 03:23:40.608   08 Jun 2027 03:23:47.306             6.698          3349.000
       150   08 Jun 2027 03:23:59.403   08 Jun 2027 03:24:14.842            15.439          7719.500
       151   08 Jun 2027 03:24:48.339   08 Jun 2027 03:24:53.750             5.411          2705.500
       152   08 Jun 2027 03:26:19.570   08 Jun 2027 03:26:49.790            30.220         15110.000
       153   08 Jun 2027 03:27:43.449   08 Jun 2027 03:27:54.452            11.003          5501.500
       154   08 Jun 2027 04:56:41.016   08 Jun 2027 04:58:40.987           119.971         59985.500
       155   08 Jun 2027 04:59:08.447   08 Jun 2027 04:59:12.379             3.932          1966.000
       156   08 Jun 2027 05:01:15.804   08 Jun 2027 05:02:00.643            44.839         22419.500
       157   08 Jun 2027 05:02:37.628   08 Jun 2027 05:02:41.129             3.501          1750.500
       158   08 Jun 2027 05:03:36.914   08 Jun 2027 05:04:06.467            29.553         14776.500
       159   08 Jun 2027 06:33:25.450   08 Jun 2027 06:36:06.594           161.144         80572.000
       160   08 Jun 2027 06:36:40.591   08 Jun 2027 06:36:45.645             5.054          2527.000
       161   08 Jun 2027 06:37:06.160   08 Jun 2027 06:37:23.157            16.997          8498.500
       162   08 Jun 2027 06:39:45.435   08 Jun 2027 06:40:10.266            24.831         12415.500
       163   08 Jun 2027 08:11:34.058   08 Jun 2027 08:12:41.400            67.342         33671.000
       164   08 Jun 2027 08:13:58.270   08 Jun 2027 08:14:06.467             8.197          4098.500
       165   08 Jun 2027 08:14:31.298   08 Jun 2027 08:14:34.536             3.238          1619.000
       166   08 Jun 2027 08:15:07.243   08 Jun 2027 08:15:10.327             3.084          1542.000
       167   08 Jun 2027 08:15:34.679   08 Jun 2027 08:15:40.156             5.477          2738.500
       168   08 Jun 2027 09:45:24.730   08 Jun 2027 09:45:34.693             9.963          4981.500
       169   08 Jun 2027 09:46:04.194   08 Jun 2027 09:46:21.468            17.274          8637.000
       170   08 Jun 2027 09:47:39.528   08 Jun 2027 09:48:06.790            27.262         13631.000
       171   08 Jun 2027 09:49:44.385   08 Jun 2027 09:49:52.175             7.790          3895.000
       172   08 Jun 2027 09:50:09.525   08 Jun 2027 09:50:36.396            26.871         13435.500
       173   09 Jun 2027 03:31:39.614   09 Jun 2027 03:35:52.738           253.124        126562.000
       174   09 Jun 2027 03:36:23.808   09 Jun 2027 03:36:43.793            19.985          9992.500
       175   09 Jun 2027 03:38:20.310   09 Jun 2027 03:38:43.660            23.350         11675.000
       176   09 Jun 2027 03:39:54.399   09 Jun 2027 03:40:01.689             7.290          3645.000
       177   09 Jun 2027 05:08:47.756   09 Jun 2027 05:11:12.316           144.560         72280.000
       178   09 Jun 2027 05:11:50.893   09 Jun 2027 05:11:59.378             8.485          4242.500
       179   09 Jun 2027 05:12:07.849   09 Jun 2027 05:12:19.476            11.627          5813.500
       180   09 Jun 2027 05:12:47.963   09 Jun 2027 05:12:54.459             6.496          3248.000
       181   09 Jun 2027 05:13:35.729   09 Jun 2027 05:13:46.422            10.693          5346.500
       182   09 Jun 2027 05:15:42.226   09 Jun 2027 05:16:07.114            24.888         12444.000
       183   09 Jun 2027 06:45:50.734   09 Jun 2027 06:48:02.330           131.596         65798.000
       184   09 Jun 2027 06:48:07.692   09 Jun 2027 06:48:21.821            14.129          7064.500
       185   09 Jun 2027 06:49:37.186   09 Jun 2027 06:49:47.511            10.325          5162.500
       186   09 Jun 2027 06:50:17.953   09 Jun 2027 06:50:33.087            15.134          7567.000
       187   09 Jun 2027 08:22:47.701   09 Jun 2027 08:23:44.563            56.862         28431.000
       188   09 Jun 2027 08:24:06.450   09 Jun 2027 08:24:28.500            22.050         11025.000
       189   09 Jun 2027 08:25:57.339   09 Jun 2027 08:26:02.747             5.408          2704.000
       190   09 Jun 2027 08:26:29.006   09 Jun 2027 08:26:41.194            12.188          6094.000
       191   09 Jun 2027 09:57:51.756   09 Jun 2027 09:58:08.368            16.612          8306.000
       192   09 Jun 2027 09:59:31.457   09 Jun 2027 09:59:44.981            13.524          6762.000
       193   09 Jun 2027 10:01:06.537   09 Jun 2027 10:01:35.934            29.397         14698.500
       194   09 Jun 2027 10:02:21.716   09 Jun 2027 10:02:38.987            17.271          8635.500
       195   10 Jun 2027 03:43:59.509   10 Jun 2027 03:48:47.628           288.119        144059.500
       196   10 Jun 2027 03:49:03.052   10 Jun 2027 03:49:27.301            24.249         12124.500
       197   10 Jun 2027 03:50:21.303   10 Jun 2027 03:50:37.253            15.950          7975.000
       198   10 Jun 2027 03:50:53.143   10 Jun 2027 03:51:01.929             8.786          4393.000
       199   10 Jun 2027 03:52:07.026   10 Jun 2027 03:52:09.484             2.458          1229.000
       200   10 Jun 2027 05:21:14.041   10 Jun 2027 05:24:03.258           169.217         84608.500
       201   10 Jun 2027 05:24:15.444   10 Jun 2027 05:24:20.031             4.587          2293.500
       202   10 Jun 2027 05:24:43.744   10 Jun 2027 05:24:54.231            10.487          5243.500
       203   10 Jun 2027 05:26:27.679   10 Jun 2027 05:26:51.869            24.190         12095.000
       204   10 Jun 2027 05:27:05.517   10 Jun 2027 05:27:12.135             6.618          3309.000
       205   10 Jun 2027 05:27:44.127   10 Jun 2027 05:27:53.616             9.489          4744.500
       206   10 Jun 2027 06:58:10.770   10 Jun 2027 07:00:48.234           157.464         78732.000
       207   10 Jun 2027 07:01:19.450   10 Jun 2027 07:01:29.900            10.450          5225.000
       208   10 Jun 2027 07:02:21.528   10 Jun 2027 07:02:32.266            10.738          5369.000
       209   10 Jun 2027 07:02:48.921   10 Jun 2027 07:02:48.921             0.000             0.000
       210   10 Jun 2027 07:03:24.582   10 Jun 2027 07:03:27.449             2.867          1433.500
       211   10 Jun 2027 07:03:35.656   10 Jun 2027 07:03:37.178             1.522           761.000
       212   10 Jun 2027 08:35:01.125   10 Jun 2027 08:35:40.328            39.203         19601.500
       213   10 Jun 2027 08:36:08.325   10 Jun 2027 08:36:27.886            19.561          9780.500
       214   10 Jun 2027 08:37:58.544   10 Jun 2027 08:38:08.916            10.372          5186.000
       215   10 Jun 2027 08:38:24.786   10 Jun 2027 08:38:25.267             0.481           240.500
       216   10 Jun 2027 08:38:38.938   10 Jun 2027 08:38:48.621             9.683          4841.500
       217   10 Jun 2027 08:39:13.683   10 Jun 2027 08:39:20.631             6.948          3474.000
       218   10 Jun 2027 10:12:59.501   10 Jun 2027 10:13:06.822             7.321          3660.500
       219   10 Jun 2027 10:13:45.833   10 Jun 2027 10:14:05.480            19.647          9823.500
       220   11 Jun 2027 03:57:13.528   11 Jun 2027 04:02:02.100           288.572        144286.000
       221   11 Jun 2027 04:02:17.476   11 Jun 2027 04:02:52.426            34.950         17475.000
       222   11 Jun 2027 04:04:01.827   11 Jun 2027 04:04:06.465             4.638          2319.000
       223   11 Jun 2027 05:33:22.124   11 Jun 2027 05:36:03.549           161.425         80712.500
       224   11 Jun 2027 05:36:57.220   11 Jun 2027 05:37:10.705            13.485          6742.500
       225   11 Jun 2027 05:39:08.760   11 Jun 2027 05:39:35.360            26.600         13300.000
       226   11 Jun 2027 05:40:00.730   11 Jun 2027 05:40:01.401             0.671           335.500
       227   11 Jun 2027 07:11:06.165   11 Jun 2027 07:13:53.893           167.728         83864.000
       228   11 Jun 2027 07:14:32.988   11 Jun 2027 07:14:42.559             9.571          4785.500
       229   11 Jun 2027 07:15:15.549   11 Jun 2027 07:15:20.615             5.066          2533.000
       230   11 Jun 2027 08:47:11.476   11 Jun 2027 08:48:10.153            58.677         29338.500
       231   11 Jun 2027 08:50:02.797   11 Jun 2027 08:50:16.387            13.590          6795.000
       232   11 Jun 2027 08:51:10.172   11 Jun 2027 08:51:16.957             6.785          3392.500
       233   12 Jun 2027 04:09:31.009   12 Jun 2027 04:14:33.230           302.221        151110.500
       234   12 Jun 2027 04:15:45.633   12 Jun 2027 04:15:53.563             7.930          3965.000
       235   12 Jun 2027 04:15:54.894   12 Jun 2027 04:16:07.017            12.123          6061.500
       236   12 Jun 2027 05:45:53.788   12 Jun 2027 05:48:35.018           161.230         80615.000
       237   12 Jun 2027 05:50:00.054   12 Jun 2027 05:50:25.617            25.563         12781.500
       238   12 Jun 2027 07:23:11.136   12 Jun 2027 07:25:44.588           153.452         76726.000
       239   12 Jun 2027 07:25:47.926   12 Jun 2027 07:25:50.232             2.306          1153.000
       240   12 Jun 2027 07:27:27.504   12 Jun 2027 07:27:38.099            10.595          5297.500
       241   12 Jun 2027 08:59:24.031   12 Jun 2027 09:00:02.085            38.054         19027.000
       242   12 Jun 2027 09:00:20.337   12 Jun 2027 09:00:27.441             7.104          3552.000
       243   12 Jun 2027 09:01:14.707   12 Jun 2027 09:01:24.821            10.114          5057.000
       244   12 Jun 2027 09:01:31.024   12 Jun 2027 09:01:33.806             2.782          1391.000
       245   12 Jun 2027 09:02:09.250   12 Jun 2027 09:02:22.589            13.339          6669.500
       246   12 Jun 2027 09:02:59.984   12 Jun 2027 09:03:09.539             9.555          4777.500
       247   12 Jun 2027 09:03:28.736   12 Jun 2027 09:03:33.409             4.673          2336.500
       248   12 Jun 2027 09:03:59.439   12 Jun 2027 09:04:01.441             2.002          1001.000
       249   13 Jun 2027 04:21:08.433   13 Jun 2027 04:23:35.494           147.061         73530.500
       250   13 Jun 2027 04:24:26.126   13 Jun 2027 04:26:42.300           136.174         68087.000
       251   13 Jun 2027 04:28:07.469   13 Jun 2027 04:28:16.019             8.550          4275.000
       252   13 Jun 2027 05:57:28.168   13 Jun 2027 05:59:44.796           136.628         68314.000
       253   13 Jun 2027 06:00:25.175   13 Jun 2027 06:01:13.342            48.167         24083.500
       254   13 Jun 2027 06:03:50.247   13 Jun 2027 06:03:53.689             3.442          1721.000
       255   13 Jun 2027 07:35:44.375   13 Jun 2027 07:38:31.993           167.618         83809.000
       256   13 Jun 2027 07:39:25.459   13 Jun 2027 07:39:28.109             2.650          1325.000
       257   13 Jun 2027 09:11:04.951   13 Jun 2027 09:12:06.915            61.964         30982.000
       258   13 Jun 2027 09:14:35.179   13 Jun 2027 09:14:47.879            12.700          6350.000
       259   13 Jun 2027 09:15:36.465   13 Jun 2027 09:15:51.950            15.485          7742.500
