uniorb/output/strategy_1/Camera/Camera_KinoSat_110906.txt

KinoSat_110906
-------------------------
    Access    *     Start Time (UTCG)     *     Stop Time (UTCG)  *   Duration (s) *   Data (Mbytes)
         1   01 Jun 2027 03:21:26.235   01 Jun 2027 03:22:38.003            71.768         35884.000
         2   01 Jun 2027 03:23:14.376   01 Jun 2027 03:23:21.523             7.147          3573.500
         3   01 Jun 2027 04:57:48.616   01 Jun 2027 04:59:45.748           117.132         58566.000
         4   01 Jun 2027 05:00:53.479   01 Jun 2027 05:01:02.720             9.241          4620.500
         5   01 Jun 2027 06:31:43.679   01 Jun 2027 06:33:30.428           106.749         53374.500
         6   01 Jun 2027 06:34:20.227   01 Jun 2027 06:34:20.227             0.000             0.000
         7   01 Jun 2027 06:34:41.608   01 Jun 2027 06:34:50.094             8.486          4243.000
         8   01 Jun 2027 06:37:59.755   01 Jun 2027 06:38:02.262             2.507          1253.500
         9   01 Jun 2027 06:38:29.649   01 Jun 2027 06:38:38.341             8.692          4346.000
        10   01 Jun 2027 06:38:54.661   01 Jun 2027 06:39:06.559            11.898          5949.000
        11   01 Jun 2027 06:39:35.042   01 Jun 2027 06:39:40.047             5.005          2502.500
        12   01 Jun 2027 08:08:55.387   01 Jun 2027 08:11:15.303           139.916         69958.000
        13   01 Jun 2027 08:11:30.379   01 Jun 2027 08:11:38.722             8.343          4171.500
        14   01 Jun 2027 09:45:57.333   01 Jun 2027 09:47:34.275            96.942         48471.000
        15   01 Jun 2027 09:48:37.534   01 Jun 2027 09:48:53.022            15.488          7744.000
        16   01 Jun 2027 09:50:00.511   01 Jun 2027 09:50:08.963             8.452          4226.000
        17   01 Jun 2027 11:22:42.132   01 Jun 2027 11:24:52.740           130.608         65304.000
        18   01 Jun 2027 11:25:04.811   01 Jun 2027 11:25:12.729             7.918          3959.000
        19   01 Jun 2027 11:26:06.282   01 Jun 2027 11:26:20.331            14.049          7024.500
        20   02 Jun 2027 03:33:18.481   02 Jun 2027 03:33:39.289            20.808         10404.000
        21   02 Jun 2027 05:09:52.244   02 Jun 2027 05:12:25.554           153.310         76655.000
        22   02 Jun 2027 05:12:40.202   02 Jun 2027 05:12:52.566            12.364          6182.000
        23   02 Jun 2027 06:45:00.779   02 Jun 2027 06:46:39.817            99.038         49519.000
        24   02 Jun 2027 06:46:48.296   02 Jun 2027 06:46:57.518             9.222          4611.000
        25   02 Jun 2027 06:47:13.683   02 Jun 2027 06:47:19.788             6.105          3052.500
        26   02 Jun 2027 06:50:10.128   02 Jun 2027 06:50:15.659             5.531          2765.500
        27   02 Jun 2027 06:51:21.856   02 Jun 2027 06:51:21.856             0.000             0.000
        28   02 Jun 2027 06:51:32.984   02 Jun 2027 06:51:39.930             6.946          3473.000
        29   02 Jun 2027 08:21:20.810   02 Jun 2027 08:23:55.164           154.354         77177.000
        30   02 Jun 2027 09:58:54.372   02 Jun 2027 10:00:27.676            93.304         46652.000
        31   02 Jun 2027 10:02:50.257   02 Jun 2027 10:03:15.190            24.933         12466.500
        32   02 Jun 2027 11:34:58.317   02 Jun 2027 11:36:44.865           106.548         53274.000
        33   02 Jun 2027 11:37:14.000   02 Jun 2027 11:37:14.007             0.007             3.500
        34   02 Jun 2027 11:37:36.688   02 Jun 2027 11:37:43.858             7.170          3585.000
        35   03 Jun 2027 03:45:27.892   03 Jun 2027 03:45:40.054            12.162          6081.000
        36   03 Jun 2027 03:46:46.168   03 Jun 2027 03:46:58.041            11.873          5936.500
        37   03 Jun 2027 03:47:01.415   03 Jun 2027 03:47:01.415             0.000             0.000
        38   03 Jun 2027 03:47:39.097   03 Jun 2027 03:47:39.097             0.000             0.000
        39   03 Jun 2027 03:48:09.128   03 Jun 2027 03:48:12.048             2.920          1460.000
        40   03 Jun 2027 05:22:02.854   03 Jun 2027 05:24:26.609           143.755         71877.500
        41   03 Jun 2027 06:57:12.626   03 Jun 2027 06:58:57.699           105.073         52536.500
        42   03 Jun 2027 06:59:27.106   03 Jun 2027 06:59:55.131            28.025         14012.500
        43   03 Jun 2027 07:00:08.482   03 Jun 2027 07:00:14.351             5.869          2934.500
        44   03 Jun 2027 07:00:48.400   03 Jun 2027 07:01:14.917            26.517         13258.500
        45   03 Jun 2027 07:03:48.388   03 Jun 2027 07:03:48.528             0.140            70.000
        46   03 Jun 2027 08:33:33.814   03 Jun 2027 08:35:13.690            99.876         49938.000
        47   03 Jun 2027 08:35:52.162   03 Jun 2027 08:36:29.657            37.495         18747.500
        48   03 Jun 2027 10:10:50.876   03 Jun 2027 10:11:58.290            67.414         33707.000
        49   03 Jun 2027 10:12:05.683   03 Jun 2027 10:12:21.797            16.114          7984.095
        50   03 Jun 2027 10:13:10.781   03 Jun 2027 10:13:11.506             0.725           362.500
        51   03 Jun 2027 10:13:38.664   03 Jun 2027 10:13:47.655             8.991          2016.938
        52   03 Jun 2027 10:14:37.178   03 Jun 2027 10:14:48.444            11.266          1547.594
        53   03 Jun 2027 10:14:52.813   03 Jun 2027 10:14:53.154             0.341           136.531
        54   03 Jun 2027 10:15:21.367   03 Jun 2027 10:15:23.399             2.032           881.656
        55   03 Jun 2027 11:47:03.061   03 Jun 2027 11:47:23.133            20.072          9966.781
        56   03 Jun 2027 11:47:30.657   03 Jun 2027 11:47:35.154             4.497           235.125
        57   03 Jun 2027 11:48:11.709   03 Jun 2027 11:48:15.103             3.394          1142.344
        58   03 Jun 2027 11:48:27.297   03 Jun 2027 11:48:32.386             5.089           248.594
        59   03 Jun 2027 11:49:29.970   03 Jun 2027 11:49:33.600             3.630          1676.219
        60   03 Jun 2027 11:50:02.383   03 Jun 2027 11:50:10.350             7.967           899.469
        61   03 Jun 2027 11:50:49.761   03 Jun 2027 11:50:52.275             2.514           752.906
        62   04 Jun 2027 03:57:59.409   04 Jun 2027 03:58:30.759            31.350         15675.000
        63   04 Jun 2027 03:58:48.212   04 Jun 2027 03:59:03.248            15.036          7518.000
        64   04 Jun 2027 05:33:51.304   04 Jun 2027 05:36:22.529           151.225         75612.500
        65   04 Jun 2027 07:08:45.305   04 Jun 2027 07:10:42.746           117.441         58720.500
        66   04 Jun 2027 07:11:42.947   04 Jun 2027 07:11:50.847             7.900          3950.000
        67   04 Jun 2027 07:12:46.141   04 Jun 2027 07:13:06.509            20.368         10066.969
        68   04 Jun 2027 07:13:51.284   04 Jun 2027 07:13:54.461             3.177          1176.656
        69   04 Jun 2027 07:15:25.921   04 Jun 2027 07:15:29.569             3.648          1824.000
        70   04 Jun 2027 07:15:37.997   04 Jun 2027 07:15:38.747             0.750           375.000
        71   04 Jun 2027 08:45:11.278   04 Jun 2027 08:45:47.228            35.950         17440.719
        72   04 Jun 2027 08:45:51.730   04 Jun 2027 08:45:52.704             0.974           131.844
        73   04 Jun 2027 08:47:19.363   04 Jun 2027 08:47:24.272             4.909          2102.719
        74   04 Jun 2027 08:47:41.949   04 Jun 2027 08:47:43.898             1.949           552.406
        75   04 Jun 2027 08:48:29.510   04 Jun 2027 08:48:33.158             3.648           969.250
        76   04 Jun 2027 08:49:32.292   04 Jun 2027 08:49:37.473             5.181          1847.937
        77   04 Jun 2027 08:49:50.723   04 Jun 2027 08:49:50.723             0.000             0.000
        78   04 Jun 2027 08:50:47.395   04 Jun 2027 08:50:53.114             5.719          2185.062
        79   04 Jun 2027 08:50:55.348   04 Jun 2027 08:50:58.181             2.833            20.187
        80   04 Jun 2027 08:51:25.288   04 Jun 2027 08:51:28.864             3.576           654.969
        81   04 Jun 2027 10:23:29.701   04 Jun 2027 10:23:46.880            17.179          7679.531
        82   04 Jun 2027 10:23:55.571   04 Jun 2027 10:23:58.360             2.789           271.594
        83   04 Jun 2027 10:24:11.326   04 Jun 2027 10:24:13.066             1.740           152.062
        84   04 Jun 2027 10:25:09.158   04 Jun 2027 10:25:15.303             6.145          1752.875
        85   04 Jun 2027 10:25:30.365   04 Jun 2027 10:25:32.394             2.029           470.687
        86   04 Jun 2027 10:25:54.545   04 Jun 2027 10:25:56.311             1.766           572.719
        87   04 Jun 2027 10:27:03.967   04 Jun 2027 10:27:08.628             4.661          1865.000
        88   04 Jun 2027 10:27:19.625   04 Jun 2027 10:27:19.625             0.000             0.000
        89   04 Jun 2027 11:58:56.119   04 Jun 2027 11:59:08.035            11.916          5944.406
        90   05 Jun 2027 04:08:34.895   05 Jun 2027 04:09:32.674            57.779         28889.500
        91   05 Jun 2027 05:44:07.600   05 Jun 2027 05:44:57.603            50.003         25001.500
        92   05 Jun 2027 05:45:35.703   05 Jun 2027 05:47:21.695           105.992         52996.000
        93   05 Jun 2027 05:49:15.516   05 Jun 2027 05:49:22.091             6.575          3287.500
        94   05 Jun 2027 05:50:05.382   05 Jun 2027 05:50:07.433             2.051          1025.500
        95   05 Jun 2027 07:20:25.143   05 Jun 2027 07:22:28.399           123.256         61268.969
        96   05 Jun 2027 07:23:27.613   05 Jun 2027 07:23:32.083             4.470          1747.625
        97   05 Jun 2027 07:27:13.168   05 Jun 2027 07:27:23.110             9.942          4971.000
        98   05 Jun 2027 08:57:30.878   05 Jun 2027 08:57:58.266            27.388         13009.969
        99   05 Jun 2027 08:58:44.905   05 Jun 2027 08:58:48.739             3.834          1182.719
       100   05 Jun 2027 08:59:01.705   05 Jun 2027 08:59:02.843             1.138            55.594
       101   05 Jun 2027 09:00:53.557   05 Jun 2027 09:01:00.872             7.315          1709.125
       102   05 Jun 2027 09:01:26.569   05 Jun 2027 09:01:28.119             1.550           706.813
       103   05 Jun 2027 09:02:25.348   05 Jun 2027 09:02:30.361             5.013          1788.406
       104   05 Jun 2027 09:03:39.403   05 Jun 2027 09:03:42.730             3.327          1663.500
       105   05 Jun 2027 10:35:28.180   05 Jun 2027 10:35:42.276            14.096          7048.000
       106   05 Jun 2027 10:36:22.615   05 Jun 2027 10:36:25.338             2.723          1361.500
       107   05 Jun 2027 10:36:58.683   05 Jun 2027 10:37:00.915             2.232          1116.000
       108   05 Jun 2027 10:37:22.880   05 Jun 2027 10:37:24.857             1.977           988.500
       109   05 Jun 2027 10:37:53.255   05 Jun 2027 10:37:56.735             3.480           962.469
       110   05 Jun 2027 10:38:06.804   05 Jun 2027 10:38:10.400             3.596           314.656
       111   05 Jun 2027 10:38:14.025   05 Jun 2027 10:38:21.869             7.844            53.594
       112   05 Jun 2027 10:38:56.513   05 Jun 2027 10:38:57.891             1.378           689.000
       113   06 Jun 2027 04:20:18.106   06 Jun 2027 04:21:23.952            65.846         32923.000
       114   06 Jun 2027 04:24:40.472   06 Jun 2027 04:25:09.748            29.276         14638.000
       115   06 Jun 2027 05:55:16.207   06 Jun 2027 05:56:48.800            92.593         46296.500
       116   06 Jun 2027 05:57:19.969   06 Jun 2027 05:58:08.795            48.826         24413.000
       117   06 Jun 2027 06:01:10.161   06 Jun 2027 06:01:26.782            16.621          8310.500
       118   06 Jun 2027 07:32:44.443   06 Jun 2027 07:34:14.994            90.551         45275.500
       119   06 Jun 2027 07:34:36.433   06 Jun 2027 07:34:45.924             9.491          4473.281
       120   06 Jun 2027 07:35:54.516   06 Jun 2027 07:35:57.566             3.050          1525.000
       121   06 Jun 2027 07:36:12.243   06 Jun 2027 07:36:14.744             2.501          1077.156
       122   06 Jun 2027 07:38:14.770   06 Jun 2027 07:38:14.770             0.000             0.000
       123   06 Jun 2027 07:38:27.401   06 Jun 2027 07:38:32.339             4.938          2469.000
       124   06 Jun 2027 07:39:30.380   06 Jun 2027 07:39:37.382             7.002          3370.250
       125   06 Jun 2027 09:09:29.485   06 Jun 2027 09:09:55.689            26.204         11536.844
       126   06 Jun 2027 09:10:34.391   06 Jun 2027 09:10:36.901             2.510          1123.187
       127   06 Jun 2027 09:11:08.427   06 Jun 2027 09:11:12.145             3.718           959.844
       128   06 Jun 2027 09:11:59.740   06 Jun 2027 09:12:02.389             2.649          1155.000
       129   06 Jun 2027 09:12:42.192   06 Jun 2027 09:12:45.135             2.943          1243.844
       130   06 Jun 2027 09:13:01.122   06 Jun 2027 09:13:01.919             0.797           276.094
       131   06 Jun 2027 09:13:37.486   06 Jun 2027 09:13:39.717             2.231          1047.562
       132   06 Jun 2027 09:14:16.941   06 Jun 2027 09:14:19.891             2.950          1163.250
       133   06 Jun 2027 09:14:39.289   06 Jun 2027 09:14:41.073             1.784           457.563
       134   06 Jun 2027 09:15:01.053   06 Jun 2027 09:15:04.152             3.099           624.375
       135   06 Jun 2027 09:15:45.756   06 Jun 2027 09:15:51.740             5.984          1204.219
       136   06 Jun 2027 10:47:27.700   06 Jun 2027 10:47:49.405            21.705          8699.531
       137   06 Jun 2027 10:48:21.285   06 Jun 2027 10:48:25.105             3.820           456.437
       138   06 Jun 2027 10:49:24.090   06 Jun 2027 10:49:28.082             3.992          1843.281
       139   06 Jun 2027 10:50:30.111   06 Jun 2027 10:50:37.343             7.232          1938.406
       140   06 Jun 2027 10:50:39.133   06 Jun 2027 10:50:40.576             1.443            55.937
       141   06 Jun 2027 10:51:07.535   06 Jun 2027 10:51:09.843             2.308           803.000
       142   06 Jun 2027 10:51:22.929   06 Jun 2027 10:51:26.224             3.295           408.938
       143   07 Jun 2027 03:10:04.309   07 Jun 2027 03:10:35.791            31.482         15741.000
       144   07 Jun 2027 04:31:52.254   07 Jun 2027 04:32:48.272            56.018         28009.000
       145   07 Jun 2027 04:33:08.123   07 Jun 2027 04:33:10.863             2.740          1370.000
       146   07 Jun 2027 04:34:05.818   07 Jun 2027 04:34:16.880            11.062          5531.000
       147   07 Jun 2027 04:34:52.863   07 Jun 2027 04:34:52.863             0.000             0.000
       148   07 Jun 2027 04:36:00.076   07 Jun 2027 04:36:00.076             0.000             0.000
       149   07 Jun 2027 04:36:48.776   07 Jun 2027 04:36:48.776             0.000             0.000
       150   07 Jun 2027 04:36:59.398   07 Jun 2027 04:37:14.915            15.517          7758.500
       151   07 Jun 2027 06:06:44.085   07 Jun 2027 06:08:15.326            91.241         45620.500
       152   07 Jun 2027 06:09:11.075   07 Jun 2027 06:09:38.454            27.379         13689.500
       153   07 Jun 2027 06:12:48.205   07 Jun 2027 06:12:48.205             0.000             0.000
       154   07 Jun 2027 06:15:07.176   07 Jun 2027 06:15:21.616            14.440          7220.000
       155   07 Jun 2027 06:15:37.783   07 Jun 2027 06:15:41.084             3.301          1650.500
       156   07 Jun 2027 07:44:37.478   07 Jun 2027 07:45:56.723            79.245         39622.500
       157   07 Jun 2027 07:46:24.040   07 Jun 2027 07:46:50.780            26.740         12733.282
       158   07 Jun 2027 07:48:21.999   07 Jun 2027 07:48:25.584             3.585          1792.500
       159   07 Jun 2027 07:49:53.053   07 Jun 2027 07:50:00.172             7.119          3559.500
       160   07 Jun 2027 07:50:29.756   07 Jun 2027 07:50:33.532             3.776          1156.500
       161   07 Jun 2027 07:51:19.684   07 Jun 2027 07:51:22.130             2.446          1204.625
       162   07 Jun 2027 09:21:21.361   07 Jun 2027 09:21:43.756            22.395         11044.281
       163   07 Jun 2027 09:22:36.486   07 Jun 2027 09:22:38.410             1.924           758.625
       164   07 Jun 2027 09:23:56.606   07 Jun 2027 09:23:57.713             1.107           112.188
       165   07 Jun 2027 09:24:20.348   07 Jun 2027 09:24:23.141             2.793           707.344
       166   07 Jun 2027 09:25:12.210   07 Jun 2027 09:25:13.785             1.575           787.500
       167   07 Jun 2027 09:25:53.584   07 Jun 2027 09:26:00.831             7.247          1989.625
       168   07 Jun 2027 09:26:30.446   07 Jun 2027 09:26:30.906             0.460           230.000
       169   07 Jun 2027 09:27:04.776   07 Jun 2027 09:27:08.670             3.894          1492.000
       170   07 Jun 2027 09:27:26.553   07 Jun 2027 09:27:30.949             4.396           558.844
       171   07 Jun 2027 09:27:31.913   07 Jun 2027 09:27:33.631             1.718            28.312
       172   07 Jun 2027 10:59:27.998   07 Jun 2027 10:59:42.576            14.578          7289.000
       173   07 Jun 2027 10:59:44.209   07 Jun 2027 10:59:44.209             0.000             0.000
       174   07 Jun 2027 11:00:06.054   07 Jun 2027 11:00:14.742             8.688          1643.063
       175   07 Jun 2027 11:01:21.821   07 Jun 2027 11:01:25.894             4.073          1924.531
       176   07 Jun 2027 11:01:32.606   07 Jun 2027 11:01:36.234             3.628           209.750
       177   07 Jun 2027 11:02:04.309   07 Jun 2027 11:02:06.127             1.818           650.219
       178   07 Jun 2027 11:02:54.732   07 Jun 2027 11:02:59.123             4.391          1518.906
       179   07 Jun 2027 11:03:21.893   07 Jun 2027 11:03:24.502             2.609           706.719
       180   08 Jun 2027 03:09:47.964   08 Jun 2027 03:10:15.561            27.597         13798.500
       181   08 Jun 2027 03:10:39.697   08 Jun 2027 03:10:53.163            13.466          6733.000
       182   08 Jun 2027 04:45:48.784   08 Jun 2027 04:47:21.351            92.567         46283.500
       183   08 Jun 2027 04:48:19.608   08 Jun 2027 04:48:28.317             8.709          4354.500
       184   08 Jun 2027 04:49:12.769   08 Jun 2027 04:49:40.555            27.786         13893.000
       185   08 Jun 2027 06:19:36.143   08 Jun 2027 06:20:44.148            68.005         34002.500
       186   08 Jun 2027 06:21:33.281   08 Jun 2027 06:21:52.479            19.198          9599.000
       187   08 Jun 2027 06:22:10.401   08 Jun 2027 06:22:22.090            11.689          5844.500
       188   08 Jun 2027 06:25:56.764   08 Jun 2027 06:26:00.084             3.320          1660.000
       189   08 Jun 2027 06:26:55.174   08 Jun 2027 06:27:01.334             6.160          3080.000
       190   08 Jun 2027 06:27:06.814   08 Jun 2027 06:27:15.293             8.479          4239.500
       191   08 Jun 2027 07:56:44.924   08 Jun 2027 07:58:02.546            77.622         37916.124
       192   08 Jun 2027 07:58:09.405   08 Jun 2027 07:58:11.495             2.090           103.281
       193   08 Jun 2027 07:59:02.514   08 Jun 2027 07:59:05.792             3.278          1559.500
       194   08 Jun 2027 07:59:16.133   08 Jun 2027 07:59:17.372             1.239            99.063
       195   08 Jun 2027 08:00:11.450   08 Jun 2027 08:00:12.270             0.820           274.625
       196   08 Jun 2027 08:00:46.843   08 Jun 2027 08:00:49.379             2.536           957.969
       197   08 Jun 2027 08:01:36.394   08 Jun 2027 08:01:38.955             2.561          1280.500
       198   08 Jun 2027 08:02:35.103   08 Jun 2027 08:02:35.103             0.000             0.000
       199   08 Jun 2027 08:02:36.510   08 Jun 2027 08:02:38.545             2.035          1017.500
       200   08 Jun 2027 08:03:02.600   08 Jun 2027 08:03:09.333             6.733          1690.406
       201   08 Jun 2027 08:03:15.003   08 Jun 2027 08:03:20.236             5.233           177.187
       202   08 Jun 2027 09:33:59.283   08 Jun 2027 09:34:23.726            24.443          8988.063
       203   08 Jun 2027 09:35:43.053   08 Jun 2027 09:35:47.631             4.578           214.000
       204   08 Jun 2027 09:35:59.815   08 Jun 2027 09:36:01.585             1.770           191.313
       205   08 Jun 2027 09:37:05.821   08 Jun 2027 09:37:10.003             4.182          1683.063
       206   08 Jun 2027 09:37:32.670   08 Jun 2027 09:37:33.568             0.898           449.000
       207   08 Jun 2027 09:38:05.536   08 Jun 2027 09:38:07.960             2.424          1035.719
       208   08 Jun 2027 09:38:20.982   08 Jun 2027 09:38:23.350             2.368           406.937
       209   08 Jun 2027 09:39:05.527   08 Jun 2027 09:39:09.793             4.266          1318.031
       210   08 Jun 2027 11:10:41.779   08 Jun 2027 11:10:54.863            13.084          6476.156
       211   08 Jun 2027 11:11:15.517   08 Jun 2027 11:11:22.916             7.399           320.281
       212   08 Jun 2027 11:11:36.441   08 Jun 2027 11:11:39.264             2.823           255.594
       213   08 Jun 2027 11:12:20.593   08 Jun 2027 11:12:23.371             2.778          1098.375
       214   08 Jun 2027 11:12:29.586   08 Jun 2027 11:12:31.737             2.151           194.219
       215   08 Jun 2027 11:13:36.393   08 Jun 2027 11:13:40.889             4.496          1948.750
       216   08 Jun 2027 11:14:00.223   08 Jun 2027 11:14:05.205             4.982           471.031
       217   08 Jun 2027 11:14:36.647   08 Jun 2027 11:14:42.856             6.209           982.562
       218   08 Jun 2027 11:15:04.158   08 Jun 2027 11:15:07.862             3.704           381.625
       219   08 Jun 2027 11:15:20.229   08 Jun 2027 11:15:22.370             2.141           342.938
       220   08 Jun 2027 11:15:29.036   08 Jun 2027 11:15:31.257             2.221           197.187
       221   09 Jun 2027 03:21:40.926   09 Jun 2027 03:22:01.961            21.035         10517.500
       222   09 Jun 2027 03:23:13.215   09 Jun 2027 03:23:17.161             3.946          1973.000
       223   09 Jun 2027 03:23:27.308   09 Jun 2027 03:23:36.977             9.669          4834.500
       224   09 Jun 2027 04:58:02.211   09 Jun 2027 05:00:13.951           131.740         65870.000
       225   09 Jun 2027 05:00:38.186   09 Jun 2027 05:00:55.214            17.028          8514.000
       226   09 Jun 2027 06:31:59.606   09 Jun 2027 06:33:46.051           106.445         53222.500
       227   09 Jun 2027 06:34:26.861   09 Jun 2027 06:34:28.411             1.550           775.000
       228   09 Jun 2027 06:38:22.391   09 Jun 2027 06:38:29.899             7.508          3754.000
       229   09 Jun 2027 06:38:44.054   09 Jun 2027 06:38:44.054             0.000             0.000
       230   09 Jun 2027 06:39:05.976   09 Jun 2027 06:39:13.454             7.478          3739.000
       231   09 Jun 2027 08:09:10.385   09 Jun 2027 08:09:55.243            44.858         20587.125
       232   09 Jun 2027 08:11:34.714   09 Jun 2027 08:11:40.873             6.159           137.000
       233   09 Jun 2027 08:12:00.728   09 Jun 2027 08:12:03.096             2.368           221.000
       234   09 Jun 2027 08:12:16.748   09 Jun 2027 08:12:24.203             7.455           285.781
       235   09 Jun 2027 08:12:32.088   09 Jun 2027 08:12:34.252             2.164           229.562
       236   09 Jun 2027 08:13:34.819   09 Jun 2027 08:13:39.917             5.098          1380.000
       237   09 Jun 2027 08:14:26.604   09 Jun 2027 08:14:29.727             3.123          1458.969
       238   09 Jun 2027 08:15:22.759   09 Jun 2027 08:15:30.426             7.667          1636.063
       239   09 Jun 2027 08:15:46.267   09 Jun 2027 08:15:49.685             3.418           351.344
       240   09 Jun 2027 09:46:10.529   09 Jun 2027 09:46:22.232            11.703          5851.500
       241   09 Jun 2027 09:46:28.297   09 Jun 2027 09:46:33.588             5.291          2542.500
       242   09 Jun 2027 09:46:49.176   09 Jun 2027 09:46:52.756             3.580           310.750
       243   09 Jun 2027 09:48:05.720   09 Jun 2027 09:48:09.431             3.711          1779.250
       244   09 Jun 2027 09:49:13.676   09 Jun 2027 09:49:17.004             3.328          1348.062
       245   09 Jun 2027 09:49:57.219   09 Jun 2027 09:50:03.048             5.829           953.281
       246   09 Jun 2027 09:50:29.868   09 Jun 2027 09:50:35.615             5.747           838.125
       247   09 Jun 2027 09:51:22.375   09 Jun 2027 09:51:28.945             6.570          1321.906
       248   09 Jun 2027 11:22:56.655   09 Jun 2027 11:23:13.281            16.626          8313.000
       249   09 Jun 2027 11:23:46.821   09 Jun 2027 11:23:52.531             5.710          1227.094
       250   09 Jun 2027 11:24:19.808   09 Jun 2027 11:24:21.037             1.229           366.906
       251   09 Jun 2027 11:25:27.373   09 Jun 2027 11:25:34.024             6.651          1656.219
       252   09 Jun 2027 11:26:56.679   09 Jun 2027 11:27:04.538             7.859          2582.969
       253   10 Jun 2027 03:33:34.057   10 Jun 2027 03:33:53.944            19.887          9943.500
       254   10 Jun 2027 03:34:35.649   10 Jun 2027 03:34:46.941            11.292          5646.000
       255   10 Jun 2027 03:34:57.285   10 Jun 2027 03:35:17.791            20.506         10253.000
       256   10 Jun 2027 05:10:07.364   10 Jun 2027 05:12:28.532           141.168         70584.000
       257   10 Jun 2027 05:12:31.893   10 Jun 2027 05:12:31.893             0.000             0.000
       258   10 Jun 2027 05:12:33.107   10 Jun 2027 05:12:40.719             7.612          3806.000
       259   10 Jun 2027 06:45:16.223   10 Jun 2027 06:46:55.429            99.206         49603.000
       260   10 Jun 2027 06:47:04.311   10 Jun 2027 06:47:06.765             2.454          1227.000
       261   10 Jun 2027 06:48:22.913   10 Jun 2027 06:48:26.487             3.574          1787.000
       262   10 Jun 2027 06:49:01.296   10 Jun 2027 06:49:10.822             9.526          4763.000
       263   10 Jun 2027 06:50:25.568   10 Jun 2027 06:50:33.081             7.513          3756.500
       264   10 Jun 2027 06:51:57.364   10 Jun 2027 06:52:01.986             4.622          2311.000
       265   10 Jun 2027 08:21:36.241   10 Jun 2027 08:22:07.321            31.080         15330.656
       266   10 Jun 2027 08:23:03.576   10 Jun 2027 08:23:11.029             7.453           531.281
       267   10 Jun 2027 08:23:35.683   10 Jun 2027 08:23:39.980             4.297           595.312
       268   10 Jun 2027 08:24:10.431   10 Jun 2027 08:24:17.019             6.588           535.938
       269   10 Jun 2027 08:24:53.129   10 Jun 2027 08:24:54.080             0.951           434.812
       270   10 Jun 2027 08:25:04.293   10 Jun 2027 08:25:07.283             2.990           319.156
       271   10 Jun 2027 08:26:13.013   10 Jun 2027 08:26:18.857             5.844          2054.063
       272   10 Jun 2027 08:27:15.500   10 Jun 2027 08:27:21.798             6.298          1770.094
       273   10 Jun 2027 08:27:36.625   10 Jun 2027 08:27:37.016             0.391           195.500
       274   10 Jun 2027 09:59:10.737   10 Jun 2027 09:59:32.199            21.462         10403.844
       275   10 Jun 2027 09:59:59.377   10 Jun 2027 10:00:01.471             2.094           844.687
       276   10 Jun 2027 10:00:34.615   10 Jun 2027 10:00:37.113             2.498          1035.750
       277   10 Jun 2027 10:01:06.420   10 Jun 2027 10:01:07.085             0.665           308.906
       278   10 Jun 2027 10:01:20.794   10 Jun 2027 10:01:20.917             0.123            61.500
       279   10 Jun 2027 10:01:50.065   10 Jun 2027 10:01:51.842             1.777           888.500
       280   10 Jun 2027 10:02:17.237   10 Jun 2027 10:02:17.237             0.000             0.000
       281   10 Jun 2027 10:02:37.475   10 Jun 2027 10:02:44.506             7.031          1815.312
       282   10 Jun 2027 10:03:21.145   10 Jun 2027 10:03:26.221             5.076          1140.750
       283   10 Jun 2027 11:35:13.572   10 Jun 2027 11:35:29.073            15.501          7432.937
       284   10 Jun 2027 11:35:48.312   10 Jun 2027 11:35:55.812             7.500           496.719
       285   10 Jun 2027 11:36:10.891   10 Jun 2027 11:36:13.488             2.597           471.219
       286   10 Jun 2027 11:36:26.751   10 Jun 2027 11:36:28.773             2.022           253.344
       287   10 Jun 2027 11:37:07.920   10 Jun 2027 11:37:10.508             2.588          1060.687
       288   10 Jun 2027 11:37:42.526   10 Jun 2027 11:37:47.318             4.792           769.594
       289   10 Jun 2027 11:37:59.942   10 Jun 2027 11:38:01.209             1.267           262.844
       290   10 Jun 2027 11:38:20.907   10 Jun 2027 11:38:22.304             1.397           308.375
       291   10 Jun 2027 11:38:36.289   10 Jun 2027 11:38:37.229             0.940           437.031
       292   10 Jun 2027 11:38:54.254   10 Jun 2027 11:38:55.161             0.907           419.750
       293   10 Jun 2027 11:39:17.372   10 Jun 2027 11:39:21.258             3.886           667.094
       294   11 Jun 2027 03:45:42.497   11 Jun 2027 03:45:54.703            12.206          6103.000
       295   11 Jun 2027 03:47:01.047   11 Jun 2027 03:47:18.113            17.066          8533.000
       296   11 Jun 2027 03:47:35.769   11 Jun 2027 03:47:46.661            10.892          5446.000
       297   11 Jun 2027 03:48:25.831   11 Jun 2027 03:48:52.524            26.693         13346.500
       298   11 Jun 2027 05:22:17.798   11 Jun 2027 05:24:28.829           131.031         65515.500
       299   11 Jun 2027 06:57:27.923   11 Jun 2027 06:59:13.821           105.898         52949.000
       300   11 Jun 2027 06:59:42.868   11 Jun 2027 06:59:53.549            10.681          5340.500
       301   11 Jun 2027 07:00:30.308   11 Jun 2027 07:00:33.378             3.070          1535.000
       302   11 Jun 2027 07:03:36.536   11 Jun 2027 07:03:46.225             9.689          4844.500
       303   11 Jun 2027 07:03:58.514   11 Jun 2027 07:04:03.514             5.000          2500.000
       304   11 Jun 2027 08:33:48.777   11 Jun 2027 08:34:17.697            28.920         14385.469
       305   11 Jun 2027 08:35:03.017   11 Jun 2027 08:35:04.974             1.957           144.812
       306   11 Jun 2027 08:35:31.104   11 Jun 2027 08:35:32.869             1.765           321.281
       307   11 Jun 2027 08:35:56.695   11 Jun 2027 08:36:00.088             3.393           725.594
       308   11 Jun 2027 08:37:14.618   11 Jun 2027 08:37:16.211             1.593           796.500
       309   11 Jun 2027 08:38:02.140   11 Jun 2027 08:38:07.421             5.281          2586.812
       310   11 Jun 2027 08:39:10.693   11 Jun 2027 08:39:14.664             3.971          1838.469
       311   11 Jun 2027 10:11:05.546   11 Jun 2027 10:11:24.476            18.930          7723.031
       312   11 Jun 2027 10:11:32.382   11 Jun 2027 10:11:32.947             0.565           247.062
       313   11 Jun 2027 10:11:48.382   11 Jun 2027 10:11:49.300             0.918           357.625
       314   11 Jun 2027 10:11:55.983   11 Jun 2027 10:12:01.856             5.873           144.906
       315   11 Jun 2027 10:13:12.198   11 Jun 2027 10:13:18.771             6.573          2123.312
       316   11 Jun 2027 10:13:35.016   11 Jun 2027 10:13:36.033             1.017           491.375
       317   11 Jun 2027 10:13:42.870   11 Jun 2027 10:13:42.870             0.000             0.000
       318   11 Jun 2027 10:14:04.842   11 Jun 2027 10:14:06.463             1.621           773.469
       319   11 Jun 2027 10:14:11.924   11 Jun 2027 10:14:19.028             7.104           170.656
       320   11 Jun 2027 10:15:04.828   11 Jun 2027 10:15:06.480             1.652           826.000
       321   11 Jun 2027 10:15:08.037   11 Jun 2027 10:15:09.205             1.168           429.531
       322   11 Jun 2027 10:15:46.069   11 Jun 2027 10:15:46.527             0.458           229.000
       323   11 Jun 2027 11:47:17.994   11 Jun 2027 11:47:32.425            14.431          6945.594
       324   11 Jun 2027 11:48:12.478   11 Jun 2027 11:48:19.903             7.425           976.156
       325   11 Jun 2027 11:49:06.393   11 Jun 2027 11:49:09.653             3.260          1260.563
       326   11 Jun 2027 11:50:00.601   11 Jun 2027 11:50:04.204             3.603          1592.125
       327   11 Jun 2027 11:50:40.469   11 Jun 2027 11:50:42.252             1.783           751.719
       328   11 Jun 2027 11:51:02.213   11 Jun 2027 11:51:04.684             2.471           536.687
       329   11 Jun 2027 11:51:07.607   11 Jun 2027 11:51:07.913             0.306            91.094
       330   11 Jun 2027 11:51:24.917   11 Jun 2027 11:51:27.123             2.206           503.469
       331   11 Jun 2027 11:51:37.902   11 Jun 2027 11:51:44.869             6.967           266.187
       332   11 Jun 2027 11:52:08.568   11 Jun 2027 11:52:08.568             0.000             0.000
       333   12 Jun 2027 03:58:15.530   12 Jun 2027 03:59:18.070            62.540         31270.000
       334   12 Jun 2027 04:00:53.746   12 Jun 2027 04:00:53.746             0.000             0.000
       335   12 Jun 2027 05:34:05.458   12 Jun 2027 05:36:09.414           123.956         61978.000
       336   12 Jun 2027 05:37:17.735   12 Jun 2027 05:37:30.779            13.044          6522.000
       337   12 Jun 2027 07:08:58.698   12 Jun 2027 07:11:07.568           128.870         64079.500
       338   12 Jun 2027 07:13:06.161   12 Jun 2027 07:13:15.103             8.942          3688.469
       339   12 Jun 2027 07:14:57.592   12 Jun 2027 07:14:58.717             1.125           562.500
       340   12 Jun 2027 08:45:27.307   12 Jun 2027 08:46:00.176            32.869         14922.000
       341   12 Jun 2027 08:46:16.673   12 Jun 2027 08:46:22.557             5.884           440.906
       342   12 Jun 2027 08:47:34.395   12 Jun 2027 08:47:38.942             4.547          2046.187
       343   12 Jun 2027 08:48:13.715   12 Jun 2027 08:48:15.522             1.807           903.500
       344   12 Jun 2027 08:48:56.246   12 Jun 2027 08:49:04.296             8.050          1307.156
       345   12 Jun 2027 08:50:05.614   12 Jun 2027 08:50:11.241             5.627          1890.469
       346   12 Jun 2027 08:50:22.727   12 Jun 2027 08:50:31.724             8.997           358.937
       347   12 Jun 2027 08:51:45.580   12 Jun 2027 08:51:48.829             3.249          1624.500
       348   12 Jun 2027 10:23:45.135   12 Jun 2027 10:24:01.510            16.375          7259.125
       349   12 Jun 2027 10:24:41.350   12 Jun 2027 10:24:46.203             4.853          1245.000
       350   12 Jun 2027 10:25:24.143   12 Jun 2027 10:25:27.349             3.206           992.563
       351   12 Jun 2027 10:25:30.326   12 Jun 2027 10:25:33.248             2.922            75.313
       352   12 Jun 2027 10:25:41.000   12 Jun 2027 10:25:45.554             4.554           215.781
       353   12 Jun 2027 10:25:52.792   12 Jun 2027 10:25:53.435             0.643           226.188
       354   12 Jun 2027 10:26:23.796   12 Jun 2027 10:26:26.595             2.799           544.969
       355   12 Jun 2027 10:26:36.797   12 Jun 2027 10:26:38.669             1.872           283.094
       356   12 Jun 2027 10:27:16.594   12 Jun 2027 10:27:20.060             3.466           633.219
       357   12 Jun 2027 10:27:24.835   12 Jun 2027 10:27:26.628             1.793            86.500
       358   12 Jun 2027 10:27:33.976   12 Jun 2027 10:27:34.285             0.309            46.875
       359   12 Jun 2027 11:59:12.218   12 Jun 2027 11:59:32.556            20.338          8855.719
       360   13 Jun 2027 04:08:49.952   13 Jun 2027 04:09:22.613            32.661         16330.500
       361   13 Jun 2027 04:09:47.220   13 Jun 2027 04:09:47.220             0.000             0.000
       362   13 Jun 2027 04:10:25.041   13 Jun 2027 04:10:27.191             2.150          1075.000
       363   13 Jun 2027 04:10:58.905   13 Jun 2027 04:11:04.899             5.994          2997.000
       364   13 Jun 2027 04:11:51.957   13 Jun 2027 04:11:59.192             7.235          3617.500
       365   13 Jun 2027 04:12:12.029   13 Jun 2027 04:12:41.145            29.116         14558.000
       366   13 Jun 2027 04:13:30.185   13 Jun 2027 04:13:31.446             1.261           630.500
       367   13 Jun 2027 05:44:21.691   13 Jun 2027 05:45:12.424            50.733         25366.500
       368   13 Jun 2027 05:45:50.553   13 Jun 2027 05:46:53.340            62.787         31393.500
       369   13 Jun 2027 05:47:09.277   13 Jun 2027 05:47:11.111             1.834           917.000
       370   13 Jun 2027 05:47:42.366   13 Jun 2027 05:47:52.597            10.231          5115.500
       371   13 Jun 2027 07:20:40.794   13 Jun 2027 07:22:51.035           130.241         65120.500
       372   13 Jun 2027 07:24:39.219   13 Jun 2027 07:24:48.451             9.232          4616.000
       373   13 Jun 2027 07:25:01.773   13 Jun 2027 07:25:04.942             3.169           940.219
       374   13 Jun 2027 07:26:13.187   13 Jun 2027 07:26:13.187             0.000             0.000
       375   13 Jun 2027 07:27:27.813   13 Jun 2027 07:27:32.049             4.236          2118.000
       376   13 Jun 2027 08:57:47.589   13 Jun 2027 08:58:16.138            28.549         13617.844
       377   13 Jun 2027 08:59:00.319   13 Jun 2027 08:59:03.608             3.289          1204.750
       378   13 Jun 2027 08:59:17.075   13 Jun 2027 08:59:19.708             2.633           420.844
       379   13 Jun 2027 09:00:16.161   13 Jun 2027 09:00:18.663             2.502          1207.500
       380   13 Jun 2027 09:01:42.645   13 Jun 2027 09:01:48.575             5.930          2304.625
       381   13 Jun 2027 09:02:57.613   13 Jun 2027 09:03:01.967             4.354          1797.500
       382   13 Jun 2027 09:03:17.878   13 Jun 2027 09:03:20.130             2.252           497.219
       383   13 Jun 2027 09:03:42.027   13 Jun 2027 09:03:46.353             4.326           684.281
       384   13 Jun 2027 09:03:58.237   13 Jun 2027 09:03:58.237             0.000             0.000
       385   13 Jun 2027 10:35:43.074   13 Jun 2027 10:35:59.842            16.768          7861.687
       386   13 Jun 2027 10:36:27.774   13 Jun 2027 10:36:30.179             2.405           872.875
       387   13 Jun 2027 10:36:41.805   13 Jun 2027 10:36:41.805             0.000             0.000
       388   13 Jun 2027 10:37:02.110   13 Jun 2027 10:37:04.243             2.133           772.656
       389   13 Jun 2027 10:37:39.805   13 Jun 2027 10:37:41.198             1.393           696.500
       390   13 Jun 2027 10:38:08.484   13 Jun 2027 10:38:12.529             4.045           923.281
       391   13 Jun 2027 10:38:21.528   13 Jun 2027 10:38:26.268             4.740           277.188
       392   13 Jun 2027 10:38:29.292   13 Jun 2027 10:38:32.462             3.170            74.375
       393   13 Jun 2027 10:39:12.572   13 Jun 2027 10:39:15.768             3.196          1097.188
       394   13 Jun 2027 10:39:24.258   13 Jun 2027 10:39:25.422             1.164           157.250
       395   13 Jun 2027 10:39:34.836   13 Jun 2027 10:39:35.950             1.114           294.188
