uniorb/output/strategy_1/Camera/Camera_KinoSat_110308.txt

KinoSat_110308
-------------------------
    Access    *     Start Time (UTCG)     *     Stop Time (UTCG)  *   Duration (s) *   Data (Mbytes)
         1   01 Jun 2027 03:28:14.469   01 Jun 2027 03:29:44.832            90.363         45181.500
         2   01 Jun 2027 03:30:05.910   01 Jun 2027 03:30:10.100             4.190          2095.000
         3   01 Jun 2027 03:31:55.966   01 Jun 2027 03:32:10.499            14.533          7266.500
         4   01 Jun 2027 03:32:38.405   01 Jun 2027 03:32:56.215            17.810          8905.000
         5   01 Jun 2027 03:33:43.057   01 Jun 2027 03:33:48.593             5.536          2768.000
         6   01 Jun 2027 03:34:21.621   01 Jun 2027 03:34:23.562             1.941           970.500
         7   01 Jun 2027 03:34:41.142   01 Jun 2027 03:34:47.828             6.686          3343.000
         8   01 Jun 2027 03:34:49.839   01 Jun 2027 03:34:51.376             1.537           768.500
         9   01 Jun 2027 05:04:36.948   01 Jun 2027 05:07:14.068           157.120         78560.000
        10   01 Jun 2027 05:07:49.406   01 Jun 2027 05:07:58.655             9.249          4624.500
        11   01 Jun 2027 05:08:39.986   01 Jun 2027 05:08:51.497            11.511          5755.500
        12   01 Jun 2027 05:09:02.777   01 Jun 2027 05:09:18.170            15.393          7696.500
        13   01 Jun 2027 05:10:06.426   01 Jun 2027 05:10:11.540             5.114          2557.000
        14   01 Jun 2027 06:41:52.340   01 Jun 2027 06:44:09.549           137.209         68604.500
        15   01 Jun 2027 06:44:32.049   01 Jun 2027 06:44:40.665             8.616          4308.000
        16   01 Jun 2027 06:45:16.003   01 Jun 2027 06:45:24.125             8.122          4061.000
        17   01 Jun 2027 06:45:57.175   01 Jun 2027 06:46:03.450             6.275          3137.500
        18   01 Jun 2027 06:46:28.817   01 Jun 2027 06:46:30.166             1.349           674.500
        19   01 Jun 2027 08:18:06.897   01 Jun 2027 08:20:23.483           136.586         68293.000
        20   01 Jun 2027 08:21:28.571   01 Jun 2027 08:21:45.354            16.783          8391.500
        21   01 Jun 2027 08:22:35.530   01 Jun 2027 08:22:46.120            10.590          5295.000
        22   02 Jun 2027 03:39:56.248   02 Jun 2027 03:45:43.298           347.050        173525.000
        23   02 Jun 2027 03:46:32.481   02 Jun 2027 03:46:58.675            26.194         13097.000
        24   02 Jun 2027 05:16:08.876   02 Jun 2027 05:19:06.742           177.866         88933.000
        25   02 Jun 2027 05:21:55.967   02 Jun 2027 05:22:36.472            40.505         20252.500
        26   02 Jun 2027 06:54:21.345   02 Jun 2027 06:56:58.855           157.510         78755.000
        27   02 Jun 2027 06:57:24.698   02 Jun 2027 06:57:32.638             7.940          3970.000
        28   02 Jun 2027 08:29:49.533   02 Jun 2027 08:32:13.986           144.453         72226.500
        29   02 Jun 2027 08:33:31.406   02 Jun 2027 08:33:49.672            18.266          9133.000
        30   02 Jun 2027 08:34:20.415   02 Jun 2027 08:34:27.962             7.547          3773.500
        31   02 Jun 2027 08:34:35.538   02 Jun 2027 08:34:37.684             2.146          1073.000
        32   03 Jun 2027 03:51:29.689   03 Jun 2027 03:57:48.716           379.027        189513.500
        33   03 Jun 2027 03:57:50.742   03 Jun 2027 03:58:01.301            10.559          5279.500
        34   03 Jun 2027 03:58:41.221   03 Jun 2027 03:59:03.621            22.400         11200.000
        35   03 Jun 2027 05:28:30.824   03 Jun 2027 05:31:46.826           196.002         98001.000
        36   03 Jun 2027 05:33:25.863   03 Jun 2027 05:33:43.702            17.839          8919.500
        37   03 Jun 2027 05:34:12.400   03 Jun 2027 05:34:38.482            26.082         13041.000
        38   03 Jun 2027 07:06:31.034   03 Jun 2027 07:09:38.411           187.377         93688.500
        39   03 Jun 2027 08:39:44.675   03 Jun 2027 08:42:18.466           153.791         76895.500
        40   03 Jun 2027 08:42:51.852   03 Jun 2027 08:42:58.381             6.529          3264.500
        41   03 Jun 2027 08:43:49.584   03 Jun 2027 08:43:59.831            10.247          5123.500
        42   03 Jun 2027 08:45:29.912   03 Jun 2027 08:45:55.310            25.398         12699.000
        43   03 Jun 2027 08:45:55.747   03 Jun 2027 08:46:10.140            14.393          7196.500
        44   03 Jun 2027 08:47:26.428   03 Jun 2027 08:47:37.790            11.362          5681.000
        45   04 Jun 2027 04:03:38.855   04 Jun 2027 04:09:27.339           348.484        174242.000
        46   04 Jun 2027 04:09:46.109   04 Jun 2027 04:10:26.022            39.913         19956.500
        47   04 Jun 2027 05:40:35.647   04 Jun 2027 05:44:05.846           210.199        105099.500
        48   04 Jun 2027 05:45:21.121   04 Jun 2027 05:46:00.153            39.032         19516.000
        49   04 Jun 2027 07:18:29.040   04 Jun 2027 07:21:13.238           164.198         82099.000
        50   04 Jun 2027 07:21:29.404   04 Jun 2027 07:21:38.507             9.103          4551.500
        51   04 Jun 2027 07:22:16.582   04 Jun 2027 07:22:18.730             2.148          1074.000
        52   04 Jun 2027 08:52:03.331   04 Jun 2027 08:52:39.617            36.286         18143.000
        53   04 Jun 2027 08:53:20.456   04 Jun 2027 08:53:30.597            10.141          5070.500
        54   04 Jun 2027 08:54:18.459   04 Jun 2027 08:54:38.324            19.865          9932.500
        55   04 Jun 2027 08:55:48.496   04 Jun 2027 08:55:59.550            11.054          5527.000
        56   04 Jun 2027 08:56:19.714   04 Jun 2027 08:56:28.551             8.837          4418.500
        57   04 Jun 2027 08:57:15.877   04 Jun 2027 08:57:24.640             8.763          4381.500
        58   04 Jun 2027 08:57:57.329   04 Jun 2027 08:58:03.108             5.779          2889.500
        59   04 Jun 2027 08:58:50.098   04 Jun 2027 08:59:04.467            14.369          7184.500
        60   05 Jun 2027 04:15:40.747   05 Jun 2027 04:22:46.881           426.134        213067.000
        61   05 Jun 2027 05:52:28.452   05 Jun 2027 05:56:11.813           223.361        111680.500
        62   05 Jun 2027 05:58:29.604   05 Jun 2027 05:58:49.553            19.949          9974.500
        63   05 Jun 2027 07:30:32.202   05 Jun 2027 07:32:53.732           141.530         70765.000
        64   05 Jun 2027 07:33:16.208   05 Jun 2027 07:33:17.215             1.007           503.500
        65   05 Jun 2027 07:33:29.948   05 Jun 2027 07:33:37.111             7.163          3581.500
        66   05 Jun 2027 07:34:21.540   05 Jun 2027 07:34:34.219            12.679          6339.500
        67   05 Jun 2027 09:04:22.497   05 Jun 2027 09:04:33.657            11.160          5580.000
        68   05 Jun 2027 09:04:47.598   05 Jun 2027 09:05:02.141            14.543          7271.500
        69   05 Jun 2027 09:06:08.997   05 Jun 2027 09:06:14.263             5.266          2633.000
        70   05 Jun 2027 09:06:28.694   05 Jun 2027 09:06:33.132             4.438          2219.000
        71   05 Jun 2027 09:06:46.785   05 Jun 2027 09:07:12.021            25.236         12618.000
        72   05 Jun 2027 09:09:24.781   05 Jun 2027 09:09:40.009            15.228          7614.000
        73   05 Jun 2027 09:10:55.834   05 Jun 2027 09:11:03.221             7.387          3693.500
        74   06 Jun 2027 04:27:43.639   06 Jun 2027 04:33:47.352           363.713        181856.500
        75   06 Jun 2027 04:34:44.132   06 Jun 2027 04:35:03.615            19.483          9741.500
        76   06 Jun 2027 06:04:38.022   06 Jun 2027 06:07:49.811           191.789         95894.500
        77   06 Jun 2027 06:09:09.234   06 Jun 2027 06:09:20.004            10.770          5385.000
        78   06 Jun 2027 06:10:33.480   06 Jun 2027 06:10:58.461            24.981         12490.500
        79   06 Jun 2027 07:41:44.410   06 Jun 2027 07:43:58.556           134.146         67073.000
        80   06 Jun 2027 07:44:45.938   06 Jun 2027 07:45:03.009            17.071          8535.500
        81   06 Jun 2027 07:45:45.971   06 Jun 2027 07:45:47.496             1.525           762.500
        82   06 Jun 2027 09:16:45.954   06 Jun 2027 09:17:19.602            33.648         16824.000
        83   06 Jun 2027 09:18:35.930   06 Jun 2027 09:18:44.774             8.844          4422.000
        84   06 Jun 2027 09:20:14.275   06 Jun 2027 09:20:28.817            14.542          7271.000
        85   06 Jun 2027 09:21:13.822   06 Jun 2027 09:21:30.860            17.038          8519.000
        86   07 Jun 2027 03:01:15.333   07 Jun 2027 03:04:59.097           223.764        111882.000
        87   07 Jun 2027 03:05:30.167   07 Jun 2027 03:05:44.885            14.718          7359.000
        88   07 Jun 2027 03:05:50.940   07 Jun 2027 03:05:53.268             2.328          1164.000
        89   07 Jun 2027 03:06:19.160   07 Jun 2027 03:06:20.792             1.632           816.000
        90   07 Jun 2027 03:06:36.730   07 Jun 2027 03:06:41.802             5.072          2536.000
        91   07 Jun 2027 03:07:25.581   07 Jun 2027 03:07:49.963            24.382         12191.000
        92   07 Jun 2027 03:07:56.580   07 Jun 2027 03:07:56.580             0.000             0.000
        93   07 Jun 2027 03:08:13.710   07 Jun 2027 03:08:27.419            13.709          6854.500
        94   07 Jun 2027 03:09:06.240   07 Jun 2027 03:09:19.621            13.381          6690.500
        95   07 Jun 2027 03:11:07.192   07 Jun 2027 03:11:09.203             2.011          1005.500
        96   07 Jun 2027 04:40:09.440   07 Jun 2027 04:42:28.058           138.618         69309.000
        97   07 Jun 2027 04:42:35.881   07 Jun 2027 04:42:47.634            11.753          5876.500
        98   07 Jun 2027 04:43:10.941   07 Jun 2027 04:43:25.181            14.240          7120.000
        99   07 Jun 2027 04:43:38.658   07 Jun 2027 04:43:50.515            11.857          5928.500
       100   07 Jun 2027 04:45:14.868   07 Jun 2027 04:45:32.716            17.848          8924.000
       101   07 Jun 2027 04:45:38.108   07 Jun 2027 04:45:43.560             5.452          2726.000
       102   07 Jun 2027 04:45:59.800   07 Jun 2027 04:46:12.522            12.722          6361.000
       103   07 Jun 2027 04:46:42.820   07 Jun 2027 04:46:54.176            11.356          5678.000
       104   07 Jun 2027 06:17:05.394   07 Jun 2027 06:19:22.507           137.113         68556.500
       105   07 Jun 2027 06:19:51.900   07 Jun 2027 06:19:58.030             6.130          3065.000
       106   07 Jun 2027 06:20:17.349   07 Jun 2027 06:20:33.908            16.559          8279.500
       107   07 Jun 2027 06:21:08.224   07 Jun 2027 06:21:28.331            20.107         10053.500
       108   07 Jun 2027 06:22:29.171   07 Jun 2027 06:22:30.693             1.522           761.000
       109   07 Jun 2027 07:53:55.813   07 Jun 2027 07:56:10.713           134.900         67450.000
       110   07 Jun 2027 07:56:48.752   07 Jun 2027 07:56:53.571             4.819          2409.500
       111   07 Jun 2027 07:57:08.865   07 Jun 2027 07:57:15.009             6.144          3072.000
       112   07 Jun 2027 07:58:01.191   07 Jun 2027 07:58:09.367             8.176          4088.000
       113   07 Jun 2027 07:58:23.828   07 Jun 2027 07:58:28.423             4.595          2297.500
       114   07 Jun 2027 09:31:32.942   07 Jun 2027 09:31:49.511            16.569          8284.500
       115   07 Jun 2027 09:33:11.360   07 Jun 2027 09:33:16.055             4.695          2347.500
       116   08 Jun 2027 03:15:28.305   08 Jun 2027 03:19:27.086           238.781        119390.500
       117   08 Jun 2027 03:21:01.415   08 Jun 2027 03:21:33.600            32.185         16092.500
       118   08 Jun 2027 03:23:02.297   08 Jun 2027 03:23:04.501             2.204          1102.000
       119   08 Jun 2027 04:52:16.553   08 Jun 2027 04:54:42.672           146.119         73059.500
       120   08 Jun 2027 04:57:45.353   08 Jun 2027 04:58:37.993            52.640         26320.000
       121   08 Jun 2027 06:29:57.477   08 Jun 2027 06:32:02.578           125.101         62550.500
       122   08 Jun 2027 06:33:09.303   08 Jun 2027 06:33:31.521            22.218         11109.000
       123   08 Jun 2027 06:33:53.747   08 Jun 2027 06:34:01.424             7.677          3838.500
       124   08 Jun 2027 08:05:58.298   08 Jun 2027 08:07:31.830            93.532         46766.000
       125   08 Jun 2027 08:09:04.616   08 Jun 2027 08:09:21.471            16.855          8427.500
       126   08 Jun 2027 08:10:16.497   08 Jun 2027 08:10:35.273            18.776          9388.000
       127   09 Jun 2027 03:28:29.137   09 Jun 2027 03:32:32.866           243.729        121864.500
       128   09 Jun 2027 03:32:53.164   09 Jun 2027 03:33:12.188            19.024          9512.000
       129   09 Jun 2027 03:34:38.768   09 Jun 2027 03:35:06.156            27.388         13694.000
       130   09 Jun 2027 05:04:51.898   09 Jun 2027 05:07:51.818           179.920         89960.000
       131   09 Jun 2027 05:09:57.991   09 Jun 2027 05:10:26.259            28.268         14134.000
       132   09 Jun 2027 06:42:06.705   09 Jun 2027 06:44:08.905           122.200         61100.000
       133   09 Jun 2027 06:44:38.478   09 Jun 2027 06:44:56.874            18.396          9198.000
       134   09 Jun 2027 06:45:13.232   09 Jun 2027 06:45:17.064             3.832          1916.000
       135   09 Jun 2027 06:46:01.369   09 Jun 2027 06:46:10.210             8.841          4420.500
       136   09 Jun 2027 08:18:21.939   09 Jun 2027 08:19:20.929            58.990         29495.000
       137   09 Jun 2027 08:19:38.502   09 Jun 2027 08:19:40.264             1.762           881.000
       138   09 Jun 2027 08:20:06.256   09 Jun 2027 08:20:12.369             6.113          3056.500
       139   09 Jun 2027 08:20:22.113   09 Jun 2027 08:20:38.130            16.017          8008.500
       140   09 Jun 2027 08:21:31.018   09 Jun 2027 08:21:32.643             1.625           812.500
       141   09 Jun 2027 08:22:37.135   09 Jun 2027 08:23:01.489            24.354         12177.000
       142   10 Jun 2027 03:40:10.981   10 Jun 2027 03:44:35.128           264.147        132073.500
       143   10 Jun 2027 03:44:52.863   10 Jun 2027 03:45:04.931            12.068          6034.000
       144   10 Jun 2027 03:45:28.351   10 Jun 2027 03:45:59.993            31.642         15821.000
       145   10 Jun 2027 03:46:47.058   10 Jun 2027 03:47:13.398            26.340         13170.000
       146   10 Jun 2027 05:16:23.614   10 Jun 2027 05:18:59.997           156.383         78191.500
       147   10 Jun 2027 05:20:40.964   10 Jun 2027 05:20:51.273            10.309          5154.500
       148   10 Jun 2027 05:22:10.596   10 Jun 2027 05:22:51.344            40.748         20374.000
       149   10 Jun 2027 06:54:44.220   10 Jun 2027 06:57:24.705           160.485         80242.500
       150   10 Jun 2027 06:57:53.900   10 Jun 2027 06:58:06.380            12.480          6240.000
       151   10 Jun 2027 08:30:04.127   10 Jun 2027 08:30:50.983            46.856         23428.000
       152   10 Jun 2027 08:32:22.153   10 Jun 2027 08:32:37.730            15.577          7788.500
       153   10 Jun 2027 08:33:11.574   10 Jun 2027 08:33:16.746             5.172          2586.000
       154   10 Jun 2027 08:33:31.743   10 Jun 2027 08:33:39.734             7.991          3995.500
       155   10 Jun 2027 08:34:03.861   10 Jun 2027 08:34:03.861             0.000             0.000
       156   10 Jun 2027 08:34:18.027   10 Jun 2027 08:34:25.860             7.833          3916.500
       157   10 Jun 2027 08:34:57.851   10 Jun 2027 08:35:11.440            13.589          6794.500
       158   11 Jun 2027 03:51:44.188   11 Jun 2027 03:56:25.358           281.170        140585.000
       159   11 Jun 2027 03:56:37.208   11 Jun 2027 03:56:42.675             5.467          2733.500
       160   11 Jun 2027 03:57:29.299   11 Jun 2027 03:58:01.127            31.828         15914.000
       161   11 Jun 2027 03:58:35.430   11 Jun 2027 03:59:03.369            27.939         13969.500
       162   11 Jun 2027 03:59:14.927   11 Jun 2027 03:59:18.220             3.293          1646.500
       163   11 Jun 2027 05:28:45.641   11 Jun 2027 05:32:14.016           208.375        104187.500
       164   11 Jun 2027 05:32:34.537   11 Jun 2027 05:32:52.541            18.004          9002.000
       165   11 Jun 2027 05:33:53.266   11 Jun 2027 05:33:59.287             6.021          3010.500
       166   11 Jun 2027 05:34:22.140   11 Jun 2027 05:34:27.204             5.064          2532.000
       167   11 Jun 2027 07:06:45.648   11 Jun 2027 07:09:34.616           168.968         84484.000
       168   11 Jun 2027 07:09:44.652   11 Jun 2027 07:09:47.833             3.181          1590.500
       169   11 Jun 2027 07:10:00.362   11 Jun 2027 07:10:07.779             7.417          3708.500
       170   11 Jun 2027 07:10:26.318   11 Jun 2027 07:10:30.012             3.694          1847.000
       171   11 Jun 2027 07:10:40.746   11 Jun 2027 07:10:42.676             1.930           965.000
       172   11 Jun 2027 08:39:58.864   11 Jun 2027 08:40:51.898            53.034         26517.000
       173   11 Jun 2027 08:41:06.887   11 Jun 2027 08:41:09.065             2.178          1089.000
       174   11 Jun 2027 08:41:39.825   11 Jun 2027 08:41:52.296            12.471          6235.500
       175   11 Jun 2027 08:42:44.015   11 Jun 2027 08:42:48.196             4.181          2090.500
       176   11 Jun 2027 08:43:05.077   11 Jun 2027 08:43:14.256             9.179          4589.500
       177   11 Jun 2027 08:43:29.048   11 Jun 2027 08:43:40.624            11.576          5788.000
       178   11 Jun 2027 08:45:08.576   11 Jun 2027 08:45:25.315            16.739          8369.500
       179   11 Jun 2027 08:45:59.093   11 Jun 2027 08:45:59.731             0.638           319.000
       180   11 Jun 2027 08:47:07.304   11 Jun 2027 08:47:28.507            21.203         10601.500
       181   12 Jun 2027 04:03:53.707   12 Jun 2027 04:09:32.723           339.016        169508.000
       182   12 Jun 2027 04:10:19.569   12 Jun 2027 04:10:30.280            10.711          5355.500
       183   12 Jun 2027 04:10:46.794   12 Jun 2027 04:11:01.774            14.980          7490.000
       184   12 Jun 2027 05:40:50.022   12 Jun 2027 05:43:58.337           188.315         94157.500
       185   12 Jun 2027 05:45:18.384   12 Jun 2027 05:45:35.439            17.055          8527.500
       186   12 Jun 2027 05:46:15.517   12 Jun 2027 05:46:59.240            43.723         21861.500
       187   12 Jun 2027 07:18:43.960   12 Jun 2027 07:21:08.745           144.785         72392.500
       188   12 Jun 2027 07:21:28.133   12 Jun 2027 07:21:32.206             4.073          2036.500
       189   12 Jun 2027 07:22:43.352   12 Jun 2027 07:22:44.876             1.524           762.000
       190   12 Jun 2027 08:52:18.048   12 Jun 2027 08:52:46.542            28.494         14247.000
       191   12 Jun 2027 08:52:57.356   12 Jun 2027 08:53:17.880            20.524         10262.000
       192   12 Jun 2027 08:55:16.336   12 Jun 2027 08:55:37.651            21.315         10657.500
       193   12 Jun 2027 08:57:42.568   12 Jun 2027 08:57:56.400            13.832          6916.000
       194   12 Jun 2027 08:58:13.161   12 Jun 2027 08:58:15.841             2.680          1340.000
       195   12 Jun 2027 08:58:18.268   12 Jun 2027 08:58:31.152            12.884          6442.000
       196   12 Jun 2027 08:59:35.650   12 Jun 2027 08:59:40.382             4.732          2366.000
       197   13 Jun 2027 04:15:55.627   13 Jun 2027 04:22:20.235           384.608        192304.000
       198   13 Jun 2027 05:52:43.166   13 Jun 2027 05:55:56.532           193.366         96683.000
       199   13 Jun 2027 05:57:00.911   13 Jun 2027 05:57:25.749            24.838         12419.000
       200   13 Jun 2027 05:58:34.638   13 Jun 2027 05:58:36.303             1.665           832.500
       201   13 Jun 2027 05:58:44.053   13 Jun 2027 05:59:00.866            16.813          8406.500
       202   13 Jun 2027 07:30:46.938   13 Jun 2027 07:33:28.434           161.496         80748.000
       203   13 Jun 2027 07:33:32.103   13 Jun 2027 07:33:42.297            10.194          5097.000
       204   13 Jun 2027 09:04:37.014   13 Jun 2027 09:04:56.655            19.641          9820.500
       205   13 Jun 2027 09:05:39.069   13 Jun 2027 09:05:49.148            10.079          5039.500
       206   13 Jun 2027 09:05:49.986   13 Jun 2027 09:05:56.498             6.512          3256.000
       207   13 Jun 2027 09:07:54.072   13 Jun 2027 09:08:17.353            23.281         11640.500
       208   13 Jun 2027 09:08:20.823   13 Jun 2027 09:08:44.550            23.727         11863.500
       209   13 Jun 2027 09:10:21.202   13 Jun 2027 09:10:26.245             5.043          2521.500
       210   13 Jun 2027 09:10:53.644   13 Jun 2027 09:11:05.099            11.455          5727.500
