uniorb/output/strategy_1/Camera/Camera_KinoSat_111605.txt

KinoSat_111605
-------------------------
    Access    *     Start Time (UTCG)     *     Stop Time (UTCG)  *   Duration (s) *   Data (Mbytes)
         1   01 Jun 2027 03:13:58.604   01 Jun 2027 03:14:00.134             1.530           765.000
         2   01 Jun 2027 03:14:20.222   01 Jun 2027 03:15:18.621            58.399         29199.500
         3   01 Jun 2027 03:15:24.468   01 Jun 2027 03:16:04.417            39.949         19974.500
         4   01 Jun 2027 03:16:13.615   01 Jun 2027 03:16:23.561             9.946          4973.000
         5   01 Jun 2027 03:19:04.748   01 Jun 2027 03:19:08.447             3.699          1849.500
         6   01 Jun 2027 03:19:50.787   01 Jun 2027 03:19:54.205             3.418          1709.000
         7   01 Jun 2027 04:52:46.086   01 Jun 2027 04:54:11.507            85.421         42710.500
         8   01 Jun 2027 04:54:20.563   01 Jun 2027 04:54:22.449             1.886           943.000
         9   01 Jun 2027 04:54:30.903   01 Jun 2027 04:54:34.886             3.983          1991.500
        10   01 Jun 2027 04:54:56.023   01 Jun 2027 04:55:02.198             6.175          3087.500
        11   01 Jun 2027 04:55:32.250   01 Jun 2027 04:55:44.599            12.349          6174.500
        12   01 Jun 2027 04:57:20.278   01 Jun 2027 04:57:27.842             7.564          3782.000
        13   01 Jun 2027 06:16:12.830   01 Jun 2027 06:17:23.410            70.580         35290.000
        14   01 Jun 2027 06:18:24.744   01 Jun 2027 06:18:32.871             8.127          4063.500
        15   01 Jun 2027 07:52:26.242   01 Jun 2027 07:54:37.646           131.404         65702.000
        16   01 Jun 2027 07:54:57.863   01 Jun 2027 07:55:05.014             7.151          3575.500
        17   01 Jun 2027 09:25:59.217   01 Jun 2027 09:26:39.292            40.075         20037.500
        18   01 Jun 2027 09:27:11.738   01 Jun 2027 09:27:36.622            24.884         12442.000
        19   01 Jun 2027 09:28:24.781   01 Jun 2027 09:28:52.152            27.371         13685.500
        20   01 Jun 2027 09:33:08.933   01 Jun 2027 09:33:27.159            18.226          9113.000
        21   01 Jun 2027 09:33:34.295   01 Jun 2027 09:33:50.726            16.431          8215.500
        22   01 Jun 2027 09:34:31.888   01 Jun 2027 09:34:32.928             1.040           520.000
        23   01 Jun 2027 11:03:31.764   01 Jun 2027 11:05:25.908           114.144         57072.000
        24   01 Jun 2027 11:07:31.222   01 Jun 2027 11:08:21.722            50.500         25250.000
        25   02 Jun 2027 03:26:22.197   02 Jun 2027 03:26:50.303            28.106         14053.000
        26   02 Jun 2027 03:26:53.965   02 Jun 2027 03:27:57.122            63.157         31578.500
        27   02 Jun 2027 03:28:15.404   02 Jun 2027 03:28:23.628             8.224          4112.000
        28   02 Jun 2027 03:28:44.796   02 Jun 2027 03:28:55.372            10.576          5288.000
        29   02 Jun 2027 03:30:30.534   02 Jun 2027 03:30:40.868            10.334          5167.000
        30   02 Jun 2027 03:31:13.597   02 Jun 2027 03:31:14.565             0.968           484.000
        31   02 Jun 2027 03:32:13.646   02 Jun 2027 03:32:19.409             5.763          2881.500
        32   02 Jun 2027 03:32:20.969   02 Jun 2027 03:32:29.828             8.859          4429.500
        33   02 Jun 2027 05:04:24.920   02 Jun 2027 05:05:42.586            77.666         38833.000
        34   02 Jun 2027 05:07:06.591   02 Jun 2027 05:07:14.671             8.080          4040.000
        35   02 Jun 2027 05:08:03.415   02 Jun 2027 05:08:09.655             6.240          3120.000
        36   02 Jun 2027 06:28:03.997   02 Jun 2027 06:29:24.595            80.598         40299.000
        37   02 Jun 2027 08:04:31.243   02 Jun 2027 08:06:17.858           106.615         53307.500
        38   02 Jun 2027 08:06:22.885   02 Jun 2027 08:06:22.885             0.000             0.000
        39   02 Jun 2027 08:07:07.253   02 Jun 2027 08:07:21.009            13.756          6878.000
        40   02 Jun 2027 09:36:39.526   02 Jun 2027 09:36:49.523             9.997          4998.500
        41   02 Jun 2027 09:38:38.184   02 Jun 2027 09:39:12.111            33.927         16963.500
        42   02 Jun 2027 09:40:24.061   02 Jun 2027 09:41:33.605            69.544         34772.000
        43   02 Jun 2027 09:42:16.209   02 Jun 2027 09:42:25.205             8.996          4498.000
        44   02 Jun 2027 09:44:42.641   02 Jun 2027 09:44:44.038             1.397           698.500
        45   02 Jun 2027 09:45:52.781   02 Jun 2027 09:46:25.193            32.412         16206.000
        46   02 Jun 2027 11:15:36.654   02 Jun 2027 11:17:29.011           112.357         56178.500
        47   02 Jun 2027 11:21:36.098   02 Jun 2027 11:21:46.941            10.843          5421.500
        48   02 Jun 2027 11:22:14.661   02 Jun 2027 11:22:21.026             6.365          3182.500
        49   03 Jun 2027 03:38:30.055   03 Jun 2027 03:39:30.594            60.539         30269.500
        50   03 Jun 2027 03:39:39.109   03 Jun 2027 03:40:21.349            42.240         21120.000
        51   03 Jun 2027 03:41:33.190   03 Jun 2027 03:41:53.299            20.109         10054.500
        52   03 Jun 2027 03:43:26.460   03 Jun 2027 03:43:29.495             3.035          1517.500
        53   03 Jun 2027 03:43:33.428   03 Jun 2027 03:43:59.157            25.729         12864.500
        54   03 Jun 2027 05:17:38.210   03 Jun 2027 05:18:23.863            45.653         22826.500
        55   03 Jun 2027 05:19:31.265   03 Jun 2027 05:19:58.280            27.015         13507.500
        56   03 Jun 2027 06:40:12.361   03 Jun 2027 06:41:25.534            73.173         36586.500
        57   03 Jun 2027 08:16:41.272   03 Jun 2027 08:18:35.705           114.433         57216.500
        58   03 Jun 2027 09:51:52.436   03 Jun 2027 09:53:04.938            72.502         36251.000
        59   03 Jun 2027 09:56:59.217   03 Jun 2027 09:56:59.217             0.000             0.000
        60   03 Jun 2027 09:58:21.723   03 Jun 2027 09:58:29.965             8.242          4121.000
        61   03 Jun 2027 11:28:11.488   03 Jun 2027 11:29:04.060            52.572         25581.000
        62   03 Jun 2027 11:30:51.571   03 Jun 2027 11:31:00.427             8.856          2695.250
        63   03 Jun 2027 11:31:40.539   03 Jun 2027 11:31:42.451             1.912           840.469
        64   03 Jun 2027 11:32:22.753   03 Jun 2027 11:32:26.139             3.386          1231.656
        65   03 Jun 2027 11:32:58.456   03 Jun 2027 11:33:03.356             4.900           904.031
        66   03 Jun 2027 11:33:21.403   03 Jun 2027 11:33:22.908             1.505           138.969
        67   03 Jun 2027 11:33:46.368   03 Jun 2027 11:33:47.909             1.541           733.125
        68   03 Jun 2027 11:34:22.850   03 Jun 2027 11:34:27.367             4.517          1086.906
        69   04 Jun 2027 03:50:34.899   04 Jun 2027 03:50:52.971            18.072          9036.000
        70   04 Jun 2027 03:51:37.637   04 Jun 2027 03:52:52.444            74.807         37403.500
        71   04 Jun 2027 03:53:31.181   04 Jun 2027 03:53:31.181             0.000             0.000
        72   04 Jun 2027 03:53:48.190   04 Jun 2027 03:53:51.613             3.423          1711.500
        73   04 Jun 2027 03:58:52.153   04 Jun 2027 03:59:19.598            27.445         13722.500
        74   04 Jun 2027 05:28:46.585   04 Jun 2027 05:29:23.640            37.055         18527.500
        75   04 Jun 2027 05:29:52.644   04 Jun 2027 05:30:27.853            35.209         17604.500
        76   04 Jun 2027 05:30:39.437   04 Jun 2027 05:30:55.390            15.953          7976.500
        77   04 Jun 2027 06:52:55.054   04 Jun 2027 06:54:34.456            99.402         49701.000
        78   04 Jun 2027 08:28:39.158   04 Jun 2027 08:29:16.234            37.076         18538.000
        79   04 Jun 2027 08:29:34.124   04 Jun 2027 08:29:37.021             2.897           914.657
        80   04 Jun 2027 08:30:26.697   04 Jun 2027 08:30:27.475             0.778           389.000
        81   04 Jun 2027 08:31:02.514   04 Jun 2027 08:31:07.137             4.623          2065.500
        82   04 Jun 2027 08:31:18.947   04 Jun 2027 08:31:18.947             0.000             0.000
        83   04 Jun 2027 10:03:42.988   04 Jun 2027 10:03:54.471            11.483          5160.000
        84   04 Jun 2027 10:05:33.211   04 Jun 2027 10:05:40.226             7.015          2850.031
        85   04 Jun 2027 10:06:10.660   04 Jun 2027 10:06:10.660             0.000             0.000
        86   04 Jun 2027 10:06:46.186   04 Jun 2027 10:06:46.186             0.000             0.000
        87   04 Jun 2027 10:10:13.761   04 Jun 2027 10:10:31.786            18.025          8143.344
        88   04 Jun 2027 11:39:48.554   04 Jun 2027 11:40:07.984            19.430          7620.281
        89   04 Jun 2027 11:40:49.825   04 Jun 2027 11:40:53.061             3.236           974.906
        90   04 Jun 2027 11:41:46.823   04 Jun 2027 11:41:51.582             4.759          1680.062
        91   04 Jun 2027 11:42:32.578   04 Jun 2027 11:42:37.140             4.562          1225.750
        92   04 Jun 2027 11:43:56.474   04 Jun 2027 11:44:00.949             4.475          2186.437
        93   04 Jun 2027 11:44:29.149   04 Jun 2027 11:44:33.732             4.583           835.188
        94   04 Jun 2027 11:44:43.843   04 Jun 2027 11:44:43.992             0.149            74.500
        95   05 Jun 2027 04:03:40.036   05 Jun 2027 04:05:26.145           106.109         53054.500
        96   05 Jun 2027 04:05:40.965   05 Jun 2027 04:05:52.295            11.330          5665.000
        97   05 Jun 2027 04:08:31.238   05 Jun 2027 04:08:32.008             0.770           385.000
        98   05 Jun 2027 04:09:09.938   05 Jun 2027 04:09:18.676             8.738          4369.000
        99   05 Jun 2027 04:11:17.935   05 Jun 2027 04:11:25.272             7.337          3668.500
       100   05 Jun 2027 05:29:43.788   05 Jun 2027 05:30:15.952            32.164         16082.000
       101   05 Jun 2027 05:40:42.600   05 Jun 2027 05:41:34.753            52.153         26076.500
       102   05 Jun 2027 05:42:35.583   05 Jun 2027 05:42:44.484             8.901          4450.500
       103   05 Jun 2027 05:42:50.331   05 Jun 2027 05:42:57.377             7.046          3523.000
       104   05 Jun 2027 07:04:01.359   05 Jun 2027 07:05:47.169           105.810         52608.125
       105   05 Jun 2027 08:39:16.858   05 Jun 2027 08:39:19.036             2.178          1089.000
       106   05 Jun 2027 08:40:23.944   05 Jun 2027 08:40:39.846            15.902          7764.750
       107   05 Jun 2027 08:42:47.003   05 Jun 2027 08:42:58.446            11.443          3937.844
       108   05 Jun 2027 08:43:08.686   05 Jun 2027 08:43:11.166             2.480           281.625
       109   05 Jun 2027 08:43:55.808   05 Jun 2027 08:44:00.190             4.382          1395.063
       110   05 Jun 2027 10:15:09.862   05 Jun 2027 10:15:18.976             9.114          4389.062
       111   05 Jun 2027 10:15:31.971   05 Jun 2027 10:15:33.725             1.754           335.250
       112   05 Jun 2027 10:16:07.041   05 Jun 2027 10:16:09.122             2.081           879.063
       113   05 Jun 2027 10:20:58.569   05 Jun 2027 10:20:58.569             0.000             0.000
       114   05 Jun 2027 10:22:02.987   05 Jun 2027 10:22:24.775            21.788          9216.937
       115   05 Jun 2027 11:51:59.937   05 Jun 2027 11:52:13.834            13.897          6615.812
       116   05 Jun 2027 11:52:16.199   05 Jun 2027 11:52:18.158             1.959            69.281
       117   05 Jun 2027 11:53:25.490   05 Jun 2027 11:53:30.041             4.551          1904.563
       118   05 Jun 2027 11:53:50.386   05 Jun 2027 11:53:54.844             4.458           635.781
       119   05 Jun 2027 11:54:36.245   05 Jun 2027 11:54:40.869             4.624          1053.750
       120   05 Jun 2027 11:55:54.160   05 Jun 2027 11:55:59.977             5.817          2008.875
       121   05 Jun 2027 11:56:20.595   05 Jun 2027 11:56:20.629             0.034            17.000
       122   05 Jun 2027 11:56:38.794   05 Jun 2027 11:56:43.655             4.861          1194.969
       123   05 Jun 2027 11:57:37.773   05 Jun 2027 11:57:41.609             3.836          1633.562
       124   06 Jun 2027 04:16:03.736   06 Jun 2027 04:17:29.935            86.199         43099.500
       125   06 Jun 2027 04:20:22.254   06 Jun 2027 04:20:53.294            31.040         15520.000
       126   06 Jun 2027 05:41:03.507   06 Jun 2027 05:42:30.952            87.445         43722.500
       127   06 Jun 2027 05:52:44.281   06 Jun 2027 05:53:40.858            56.577         28288.500
       128   06 Jun 2027 07:14:59.531   06 Jun 2027 07:16:15.329            75.798         37899.000
       129   06 Jun 2027 07:16:57.202   06 Jun 2027 07:17:24.301            27.099         11439.188
       130   06 Jun 2027 08:50:11.496   06 Jun 2027 08:50:26.385            14.889          6920.063
       131   06 Jun 2027 08:50:28.887   06 Jun 2027 08:50:28.887             0.000             0.000
       132   06 Jun 2027 08:50:48.426   06 Jun 2027 08:50:51.057             2.631           688.781
       133   06 Jun 2027 08:52:27.582   06 Jun 2027 08:52:27.582             0.000             0.000
       134   06 Jun 2027 08:54:08.401   06 Jun 2027 08:54:22.631            14.230          6167.000
       135   06 Jun 2027 08:54:29.582   06 Jun 2027 08:54:30.825             1.243           126.187
       136   06 Jun 2027 08:54:35.151   06 Jun 2027 08:54:36.940             1.789            80.000
       137   06 Jun 2027 10:27:16.889   06 Jun 2027 10:27:31.019            14.130          4797.250
       138   06 Jun 2027 10:27:59.312   06 Jun 2027 10:28:01.156             1.844           140.875
       139   06 Jun 2027 10:28:34.919   06 Jun 2027 10:28:35.653             0.734           301.156
       140   06 Jun 2027 10:30:35.044   06 Jun 2027 10:30:35.044             0.000             0.000
       141   06 Jun 2027 10:32:57.123   06 Jun 2027 10:33:16.152            19.029          7146.906
       142   06 Jun 2027 10:33:39.294   06 Jun 2027 10:33:44.999             5.705           723.188
       143   06 Jun 2027 10:34:15.367   06 Jun 2027 10:34:18.521             3.154           904.469
       144   06 Jun 2027 10:34:27.276   06 Jun 2027 10:34:27.988             0.712           273.594
       145   07 Jun 2027 04:28:22.638   07 Jun 2027 04:30:11.236           108.598         54299.000
       146   07 Jun 2027 04:30:34.957   07 Jun 2027 04:30:35.353             0.396           198.000
       147   07 Jun 2027 04:33:14.454   07 Jun 2027 04:33:27.251            12.797          6398.500
       148   07 Jun 2027 04:34:17.219   07 Jun 2027 04:34:33.847            16.628          8314.000
       149   07 Jun 2027 05:52:27.747   07 Jun 2027 05:53:37.200            69.453         34726.500
       150   07 Jun 2027 06:04:41.272   07 Jun 2027 06:05:05.546            24.274         12137.000
       151   07 Jun 2027 07:26:43.136   07 Jun 2027 07:28:02.090            78.954         39477.000
       152   07 Jun 2027 07:28:47.456   07 Jun 2027 07:29:14.586            27.130         13565.000
       153   07 Jun 2027 07:31:57.753   07 Jun 2027 07:31:57.753             0.000             0.000
       154   07 Jun 2027 09:01:37.804   07 Jun 2027 09:01:55.968            18.164          8879.438
       155   07 Jun 2027 09:02:19.525   07 Jun 2027 09:02:19.525             0.000             0.000
       156   07 Jun 2027 09:03:06.744   07 Jun 2027 09:03:10.819             4.075          1853.969
       157   07 Jun 2027 09:03:27.699   07 Jun 2027 09:03:33.326             5.627           527.500
       158   07 Jun 2027 09:03:40.301   07 Jun 2027 09:03:44.444             4.143           217.969
       159   07 Jun 2027 09:05:33.282   07 Jun 2027 09:05:33.282             0.000             0.000
       160   07 Jun 2027 09:07:08.414   07 Jun 2027 09:07:13.425             5.011          2505.500
       161   07 Jun 2027 09:07:59.113   07 Jun 2027 09:08:08.349             9.236          4581.906
       162   07 Jun 2027 09:08:26.823   07 Jun 2027 09:08:30.262             3.439           247.625
       163   07 Jun 2027 09:08:39.813   07 Jun 2027 09:08:40.464             0.651           298.469
       164   07 Jun 2027 09:09:51.620   07 Jun 2027 09:09:58.341             6.721          1690.719
       165   07 Jun 2027 09:10:09.122   07 Jun 2027 09:10:10.116             0.994           336.906
       166   07 Jun 2027 10:39:19.076   07 Jun 2027 10:39:31.001            11.925          5160.281
       167   07 Jun 2027 10:40:07.621   07 Jun 2027 10:40:09.945             2.324           912.719
       168   07 Jun 2027 10:40:21.069   07 Jun 2027 10:40:21.789             0.720            30.562
       169   07 Jun 2027 10:40:49.749   07 Jun 2027 10:40:51.421             1.672           518.531
       170   07 Jun 2027 10:42:25.423   07 Jun 2027 10:42:25.423             0.000             0.000
       171   07 Jun 2027 10:43:07.941   07 Jun 2027 10:43:17.013             9.072          3742.219
       172   07 Jun 2027 10:45:27.040   07 Jun 2027 10:45:35.356             8.316          3917.937
       173   07 Jun 2027 10:45:48.417   07 Jun 2027 10:45:50.587             2.170           408.156
       174   07 Jun 2027 10:46:04.430   07 Jun 2027 10:46:08.022             3.592           395.437
       175   07 Jun 2027 10:46:46.001   07 Jun 2027 10:46:46.172             0.171            85.500
       176   08 Jun 2027 03:01:44.608   08 Jun 2027 03:01:46.242             1.634           817.000
       177   08 Jun 2027 03:02:06.059   08 Jun 2027 03:02:31.677            25.618         12809.000
       178   08 Jun 2027 03:02:33.889   08 Jun 2027 03:02:45.697            11.808          5904.000
       179   08 Jun 2027 03:03:23.687   08 Jun 2027 03:03:36.801            13.114          6557.000
       180   08 Jun 2027 03:03:42.515   08 Jun 2027 03:03:43.806             1.291           645.500
       181   08 Jun 2027 03:04:59.746   08 Jun 2027 03:05:20.632            20.886         10443.000
       182   08 Jun 2027 04:40:27.118   08 Jun 2027 04:41:38.878            71.760         35880.000
       183   08 Jun 2027 04:42:22.617   08 Jun 2027 04:42:27.944             5.327          2663.500
       184   08 Jun 2027 04:42:40.964   08 Jun 2027 04:42:43.505             2.541          1270.500
       185   08 Jun 2027 04:42:48.078   08 Jun 2027 04:42:50.124             2.046          1023.000
       186   08 Jun 2027 04:43:17.716   08 Jun 2027 04:43:28.496            10.780          5390.000
       187   08 Jun 2027 04:43:50.033   08 Jun 2027 04:44:18.573            28.540         14270.000
       188   08 Jun 2027 04:44:38.019   08 Jun 2027 04:44:45.201             7.182          3591.000
       189   08 Jun 2027 06:04:33.463   08 Jun 2027 06:05:27.234            53.771         26885.500
       190   08 Jun 2027 07:38:20.673   08 Jun 2027 07:40:13.181           112.508         55637.282
       191   08 Jun 2027 07:40:43.356   08 Jun 2027 07:40:46.754             3.398           913.281
       192   08 Jun 2027 07:41:16.146   08 Jun 2027 07:41:16.146             0.000             0.000
       193   08 Jun 2027 07:41:52.151   08 Jun 2027 07:41:52.891             0.740           370.000
       194   08 Jun 2027 07:42:08.609   08 Jun 2027 07:42:12.446             3.837          1882.375
       195   08 Jun 2027 09:13:12.656   08 Jun 2027 09:13:26.068            13.412          6033.094
       196   08 Jun 2027 09:13:48.420   08 Jun 2027 09:13:49.146             0.726           356.344
       197   08 Jun 2027 09:14:46.642   08 Jun 2027 09:14:50.488             3.846          1796.750
       198   08 Jun 2027 09:15:37.047   08 Jun 2027 09:15:39.737             2.690           257.937
       199   08 Jun 2027 09:16:27.124   08 Jun 2027 09:16:30.958             3.834          1024.750
       200   08 Jun 2027 09:17:09.584   08 Jun 2027 09:17:14.960             5.376           648.094
       201   08 Jun 2027 09:20:17.925   08 Jun 2027 09:20:30.513            12.588          5625.156
       202   08 Jun 2027 09:20:52.042   08 Jun 2027 09:20:52.042             0.000             0.000
       203   08 Jun 2027 09:21:13.984   08 Jun 2027 09:21:16.762             2.778          1180.156
       204   08 Jun 2027 09:22:13.200   08 Jun 2027 09:22:16.400             3.200          1580.844
       205   08 Jun 2027 10:51:22.223   08 Jun 2027 10:51:41.716            19.493          7289.469
       206   08 Jun 2027 10:52:26.757   08 Jun 2027 10:52:31.885             5.128           829.031
       207   08 Jun 2027 10:52:39.743   08 Jun 2027 10:52:42.293             2.550           222.750
       208   08 Jun 2027 10:52:58.140   08 Jun 2027 10:52:58.581             0.441           139.094
       209   08 Jun 2027 10:53:44.549   08 Jun 2027 10:53:50.582             6.033          1436.500
       210   08 Jun 2027 10:54:11.539   08 Jun 2027 10:54:12.276             0.737           368.500
       211   08 Jun 2027 10:55:34.299   08 Jun 2027 10:55:39.983             5.684          2723.062
       212   08 Jun 2027 10:56:17.662   08 Jun 2027 10:56:20.040             2.378           852.188
       213   08 Jun 2027 10:56:31.477   08 Jun 2027 10:56:35.697             4.220           357.406
       214   08 Jun 2027 10:56:39.539   08 Jun 2027 10:56:46.190             6.651            81.594
       215   08 Jun 2027 10:56:52.055   08 Jun 2027 10:56:53.697             1.642            36.188
       216   08 Jun 2027 10:57:34.664   08 Jun 2027 10:57:45.394            10.730          1268.813
       217   08 Jun 2027 10:57:55.422   08 Jun 2027 10:57:57.522             2.100           161.125
       218   08 Jun 2027 10:58:11.802   08 Jun 2027 10:58:12.842             1.040           387.188
       219   09 Jun 2027 03:14:38.253   09 Jun 2027 03:15:31.339            53.086         26543.000
       220   09 Jun 2027 03:15:41.099   09 Jun 2027 03:16:22.922            41.823         20911.500
       221   09 Jun 2027 03:16:23.493   09 Jun 2027 03:16:44.537            21.044         10522.000
       222   09 Jun 2027 03:16:59.996   09 Jun 2027 03:17:16.403            16.407          8203.500
       223   09 Jun 2027 03:17:41.960   09 Jun 2027 03:17:46.715             4.755          2377.500
       224   09 Jun 2027 04:53:03.152   09 Jun 2027 04:54:09.518            66.366         33183.000
       225   09 Jun 2027 04:55:38.781   09 Jun 2027 04:55:56.822            18.041          9020.500
       226   09 Jun 2027 04:56:58.301   09 Jun 2027 04:57:02.603             4.302          2151.000
       227   09 Jun 2027 06:16:28.566   09 Jun 2027 06:17:06.674            38.108         19054.000
       228   09 Jun 2027 06:18:04.251   09 Jun 2027 06:18:14.762            10.511          5255.500
       229   09 Jun 2027 07:52:44.154   09 Jun 2027 07:54:10.387            86.233         41976.937
       230   09 Jun 2027 07:54:27.896   09 Jun 2027 07:54:29.505             1.609            40.906
       231   09 Jun 2027 07:55:38.277   09 Jun 2027 07:55:38.277             0.000             0.000
       232   09 Jun 2027 09:26:16.541   09 Jun 2027 09:26:29.185            12.644          5844.937
       233   09 Jun 2027 09:27:47.803   09 Jun 2027 09:27:51.297             3.494           574.188
       234   09 Jun 2027 09:29:20.207   09 Jun 2027 09:29:20.207             0.000             0.000
       235   09 Jun 2027 09:29:59.281   09 Jun 2027 09:30:06.701             7.420          3491.813
       236   09 Jun 2027 09:30:45.459   09 Jun 2027 09:30:47.800             2.341           705.844
       237   09 Jun 2027 09:33:20.525   09 Jun 2027 09:33:20.525             0.000             0.000
       238   09 Jun 2027 09:33:47.730   09 Jun 2027 09:33:47.772             0.042            21.000
       239   09 Jun 2027 09:33:48.128   09 Jun 2027 09:34:05.719            17.591          5471.937
       240   09 Jun 2027 09:34:48.497   09 Jun 2027 09:34:49.662             1.165           582.500
       241   09 Jun 2027 11:03:48.986   09 Jun 2027 11:04:00.229            11.243          5336.875
       242   09 Jun 2027 11:04:26.453   09 Jun 2027 11:04:29.371             2.918           358.063
       243   09 Jun 2027 11:04:40.169   09 Jun 2027 11:04:48.620             8.451           284.156
       244   09 Jun 2027 11:05:48.474   09 Jun 2027 11:05:51.901             3.427          1534.688
       245   09 Jun 2027 11:07:37.592   09 Jun 2027 11:07:48.337            10.745          3173.250
       246   09 Jun 2027 11:07:53.385   09 Jun 2027 11:07:58.183             4.798            30.719
       247   09 Jun 2027 11:08:18.799   09 Jun 2027 11:08:22.275             3.476           325.312
       248   09 Jun 2027 11:08:44.588   09 Jun 2027 11:08:46.125             1.537           209.938
       249   09 Jun 2027 11:08:51.022   09 Jun 2027 11:08:51.177             0.155            77.500
       250   09 Jun 2027 11:09:46.213   09 Jun 2027 11:09:50.533             4.320          1795.406
       251   09 Jun 2027 11:09:57.055   09 Jun 2027 11:09:59.198             2.143           156.250
       252   09 Jun 2027 11:10:18.505   09 Jun 2027 11:10:18.505             0.000             0.000
       253   10 Jun 2027 03:26:38.875   10 Jun 2027 03:27:07.005            28.130         14065.000
       254   10 Jun 2027 03:27:09.240   10 Jun 2027 03:28:40.854            91.614         45807.000
       255   10 Jun 2027 03:29:14.672   10 Jun 2027 03:29:28.475            13.803          6901.500
       256   10 Jun 2027 03:31:55.066   10 Jun 2027 03:31:58.307             3.241          1620.500
       257   10 Jun 2027 03:32:20.001   10 Jun 2027 03:32:30.337            10.336          5168.000
       258   10 Jun 2027 03:32:45.940   10 Jun 2027 03:32:46.555             0.615           307.500
       259   10 Jun 2027 05:04:41.923   10 Jun 2027 05:05:42.792            60.869         30434.500
       260   10 Jun 2027 05:07:03.382   10 Jun 2027 05:07:03.653             0.271           135.500
       261   10 Jun 2027 05:07:40.685   10 Jun 2027 05:07:50.175             9.490          4745.000
       262   10 Jun 2027 05:08:09.178   10 Jun 2027 05:08:22.722            13.544          6772.000
       263   10 Jun 2027 06:28:20.428   10 Jun 2027 06:29:19.691            59.263         29631.500
       264   10 Jun 2027 08:04:48.239   10 Jun 2027 08:05:44.908            56.669         27675.469
       265   10 Jun 2027 08:07:38.124   10 Jun 2027 08:07:47.892             9.768          3538.000
       266   10 Jun 2027 09:38:56.283   10 Jun 2027 09:39:09.105            12.822          6122.375
       267   10 Jun 2027 09:40:40.255   10 Jun 2027 09:40:40.255             0.000             0.000
       268   10 Jun 2027 09:40:42.949   10 Jun 2027 09:40:50.459             7.510          2294.375
       269   10 Jun 2027 09:41:49.403   10 Jun 2027 09:41:54.495             5.092          1741.625
       270   10 Jun 2027 09:43:52.769   10 Jun 2027 09:44:01.244             8.475          3318.313
       271   10 Jun 2027 09:44:52.765   10 Jun 2027 09:44:59.482             6.717          1610.031
       272   10 Jun 2027 09:46:32.236   10 Jun 2027 09:46:39.496             7.260          2898.562
       273   10 Jun 2027 11:15:54.883   10 Jun 2027 11:16:10.247            15.364          7640.125
       274   10 Jun 2027 11:17:36.057   10 Jun 2027 11:17:39.979             3.922          1024.156
       275   10 Jun 2027 11:17:55.452   10 Jun 2027 11:17:58.626             3.174           287.094
       276   10 Jun 2027 11:18:35.949   10 Jun 2027 11:18:38.278             2.329           976.688
       277   10 Jun 2027 11:19:54.482   10 Jun 2027 11:19:59.799             5.317          2079.219
       278   10 Jun 2027 11:20:20.904   10 Jun 2027 11:20:22.258             1.354           659.531
       279   10 Jun 2027 11:21:19.421   10 Jun 2027 11:21:25.221             5.800          1764.625
       280   10 Jun 2027 11:21:43.608   10 Jun 2027 11:21:51.721             8.113           574.594
       281   10 Jun 2027 11:22:17.864   10 Jun 2027 11:22:20.568             2.704           816.969
       282   11 Jun 2027 03:38:47.043   11 Jun 2027 03:39:47.313            60.270         30135.000
       283   11 Jun 2027 03:39:56.100   11 Jun 2027 03:40:39.435            43.335         21667.500
       284   11 Jun 2027 03:41:19.278   11 Jun 2027 03:41:28.875             9.597          4798.500
       285   11 Jun 2027 03:42:45.539   11 Jun 2027 03:43:22.262            36.723         18361.500
       286   11 Jun 2027 05:17:07.576   11 Jun 2027 05:17:33.624            26.048         13024.000
       287   11 Jun 2027 05:17:55.238   11 Jun 2027 05:18:26.018            30.780         15390.000
       288   11 Jun 2027 05:19:17.060   11 Jun 2027 05:19:27.879            10.819          5409.500
       289   11 Jun 2027 06:40:29.073   11 Jun 2027 06:41:49.872            80.799         40399.500
       290   11 Jun 2027 08:16:59.108   11 Jun 2027 08:17:46.606            47.498         23749.000
       291   11 Jun 2027 08:18:01.201   11 Jun 2027 08:18:01.201             0.000             0.000
       292   11 Jun 2027 08:18:09.845   11 Jun 2027 08:18:13.118             3.273           976.312
       293   11 Jun 2027 08:18:23.176   11 Jun 2027 08:18:25.188             2.012           305.406
       294   11 Jun 2027 08:18:32.385   11 Jun 2027 08:18:32.385             0.000             0.000
       295   11 Jun 2027 08:19:26.528   11 Jun 2027 08:19:36.621            10.093          1916.875
       296   11 Jun 2027 09:52:09.449   11 Jun 2027 09:52:26.941            17.492          6161.938
       297   11 Jun 2027 09:53:23.883   11 Jun 2027 09:53:28.302             4.419          1662.937
       298   11 Jun 2027 09:53:48.764   11 Jun 2027 09:53:49.726             0.962           210.344
       299   11 Jun 2027 09:54:07.492   11 Jun 2027 09:54:07.641             0.149            74.500
       300   11 Jun 2027 09:54:10.423   11 Jun 2027 09:54:12.559             2.136           236.750
       301   11 Jun 2027 09:57:16.920   11 Jun 2027 09:57:30.882            13.962          5633.656
       302   11 Jun 2027 09:58:10.658   11 Jun 2027 09:58:12.263             1.605           263.031
       303   11 Jun 2027 09:58:29.096   11 Jun 2027 09:58:31.099             2.003           414.000
       304   11 Jun 2027 11:28:31.122   11 Jun 2027 11:28:49.530            18.408          5486.750
       305   11 Jun 2027 11:30:21.495   11 Jun 2027 11:30:30.595             9.100          2610.969
       306   11 Jun 2027 11:31:08.896   11 Jun 2027 11:31:17.289             8.393          1196.906
       307   11 Jun 2027 11:33:46.046   11 Jun 2027 11:33:54.379             8.333          3892.188
       308   11 Jun 2027 11:34:00.776   11 Jun 2027 11:34:02.930             2.154           175.813
       309   11 Jun 2027 11:34:42.207   11 Jun 2027 11:34:44.620             2.413          1206.500
       310   12 Jun 2027 03:50:51.750   12 Jun 2027 03:51:06.891            15.141          7570.500
       311   12 Jun 2027 03:51:54.269   12 Jun 2027 03:53:29.921            95.652         47826.000
       312   12 Jun 2027 03:53:45.105   12 Jun 2027 03:54:07.118            22.013         11006.500
       313   12 Jun 2027 05:29:03.023   12 Jun 2027 05:29:40.818            37.795         18897.500
       314   12 Jun 2027 05:30:10.616   12 Jun 2027 05:31:10.835            60.219         30109.500
       315   12 Jun 2027 05:32:26.728   12 Jun 2027 05:32:38.081            11.353          5676.500
       316   12 Jun 2027 06:53:12.087   12 Jun 2027 06:54:27.970            75.883         37941.500
       317   12 Jun 2027 08:28:55.019   12 Jun 2027 08:29:18.153            23.134         11567.000
       318   12 Jun 2027 08:30:17.984   12 Jun 2027 08:30:25.090             7.106          3426.530
       319   12 Jun 2027 08:31:35.946   12 Jun 2027 08:31:43.377             7.431          1857.312
       320   12 Jun 2027 08:32:22.873   12 Jun 2027 08:32:26.323             3.450           898.250
       321   12 Jun 2027 10:03:52.476   12 Jun 2027 10:04:07.033            14.557          4474.812
       322   12 Jun 2027 10:05:52.545   12 Jun 2027 10:06:02.150             9.605          2966.188
       323   12 Jun 2027 10:07:00.220   12 Jun 2027 10:07:00.220             0.000             0.000
       324   12 Jun 2027 10:09:16.867   12 Jun 2027 10:09:32.185            15.318          5746.312
       325   12 Jun 2027 10:09:58.170   12 Jun 2027 10:09:58.170             0.000             0.000
       326   12 Jun 2027 10:10:13.654   12 Jun 2027 10:10:17.356             3.702          1119.625
       327   12 Jun 2027 10:10:47.456   12 Jun 2027 10:10:49.982             2.526           940.625
       328   12 Jun 2027 11:40:04.624   12 Jun 2027 11:40:18.372            13.748          6561.281
       329   12 Jun 2027 11:41:05.311   12 Jun 2027 11:41:08.361             3.050          1070.188
       330   12 Jun 2027 11:41:59.755   12 Jun 2027 11:42:02.294             2.539          1069.062
       331   12 Jun 2027 11:42:17.594   12 Jun 2027 11:42:19.534             1.940           478.125
       332   12 Jun 2027 11:43:58.741   12 Jun 2027 11:44:04.454             5.713          2258.063
       333   12 Jun 2027 11:44:31.891   12 Jun 2027 11:44:37.196             5.305           857.406
       334   12 Jun 2027 11:45:33.681   12 Jun 2027 11:45:41.669             7.988          1357.781
       335   12 Jun 2027 11:45:59.542   12 Jun 2027 11:46:02.815             3.273           558.531
       336   12 Jun 2027 11:46:14.065   12 Jun 2027 11:46:15.462             1.397           351.563
       337   13 Jun 2027 04:03:57.200   13 Jun 2027 04:05:43.386           106.186         53093.000
       338   13 Jun 2027 04:06:24.138   13 Jun 2027 04:06:39.071            14.933          7466.500
       339   13 Jun 2027 04:10:32.790   13 Jun 2027 04:10:49.207            16.417          8208.500
       340   13 Jun 2027 04:10:55.481   13 Jun 2027 04:11:33.500            38.019         19009.500
       341   13 Jun 2027 05:29:57.752   13 Jun 2027 05:30:34.537            36.785         18392.500
       342   13 Jun 2027 05:40:59.252   13 Jun 2027 05:41:32.757            33.505         16752.500
       343   13 Jun 2027 05:41:56.738   13 Jun 2027 05:41:58.090             1.352           676.000
       344   13 Jun 2027 05:42:37.027   13 Jun 2027 05:42:42.086             5.059          2529.500
       345   13 Jun 2027 05:42:55.830   13 Jun 2027 05:42:59.829             3.999          1999.500
       346   13 Jun 2027 05:43:06.451   13 Jun 2027 05:43:11.926             5.475          2737.500
       347   13 Jun 2027 05:43:58.730   13 Jun 2027 05:43:58.730             0.000             0.000
       348   13 Jun 2027 07:03:59.214   13 Jun 2027 07:05:42.988           103.774         51887.000
       349   13 Jun 2027 08:39:31.020   13 Jun 2027 08:39:37.164             6.144          3072.000
       350   13 Jun 2027 08:40:40.724   13 Jun 2027 08:40:56.832            16.108          8054.000
       351   13 Jun 2027 08:43:06.562   13 Jun 2027 08:43:17.310            10.748          5374.000
       352   13 Jun 2027 08:43:26.217   13 Jun 2027 08:43:27.836             1.619           674.219
       353   13 Jun 2027 10:15:26.130   13 Jun 2027 10:15:37.369            11.239          5619.500
       354   13 Jun 2027 10:16:21.939   13 Jun 2027 10:16:29.873             7.934          2538.375
       355   13 Jun 2027 10:21:16.147   13 Jun 2027 10:21:33.056            16.909          7192.000
       356   13 Jun 2027 10:22:20.694   13 Jun 2027 10:22:25.381             4.687          1386.063
       357   13 Jun 2027 11:52:26.163   13 Jun 2027 11:52:40.177            14.014          5878.031
       358   13 Jun 2027 11:53:41.893   13 Jun 2027 11:53:57.615            15.722          1857.313
       359   13 Jun 2027 11:54:38.860   13 Jun 2027 11:54:44.294             5.434          1173.312
       360   13 Jun 2027 11:54:53.279   13 Jun 2027 11:54:57.608             4.329           265.469
       361   13 Jun 2027 11:56:09.731   13 Jun 2027 11:56:14.727             4.996          1978.719
       362   13 Jun 2027 11:56:47.417   13 Jun 2027 11:56:53.183             5.766          1021.563
       363   13 Jun 2027 11:57:17.029   13 Jun 2027 11:57:20.722             3.693           745.188
       364   13 Jun 2027 11:58:19.562   13 Jun 2027 11:58:24.078             4.516          1808.719
