uniorb/output/strategy_1/Camera/Camera_KinoSat_110406.txt

KinoSat_110406
-------------------------
    Access    *     Start Time (UTCG)     *     Stop Time (UTCG)  *   Duration (s) *   Data (Mbytes)
         1   01 Jun 2027 03:40:58.918   01 Jun 2027 03:42:08.333            69.415         34707.500
         2   01 Jun 2027 03:42:16.178   01 Jun 2027 03:42:23.230             7.052          3526.000
         3   01 Jun 2027 03:42:48.276   01 Jun 2027 03:43:17.507            29.231         14615.500
         4   01 Jun 2027 03:44:04.111   01 Jun 2027 03:44:04.111             0.000             0.000
         5   01 Jun 2027 03:44:27.866   01 Jun 2027 03:44:27.866             0.000             0.000
         6   01 Jun 2027 03:44:46.766   01 Jun 2027 03:44:54.359             7.593          3796.500
         7   01 Jun 2027 03:46:06.013   01 Jun 2027 03:46:37.435            31.422         15711.000
         8   01 Jun 2027 03:47:39.106   01 Jun 2027 03:47:58.178            19.072          9536.000
         9   01 Jun 2027 03:48:22.821   01 Jun 2027 03:48:57.009            34.188         17094.000
        10   01 Jun 2027 03:49:27.846   01 Jun 2027 03:49:29.823             1.977           988.500
        11   01 Jun 2027 05:18:29.731   01 Jun 2027 05:20:47.914           138.183         69091.500
        12   01 Jun 2027 05:20:55.988   01 Jun 2027 05:21:10.792            14.804          7402.000
        13   01 Jun 2027 05:21:18.347   01 Jun 2027 05:21:21.081             2.734          1367.000
        14   01 Jun 2027 05:23:51.255   01 Jun 2027 05:24:34.025            42.770         21385.000
        15   01 Jun 2027 05:25:04.813   01 Jun 2027 05:25:14.818            10.005          5002.500
        16   01 Jun 2027 06:55:26.057   01 Jun 2027 06:57:49.203           143.146         71573.000
        17   01 Jun 2027 06:58:21.032   01 Jun 2027 06:58:24.838             3.806          1903.000
        18   01 Jun 2027 06:58:45.409   01 Jun 2027 06:59:02.130            16.721          8360.500
        19   01 Jun 2027 06:59:40.294   01 Jun 2027 06:59:49.641             9.347          4673.500
        20   01 Jun 2027 06:59:57.614   01 Jun 2027 07:00:10.264            12.650          6325.000
        21   01 Jun 2027 07:00:45.716   01 Jun 2027 07:00:50.615             4.899          2449.500
        22   01 Jun 2027 08:32:16.512   01 Jun 2027 08:34:10.926           114.414         57207.000
        23   01 Jun 2027 08:35:16.304   01 Jun 2027 08:35:43.924            27.620         13810.000
        24   01 Jun 2027 08:35:55.949   01 Jun 2027 08:36:12.703            16.754          8377.000
        25   01 Jun 2027 10:09:53.525   01 Jun 2027 10:11:25.931            92.406         46203.000
        26   02 Jun 2027 03:53:48.459   02 Jun 2027 03:59:28.204           339.745        169872.500
        27   02 Jun 2027 03:59:42.296   02 Jun 2027 04:00:14.352            32.056         16028.000
        28   02 Jun 2027 04:01:22.967   02 Jun 2027 04:01:25.005             2.038          1019.000
        29   02 Jun 2027 05:30:36.220   02 Jun 2027 05:33:29.711           173.491         86745.500
        30   02 Jun 2027 05:35:42.820   02 Jun 2027 05:36:03.343            20.523         10261.500
        31   02 Jun 2027 05:36:31.615   02 Jun 2027 05:36:49.018            17.403          8701.500
        32   02 Jun 2027 07:08:17.204   02 Jun 2027 07:10:23.839           126.635         63317.500
        33   02 Jun 2027 07:11:00.670   02 Jun 2027 07:11:43.496            42.826         21413.000
        34   02 Jun 2027 08:44:19.034   02 Jun 2027 08:46:39.701           140.667         70333.500
        35   02 Jun 2027 08:47:07.628   02 Jun 2027 08:47:18.857            11.229          5614.500
        36   02 Jun 2027 08:48:34.024   02 Jun 2027 08:48:48.706            14.682          7341.000
        37   03 Jun 2027 04:06:49.762   03 Jun 2027 04:13:26.681           396.919        198459.500
        38   03 Jun 2027 05:43:12.166   03 Jun 2027 05:45:02.357           110.191         55095.500
        39   03 Jun 2027 05:46:07.776   03 Jun 2027 05:47:53.270           105.494         52747.000
        40   03 Jun 2027 05:48:53.516   03 Jun 2027 05:49:19.282            25.766         12883.000
        41   03 Jun 2027 07:20:27.841   03 Jun 2027 07:23:26.361           178.520         89260.000
        42   03 Jun 2027 07:23:46.198   03 Jun 2027 07:23:50.449             4.251          2125.500
        43   03 Jun 2027 07:24:16.642   03 Jun 2027 07:24:28.928            12.286          6143.000
        44   03 Jun 2027 08:56:42.141   03 Jun 2027 08:59:15.695           153.554         76777.000
        45   03 Jun 2027 08:59:49.855   03 Jun 2027 08:59:49.855             0.000             0.000
        46   03 Jun 2027 09:00:35.907   03 Jun 2027 09:00:53.726            17.819          8909.500
        47   04 Jun 2027 04:18:31.561   04 Jun 2027 04:21:02.206           150.645         75322.500
        48   04 Jun 2027 04:21:23.885   04 Jun 2027 04:25:27.200           243.315        121657.500
        49   04 Jun 2027 04:25:30.692   04 Jun 2027 04:25:33.968             3.276          1638.000
        50   04 Jun 2027 05:54:44.163   04 Jun 2027 05:57:58.072           193.909         96954.500
        51   04 Jun 2027 05:58:11.620   04 Jun 2027 05:58:23.264            11.644          5822.000
        52   04 Jun 2027 05:59:31.610   04 Jun 2027 05:59:44.336            12.726          6363.000
        53   04 Jun 2027 06:00:08.209   04 Jun 2027 06:00:08.662             0.453           226.500
        54   04 Jun 2027 07:32:56.381   04 Jun 2027 07:35:17.432           141.051         70525.500
        55   04 Jun 2027 07:35:31.928   04 Jun 2027 07:35:35.559             3.631          1815.500
        56   04 Jun 2027 07:36:14.191   04 Jun 2027 07:36:47.410            33.219         16609.500
        57   04 Jun 2027 09:08:24.889   04 Jun 2027 09:08:57.346            32.457         16228.500
        58   04 Jun 2027 09:09:23.336   04 Jun 2027 09:09:25.679             2.343          1171.500
        59   04 Jun 2027 09:10:12.998   04 Jun 2027 09:10:23.163            10.165          5082.500
        60   04 Jun 2027 09:10:33.872   04 Jun 2027 09:10:43.949            10.077          5038.500
        61   04 Jun 2027 09:11:10.705   04 Jun 2027 09:11:18.123             7.418          3709.000
        62   04 Jun 2027 09:11:53.214   04 Jun 2027 09:11:57.778             4.564          2282.000
        63   04 Jun 2027 09:12:41.192   04 Jun 2027 09:12:48.744             7.552          3776.000
        64   04 Jun 2027 09:12:55.699   04 Jun 2027 09:13:10.676            14.977          7488.500
        65   04 Jun 2027 09:13:18.930   04 Jun 2027 09:13:30.351            11.421          5710.500
        66   05 Jun 2027 04:30:05.055   05 Jun 2027 04:35:46.039           340.984        170492.000
        67   05 Jun 2027 04:36:12.671   05 Jun 2027 04:36:18.339             5.668          2834.000
        68   05 Jun 2027 04:36:37.583   05 Jun 2027 04:36:56.570            18.987          9493.500
        69   05 Jun 2027 04:37:26.621   05 Jun 2027 04:37:38.902            12.281          6140.500
        70   05 Jun 2027 06:07:06.080   05 Jun 2027 06:09:57.041           170.961         85480.500
        71   05 Jun 2027 06:10:42.995   05 Jun 2027 06:10:55.282            12.287          6143.500
        72   05 Jun 2027 06:11:06.337   05 Jun 2027 06:11:07.075             0.738           369.000
        73   05 Jun 2027 06:11:25.771   05 Jun 2027 06:11:36.029            10.258          5129.000
        74   05 Jun 2027 06:12:01.269   05 Jun 2027 06:12:04.711             3.442          1721.000
        75   05 Jun 2027 07:45:06.385   05 Jun 2027 07:47:22.520           136.135         68067.500
        76   05 Jun 2027 07:47:31.490   05 Jun 2027 07:47:32.985             1.495           747.500
        77   05 Jun 2027 07:48:24.451   05 Jun 2027 07:48:44.954            20.503         10251.500
        78   05 Jun 2027 09:18:20.154   05 Jun 2027 09:18:48.708            28.554         14277.000
        79   05 Jun 2027 09:19:04.702   05 Jun 2027 09:19:14.123             9.421          4710.500
        80   05 Jun 2027 09:20:24.160   05 Jun 2027 09:20:27.184             3.024          1512.000
        81   05 Jun 2027 09:21:30.521   05 Jun 2027 09:21:55.640            25.119         12559.500
        82   05 Jun 2027 09:23:06.524   05 Jun 2027 09:23:43.630            37.106         18553.000
        83   05 Jun 2027 09:24:41.343   05 Jun 2027 09:25:00.031            18.688          9344.000
        84   06 Jun 2027 03:05:01.503   06 Jun 2027 03:06:35.799            94.296         47148.000
        85   06 Jun 2027 03:07:03.105   06 Jun 2027 03:09:23.990           140.885         70442.500
        86   06 Jun 2027 03:09:37.609   06 Jun 2027 03:09:37.609             0.000             0.000
        87   06 Jun 2027 03:09:46.283   06 Jun 2027 03:09:47.787             1.504           752.000
        88   06 Jun 2027 03:10:04.195   06 Jun 2027 03:10:16.202            12.007          6003.500
        89   06 Jun 2027 03:10:27.895   06 Jun 2027 03:10:31.332             3.437          1718.500
        90   06 Jun 2027 03:11:53.453   06 Jun 2027 03:11:56.025             2.572          1286.000
        91   06 Jun 2027 03:12:57.329   06 Jun 2027 03:13:12.113            14.784          7392.000
        92   06 Jun 2027 04:42:14.088   06 Jun 2027 04:44:22.814           128.726         64363.000
        93   06 Jun 2027 04:49:12.499   06 Jun 2027 04:49:39.857            27.358         13679.000
        94   06 Jun 2027 06:19:11.055   06 Jun 2027 06:22:06.588           175.533         87766.500
        95   06 Jun 2027 06:22:16.850   06 Jun 2027 06:22:28.413            11.563          5781.500
        96   06 Jun 2027 06:22:32.650   06 Jun 2027 06:22:33.520             0.870           435.000
        97   06 Jun 2027 06:23:56.424   06 Jun 2027 06:24:17.623            21.199         10599.500
        98   06 Jun 2027 07:57:04.280   06 Jun 2027 07:58:28.765            84.485         42242.500
        99   06 Jun 2027 07:59:43.848   06 Jun 2027 08:00:03.854            20.006         10003.000
       100   06 Jun 2027 08:00:22.902   06 Jun 2027 08:00:27.919             5.017          2508.500
       101   06 Jun 2027 08:00:51.724   06 Jun 2027 08:00:54.048             2.324          1162.000
       102   06 Jun 2027 09:30:38.612   06 Jun 2027 09:31:07.077            28.465         14232.500
       103   06 Jun 2027 09:32:10.915   06 Jun 2027 09:32:17.333             6.418          3209.000
       104   06 Jun 2027 09:32:43.018   06 Jun 2027 09:32:58.569            15.551          7775.500
       105   06 Jun 2027 09:34:39.345   06 Jun 2027 09:35:02.740            23.395         11697.500
       106   06 Jun 2027 09:36:10.214   06 Jun 2027 09:36:23.408            13.194          6597.000
       107   06 Jun 2027 09:36:49.600   06 Jun 2027 09:37:00.002            10.402          5201.000
       108   06 Jun 2027 09:37:58.164   06 Jun 2027 09:38:03.175             5.011          2505.500
       109   07 Jun 2027 03:16:31.057   07 Jun 2027 03:20:11.135           220.078        110039.000
       110   07 Jun 2027 03:20:41.362   07 Jun 2027 03:21:14.640            33.278         16639.000
       111   07 Jun 2027 03:22:05.423   07 Jun 2027 03:22:23.315            17.892          8946.000
       112   07 Jun 2027 03:23:53.824   07 Jun 2027 03:23:57.292             3.468          1734.000
       113   07 Jun 2027 03:24:46.603   07 Jun 2027 03:25:05.741            19.138          9569.000
       114   07 Jun 2027 03:25:20.945   07 Jun 2027 03:25:40.628            19.683          9841.500
       115   07 Jun 2027 04:54:15.934   07 Jun 2027 04:56:15.091           119.157         59578.500
       116   07 Jun 2027 04:57:06.690   07 Jun 2027 04:57:14.131             7.441          3720.500
       117   07 Jun 2027 04:58:04.788   07 Jun 2027 04:58:09.269             4.481          2240.500
       118   07 Jun 2027 04:58:19.071   07 Jun 2027 04:58:20.479             1.408           704.000
       119   07 Jun 2027 04:58:44.866   07 Jun 2027 04:59:13.180            28.314         14157.000
       120   07 Jun 2027 04:59:39.427   07 Jun 2027 05:00:07.907            28.480         14240.000
       121   07 Jun 2027 05:01:41.448   07 Jun 2027 05:01:41.599             0.151            75.500
       122   07 Jun 2027 06:31:03.683   07 Jun 2027 06:33:31.345           147.662         73831.000
       123   07 Jun 2027 06:34:17.751   07 Jun 2027 06:34:37.084            19.333          9666.500
       124   07 Jun 2027 06:35:53.986   07 Jun 2027 06:36:17.577            23.591         11795.500
       125   07 Jun 2027 06:37:21.852   07 Jun 2027 06:37:24.833             2.981          1490.500
       126   07 Jun 2027 08:09:07.423   07 Jun 2027 08:10:28.569            81.146         40573.000
       127   07 Jun 2027 08:11:06.642   07 Jun 2027 08:11:15.858             9.216          4608.000
       128   07 Jun 2027 08:12:30.172   07 Jun 2027 08:12:41.983            11.811          5905.500
       129   07 Jun 2027 09:42:57.865   07 Jun 2027 09:43:08.920            11.055          5527.500
       130   07 Jun 2027 09:43:37.830   07 Jun 2027 09:43:53.007            15.177          7588.500
       131   07 Jun 2027 09:44:22.554   07 Jun 2027 09:44:39.854            17.300          8650.000
       132   07 Jun 2027 09:46:00.154   07 Jun 2027 09:46:07.350             7.196          3598.000
       133   07 Jun 2027 09:46:37.879   07 Jun 2027 09:46:46.762             8.883          4441.500
       134   07 Jun 2027 09:47:18.829   07 Jun 2027 09:47:32.633            13.804          6902.000
       135   07 Jun 2027 09:48:46.883   07 Jun 2027 09:48:56.226             9.343          4671.500
       136   07 Jun 2027 09:49:12.869   07 Jun 2027 09:49:19.510             6.641          3320.500
       137   08 Jun 2027 03:29:15.694   08 Jun 2027 03:33:08.091           232.397        116198.500
       138   08 Jun 2027 03:34:10.246   08 Jun 2027 03:34:20.203             9.957          4978.500
       139   08 Jun 2027 03:34:43.393   08 Jun 2027 03:35:16.337            32.944         16472.000
       140   08 Jun 2027 03:36:22.984   08 Jun 2027 03:36:22.984             0.000             0.000
       141   08 Jun 2027 03:37:42.474   08 Jun 2027 03:37:45.192             2.718          1359.000
       142   08 Jun 2027 05:06:18.840   08 Jun 2027 05:08:03.407           104.567         52283.500
       143   08 Jun 2027 05:08:46.934   08 Jun 2027 05:09:58.513            71.579         35789.500
       144   08 Jun 2027 05:11:21.222   08 Jun 2027 05:11:50.748            29.526         14763.000
       145   08 Jun 2027 05:12:46.920   08 Jun 2027 05:13:03.511            16.591          8295.500
       146   08 Jun 2027 05:13:23.634   08 Jun 2027 05:13:26.498             2.864          1432.000
       147   08 Jun 2027 06:43:13.252   08 Jun 2027 06:45:48.977           155.725         77862.500
       148   08 Jun 2027 06:46:30.181   08 Jun 2027 06:46:40.167             9.986          4993.000
       149   08 Jun 2027 06:47:17.293   08 Jun 2027 06:47:30.832            13.539          6769.500
       150   08 Jun 2027 06:47:51.675   08 Jun 2027 06:47:54.985             3.310          1655.000
       151   08 Jun 2027 06:48:41.908   08 Jun 2027 06:49:11.078            29.170         14585.000
       152   08 Jun 2027 08:20:19.606   08 Jun 2027 08:21:02.388            42.782         21391.000
       153   08 Jun 2027 08:21:26.642   08 Jun 2027 08:21:40.607            13.965          6982.500
       154   08 Jun 2027 08:22:27.258   08 Jun 2027 08:22:36.400             9.142          4571.000
       155   08 Jun 2027 08:23:23.795   08 Jun 2027 08:23:38.989            15.194          7597.000
       156   08 Jun 2027 08:24:18.137   08 Jun 2027 08:24:27.353             9.216          4608.000
       157   08 Jun 2027 09:55:21.098   08 Jun 2027 09:55:42.101            21.003         10501.500
       158   08 Jun 2027 09:57:02.894   08 Jun 2027 09:57:16.357            13.463          6731.500
       159   08 Jun 2027 09:58:44.616   08 Jun 2027 09:59:14.447            29.831         14915.500
       160   08 Jun 2027 09:59:51.190   08 Jun 2027 10:00:04.489            13.299          6649.500
       161   09 Jun 2027 03:41:13.645   09 Jun 2027 03:45:19.217           245.572        122786.000
       162   09 Jun 2027 03:45:52.276   09 Jun 2027 03:46:11.694            19.418          9709.000
       163   09 Jun 2027 03:47:18.521   09 Jun 2027 03:47:37.897            19.376          9688.000
       164   09 Jun 2027 03:47:54.303   09 Jun 2027 03:47:55.453             1.150           575.000
       165   09 Jun 2027 03:48:35.717   09 Jun 2027 03:48:51.831            16.114          8057.000
       166   09 Jun 2027 03:49:11.641   09 Jun 2027 03:49:27.372            15.731          7865.500
       167   09 Jun 2027 03:49:42.435   09 Jun 2027 03:49:44.448             2.013          1006.500
       168   09 Jun 2027 05:18:44.561   09 Jun 2027 05:20:46.086           121.525         60762.500
       169   09 Jun 2027 05:21:02.224   09 Jun 2027 05:21:10.654             8.430          4215.000
       170   09 Jun 2027 05:21:35.947   09 Jun 2027 05:22:18.944            42.997         21498.500
       171   09 Jun 2027 05:23:48.796   09 Jun 2027 05:24:05.675            16.879          8439.500
       172   09 Jun 2027 05:25:11.799   09 Jun 2027 05:25:29.427            17.628          8814.000
       173   09 Jun 2027 06:55:40.662   09 Jun 2027 06:58:25.169           164.507         82253.500
       174   09 Jun 2027 06:59:09.225   09 Jun 2027 06:59:15.647             6.422          3211.000
       175   09 Jun 2027 07:00:10.905   09 Jun 2027 07:00:17.716             6.811          3405.500
       176   09 Jun 2027 07:00:19.915   09 Jun 2027 07:00:24.825             4.910          2455.000
       177   09 Jun 2027 07:01:01.036   09 Jun 2027 07:01:05.115             4.079          2039.500
       178   09 Jun 2027 07:01:16.816   09 Jun 2027 07:01:27.495            10.679          5339.500
       179   09 Jun 2027 08:32:31.069   09 Jun 2027 08:33:00.874            29.805         14902.500
       180   09 Jun 2027 08:33:15.508   09 Jun 2027 08:33:23.597             8.089          4044.500
       181   09 Jun 2027 08:34:21.271   09 Jun 2027 08:34:46.281            25.010         12505.000
       182   09 Jun 2027 08:35:49.751   09 Jun 2027 08:35:57.331             7.580          3790.000
       183   09 Jun 2027 08:36:18.017   09 Jun 2027 08:36:24.547             6.530          3265.000
       184   09 Jun 2027 08:36:48.572   09 Jun 2027 08:36:55.322             6.750          3375.000
       185   09 Jun 2027 10:10:08.190   09 Jun 2027 10:10:24.318            16.128          8064.000
       186   09 Jun 2027 10:11:40.608   09 Jun 2027 10:11:51.169            10.561          5280.500
       187   10 Jun 2027 03:54:03.393   10 Jun 2027 03:59:01.408           298.015        149007.500
       188   10 Jun 2027 04:00:30.494   10 Jun 2027 04:00:38.595             8.101          4050.500
       189   10 Jun 2027 04:01:37.534   10 Jun 2027 04:01:39.742             2.208          1104.000
       190   10 Jun 2027 05:30:51.434   10 Jun 2027 05:34:08.465           197.031         98515.500
       191   10 Jun 2027 05:35:58.175   10 Jun 2027 05:36:18.341            20.166         10083.000
       192   10 Jun 2027 05:36:37.932   10 Jun 2027 05:36:39.258             1.326           663.000
       193   10 Jun 2027 05:37:13.909   10 Jun 2027 05:37:33.023            19.114          9557.000
       194   10 Jun 2027 07:08:32.446   10 Jun 2027 07:10:56.808           144.362         72181.000
       195   10 Jun 2027 07:11:27.506   10 Jun 2027 07:11:34.984             7.478          3739.000
       196   10 Jun 2027 07:11:58.534   10 Jun 2027 07:12:09.571            11.037          5518.500
       197   10 Jun 2027 07:12:27.779   10 Jun 2027 07:12:27.779             0.000             0.000
       198   10 Jun 2027 07:12:51.821   10 Jun 2027 07:13:00.839             9.018          4509.000
       199   10 Jun 2027 08:44:33.563   10 Jun 2027 08:45:05.057            31.494         15747.000
       200   10 Jun 2027 08:45:17.048   10 Jun 2027 08:45:42.939            25.891         12945.500
       201   10 Jun 2027 08:47:23.094   10 Jun 2027 08:47:33.578            10.484          5242.000
       202   10 Jun 2027 08:48:48.784   10 Jun 2027 08:49:03.480            14.696          7348.000
       203   11 Jun 2027 04:07:04.418   11 Jun 2027 04:12:13.300           308.882        154441.000
       204   11 Jun 2027 04:13:13.769   11 Jun 2027 04:13:27.631            13.862          6931.000
       205   11 Jun 2027 04:13:30.988   11 Jun 2027 04:13:41.385            10.397          5198.500
       206   11 Jun 2027 05:43:27.026   11 Jun 2027 05:45:52.026           145.000         72500.000
       207   11 Jun 2027 05:46:21.342   11 Jun 2027 05:46:26.385             5.043          2521.500
       208   11 Jun 2027 05:47:36.819   11 Jun 2027 05:48:08.017            31.198         15599.000
       209   11 Jun 2027 07:20:42.058   11 Jun 2027 07:23:20.646           158.588         79294.000
       210   11 Jun 2027 07:23:31.803   11 Jun 2027 07:23:42.343            10.540          5270.000
       211   11 Jun 2027 07:24:01.272   11 Jun 2027 07:24:09.647             8.375          4187.500
       212   11 Jun 2027 07:24:43.528   11 Jun 2027 07:24:54.126            10.598          5299.000
       213   11 Jun 2027 08:56:56.998   11 Jun 2027 08:57:32.315            35.317         17658.500
       214   11 Jun 2027 08:58:55.130   11 Jun 2027 08:59:06.236            11.106          5553.000
       215   11 Jun 2027 08:59:44.569   11 Jun 2027 08:59:56.767            12.198          6099.000
       216   11 Jun 2027 09:00:09.432   11 Jun 2027 09:00:20.172            10.740          5370.000
       217   11 Jun 2027 09:01:02.207   11 Jun 2027 09:01:10.031             7.824          3912.000
       218   11 Jun 2027 09:01:36.967   11 Jun 2027 09:01:38.374             1.407           703.500
       219   12 Jun 2027 04:18:46.199   12 Jun 2027 04:21:16.962           150.763         75381.500
       220   12 Jun 2027 04:21:45.918   12 Jun 2027 04:24:57.203           191.285         95642.500
       221   12 Jun 2027 04:25:13.358   12 Jun 2027 04:25:39.320            25.962         12981.000
       222   12 Jun 2027 05:54:58.820   12 Jun 2027 05:57:37.543           158.723         79361.500
       223   12 Jun 2027 05:58:12.978   12 Jun 2027 05:58:18.204             5.226          2613.000
       224   12 Jun 2027 05:58:45.619   12 Jun 2027 05:59:03.786            18.167          9083.500
       225   12 Jun 2027 06:00:23.196   12 Jun 2027 06:00:38.564            15.368          7684.000
       226   12 Jun 2027 07:33:11.734   12 Jun 2027 07:35:32.437           140.703         70351.500
       227   12 Jun 2027 07:36:03.414   12 Jun 2027 07:36:11.197             7.783          3891.500
       228   12 Jun 2027 07:36:36.226   12 Jun 2027 07:36:45.364             9.138          4569.000
       229   12 Jun 2027 07:37:02.463   12 Jun 2027 07:37:07.792             5.329          2664.500
       230   12 Jun 2027 09:08:39.408   12 Jun 2027 09:09:38.384            58.976         29488.000
       231   12 Jun 2027 09:11:32.818   12 Jun 2027 09:11:39.944             7.126          3563.000
       232   12 Jun 2027 09:11:58.286   12 Jun 2027 09:12:07.830             9.544          4772.000
       233   12 Jun 2027 09:12:45.071   12 Jun 2027 09:12:56.238            11.167          5583.500
       234   12 Jun 2027 09:13:33.200   12 Jun 2027 09:13:45.393            12.193          6096.500
       235   13 Jun 2027 03:00:00.000   13 Jun 2027 03:00:03.392             3.392          1696.000
       236   13 Jun 2027 04:30:19.509   13 Jun 2027 04:36:17.304           357.795        178897.500
       237   13 Jun 2027 04:36:52.275   13 Jun 2027 04:37:12.638            20.363         10181.500
       238   13 Jun 2027 04:37:41.430   13 Jun 2027 04:37:49.188             7.758          3879.000
       239   13 Jun 2027 06:07:20.808   13 Jun 2027 06:10:04.106           163.298         81649.000
       240   13 Jun 2027 06:12:19.167   13 Jun 2027 06:12:59.906            40.739         20369.500
       241   13 Jun 2027 07:45:20.894   13 Jun 2027 07:47:39.104           138.210         69105.000
       242   13 Jun 2027 07:48:41.544   13 Jun 2027 07:49:01.744            20.200         10100.000
       243   13 Jun 2027 09:18:34.355   13 Jun 2027 09:19:19.374            45.019         22509.500
       244   13 Jun 2027 09:21:44.978   13 Jun 2027 09:22:09.810            24.832         12416.000
       245   13 Jun 2027 09:23:25.404   13 Jun 2027 09:23:33.196             7.792          3896.000
       246   13 Jun 2027 09:24:12.652   13 Jun 2027 09:24:23.686            11.034          5517.000
       247   13 Jun 2027 09:24:41.808   13 Jun 2027 09:24:44.478             2.670          1335.000
       248   13 Jun 2027 09:24:46.103   13 Jun 2027 09:24:48.859             2.756          1378.000
       249   13 Jun 2027 09:25:24.302   13 Jun 2027 09:25:37.504            13.202          6601.000
       250   13 Jun 2027 09:26:19.409   13 Jun 2027 09:26:27.632             8.223          4111.500
