uniorb/output/strategy_1/Camera/Camera_KinoSat_112003.txt

KinoSat_112003
-------------------------
    Access    *     Start Time (UTCG)     *     Stop Time (UTCG)  *   Duration (s) *   Data (Mbytes)
         1   01 Jun 2027 03:15:59.213   01 Jun 2027 03:17:18.269            79.056         39528.000
         2   01 Jun 2027 03:18:30.523   01 Jun 2027 03:18:52.429            21.906         10953.000
         3   01 Jun 2027 03:19:18.146   01 Jun 2027 03:19:25.480             7.334          3667.000
         4   01 Jun 2027 03:19:56.090   01 Jun 2027 03:20:04.850             8.760          4380.000
         5   01 Jun 2027 03:20:17.610   01 Jun 2027 03:20:31.916            14.306          7153.000
         6   01 Jun 2027 03:21:30.784   01 Jun 2027 03:21:40.344             9.560          4780.000
         7   01 Jun 2027 03:22:30.968   01 Jun 2027 03:22:37.858             6.890          3445.000
         8   01 Jun 2027 04:53:42.717   01 Jun 2027 04:53:52.797            10.080          5040.000
         9   01 Jun 2027 04:54:04.819   01 Jun 2027 04:55:06.441            61.622         30811.000
        10   01 Jun 2027 04:55:11.740   01 Jun 2027 04:55:32.250            20.510         10255.000
        11   01 Jun 2027 04:55:53.432   01 Jun 2027 04:55:55.325             1.893           946.500
        12   01 Jun 2027 04:57:39.308   01 Jun 2027 04:57:48.523             9.215          4607.500
        13   01 Jun 2027 04:59:16.627   01 Jun 2027 04:59:18.914             2.287          1143.500
        14   01 Jun 2027 06:32:15.969   01 Jun 2027 06:34:28.252           132.283         66141.500
        15   01 Jun 2027 07:56:01.330   01 Jun 2027 07:57:20.410            79.080         39540.000
        16   01 Jun 2027 09:32:00.449   01 Jun 2027 09:33:33.180            92.731         46365.500
        17   01 Jun 2027 09:34:44.353   01 Jun 2027 09:34:49.445             5.092          2546.000
        18   01 Jun 2027 09:35:18.157   01 Jun 2027 09:35:53.681            35.524         17762.000
        19   01 Jun 2027 11:05:45.570   01 Jun 2027 11:07:31.222           105.652         52826.000
        20   01 Jun 2027 11:08:25.188   01 Jun 2027 11:08:25.188             0.000             0.000
        21   01 Jun 2027 11:13:11.092   01 Jun 2027 11:14:19.859            68.767         34383.500
        22   02 Jun 2027 03:28:03.474   02 Jun 2027 03:28:17.048            13.574          6787.000
        23   02 Jun 2027 03:28:50.678   02 Jun 2027 03:29:04.588            13.910          6955.000
        24   02 Jun 2027 03:29:21.143   02 Jun 2027 03:30:12.342            51.199         25599.500
        25   02 Jun 2027 03:31:20.469   02 Jun 2027 03:31:52.452            31.983         15991.500
        26   02 Jun 2027 03:32:07.890   02 Jun 2027 03:32:15.416             7.526          3763.000
        27   02 Jun 2027 03:33:05.578   02 Jun 2027 03:33:29.978            24.400         12200.000
        28   02 Jun 2027 03:34:51.633   02 Jun 2027 03:35:06.404            14.771          7385.500
        29   02 Jun 2027 05:06:10.837   02 Jun 2027 05:06:39.336            28.499         14249.500
        30   02 Jun 2027 05:06:45.441   02 Jun 2027 05:07:35.189            49.748         24874.000
        31   02 Jun 2027 05:08:21.385   02 Jun 2027 05:08:45.944            24.559         12279.500
        32   02 Jun 2027 05:10:15.823   02 Jun 2027 05:10:17.740             1.917           958.500
        33   02 Jun 2027 05:10:30.707   02 Jun 2027 05:10:39.056             8.349          4174.500
        34   02 Jun 2027 05:11:26.867   02 Jun 2027 05:11:26.867             0.000             0.000
        35   02 Jun 2027 06:44:11.554   02 Jun 2027 06:45:48.429            96.875         48437.500
        36   02 Jun 2027 06:46:07.721   02 Jun 2027 06:46:28.870            21.149         10574.500
        37   02 Jun 2027 08:07:52.969   02 Jun 2027 08:09:45.264           112.295         56147.500
        38   02 Jun 2027 09:44:15.137   02 Jun 2027 09:44:42.641            27.504         13752.000
        39   02 Jun 2027 09:45:00.422   02 Jun 2027 09:46:29.567            89.145         44572.500
        40   02 Jun 2027 11:18:21.756   02 Jun 2027 11:20:07.613           105.857         52928.500
        41   02 Jun 2027 11:26:16.246   02 Jun 2027 11:26:18.767             2.521          1260.500
        42   03 Jun 2027 03:40:06.838   03 Jun 2027 03:40:55.217            48.379         24189.500
        43   03 Jun 2027 03:41:25.697   03 Jun 2027 03:43:07.751           102.054         51027.000
        44   03 Jun 2027 03:47:03.229   03 Jun 2027 03:47:05.896             2.667          1333.500
        45   03 Jun 2027 05:18:17.072   03 Jun 2027 05:19:14.841            57.769         28884.500
        46   03 Jun 2027 05:20:16.120   03 Jun 2027 05:21:15.831            59.711         29855.500
        47   03 Jun 2027 05:21:40.312   03 Jun 2027 05:21:46.899             6.587          3293.500
        48   03 Jun 2027 05:22:46.329   03 Jun 2027 05:22:54.019             7.690          3845.000
        49   03 Jun 2027 06:57:25.329   03 Jun 2027 06:58:58.355            93.026         46513.000
        50   03 Jun 2027 06:59:02.523   03 Jun 2027 06:59:05.247             2.724          1362.000
        51   03 Jun 2027 08:19:56.894   03 Jun 2027 08:21:41.208           104.314         52157.000
        52   03 Jun 2027 09:56:26.076   03 Jun 2027 09:56:34.572             8.496          4248.000
        53   03 Jun 2027 09:57:37.529   03 Jun 2027 09:58:19.190            41.661         20830.500
        54   03 Jun 2027 11:31:31.303   03 Jun 2027 11:31:54.879            23.576         11788.000
        55   03 Jun 2027 11:38:11.070   03 Jun 2027 11:38:18.006             6.936          3468.000
        56   04 Jun 2027 03:52:05.208   04 Jun 2027 03:53:48.190           102.982         51491.000
        57   04 Jun 2027 03:55:09.029   04 Jun 2027 03:55:11.091             2.062          1031.000
        58   04 Jun 2027 03:56:44.456   04 Jun 2027 03:56:49.918             5.462          2731.000
        59   04 Jun 2027 03:57:04.748   04 Jun 2027 03:57:08.017             3.269          1634.500
        60   04 Jun 2027 03:58:42.244   04 Jun 2027 03:58:45.155             2.911          1455.500
        61   04 Jun 2027 03:58:56.115   04 Jun 2027 03:59:04.005             7.890          3945.000
        62   04 Jun 2027 05:30:20.729   04 Jun 2027 05:31:01.631            40.902         20451.000
        63   04 Jun 2027 05:31:25.191   04 Jun 2027 05:32:28.554            63.363         31681.500
        64   04 Jun 2027 05:32:36.209   04 Jun 2027 05:32:49.468            13.259          6629.500
        65   04 Jun 2027 05:33:40.279   04 Jun 2027 05:33:44.567             4.288          2144.000
        66   04 Jun 2027 05:34:22.560   04 Jun 2027 05:34:24.028             1.468           734.000
        67   04 Jun 2027 05:35:50.160   04 Jun 2027 05:35:54.805             4.645          2322.500
        68   04 Jun 2027 07:08:32.879   04 Jun 2027 07:09:10.769            37.890         18945.000
        69   04 Jun 2027 07:09:24.253   04 Jun 2027 07:10:30.789            66.536         33268.000
        70   04 Jun 2027 07:10:58.986   04 Jun 2027 07:11:12.166            13.180          6590.000
        71   04 Jun 2027 08:32:02.347   04 Jun 2027 08:32:46.648            44.301         21662.064
        72   04 Jun 2027 08:33:21.775   04 Jun 2027 08:33:23.835             2.060           519.125
        73   04 Jun 2027 10:08:31.073   04 Jun 2027 10:08:49.014            17.941          8098.281
        74   04 Jun 2027 10:11:43.861   04 Jun 2027 10:11:43.861             0.000             0.000
        75   04 Jun 2027 11:43:48.774   04 Jun 2027 11:44:00.949            12.175          6087.500
        76   04 Jun 2027 11:45:48.365   04 Jun 2027 11:46:06.107            17.742          8871.000
        77   04 Jun 2027 11:50:03.975   04 Jun 2027 11:50:17.555            13.580          6790.000
        78   05 Jun 2027 04:04:07.970   05 Jun 2027 04:05:24.625            76.655         38327.500
        79   05 Jun 2027 04:06:43.507   05 Jun 2027 04:07:54.628            71.121         35560.500
        80   05 Jun 2027 04:08:03.629   05 Jun 2027 04:08:12.621             8.992          4496.000
        81   05 Jun 2027 04:11:08.236   05 Jun 2027 04:11:09.278             1.042           521.000
        82   05 Jun 2027 05:43:25.542   05 Jun 2027 05:44:37.787            72.245         36122.500
        83   05 Jun 2027 05:45:48.973   05 Jun 2027 05:46:25.747            36.774         18387.000
        84   05 Jun 2027 05:46:36.736   05 Jun 2027 05:46:47.380            10.644          5322.000
        85   05 Jun 2027 05:48:20.140   05 Jun 2027 05:48:29.433             9.293          4646.500
        86   05 Jun 2027 05:50:11.541   05 Jun 2027 05:51:13.280            61.739         30869.500
        87   05 Jun 2027 07:09:43.573   05 Jun 2027 07:09:56.637            13.064          6532.000
        88   05 Jun 2027 07:20:30.246   05 Jun 2027 07:21:37.636            67.390         33695.000
        89   05 Jun 2027 07:22:15.234   05 Jun 2027 07:22:27.072            11.838          4746.844
        90   05 Jun 2027 07:23:16.935   05 Jun 2027 07:23:16.935             0.000             0.000
        91   05 Jun 2027 07:23:40.347   05 Jun 2027 07:23:45.052             4.705          2134.875
        92   05 Jun 2027 08:44:29.451   05 Jun 2027 08:44:57.031            27.580         13352.281
        93   05 Jun 2027 08:45:07.754   05 Jun 2027 08:45:08.769             1.015           335.094
        94   05 Jun 2027 08:46:47.934   05 Jun 2027 08:46:55.301             7.367          2612.781
        95   05 Jun 2027 10:20:40.214   05 Jun 2027 10:20:40.214             0.000             0.000
        96   05 Jun 2027 10:23:07.534   05 Jun 2027 10:23:41.178            33.644         16822.000
        97   06 Jun 2027 04:16:48.420   06 Jun 2027 04:17:27.532            39.112         19556.000
        98   06 Jun 2027 04:18:26.094   06 Jun 2027 04:19:39.678            73.584         36792.000
        99   06 Jun 2027 05:55:46.862   06 Jun 2027 05:58:13.857           146.995         73497.500
       100   06 Jun 2027 05:58:43.109   06 Jun 2027 05:58:46.265             3.156          1578.000
       101   06 Jun 2027 05:59:26.140   06 Jun 2027 05:59:26.140             0.000             0.000
       102   06 Jun 2027 05:59:34.696   06 Jun 2027 05:59:44.559             9.863          4931.500
       103   06 Jun 2027 06:01:42.013   06 Jun 2027 06:02:02.870            20.857         10428.500
       104   06 Jun 2027 06:02:36.625   06 Jun 2027 06:03:08.888            32.263         16131.500
       105   06 Jun 2027 07:20:59.533   06 Jun 2027 07:22:16.118            76.585         38292.500
       106   06 Jun 2027 07:32:31.125   06 Jun 2027 07:32:44.419            13.294          5812.407
       107   06 Jun 2027 07:32:52.537   06 Jun 2027 07:32:53.034             0.497           239.125
       108   06 Jun 2027 08:55:08.477   06 Jun 2027 08:55:39.608            31.131         14402.688
       109   06 Jun 2027 08:57:10.109   06 Jun 2027 08:57:15.101             4.992          2196.563
       110   06 Jun 2027 08:58:40.168   06 Jun 2027 08:58:48.516             8.348          2369.094
       111   06 Jun 2027 08:59:42.775   06 Jun 2027 08:59:47.221             4.446          1498.312
       112   07 Jun 2027 04:29:04.461   07 Jun 2027 04:29:05.172             0.711           355.500
       113   07 Jun 2027 04:29:49.560   07 Jun 2027 04:30:15.371            25.811         12905.500
       114   07 Jun 2027 04:30:58.983   07 Jun 2027 04:32:33.565            94.582         47291.000
       115   07 Jun 2027 04:32:52.197   07 Jun 2027 04:32:52.876             0.679           339.500
       116   07 Jun 2027 06:08:03.477   07 Jun 2027 06:10:15.996           132.519         66259.500
       117   07 Jun 2027 06:11:01.864   07 Jun 2027 06:11:14.619            12.755          6377.500
       118   07 Jun 2027 06:12:01.995   07 Jun 2027 06:12:02.889             0.894           447.000
       119   07 Jun 2027 06:14:50.814   07 Jun 2027 06:15:04.742            13.928          6964.000
       120   07 Jun 2027 07:32:16.024   07 Jun 2027 07:33:49.063            93.039         46519.500
       121   07 Jun 2027 07:34:12.044   07 Jun 2027 07:34:20.884             8.840          2823.594
       122   07 Jun 2027 07:44:28.673   07 Jun 2027 07:44:41.789            13.116          6558.000
       123   07 Jun 2027 09:06:44.219   07 Jun 2027 09:07:21.938            37.719         18753.094
       124   07 Jun 2027 09:09:23.836   07 Jun 2027 09:09:23.836             0.000             0.000
       125   07 Jun 2027 09:10:29.210   07 Jun 2027 09:10:43.546            14.336          4912.500
       126   07 Jun 2027 09:11:44.189   07 Jun 2027 09:11:44.189             0.000             0.000
       127   07 Jun 2027 10:41:36.618   07 Jun 2027 10:41:56.812            20.194          8507.031
       128   07 Jun 2027 10:42:21.497   07 Jun 2027 10:42:25.423             3.926           553.688
       129   07 Jun 2027 10:43:07.941   07 Jun 2027 10:43:07.941             0.000             0.000
       130   07 Jun 2027 10:43:21.666   07 Jun 2027 10:43:27.874             6.208          1757.594
       131   07 Jun 2027 10:44:28.162   07 Jun 2027 10:44:40.099            11.937          1572.937
       132   07 Jun 2027 10:45:27.040   07 Jun 2027 10:45:27.040             0.000             0.000
       133   07 Jun 2027 10:48:07.852   07 Jun 2027 10:48:20.192            12.340          6035.031
       134   08 Jun 2027 03:04:17.805   08 Jun 2027 03:04:28.272            10.467          5233.500
       135   08 Jun 2027 03:05:52.476   08 Jun 2027 03:06:22.175            29.699         14849.500
       136   08 Jun 2027 03:07:18.098   08 Jun 2027 03:07:26.902             8.804          4402.000
       137   08 Jun 2027 03:08:07.117   08 Jun 2027 03:08:20.415            13.298          6649.000
       138   08 Jun 2027 03:10:08.529   08 Jun 2027 03:10:26.158            17.629          8814.500
       139   08 Jun 2027 04:41:23.801   08 Jun 2027 04:41:36.870            13.069          6534.500
       140   08 Jun 2027 04:41:51.171   08 Jun 2027 04:43:06.095            74.924         37462.000
       141   08 Jun 2027 04:43:28.496   08 Jun 2027 04:43:50.033            21.537         10768.500
       142   08 Jun 2027 04:44:45.201   08 Jun 2027 04:44:54.323             9.122          4561.000
       143   08 Jun 2027 06:20:10.338   08 Jun 2027 06:21:36.768            86.430         43215.000
       144   08 Jun 2027 06:21:47.979   08 Jun 2027 06:22:01.448            13.469          6734.500
       145   08 Jun 2027 06:22:31.890   08 Jun 2027 06:22:42.884            10.994          5497.000
       146   08 Jun 2027 06:22:58.806   08 Jun 2027 06:23:11.656            12.850          6425.000
       147   08 Jun 2027 06:24:52.767   08 Jun 2027 06:24:54.277             1.510           755.000
       148   08 Jun 2027 07:44:22.062   08 Jun 2027 07:45:35.346            73.284         36642.000
       149   08 Jun 2027 07:56:53.796   08 Jun 2027 07:56:55.479             1.683           841.500
       150   08 Jun 2027 09:18:12.675   08 Jun 2027 09:18:58.668            45.993         22380.157
       151   08 Jun 2027 09:21:22.613   08 Jun 2027 09:21:31.485             8.872          4407.500
       152   08 Jun 2027 09:23:27.796   08 Jun 2027 09:23:27.796             0.000             0.000
       153   08 Jun 2027 09:23:35.988   08 Jun 2027 09:23:46.623            10.635          3066.750
       154   08 Jun 2027 10:53:06.594   08 Jun 2027 10:53:07.248             0.654           327.000
       155   08 Jun 2027 10:54:12.276   08 Jun 2027 10:54:34.006            21.730          5951.469
       156   08 Jun 2027 10:56:11.045   08 Jun 2027 10:56:11.045             0.000             0.000
       157   08 Jun 2027 11:00:33.632   08 Jun 2027 11:00:53.202            19.570          9354.156
       158   08 Jun 2027 11:01:47.473   08 Jun 2027 11:01:50.036             2.563           392.063
       159   08 Jun 2027 11:02:05.441   08 Jun 2027 11:02:07.314             1.873           481.406
       160   09 Jun 2027 03:16:16.940   09 Jun 2027 03:16:40.665            23.725         11862.500
       161   09 Jun 2027 03:16:48.775   09 Jun 2027 03:17:33.071            44.296         22148.000
       162   09 Jun 2027 03:18:32.385   09 Jun 2027 03:18:32.385             0.000             0.000
       163   09 Jun 2027 03:18:45.448   09 Jun 2027 03:19:51.134            65.686         32843.000
       164   09 Jun 2027 03:19:55.901   09 Jun 2027 03:19:59.813             3.912          1956.000
       165   09 Jun 2027 04:54:01.683   09 Jun 2027 04:54:08.705             7.022          3511.000
       166   09 Jun 2027 04:54:23.093   09 Jun 2027 04:54:31.733             8.640          4320.000
       167   09 Jun 2027 04:54:33.151   09 Jun 2027 04:55:24.336            51.185         25592.500
       168   09 Jun 2027 04:55:29.188   09 Jun 2027 04:55:51.726            22.538         11269.000
       169   09 Jun 2027 04:57:30.804   09 Jun 2027 04:57:39.757             8.953          4476.500
       170   09 Jun 2027 06:32:47.878   09 Jun 2027 06:34:43.236           115.358         57679.000
       171   09 Jun 2027 06:34:56.320   09 Jun 2027 06:34:56.320             0.000             0.000
       172   09 Jun 2027 06:35:30.873   09 Jun 2027 06:35:46.003            15.130          7565.000
       173   09 Jun 2027 07:56:18.181   09 Jun 2027 07:56:58.983            40.802         20401.000
       174   09 Jun 2027 07:57:14.309   09 Jun 2027 07:57:22.503             8.194          3456.375
       175   09 Jun 2027 07:58:00.479   09 Jun 2027 07:58:00.479             0.000             0.000
       176   09 Jun 2027 09:32:30.741   09 Jun 2027 09:33:15.400            44.659         18371.562
       177   09 Jun 2027 09:33:16.256   09 Jun 2027 09:33:18.981             2.725            26.750
       178   09 Jun 2027 09:34:09.207   09 Jun 2027 09:34:09.207             0.000             0.000
       179   09 Jun 2027 09:35:04.043   09 Jun 2027 09:35:12.929             8.886          3263.406
       180   09 Jun 2027 11:06:02.707   09 Jun 2027 11:06:25.156            22.449          9022.406
       181   09 Jun 2027 11:12:11.275   09 Jun 2027 11:12:11.275             0.000             0.000
       182   09 Jun 2027 11:12:57.036   09 Jun 2027 11:13:17.573            20.537          9982.625
       183   09 Jun 2027 11:13:40.123   09 Jun 2027 11:13:40.586             0.463           231.500
       184   09 Jun 2027 11:14:11.179   09 Jun 2027 11:14:14.966             3.787          1363.594
       185   10 Jun 2027 03:28:21.635   10 Jun 2027 03:29:21.048            59.413         29706.500
       186   10 Jun 2027 03:29:35.895   10 Jun 2027 03:30:47.993            72.098         36049.000
       187   10 Jun 2027 03:31:42.842   10 Jun 2027 03:31:46.067             3.225          1612.500
       188   10 Jun 2027 03:31:59.115   10 Jun 2027 03:32:07.946             8.831          4415.500
       189   10 Jun 2027 03:32:24.876   10 Jun 2027 03:32:30.176             5.300          2650.000
       190   10 Jun 2027 03:32:45.265   10 Jun 2027 03:32:45.940             0.675           337.500
       191   10 Jun 2027 03:35:24.990   10 Jun 2027 03:35:35.183            10.193          5096.500
       192   10 Jun 2027 05:06:28.299   10 Jun 2027 05:06:55.800            27.501         13750.500
       193   10 Jun 2027 05:06:59.607   10 Jun 2027 05:08:09.178            69.571         34785.500
       194   10 Jun 2027 05:09:57.145   10 Jun 2027 05:10:18.352            21.207         10603.500
       195   10 Jun 2027 06:44:29.197   10 Jun 2027 06:46:04.385            95.188         47594.000
       196   10 Jun 2027 06:47:03.772   10 Jun 2027 06:47:26.923            23.151         11575.500
       197   10 Jun 2027 06:47:49.843   10 Jun 2027 06:47:52.019             2.176          1088.000
       198   10 Jun 2027 08:08:10.097   10 Jun 2027 08:08:40.950            30.853         14825.093
       199   10 Jun 2027 08:09:39.602   10 Jun 2027 08:09:39.602             0.000             0.000
       200   10 Jun 2027 08:10:28.220   10 Jun 2027 08:10:36.285             8.065          3257.906
       201   10 Jun 2027 09:44:34.247   10 Jun 2027 09:44:52.765            18.518          9259.000
       202   10 Jun 2027 09:45:21.221   10 Jun 2027 09:45:32.336            11.115          4666.688
       203   10 Jun 2027 09:46:23.538   10 Jun 2027 09:46:25.047             1.509           754.500
       204   10 Jun 2027 09:46:44.109   10 Jun 2027 09:46:44.159             0.050            25.000
       205   10 Jun 2027 11:16:46.666   10 Jun 2027 11:16:54.179             7.513          3756.500
       206   10 Jun 2027 11:18:41.824   10 Jun 2027 11:18:56.452            14.628          7205.000
       207   10 Jun 2027 11:20:34.920   10 Jun 2027 11:20:39.339             4.419          2209.500
       208   10 Jun 2027 11:22:32.957   10 Jun 2027 11:22:36.395             3.438          1719.000
       209   10 Jun 2027 11:25:05.407   10 Jun 2027 11:25:20.886            15.479          7044.812
       210   10 Jun 2027 11:25:44.046   10 Jun 2027 11:25:48.460             4.414           659.313
       211   10 Jun 2027 11:26:04.901   10 Jun 2027 11:26:06.693             1.792           395.781
       212   10 Jun 2027 11:26:31.268   10 Jun 2027 11:26:32.634             1.366           583.906
       213   11 Jun 2027 03:40:24.724   11 Jun 2027 03:41:11.956            47.232         23616.000
       214   11 Jun 2027 03:41:40.745   11 Jun 2027 03:42:44.374            63.629         31814.500
       215   11 Jun 2027 03:43:28.707   11 Jun 2027 03:43:35.122             6.415          3207.500
       216   11 Jun 2027 03:44:09.535   11 Jun 2027 03:44:16.690             7.155          3577.500
       217   11 Jun 2027 03:45:03.259   11 Jun 2027 03:45:08.879             5.620          2810.000
       218   11 Jun 2027 03:45:36.061   11 Jun 2027 03:45:49.310            13.249          6624.500
       219   11 Jun 2027 03:46:06.054   11 Jun 2027 03:46:06.442             0.388           194.000
       220   11 Jun 2027 03:46:07.514   11 Jun 2027 03:46:22.769            15.255          7627.500
       221   11 Jun 2027 05:18:34.499   11 Jun 2027 05:19:37.537            63.038         31519.000
       222   11 Jun 2027 05:19:44.434   11 Jun 2027 05:20:08.886            24.452         12226.000
       223   11 Jun 2027 05:21:02.615   11 Jun 2027 05:21:06.780             4.165          2082.500
       224   11 Jun 2027 05:21:30.450   11 Jun 2027 05:21:38.616             8.166          4083.000
       225   11 Jun 2027 05:22:12.016   11 Jun 2027 05:22:20.280             8.264          4132.000
       226   11 Jun 2027 06:57:42.878   11 Jun 2027 06:59:44.691           121.813         60906.500
       227   11 Jun 2027 07:00:11.899   11 Jun 2027 07:00:19.783             7.884          2572.937
       228   11 Jun 2027 08:20:15.661   11 Jun 2027 08:20:50.260            34.599         16788.781
       229   11 Jun 2027 08:21:53.702   11 Jun 2027 08:21:58.416             4.714          1765.187
       230   11 Jun 2027 08:23:07.954   11 Jun 2027 08:23:13.617             5.663          2173.062
       231   11 Jun 2027 09:56:44.757   11 Jun 2027 09:56:50.189             5.432          2716.000
       232   11 Jun 2027 09:58:33.851   11 Jun 2027 09:58:33.851             0.000             0.000
       233   11 Jun 2027 09:58:44.808   11 Jun 2027 09:59:06.293            21.485          9242.031
       234   11 Jun 2027 09:59:38.623   11 Jun 2027 09:59:42.703             4.080           817.812
       235   11 Jun 2027 11:32:09.611   11 Jun 2027 11:32:30.033            20.422         10211.000
       236   11 Jun 2027 11:37:56.124   11 Jun 2027 11:38:19.086            22.962         11242.656
       237   11 Jun 2027 11:38:34.729   11 Jun 2027 11:38:36.920             2.191           488.844
       238   12 Jun 2027 03:52:22.687   12 Jun 2027 03:54:32.889           130.202         65101.000
       239   12 Jun 2027 03:56:17.741   12 Jun 2027 03:56:18.905             1.164           582.000
       240   12 Jun 2027 03:56:47.032   12 Jun 2027 03:56:56.164             9.132          4566.000
       241   12 Jun 2027 03:57:08.487   12 Jun 2027 03:57:20.648            12.161          6080.500
       242   12 Jun 2027 03:57:31.011   12 Jun 2027 03:57:35.954             4.943          2471.500
       243   12 Jun 2027 03:58:40.193   12 Jun 2027 03:58:43.748             3.555          1777.500
       244   12 Jun 2027 05:30:39.316   12 Jun 2027 05:31:20.649            41.333         20666.500
       245   12 Jun 2027 05:31:42.716   12 Jun 2027 05:33:00.721            78.005         39002.500
       246   12 Jun 2027 05:33:30.745   12 Jun 2027 05:33:37.405             6.660          3330.000
       247   12 Jun 2027 05:34:37.706   12 Jun 2027 05:34:39.636             1.930           965.000
       248   12 Jun 2027 05:36:14.734   12 Jun 2027 05:36:27.531            12.797          6398.500
       249   12 Jun 2027 07:08:51.950   12 Jun 2027 07:09:28.417            36.467         18233.500
       250   12 Jun 2027 07:09:57.061   12 Jun 2027 07:10:45.795            48.734         24367.000
       251   12 Jun 2027 07:11:15.410   12 Jun 2027 07:11:26.192            10.782          4559.188
       252   12 Jun 2027 08:32:19.280   12 Jun 2027 08:32:50.617            31.337         14430.344
       253   12 Jun 2027 08:33:36.510   12 Jun 2027 08:33:39.285             2.775          1293.000
       254   12 Jun 2027 10:09:06.147   12 Jun 2027 10:09:06.147             0.000             0.000
       255   12 Jun 2027 10:09:32.705   12 Jun 2027 10:09:32.705             0.000             0.000
       256   12 Jun 2027 10:10:26.390   12 Jun 2027 10:10:55.384            28.994         14099.813
       257   12 Jun 2027 10:11:01.878   12 Jun 2027 10:11:01.878             0.000             0.000
       258   12 Jun 2027 10:11:52.139   12 Jun 2027 10:11:56.769             4.630          1773.594
       259   12 Jun 2027 11:50:21.067   12 Jun 2027 11:50:35.891            14.824          7412.000
       260   13 Jun 2027 04:04:26.663   13 Jun 2027 04:05:17.562            50.899         25449.500
       261   13 Jun 2027 04:05:39.473   13 Jun 2027 04:06:57.909            78.436         39218.000
       262   13 Jun 2027 04:10:56.897   13 Jun 2027 04:11:02.966             6.069          3034.500
       263   13 Jun 2027 05:43:43.918   13 Jun 2027 05:45:46.209           122.291         61145.500
       264   13 Jun 2027 05:46:28.073   13 Jun 2027 05:46:28.073             0.000             0.000
       265   13 Jun 2027 05:49:05.439   13 Jun 2027 05:49:06.217             0.778           389.000
       266   13 Jun 2027 05:50:24.269   13 Jun 2027 05:51:28.280            64.011         32005.500
       267   13 Jun 2027 07:09:57.780   13 Jun 2027 07:10:17.680            19.900          9950.000
       268   13 Jun 2027 07:20:47.779   13 Jun 2027 07:21:56.513            68.734         34367.000
       269   13 Jun 2027 07:22:47.042   13 Jun 2027 07:22:51.174             4.132          2066.000
       270   13 Jun 2027 07:23:07.996   13 Jun 2027 07:23:15.850             7.854          3229.500
       271   13 Jun 2027 08:44:46.279   13 Jun 2027 08:45:17.498            31.219         15319.719
       272   13 Jun 2027 08:47:12.152   13 Jun 2027 08:47:19.417             7.265          3327.812
       273   13 Jun 2027 10:22:10.174   13 Jun 2027 10:22:10.174             0.000             0.000
       274   13 Jun 2027 11:59:10.291   13 Jun 2027 11:59:20.303            10.012          5006.000
