uniorb/output/strategy_1/Camera/Camera_KinoSat_110510.txt

KinoSat_110510
-------------------------
    Access    *     Start Time (UTCG)     *     Stop Time (UTCG)  *   Duration (s) *   Data (Mbytes)
         1   01 Jun 2027 03:00:31.132   01 Jun 2027 03:00:38.155             7.023          3511.500
         2   01 Jun 2027 03:01:13.369   01 Jun 2027 03:01:28.763            15.394          7697.000
         3   01 Jun 2027 03:02:01.530   01 Jun 2027 03:02:26.641            25.111         12555.500
         4   01 Jun 2027 03:03:11.353   01 Jun 2027 03:03:27.938            16.585          8292.500
         5   01 Jun 2027 03:03:51.803   01 Jun 2027 03:04:04.049            12.246          6123.000
         6   01 Jun 2027 04:35:39.972   01 Jun 2027 04:37:36.696           116.724         58362.000
         7   01 Jun 2027 04:38:10.155   01 Jun 2027 04:38:18.880             8.725          4362.500
         8   01 Jun 2027 04:38:38.851   01 Jun 2027 04:38:50.897            12.046          6023.000
         9   01 Jun 2027 04:39:15.880   01 Jun 2027 04:39:23.027             7.147          3573.500
        10   01 Jun 2027 04:40:00.016   01 Jun 2027 04:40:21.701            21.685         10842.500
        11   01 Jun 2027 04:41:43.666   01 Jun 2027 04:41:51.288             7.622          3811.000
        12   01 Jun 2027 04:42:21.221   01 Jun 2027 04:42:23.149             1.928           964.000
        13   01 Jun 2027 06:11:59.893   01 Jun 2027 06:14:10.815           130.922         65461.000
        14   01 Jun 2027 06:14:52.758   01 Jun 2027 06:15:09.599            16.841          8420.500
        15   01 Jun 2027 06:15:52.386   01 Jun 2027 06:16:09.030            16.644          8322.000
        16   01 Jun 2027 06:16:33.877   01 Jun 2027 06:16:39.829             5.952          2976.000
        17   01 Jun 2027 07:49:34.576   01 Jun 2027 07:52:35.665           181.089         90544.500
        18   01 Jun 2027 07:53:13.320   01 Jun 2027 07:53:25.535            12.215          6107.500
        19   01 Jun 2027 09:25:37.258   01 Jun 2027 09:27:48.756           131.498         65749.000
        20   01 Jun 2027 09:28:11.046   01 Jun 2027 09:28:14.126             3.080          1540.000
        21   01 Jun 2027 09:28:33.839   01 Jun 2027 09:28:38.941             5.102          2551.000
        22   02 Jun 2027 03:12:41.557   02 Jun 2027 03:16:09.203           207.646        103823.000
        23   02 Jun 2027 04:47:51.565   02 Jun 2027 04:51:30.151           218.586        109293.000
        24   02 Jun 2027 04:52:13.729   02 Jun 2027 04:52:53.785            40.056         20028.000
        25   02 Jun 2027 04:53:41.781   02 Jun 2027 04:53:41.781             0.000             0.000
        26   02 Jun 2027 04:54:11.401   02 Jun 2027 04:54:13.839             2.438          1219.000
        27   02 Jun 2027 06:24:12.536   02 Jun 2027 06:26:10.411           117.875         58937.500
        28   02 Jun 2027 06:26:39.133   02 Jun 2027 06:27:02.578            23.445         11722.500
        29   02 Jun 2027 06:29:24.775   02 Jun 2027 06:30:13.719            48.944         24472.000
        30   02 Jun 2027 08:01:29.406   02 Jun 2027 08:03:39.211           129.805         64902.500
        31   02 Jun 2027 08:04:40.267   02 Jun 2027 08:05:20.892            40.625         20312.500
        32   02 Jun 2027 08:06:09.477   02 Jun 2027 08:06:10.293             0.816           408.000
        33   02 Jun 2027 09:37:41.730   02 Jun 2027 09:38:59.998            78.268         39134.000
        34   02 Jun 2027 09:39:45.069   02 Jun 2027 09:40:32.664            47.595         23797.500
        35   02 Jun 2027 09:40:43.774   02 Jun 2027 09:40:47.607             3.833          1916.500
        36   02 Jun 2027 09:41:36.729   02 Jun 2027 09:41:58.785            22.056         11028.000
        37   03 Jun 2027 03:24:29.421   03 Jun 2027 03:28:37.983           248.562        124281.000
        38   03 Jun 2027 04:59:22.994   03 Jun 2027 05:01:58.212           155.218         77609.000
        39   03 Jun 2027 05:03:00.313   03 Jun 2027 05:03:24.909            24.596         12298.000
        40   03 Jun 2027 05:04:00.590   03 Jun 2027 05:04:13.552            12.962          6481.000
        41   03 Jun 2027 05:05:44.210   03 Jun 2027 05:06:14.158            29.948         14974.000
        42   03 Jun 2027 05:06:32.583   03 Jun 2027 05:06:33.268             0.685           342.500
        43   03 Jun 2027 06:35:50.445   03 Jun 2027 06:37:54.019           123.574         61787.000
        44   03 Jun 2027 06:38:12.040   03 Jun 2027 06:38:39.412            27.372         13686.000
        45   03 Jun 2027 06:39:34.257   03 Jun 2027 06:40:04.142            29.885         14942.500
        46   03 Jun 2027 08:14:08.729   03 Jun 2027 08:16:26.379           137.650         68825.000
        47   03 Jun 2027 08:17:27.229   03 Jun 2027 08:17:54.332            27.103         13551.500
        48   03 Jun 2027 09:49:35.384   03 Jun 2027 09:51:22.891           107.507         53753.500
        49   03 Jun 2027 09:52:06.519   03 Jun 2027 09:52:32.214            25.695         12847.500
        50   03 Jun 2027 09:52:47.271   03 Jun 2027 09:52:47.271             0.000             0.000
        51   03 Jun 2027 09:53:32.258   03 Jun 2027 09:53:36.675             4.417          2208.500
        52   03 Jun 2027 09:53:57.822   03 Jun 2027 09:54:04.760             6.938          3469.000
        53   03 Jun 2027 09:54:33.132   03 Jun 2027 09:54:49.346            16.214          8107.000
        54   04 Jun 2027 03:34:45.665   04 Jun 2027 03:35:36.178            50.513         25256.500
        55   04 Jun 2027 03:36:14.237   04 Jun 2027 03:39:22.314           188.077         94038.500
        56   04 Jun 2027 03:39:35.826   04 Jun 2027 03:39:54.089            18.263          9131.500
        57   04 Jun 2027 05:11:04.084   04 Jun 2027 05:13:32.756           148.672         74336.000
        58   04 Jun 2027 05:15:02.032   04 Jun 2027 05:15:30.323            28.291         14145.500
        59   04 Jun 2027 05:17:01.537   04 Jun 2027 05:17:19.152            17.615          8807.500
        60   04 Jun 2027 05:18:35.241   04 Jun 2027 05:18:37.167             1.926           963.000
        61   04 Jun 2027 06:48:10.006   04 Jun 2027 06:50:38.745           148.739         74369.500
        62   04 Jun 2027 06:51:31.531   04 Jun 2027 06:51:49.000            17.469          8734.500
        63   04 Jun 2027 06:52:16.311   04 Jun 2027 06:52:19.513             3.202          1601.000
        64   04 Jun 2027 06:54:28.753   04 Jun 2027 06:54:30.402             1.649           824.500
        65   04 Jun 2027 08:26:06.890   04 Jun 2027 08:27:26.295            79.405         39702.500
        66   04 Jun 2027 08:27:39.741   04 Jun 2027 08:27:46.990             7.249          3624.500
        67   04 Jun 2027 08:28:39.724   04 Jun 2027 08:28:51.166            11.442          5721.000
        68   04 Jun 2027 08:29:16.234   04 Jun 2027 08:29:20.478             4.244          2122.000
        69   04 Jun 2027 08:29:53.401   04 Jun 2027 08:29:58.906             5.505          2752.500
        70   04 Jun 2027 09:59:11.709   04 Jun 2027 09:59:41.275            29.566         14783.000
        71   04 Jun 2027 09:59:56.472   04 Jun 2027 10:00:14.353            17.881          8940.500
        72   04 Jun 2027 10:02:08.331   04 Jun 2027 10:02:20.487            12.156          6078.000
        73   04 Jun 2027 10:02:39.510   04 Jun 2027 10:02:44.520             5.010          2505.000
        74   04 Jun 2027 10:04:00.443   04 Jun 2027 10:04:19.408            18.965          9482.500
        75   04 Jun 2027 10:04:52.369   04 Jun 2027 10:05:08.999            16.630          8315.000
        76   04 Jun 2027 10:05:22.053   04 Jun 2027 10:05:24.376             2.323          1161.500
        77   04 Jun 2027 10:06:26.877   04 Jun 2027 10:06:32.424             5.547          2773.500
        78   05 Jun 2027 03:45:54.567   05 Jun 2027 03:47:49.203           114.636         57318.000
        79   05 Jun 2027 03:47:58.157   05 Jun 2027 03:50:31.178           153.021         76510.500
        80   05 Jun 2027 03:51:37.895   05 Jun 2027 03:51:47.475             9.580          4790.000
        81   05 Jun 2027 03:52:17.393   05 Jun 2027 03:52:30.312            12.919          6459.500
        82   05 Jun 2027 03:52:58.523   05 Jun 2027 03:53:04.210             5.687          2843.500
        83   05 Jun 2027 05:23:22.966   05 Jun 2027 05:25:46.679           143.713         71856.500
        84   05 Jun 2027 05:25:55.750   05 Jun 2027 05:26:05.394             9.644          4822.000
        85   05 Jun 2027 05:29:00.432   05 Jun 2027 05:29:49.058            48.626         24313.000
        86   05 Jun 2027 05:30:23.429   05 Jun 2027 05:30:35.663            12.234          6117.000
        87   05 Jun 2027 07:00:07.781   05 Jun 2027 07:02:28.184           140.403         70201.500
        88   05 Jun 2027 07:03:07.292   05 Jun 2027 07:03:28.642            21.350         10675.000
        89   05 Jun 2027 07:03:54.173   05 Jun 2027 07:03:54.455             0.282           141.000
        90   05 Jun 2027 07:04:23.330   05 Jun 2027 07:04:46.284            22.954         11477.000
        91   05 Jun 2027 07:04:51.417   05 Jun 2027 07:04:55.535             4.118          2059.000
        92   05 Jun 2027 07:05:26.323   05 Jun 2027 07:05:35.583             9.260          4630.000
        93   05 Jun 2027 07:06:19.878   05 Jun 2027 07:06:20.687             0.809           404.500
        94   05 Jun 2027 08:38:06.102   05 Jun 2027 08:38:52.411            46.309         23154.500
        95   05 Jun 2027 08:40:31.901   05 Jun 2027 08:40:56.129            24.228         12114.000
        96   05 Jun 2027 08:41:12.523   05 Jun 2027 08:41:32.010            19.487          9743.500
        97   05 Jun 2027 10:11:43.976   05 Jun 2027 10:11:53.788             9.812          4906.000
        98   05 Jun 2027 10:12:49.923   05 Jun 2027 10:13:26.997            37.074         18537.000
        99   05 Jun 2027 10:15:33.725   05 Jun 2027 10:15:37.052             3.327          1663.500
       100   05 Jun 2027 10:16:24.698   05 Jun 2027 10:16:37.212            12.514          6257.000
       101   05 Jun 2027 10:17:48.582   05 Jun 2027 10:18:05.850            17.268          8634.000
       102   05 Jun 2027 10:18:50.786   05 Jun 2027 10:19:00.360             9.574          4787.000
       103   06 Jun 2027 03:57:22.519   06 Jun 2027 04:02:27.183           304.664        152332.000
       104   06 Jun 2027 04:03:33.561   06 Jun 2027 04:03:54.076            20.515         10257.500
       105   06 Jun 2027 04:04:01.155   06 Jun 2027 04:04:01.155             0.000             0.000
       106   06 Jun 2027 04:04:07.268   06 Jun 2027 04:04:32.714            25.446         12723.000
       107   06 Jun 2027 04:05:57.451   06 Jun 2027 04:06:07.435             9.984          4992.000
       108   06 Jun 2027 04:06:15.732   06 Jun 2027 04:06:44.013            28.281         14140.500
       109   06 Jun 2027 05:35:16.015   06 Jun 2027 05:38:10.885           174.870         87435.000
       110   06 Jun 2027 05:38:41.778   06 Jun 2027 05:39:07.621            25.843         12921.500
       111   06 Jun 2027 05:39:15.295   06 Jun 2027 05:39:15.295             0.000             0.000
       112   06 Jun 2027 05:40:35.565   06 Jun 2027 05:41:00.207            24.642         12321.000
       113   06 Jun 2027 05:42:32.788   06 Jun 2027 05:42:41.047             8.259          4129.500
       114   06 Jun 2027 07:11:59.924   06 Jun 2027 07:14:11.586           131.662         65831.000
       115   06 Jun 2027 07:14:54.741   06 Jun 2027 07:15:04.209             9.468          4734.000
       116   06 Jun 2027 07:16:06.874   06 Jun 2027 07:16:27.985            21.111         10555.500
       117   06 Jun 2027 07:16:43.308   06 Jun 2027 07:16:47.181             3.873          1936.500
       118   06 Jun 2027 07:17:50.684   06 Jun 2027 07:17:50.968             0.284           142.000
       119   06 Jun 2027 07:17:56.762   06 Jun 2027 07:18:13.156            16.394          8197.000
       120   06 Jun 2027 08:50:06.325   06 Jun 2027 08:50:43.650            37.325         18662.500
       121   06 Jun 2027 08:51:01.407   06 Jun 2027 08:51:01.892             0.485           242.500
       122   06 Jun 2027 08:52:02.319   06 Jun 2027 08:52:32.340            30.021         15010.500
       123   06 Jun 2027 08:53:45.887   06 Jun 2027 08:53:49.843             3.956          1978.000
       124   06 Jun 2027 08:54:15.224   06 Jun 2027 08:54:15.889             0.665           332.500
       125   06 Jun 2027 10:25:50.405   06 Jun 2027 10:26:08.370            17.965          8982.500
       126   06 Jun 2027 10:27:04.057   06 Jun 2027 10:27:04.057             0.000             0.000
       127   06 Jun 2027 10:27:07.908   06 Jun 2027 10:27:12.411             4.503          2251.500
       128   06 Jun 2027 10:27:23.802   06 Jun 2027 10:27:31.019             7.217          3608.500
       129   06 Jun 2027 10:28:19.579   06 Jun 2027 10:28:32.806            13.227          6613.500
       130   06 Jun 2027 10:29:57.540   06 Jun 2027 10:30:11.466            13.926          6963.000
       131   07 Jun 2027 04:10:14.718   07 Jun 2027 04:15:31.085           316.367        158183.500
       132   07 Jun 2027 04:16:15.411   07 Jun 2027 04:16:15.411             0.000             0.000
       133   07 Jun 2027 04:16:37.640   07 Jun 2027 04:17:04.395            26.755         13377.500
       134   07 Jun 2027 04:17:55.159   07 Jun 2027 04:18:03.804             8.645          4322.500
       135   07 Jun 2027 04:18:21.118   07 Jun 2027 04:18:38.708            17.590          8795.000
       136   07 Jun 2027 05:47:23.509   07 Jun 2027 05:49:35.092           131.583         65791.500
       137   07 Jun 2027 05:49:55.718   07 Jun 2027 05:50:15.581            19.863          9931.500
       138   07 Jun 2027 05:50:54.319   07 Jun 2027 05:51:04.109             9.790          4895.000
       139   07 Jun 2027 05:51:17.622   07 Jun 2027 05:51:45.163            27.541         13770.500
       140   07 Jun 2027 05:52:23.236   07 Jun 2027 05:52:36.005            12.769          6384.500
       141   07 Jun 2027 05:53:28.467   07 Jun 2027 05:53:46.970            18.503          9251.500
       142   07 Jun 2027 05:54:30.154   07 Jun 2027 05:54:38.966             8.812          4406.000
       143   07 Jun 2027 07:24:37.965   07 Jun 2027 07:26:09.327            91.362         45681.000
       144   07 Jun 2027 07:26:20.842   07 Jun 2027 07:26:35.650            14.808          7404.000
       145   07 Jun 2027 07:27:23.648   07 Jun 2027 07:28:11.371            47.723         23861.500
       146   07 Jun 2027 07:28:26.469   07 Jun 2027 07:28:41.797            15.328          7664.000
       147   07 Jun 2027 09:01:20.191   07 Jun 2027 09:01:55.046            34.855         17427.500
       148   07 Jun 2027 09:02:32.744   07 Jun 2027 09:02:41.993             9.249          4624.500
       149   07 Jun 2027 09:02:54.212   07 Jun 2027 09:02:55.549             1.337           668.500
       150   07 Jun 2027 09:02:57.580   07 Jun 2027 09:03:12.851            15.271          7635.500
       151   07 Jun 2027 09:03:16.686   07 Jun 2027 09:03:18.444             1.758           879.000
       152   07 Jun 2027 09:04:26.760   07 Jun 2027 09:04:28.697             1.937           968.500
       153   07 Jun 2027 09:04:32.059   07 Jun 2027 09:04:42.139            10.080          5040.000
       154   07 Jun 2027 09:05:26.363   07 Jun 2027 09:05:26.363             0.000             0.000
       155   07 Jun 2027 10:36:31.786   07 Jun 2027 10:36:45.799            14.013          7006.500
       156   07 Jun 2027 10:38:06.444   07 Jun 2027 10:38:55.516            49.072         24536.000
       157   08 Jun 2027 04:22:38.268   08 Jun 2027 04:27:43.116           304.848        152424.000
       158   08 Jun 2027 04:28:39.813   08 Jun 2027 04:29:06.779            26.966         13483.000
       159   08 Jun 2027 04:29:59.140   08 Jun 2027 04:30:00.650             1.510           755.000
       160   08 Jun 2027 04:30:14.615   08 Jun 2027 04:30:19.852             5.237          2618.500
       161   08 Jun 2027 04:30:28.888   08 Jun 2027 04:30:43.829            14.941          7470.500
       162   08 Jun 2027 05:59:48.872   08 Jun 2027 06:02:25.197           156.325         78162.500
       163   08 Jun 2027 06:03:03.183   08 Jun 2027 06:03:29.124            25.941         12970.500
       164   08 Jun 2027 06:04:50.226   08 Jun 2027 06:05:08.255            18.029          9014.500
       165   08 Jun 2027 06:06:17.248   08 Jun 2027 06:06:31.042            13.794          6897.000
       166   08 Jun 2027 07:36:48.612   08 Jun 2027 07:38:19.678            91.066         45533.000
       167   08 Jun 2027 07:38:31.475   08 Jun 2027 07:39:19.446            47.971         23985.500
       168   08 Jun 2027 07:39:50.828   08 Jun 2027 07:39:51.879             1.051           525.500
       169   08 Jun 2027 07:40:00.056   08 Jun 2027 07:40:08.381             8.325          4162.500
       170   08 Jun 2027 07:40:32.225   08 Jun 2027 07:40:35.839             3.614          1807.000
       171   08 Jun 2027 07:41:38.777   08 Jun 2027 07:41:55.766            16.989          8494.500
       172   08 Jun 2027 09:13:34.995   08 Jun 2027 09:14:24.377            49.382         24691.000
       173   08 Jun 2027 09:15:25.921   08 Jun 2027 09:15:42.687            16.766          8383.000
       174   08 Jun 2027 09:16:15.632   08 Jun 2027 09:16:30.958            15.326          7663.000
       175   08 Jun 2027 09:17:40.783   08 Jun 2027 09:17:55.576            14.793          7396.500
       176   08 Jun 2027 10:51:45.106   08 Jun 2027 10:52:02.330            17.224          8612.000
       177   08 Jun 2027 10:52:33.404   08 Jun 2027 10:52:34.491             1.087           543.500
       178   09 Jun 2027 03:00:45.815   09 Jun 2027 03:04:18.663           212.848        106424.000
       179   09 Jun 2027 04:35:54.650   09 Jun 2027 04:37:42.788           108.138         54069.000
       180   09 Jun 2027 04:37:48.213   09 Jun 2027 04:38:12.818            24.605         12302.500
       181   09 Jun 2027 04:39:44.244   09 Jun 2027 04:39:58.719            14.475          7237.500
       182   09 Jun 2027 04:40:42.385   09 Jun 2027 04:41:14.391            32.006         16003.000
       183   09 Jun 2027 04:41:56.784   09 Jun 2027 04:42:01.323             4.539          2269.500
       184   09 Jun 2027 04:42:40.225   09 Jun 2027 04:42:43.331             3.106          1553.000
       185   09 Jun 2027 06:12:14.723   09 Jun 2027 06:13:36.991            82.268         41134.000
       186   09 Jun 2027 06:13:59.522   09 Jun 2027 06:14:59.852            60.330         30165.000
       187   09 Jun 2027 06:16:38.343   09 Jun 2027 06:16:46.063             7.720          3860.000
       188   09 Jun 2027 06:16:54.365   09 Jun 2027 06:16:57.539             3.174          1587.000
       189   09 Jun 2027 06:17:23.252   09 Jun 2027 06:17:24.069             0.817           408.500
       190   09 Jun 2027 06:17:49.445   09 Jun 2027 06:18:12.860            23.415         11707.500
       191   09 Jun 2027 07:49:49.124   09 Jun 2027 07:51:46.615           117.491         58745.500
       192   09 Jun 2027 07:52:51.721   09 Jun 2027 07:53:08.863            17.142          8571.000
       193   09 Jun 2027 07:54:07.769   09 Jun 2027 07:54:10.387             2.618          1309.000
       194   09 Jun 2027 09:25:52.018   09 Jun 2027 09:26:12.123            20.105         10052.500
       195   09 Jun 2027 09:26:42.051   09 Jun 2027 09:26:51.286             9.235          4617.500
       196   09 Jun 2027 09:26:59.227   09 Jun 2027 09:27:09.225             9.998          4999.000
       197   09 Jun 2027 09:28:09.190   09 Jun 2027 09:28:16.396             7.206          3603.000
       198   09 Jun 2027 09:28:44.512   09 Jun 2027 09:28:48.510             3.998          1999.000
       199   09 Jun 2027 09:28:58.591   09 Jun 2027 09:29:07.985             9.394          4697.000
       200   09 Jun 2027 09:30:00.436   09 Jun 2027 09:30:02.577             2.141          1070.500
       201   10 Jun 2027 03:12:56.143   10 Jun 2027 03:16:23.619           207.476        103738.000
       202   10 Jun 2027 04:48:06.307   10 Jun 2027 04:50:25.643           139.336         69668.000
       203   10 Jun 2027 04:51:21.801   10 Jun 2027 04:51:44.997            23.196         11598.000
       204   10 Jun 2027 04:52:44.932   10 Jun 2027 04:52:55.200            10.268          5134.000
       205   10 Jun 2027 04:53:15.969   10 Jun 2027 04:53:16.560             0.591           295.500
       206   10 Jun 2027 04:53:20.119   10 Jun 2027 04:53:32.016            11.897          5948.500
       207   10 Jun 2027 04:53:32.921   10 Jun 2027 04:53:34.234             1.313           656.500
       208   10 Jun 2027 04:53:56.809   10 Jun 2027 04:53:56.809             0.000             0.000
       209   10 Jun 2027 04:54:28.320   10 Jun 2027 04:54:41.851            13.531          6765.500
       210   10 Jun 2027 06:24:27.132   10 Jun 2027 06:26:26.489           119.357         59678.500
       211   10 Jun 2027 06:27:04.447   10 Jun 2027 06:27:17.535            13.088          6544.000
       212   10 Jun 2027 06:28:13.316   10 Jun 2027 06:28:37.801            24.485         12242.500
       213   10 Jun 2027 06:29:12.791   10 Jun 2027 06:29:21.006             8.215          4107.500
       214   10 Jun 2027 06:29:39.314   10 Jun 2027 06:29:44.701             5.387          2693.500
       215   10 Jun 2027 06:30:19.093   10 Jun 2027 06:30:30.402            11.309          5654.500
       216   10 Jun 2027 08:01:43.864   10 Jun 2027 08:03:11.610            87.746         43873.000
       217   10 Jun 2027 08:03:41.169   10 Jun 2027 08:03:52.557            11.388          5694.000
       218   10 Jun 2027 08:04:27.737   10 Jun 2027 08:04:33.471             5.734          2867.000
       219   10 Jun 2027 08:04:41.771   10 Jun 2027 08:04:50.369             8.598          4299.000
       220   10 Jun 2027 08:05:55.314   10 Jun 2027 08:06:07.319            12.005          6002.500
       221   10 Jun 2027 09:37:56.347   10 Jun 2027 09:38:28.614            32.267         16133.500
       222   10 Jun 2027 09:39:13.259   10 Jun 2027 09:39:14.423             1.164           582.000
       223   10 Jun 2027 09:40:05.047   10 Jun 2027 09:40:22.289            17.242          8621.000
       224   10 Jun 2027 09:40:47.381   10 Jun 2027 09:40:50.459             3.078          1539.000
       225   10 Jun 2027 09:41:18.799   10 Jun 2027 09:41:32.154            13.355          6677.500
       226   10 Jun 2027 09:41:54.495   10 Jun 2027 09:41:54.495             0.000             0.000
       227   10 Jun 2027 09:42:22.418   10 Jun 2027 09:42:35.807            13.389          6694.500
       228   11 Jun 2027 03:24:43.613   11 Jun 2027 03:27:48.381           184.768         92384.000
       229   11 Jun 2027 03:28:03.846   11 Jun 2027 03:28:08.416             4.570          2285.000
       230   11 Jun 2027 03:28:40.374   11 Jun 2027 03:28:52.648            12.274          6137.000
       231   11 Jun 2027 04:59:36.918   11 Jun 2027 05:01:49.980           133.062         66531.000
       232   11 Jun 2027 05:02:06.446   11 Jun 2027 05:02:14.835             8.389          4194.500
       233   11 Jun 2027 05:03:15.244   11 Jun 2027 05:03:39.648            24.404         12202.000
       234   11 Jun 2027 05:04:15.924   11 Jun 2027 05:04:29.166            13.242          6621.000
       235   11 Jun 2027 05:05:18.525   11 Jun 2027 05:05:18.525             0.000             0.000
       236   11 Jun 2027 05:05:24.983   11 Jun 2027 05:05:27.306             2.323          1161.500
       237   11 Jun 2027 05:05:59.291   11 Jun 2027 05:06:28.866            29.575         14787.500
       238   11 Jun 2027 05:06:47.260   11 Jun 2027 05:06:51.034             3.774          1887.000
       239   11 Jun 2027 06:36:05.652   11 Jun 2027 06:38:26.699           141.047         70523.500
       240   11 Jun 2027 06:39:23.310   11 Jun 2027 06:39:34.454            11.144          5572.000
       241   11 Jun 2027 06:40:20.767   11 Jun 2027 06:40:48.335            27.568         13784.000
       242   11 Jun 2027 06:41:32.865   11 Jun 2027 06:41:37.166             4.301          2150.500
       243   11 Jun 2027 06:42:05.100   11 Jun 2027 06:42:16.824            11.724          5862.000
       244   11 Jun 2027 08:14:23.474   11 Jun 2027 08:15:28.441            64.967         32483.500
       245   11 Jun 2027 08:15:29.913   11 Jun 2027 08:15:29.913             0.000             0.000
       246   11 Jun 2027 08:15:42.454   11 Jun 2027 08:15:54.470            12.016          6008.000
       247   11 Jun 2027 08:16:55.921   11 Jun 2027 08:17:18.075            22.154         11077.000
       248   11 Jun 2027 09:49:50.494   11 Jun 2027 09:50:27.371            36.877         18438.500
       249   11 Jun 2027 09:50:59.021   11 Jun 2027 09:51:02.505             3.484          1742.000
       250   11 Jun 2027 09:51:40.798   11 Jun 2027 09:51:49.102             8.304          4152.000
       251   11 Jun 2027 09:52:02.452   11 Jun 2027 09:52:14.309            11.857          5928.500
       252   11 Jun 2027 09:53:00.905   11 Jun 2027 09:53:23.164            22.259         11129.500
       253   11 Jun 2027 09:54:45.802   11 Jun 2027 09:54:47.604             1.802           901.000
       254   11 Jun 2027 09:55:05.565   11 Jun 2027 09:55:11.806             6.241          3120.500
       255   12 Jun 2027 03:34:59.950   12 Jun 2027 03:35:50.677            50.727         25363.500
       256   12 Jun 2027 03:36:28.813   12 Jun 2027 03:38:45.223           136.410         68205.000
       257   12 Jun 2027 03:39:11.585   12 Jun 2027 03:39:29.779            18.194          9097.000
       258   12 Jun 2027 03:39:50.708   12 Jun 2027 03:40:08.924            18.216          9108.000
       259   12 Jun 2027 05:11:19.061   12 Jun 2027 05:13:52.670           153.609         76804.500
       260   12 Jun 2027 05:13:57.078   12 Jun 2027 05:13:57.258             0.180            90.000
       261   12 Jun 2027 05:15:11.357   12 Jun 2027 05:15:18.161             6.804          3402.000
       262   12 Jun 2027 05:15:28.288   12 Jun 2027 05:15:45.145            16.857          8428.500
       263   12 Jun 2027 05:17:18.330   12 Jun 2027 05:17:33.820            15.490          7745.000
       264   12 Jun 2027 05:18:04.885   12 Jun 2027 05:18:28.217            23.332         11666.000
       265   12 Jun 2027 05:18:51.719   12 Jun 2027 05:18:51.855             0.136            68.000
       266   12 Jun 2027 06:48:25.880   12 Jun 2027 06:50:49.383           143.503         71751.500
       267   12 Jun 2027 06:51:53.228   12 Jun 2027 06:52:16.302            23.074         11537.000
       268   12 Jun 2027 06:52:53.802   12 Jun 2027 06:53:02.183             8.381          4190.500
       269   12 Jun 2027 06:54:20.028   12 Jun 2027 06:54:34.860            14.832          7416.000
       270   12 Jun 2027 08:26:21.314   12 Jun 2027 08:26:59.483            38.169         19084.500
       271   12 Jun 2027 08:27:29.362   12 Jun 2027 08:27:54.376            25.014         12507.000
       272   12 Jun 2027 08:29:52.783   12 Jun 2027 08:29:59.345             6.562          3281.000
       273   12 Jun 2027 08:30:12.472   12 Jun 2027 08:30:19.283             6.811          3405.500
       274   12 Jun 2027 09:59:26.343   12 Jun 2027 09:59:50.261            23.918         11959.000
       275   12 Jun 2027 10:00:01.122   12 Jun 2027 10:00:12.510            11.388          5694.000
       276   12 Jun 2027 10:01:36.111   12 Jun 2027 10:01:47.694            11.583          5791.500
       277   12 Jun 2027 10:02:23.833   12 Jun 2027 10:02:29.073             5.240          2620.000
       278   12 Jun 2027 10:03:26.573   12 Jun 2027 10:03:47.477            20.904         10452.000
       279   12 Jun 2027 10:04:25.485   12 Jun 2027 10:04:32.424             6.939          3469.500
       280   12 Jun 2027 10:05:27.052   12 Jun 2027 10:05:38.751            11.699          5849.500
       281   12 Jun 2027 10:06:28.791   12 Jun 2027 10:06:38.565             9.774          4887.000
       282   12 Jun 2027 10:07:03.495   12 Jun 2027 10:07:09.997             6.502          3251.000
       283   13 Jun 2027 03:46:08.723   13 Jun 2027 03:48:03.943           115.220         57610.000
       284   13 Jun 2027 03:48:12.773   13 Jun 2027 03:49:49.727            96.954         48477.000
       285   13 Jun 2027 03:50:45.823   13 Jun 2027 03:51:32.115            46.292         23146.000
       286   13 Jun 2027 03:52:09.111   13 Jun 2027 03:52:18.018             8.907          4453.500
       287   13 Jun 2027 03:54:06.097   13 Jun 2027 03:54:30.983            24.886         12443.000
       288   13 Jun 2027 05:23:37.447   13 Jun 2027 05:25:56.054           138.607         69303.500
       289   13 Jun 2027 05:26:51.114   13 Jun 2027 05:27:07.584            16.470          8235.000
       290   13 Jun 2027 05:27:16.451   13 Jun 2027 05:27:20.997             4.546          2273.000
       291   13 Jun 2027 05:29:20.267   13 Jun 2027 05:29:43.592            23.325         11662.500
       292   13 Jun 2027 05:30:03.107   13 Jun 2027 05:30:12.535             9.428          4714.000
       293   13 Jun 2027 05:30:39.121   13 Jun 2027 05:30:55.739            16.618          8309.000
       294   13 Jun 2027 07:00:22.080   13 Jun 2027 07:00:53.584            31.504         15752.000
       295   13 Jun 2027 07:01:09.004   13 Jun 2027 07:02:54.223           105.219         52609.500
       296   13 Jun 2027 07:03:36.128   13 Jun 2027 07:03:57.017            20.889         10444.500
       297   13 Jun 2027 07:04:45.169   13 Jun 2027 07:05:04.399            19.230          9615.000
       298   13 Jun 2027 07:06:10.562   13 Jun 2027 07:06:29.192            18.630          9315.000
       299   13 Jun 2027 08:38:20.533   13 Jun 2027 08:39:10.842            50.309         25154.500
       300   13 Jun 2027 08:40:46.741   13 Jun 2027 08:41:10.810            24.069         12034.500
       301   13 Jun 2027 08:41:47.838   13 Jun 2027 08:41:53.709             5.871          2935.500
       302   13 Jun 2027 08:41:58.648   13 Jun 2027 08:42:02.765             4.117          2058.500
       303   13 Jun 2027 10:11:58.471   13 Jun 2027 10:12:22.552            24.081         12040.500
       304   13 Jun 2027 10:13:42.275   13 Jun 2027 10:14:00.364            18.089          9044.500
       305   13 Jun 2027 10:14:54.070   13 Jun 2027 10:15:27.658            33.588         16794.000
       306   13 Jun 2027 10:17:43.982   13 Jun 2027 10:17:56.153            12.171          6085.500
       307   13 Jun 2027 10:19:05.784   13 Jun 2027 10:19:16.220            10.436          5218.000
