uniorb/output/strategy_1/Camera/Camera_KinoSat_110409.txt

KinoSat_110409
-------------------------
    Access    *     Start Time (UTCG)     *     Stop Time (UTCG)  *   Duration (s) *   Data (Mbytes)
         1   01 Jun 2027 03:11:47.973   01 Jun 2027 03:12:47.740            59.767         29883.500
         2   01 Jun 2027 03:13:05.032   01 Jun 2027 03:13:14.215             9.183          4591.500
         3   01 Jun 2027 03:13:34.003   01 Jun 2027 03:13:49.494            15.491          7745.500
         4   01 Jun 2027 03:14:13.261   01 Jun 2027 03:14:19.730             6.469          3234.500
         5   01 Jun 2027 03:14:58.918   01 Jun 2027 03:15:05.988             7.070          3535.000
         6   01 Jun 2027 03:15:40.641   01 Jun 2027 03:15:41.686             1.045           522.500
         7   01 Jun 2027 03:16:14.608   01 Jun 2027 03:16:26.047            11.439          5719.500
         8   01 Jun 2027 03:16:35.883   01 Jun 2027 03:16:42.579             6.696          3348.000
         9   01 Jun 2027 03:17:09.075   01 Jun 2027 03:17:09.075             0.000             0.000
        10   01 Jun 2027 03:17:25.819   01 Jun 2027 03:17:29.651             3.832          1916.000
        11   01 Jun 2027 03:18:54.211   01 Jun 2027 03:18:58.277             4.066          2033.000
        12   01 Jun 2027 03:19:50.727   01 Jun 2027 03:20:14.012            23.285         11642.500
        13   01 Jun 2027 04:49:22.328   01 Jun 2027 04:51:16.091           113.763         56881.500
        14   01 Jun 2027 04:51:38.627   01 Jun 2027 04:51:48.191             9.564          4782.000
        15   01 Jun 2027 04:53:21.263   01 Jun 2027 04:53:41.814            20.551         10275.500
        16   01 Jun 2027 04:55:58.760   01 Jun 2027 04:56:43.689            44.929         22464.500
        17   01 Jun 2027 06:26:05.169   01 Jun 2027 06:28:37.322           152.153         76076.500
        18   01 Jun 2027 06:29:15.673   01 Jun 2027 06:29:35.995            20.322         10161.000
        19   01 Jun 2027 06:30:56.655   01 Jun 2027 06:31:18.823            22.168         11084.000
        20   01 Jun 2027 06:32:28.157   01 Jun 2027 06:32:40.537            12.380          6190.000
        21   01 Jun 2027 08:04:08.339   01 Jun 2027 08:06:26.552           138.213         69106.500
        22   01 Jun 2027 08:06:32.463   01 Jun 2027 08:06:38.852             6.389          3194.500
        23   01 Jun 2027 08:06:58.709   01 Jun 2027 08:07:05.521             6.812          3406.000
        24   01 Jun 2027 08:07:37.826   01 Jun 2027 08:07:38.555             0.729           364.500
        25   01 Jun 2027 08:08:07.692   01 Jun 2027 08:08:17.784            10.092          5046.000
        26   01 Jun 2027 09:37:49.547   01 Jun 2027 09:39:39.176           109.629         54814.500
        27   01 Jun 2027 09:40:02.547   01 Jun 2027 09:40:20.292            17.745          8872.500
        28   01 Jun 2027 09:41:29.089   01 Jun 2027 09:41:39.027             9.938          4969.000
        29   01 Jun 2027 09:42:20.427   01 Jun 2027 09:42:46.252            25.825         12912.500
        30   01 Jun 2027 09:44:26.934   01 Jun 2027 09:44:44.157            17.223          8611.500
        31   02 Jun 2027 03:23:18.402   02 Jun 2027 03:28:35.712           317.310        158655.000
        32   02 Jun 2027 03:29:23.227   02 Jun 2027 03:29:35.751            12.524          6262.000
        33   02 Jun 2027 03:30:54.771   02 Jun 2027 03:31:27.242            32.471         16235.500
        34   02 Jun 2027 03:31:47.199   02 Jun 2027 03:31:55.235             8.036          4018.000
        35   02 Jun 2027 03:32:13.291   02 Jun 2027 03:32:29.836            16.545          8272.500
        36   02 Jun 2027 05:01:16.477   02 Jun 2027 05:03:40.918           144.441         72220.500
        37   02 Jun 2027 05:04:17.342   02 Jun 2027 05:04:23.024             5.682          2841.000
        38   02 Jun 2027 05:04:46.465   02 Jun 2027 05:05:07.881            21.416         10708.000
        39   02 Jun 2027 05:06:37.077   02 Jun 2027 05:06:45.418             8.341          4170.500
        40   02 Jun 2027 05:06:51.731   02 Jun 2027 05:07:06.591            14.860          7430.000
        41   02 Jun 2027 05:07:14.671   02 Jun 2027 05:07:22.446             7.775          3887.500
        42   02 Jun 2027 05:07:44.734   02 Jun 2027 05:08:03.415            18.681          9340.500
        43   02 Jun 2027 06:38:11.868   02 Jun 2027 06:40:54.662           162.794         81397.000
        44   02 Jun 2027 06:41:28.779   02 Jun 2027 06:41:40.733            11.954          5977.000
        45   02 Jun 2027 06:44:25.381   02 Jun 2027 06:44:42.050            16.669          8334.500
        46   02 Jun 2027 08:15:54.250   02 Jun 2027 08:18:36.585           162.335         81167.500
        47   02 Jun 2027 08:19:51.598   02 Jun 2027 08:20:16.240            24.642         12321.000
        48   02 Jun 2027 09:50:09.731   02 Jun 2027 09:51:22.810            73.079         36539.500
        49   02 Jun 2027 09:51:54.095   02 Jun 2027 09:52:36.712            42.617         21308.500
        50   02 Jun 2027 09:53:40.529   02 Jun 2027 09:53:44.750             4.221          2110.500
        51   02 Jun 2027 09:54:20.876   02 Jun 2027 09:54:41.369            20.493         10246.500
        52   03 Jun 2027 03:36:12.184   03 Jun 2027 03:42:18.278           366.094        183047.000
        53   03 Jun 2027 03:43:12.819   03 Jun 2027 03:43:21.517             8.698          4349.000
        54   03 Jun 2027 03:43:50.753   03 Jun 2027 03:44:02.680            11.927          5963.500
        55   03 Jun 2027 03:44:45.793   03 Jun 2027 03:44:46.784             0.991           495.500
        56   03 Jun 2027 05:13:37.748   03 Jun 2027 05:16:10.756           153.008         76504.000
        57   03 Jun 2027 05:16:32.532   03 Jun 2027 05:17:00.175            27.643         13821.500
        58   03 Jun 2027 05:18:50.219   03 Jun 2027 05:19:13.262            23.043         11521.500
        59   03 Jun 2027 05:19:33.635   03 Jun 2027 05:19:40.868             7.233          3616.500
        60   03 Jun 2027 05:19:54.318   03 Jun 2027 05:20:16.120            21.802         10901.000
        61   03 Jun 2027 06:50:41.294   03 Jun 2027 06:53:24.850           163.556         81778.000
        62   03 Jun 2027 06:53:43.525   03 Jun 2027 06:53:59.193            15.668          7834.000
        63   03 Jun 2027 06:54:24.244   03 Jun 2027 06:54:46.503            22.259         11129.500
        64   03 Jun 2027 06:56:18.550   03 Jun 2027 06:56:31.375            12.825          6412.500
        65   03 Jun 2027 08:27:26.537   03 Jun 2027 08:29:28.806           122.269         61134.500
        66   03 Jun 2027 08:29:44.492   03 Jun 2027 08:30:26.406            41.914         20957.000
        67   03 Jun 2027 08:30:34.107   03 Jun 2027 08:30:39.460             5.353          2676.500
        68   03 Jun 2027 08:30:55.270   03 Jun 2027 08:30:57.881             2.611          1305.500
        69   03 Jun 2027 08:31:06.940   03 Jun 2027 08:31:18.950            12.010          6005.000
        70   03 Jun 2027 10:02:42.780   03 Jun 2027 10:02:49.969             7.189          3594.500
        71   03 Jun 2027 10:04:24.308   03 Jun 2027 10:06:04.784           100.476         50238.000
        72   03 Jun 2027 10:06:43.386   03 Jun 2027 10:07:03.753            20.367         10183.500
        73   04 Jun 2027 03:48:47.162   04 Jun 2027 03:54:22.306           335.144        167572.000
        74   04 Jun 2027 03:54:56.676   04 Jun 2027 03:55:01.401             4.725          2362.500
        75   04 Jun 2027 03:55:06.799   04 Jun 2027 03:55:30.958            24.159         12079.500
        76   04 Jun 2027 03:56:41.464   04 Jun 2027 03:56:43.731             2.267          1133.500
        77   04 Jun 2027 05:25:50.553   04 Jun 2027 05:28:42.868           172.315         86157.500
        78   04 Jun 2027 05:29:00.908   04 Jun 2027 05:29:29.934            29.026         14513.000
        79   04 Jun 2027 05:30:05.177   04 Jun 2027 05:30:07.608             2.431          1215.500
        80   04 Jun 2027 05:30:17.020   04 Jun 2027 05:30:19.127             2.107          1053.500
        81   04 Jun 2027 05:30:27.853   04 Jun 2027 05:30:39.437            11.584          5792.000
        82   04 Jun 2027 05:31:23.403   04 Jun 2027 05:31:34.063            10.660          5330.000
        83   04 Jun 2027 05:32:09.719   04 Jun 2027 05:32:10.869             1.150           575.000
        84   04 Jun 2027 07:02:47.179   04 Jun 2027 07:05:33.388           166.209         83104.500
        85   04 Jun 2027 07:05:56.707   04 Jun 2027 07:06:07.319            10.612          5306.000
        86   04 Jun 2027 07:06:40.067   04 Jun 2027 07:06:58.788            18.721          9360.500
        87   04 Jun 2027 08:39:33.119   04 Jun 2027 08:40:26.468            53.349         26674.500
        88   04 Jun 2027 08:41:30.895   04 Jun 2027 08:41:46.920            16.025          8012.500
        89   04 Jun 2027 08:42:34.583   04 Jun 2027 08:42:40.822             6.239          3119.500
        90   04 Jun 2027 08:43:05.036   04 Jun 2027 08:43:19.827            14.791          7395.500
        91   04 Jun 2027 08:44:25.464   04 Jun 2027 08:44:39.577            14.113          7056.500
        92   04 Jun 2027 10:17:46.674   04 Jun 2027 10:18:22.502            35.828         17914.000
        93   05 Jun 2027 04:01:58.710   05 Jun 2027 04:06:42.213           283.503        141751.500
        94   05 Jun 2027 04:07:26.248   05 Jun 2027 04:07:32.922             6.674          3337.000
        95   05 Jun 2027 04:08:01.606   05 Jun 2027 04:08:19.499            17.893          8946.500
        96   05 Jun 2027 04:08:35.642   05 Jun 2027 04:08:45.275             9.633          4816.500
        97   05 Jun 2027 05:38:20.889   05 Jun 2027 05:40:50.781           149.892         74946.000
        98   05 Jun 2027 05:41:20.962   05 Jun 2027 05:41:35.568            14.606          7303.000
        99   05 Jun 2027 05:41:49.065   05 Jun 2027 05:42:27.842            38.777         19388.500
       100   05 Jun 2027 05:42:44.484   05 Jun 2027 05:42:48.125             3.641          1820.500
       101   05 Jun 2027 05:42:57.377   05 Jun 2027 05:43:13.678            16.301          8150.500
       102   05 Jun 2027 07:15:48.884   05 Jun 2027 07:18:40.405           171.521         85760.500
       103   05 Jun 2027 07:19:57.172   05 Jun 2027 07:20:16.967            19.795          9897.500
       104   05 Jun 2027 08:51:55.460   05 Jun 2027 08:52:47.137            51.677         25838.500
       105   05 Jun 2027 08:53:51.146   05 Jun 2027 08:53:55.782             4.636          2318.000
       106   05 Jun 2027 08:54:07.735   05 Jun 2027 08:54:07.735             0.000             0.000
       107   05 Jun 2027 08:54:35.802   05 Jun 2027 08:54:47.579            11.777          5888.500
       108   05 Jun 2027 08:54:57.688   05 Jun 2027 08:55:09.168            11.480          5740.000
       109   05 Jun 2027 08:55:30.466   05 Jun 2027 08:55:38.076             7.610          3805.000
       110   06 Jun 2027 04:14:07.499   06 Jun 2027 04:19:06.615           299.116        149558.000
       111   06 Jun 2027 04:19:32.004   06 Jun 2027 04:19:50.484            18.480          9240.000
       112   06 Jun 2027 04:20:15.794   06 Jun 2027 04:20:22.321             6.527          3263.500
       113   06 Jun 2027 04:20:27.900   06 Jun 2027 04:20:40.502            12.602          6301.000
       114   06 Jun 2027 05:50:06.175   06 Jun 2027 05:53:27.322           201.147        100573.500
       115   06 Jun 2027 05:53:39.424   06 Jun 2027 05:53:40.858             1.434           717.000
       116   06 Jun 2027 05:54:02.053   06 Jun 2027 05:54:05.666             3.613          1806.500
       117   06 Jun 2027 05:54:21.323   06 Jun 2027 05:54:32.375            11.052          5526.000
       118   06 Jun 2027 07:27:55.328   06 Jun 2027 07:30:15.038           139.710         69855.000
       119   06 Jun 2027 07:30:27.761   06 Jun 2027 07:30:34.657             6.896          3448.000
       120   06 Jun 2027 07:31:16.838   06 Jun 2027 07:31:24.923             8.085          4042.500
       121   06 Jun 2027 07:31:46.620   06 Jun 2027 07:31:51.091             4.471          2235.500
       122   06 Jun 2027 07:32:02.981   06 Jun 2027 07:32:04.312             1.331           665.500
       123   06 Jun 2027 07:32:21.772   06 Jun 2027 07:32:26.334             4.562          2281.000
       124   06 Jun 2027 09:03:57.144   06 Jun 2027 09:04:22.815            25.671         12835.500
       125   06 Jun 2027 09:04:45.232   06 Jun 2027 09:04:48.844             3.612          1806.000
       126   06 Jun 2027 09:05:29.745   06 Jun 2027 09:05:38.436             8.691          4345.500
       127   06 Jun 2027 09:06:10.374   06 Jun 2027 09:06:27.146            16.772          8386.000
       128   06 Jun 2027 09:07:08.020   06 Jun 2027 09:07:13.989             5.969          2984.500
       129   06 Jun 2027 09:07:39.579   06 Jun 2027 09:07:43.741             4.162          2081.000
       130   06 Jun 2027 09:08:06.857   06 Jun 2027 09:08:08.269             1.412           706.000
       131   06 Jun 2027 09:08:12.326   06 Jun 2027 09:08:18.288             5.962          2981.000
       132   06 Jun 2027 09:08:33.273   06 Jun 2027 09:08:34.169             0.896           448.000
       133   06 Jun 2027 09:08:52.333   06 Jun 2027 09:08:56.179             3.846          1923.000
       134   07 Jun 2027 04:25:30.903   07 Jun 2027 04:28:01.888           150.985         75492.500
       135   07 Jun 2027 04:29:05.172   07 Jun 2027 04:31:34.145           148.973         74486.500
       136   07 Jun 2027 04:32:43.419   07 Jun 2027 04:32:54.603            11.184          5592.000
       137   07 Jun 2027 06:02:08.023   07 Jun 2027 06:05:11.779           183.756         91878.000
       138   07 Jun 2027 06:07:13.680   07 Jun 2027 06:07:29.373            15.693          7846.500
       139   07 Jun 2027 06:08:02.871   07 Jun 2027 06:08:13.728            10.857          5428.500
       140   07 Jun 2027 07:40:25.918   07 Jun 2027 07:42:39.468           133.550         66775.000
       141   07 Jun 2027 07:43:40.296   07 Jun 2027 07:43:53.167            12.871          6435.500
       142   07 Jun 2027 09:13:45.322   07 Jun 2027 09:14:13.978            28.656         14328.000
       143   07 Jun 2027 09:15:10.494   07 Jun 2027 09:15:12.961             2.467          1233.500
       144   07 Jun 2027 09:15:45.222   07 Jun 2027 09:15:56.406            11.184          5592.000
       145   07 Jun 2027 09:16:42.014   07 Jun 2027 09:16:52.345            10.331          5165.500
       146   07 Jun 2027 09:17:12.079   07 Jun 2027 09:17:26.953            14.874          7437.000
       147   07 Jun 2027 09:18:37.990   07 Jun 2027 09:19:00.605            22.615         11307.500
       148   07 Jun 2027 09:20:18.351   07 Jun 2027 09:20:19.944             1.593           796.500
       149   07 Jun 2027 09:20:43.383   07 Jun 2027 09:20:46.143             2.760          1380.000
       150   07 Jun 2027 09:20:57.172   07 Jun 2027 09:21:14.236            17.064          8532.000
       151   08 Jun 2027 03:00:42.077   08 Jun 2027 03:01:54.364            72.287         36143.500
       152   08 Jun 2027 03:02:24.665   08 Jun 2027 03:05:04.071           159.406         79703.000
       153   08 Jun 2027 03:05:28.425   08 Jun 2027 03:05:41.956            13.531          6765.500
       154   08 Jun 2027 03:07:10.291   08 Jun 2027 03:07:14.550             4.259          2129.500
       155   08 Jun 2027 04:37:26.113   08 Jun 2027 04:39:20.358           114.245         57122.500
       156   08 Jun 2027 04:40:11.316   08 Jun 2027 04:40:34.058            22.742         11371.000
       157   08 Jun 2027 04:40:45.571   08 Jun 2027 04:41:00.151            14.580          7290.000
       158   08 Jun 2027 04:42:14.567   08 Jun 2027 04:42:16.166             1.599           799.500
       159   08 Jun 2027 04:42:43.505   08 Jun 2027 04:42:56.420            12.915          6457.500
       160   08 Jun 2027 04:43:06.095   08 Jun 2027 04:43:28.496            22.401         11200.500
       161   08 Jun 2027 04:43:50.033   08 Jun 2027 04:44:01.420            11.387          5693.500
       162   08 Jun 2027 06:14:28.993   08 Jun 2027 06:17:05.632           156.639         78319.500
       163   08 Jun 2027 06:17:19.325   08 Jun 2027 06:17:29.994            10.669          5334.500
       164   08 Jun 2027 06:18:49.612   08 Jun 2027 06:19:06.498            16.886          8443.000
       165   08 Jun 2027 06:19:47.959   08 Jun 2027 06:20:08.906            20.947         10473.500
       166   08 Jun 2027 07:52:23.141   08 Jun 2027 07:54:32.376           129.235         64617.500
       167   08 Jun 2027 07:54:50.213   08 Jun 2027 07:54:50.274             0.061            30.500
       168   08 Jun 2027 07:54:56.144   08 Jun 2027 07:55:02.073             5.929          2964.500
       169   08 Jun 2027 07:56:10.033   08 Jun 2027 07:56:21.249            11.216          5608.000
       170   08 Jun 2027 09:25:36.966   08 Jun 2027 09:26:03.922            26.956         13478.000
       171   08 Jun 2027 09:26:42.294   08 Jun 2027 09:26:47.424             5.130          2565.000
       172   08 Jun 2027 09:27:23.627   08 Jun 2027 09:27:36.299            12.672          6336.000
       173   08 Jun 2027 09:28:47.231   08 Jun 2027 09:29:18.472            31.241         15620.500
       174   08 Jun 2027 09:31:17.980   08 Jun 2027 09:31:40.791            22.811         11405.500
       175   08 Jun 2027 09:32:38.673   08 Jun 2027 09:32:42.466             3.793          1896.500
       176   08 Jun 2027 09:33:11.954   08 Jun 2027 09:33:29.489            17.535          8767.500
       177   09 Jun 2027 03:12:02.295   09 Jun 2027 03:14:08.408           126.113         63056.500
       178   09 Jun 2027 03:14:12.588   09 Jun 2027 03:15:56.335           103.747         51873.500
       179   09 Jun 2027 03:16:40.665   09 Jun 2027 03:16:52.278            11.613          5806.500
       180   09 Jun 2027 03:17:33.071   09 Jun 2027 03:17:41.148             8.077          4038.500
       181   09 Jun 2027 03:19:10.532   09 Jun 2027 03:19:33.723            23.191         11595.500
       182   09 Jun 2027 03:20:04.695   09 Jun 2027 03:20:07.875             3.180          1590.000
       183   09 Jun 2027 04:49:36.745   09 Jun 2027 04:51:53.677           136.932         68466.000
       184   09 Jun 2027 04:52:36.119   09 Jun 2027 04:52:47.222            11.103          5551.500
       185   09 Jun 2027 04:53:39.245   09 Jun 2027 04:53:43.983             4.738          2369.000
       186   09 Jun 2027 04:54:36.364   09 Jun 2027 04:54:48.081            11.717          5858.500
       187   09 Jun 2027 04:55:03.239   09 Jun 2027 04:55:25.957            22.718         11359.000
       188   09 Jun 2027 04:55:46.762   09 Jun 2027 04:55:57.964            11.202          5601.000
       189   09 Jun 2027 06:26:19.487   09 Jun 2027 06:29:13.061           173.574         86787.000
       190   09 Jun 2027 06:30:09.285   09 Jun 2027 06:30:27.980            18.695          9347.500
       191   09 Jun 2027 06:30:42.831   09 Jun 2027 06:30:54.783            11.952          5976.000
       192   09 Jun 2027 06:31:00.624   09 Jun 2027 06:31:05.303             4.679          2339.500
       193   09 Jun 2027 06:32:56.112   09 Jun 2027 06:32:58.095             1.983           991.500
       194   09 Jun 2027 08:04:23.062   09 Jun 2027 08:05:35.242            72.180         36090.000
       195   09 Jun 2027 08:05:45.980   09 Jun 2027 08:05:50.245             4.265          2132.500
       196   09 Jun 2027 08:05:59.085   09 Jun 2027 08:06:02.539             3.454          1727.000
       197   09 Jun 2027 08:06:55.335   09 Jun 2027 08:06:58.615             3.280          1640.000
       198   09 Jun 2027 08:07:07.910   09 Jun 2027 08:07:14.338             6.428          3214.000
       199   09 Jun 2027 08:07:20.763   09 Jun 2027 08:07:24.239             3.476          1738.000
       200   09 Jun 2027 08:07:59.760   09 Jun 2027 08:08:11.010            11.250          5625.000
       201   09 Jun 2027 08:08:29.340   09 Jun 2027 08:08:32.399             3.059          1529.500
       202   09 Jun 2027 09:38:04.923   09 Jun 2027 09:38:24.645            19.722          9861.000
       203   09 Jun 2027 09:39:32.725   09 Jun 2027 09:39:50.800            18.075          9037.500
       204   09 Jun 2027 09:41:38.265   09 Jun 2027 09:42:01.143            22.878         11439.000
       205   09 Jun 2027 09:42:35.077   09 Jun 2027 09:42:44.290             9.213          4606.500
       206   09 Jun 2027 09:43:00.951   09 Jun 2027 09:43:01.416             0.465           232.500
       207   09 Jun 2027 09:43:25.533   09 Jun 2027 09:43:32.219             6.686          3343.000
       208   09 Jun 2027 09:43:41.505   09 Jun 2027 09:43:51.985            10.480          5240.000
       209   09 Jun 2027 09:44:39.923   09 Jun 2027 09:44:46.095             6.172          3086.000
       210   10 Jun 2027 03:23:32.626   10 Jun 2027 03:27:15.597           222.971        111485.500
       211   10 Jun 2027 03:27:38.430   10 Jun 2027 03:27:50.826            12.396          6198.000
       212   10 Jun 2027 03:28:19.188   10 Jun 2027 03:28:28.534             9.346          4673.000
       213   10 Jun 2027 03:29:06.529   10 Jun 2027 03:29:07.894             1.365           682.500
       214   10 Jun 2027 03:29:11.284   10 Jun 2027 03:29:35.895            24.611         12305.500
       215   10 Jun 2027 03:30:12.820   10 Jun 2027 03:30:33.212            20.392         10196.000
       216   10 Jun 2027 03:30:57.010   10 Jun 2027 03:31:11.102            14.092          7046.000
       217   10 Jun 2027 03:32:27.711   10 Jun 2027 03:32:45.136            17.425          8712.500
       218   10 Jun 2027 05:01:31.081   10 Jun 2027 05:01:42.414            11.333          5666.500
       219   10 Jun 2027 05:01:50.633   10 Jun 2027 05:03:54.975           124.342         62171.000
       220   10 Jun 2027 05:05:00.697   10 Jun 2027 05:05:23.069            22.372         11186.000
       221   10 Jun 2027 05:06:32.659   10 Jun 2027 05:06:36.941             4.282          2141.000
       222   10 Jun 2027 05:06:46.806   10 Jun 2027 05:07:03.382            16.576          8288.000
       223   10 Jun 2027 05:08:31.317   10 Jun 2027 05:08:50.926            19.609          9804.500
       224   10 Jun 2027 06:38:27.539   10 Jun 2027 06:40:57.942           150.403         75201.500
       225   10 Jun 2027 06:41:00.302   10 Jun 2027 06:41:08.733             8.431          4215.500
       226   10 Jun 2027 06:41:46.853   10 Jun 2027 06:41:56.912            10.059          5029.500
       227   10 Jun 2027 06:42:30.130   10 Jun 2027 06:42:31.426             1.296           648.000
       228   10 Jun 2027 06:43:10.971   10 Jun 2027 06:43:24.017            13.046          6523.000
       229   10 Jun 2027 06:44:04.891   10 Jun 2027 06:44:06.615             1.724           862.000
       230   10 Jun 2027 06:44:39.831   10 Jun 2027 06:44:54.403            14.572          7286.000
       231   10 Jun 2027 08:16:01.000   10 Jun 2027 08:17:14.120            73.120         36560.000
       232   10 Jun 2027 08:18:21.363   10 Jun 2027 08:18:24.381             3.018          1509.000
       233   10 Jun 2027 08:18:45.551   10 Jun 2027 08:18:56.339            10.788          5394.000
       234   10 Jun 2027 08:19:21.108   10 Jun 2027 08:19:31.276            10.168          5084.000
       235   10 Jun 2027 09:50:24.686   10 Jun 2027 09:50:35.666            10.980          5490.000
       236   10 Jun 2027 09:51:18.640   10 Jun 2027 09:51:37.174            18.534          9267.000
       237   10 Jun 2027 09:52:21.545   10 Jun 2027 09:52:26.426             4.881          2440.500
       238   10 Jun 2027 09:54:07.479   10 Jun 2027 09:54:35.529            28.050         14025.000
       239   10 Jun 2027 09:55:34.693   10 Jun 2027 09:55:42.596             7.903          3951.500
       240   11 Jun 2027 03:36:26.675   11 Jun 2027 03:40:33.852           247.177        123588.500
       241   11 Jun 2027 03:41:07.943   11 Jun 2027 03:41:11.956             4.013          2006.500
       242   11 Jun 2027 03:41:37.646   11 Jun 2027 03:41:40.745             3.099          1549.500
       243   11 Jun 2027 03:42:13.282   11 Jun 2027 03:42:34.703            21.421         10710.500
       244   11 Jun 2027 03:42:39.963   11 Jun 2027 03:42:53.389            13.426          6713.000
       245   11 Jun 2027 03:45:00.387   11 Jun 2027 03:45:01.387             1.000           500.000
       246   11 Jun 2027 05:13:52.483   11 Jun 2027 05:16:02.959           130.476         65238.000
       247   11 Jun 2027 05:16:25.425   11 Jun 2027 05:16:29.843             4.418          2209.000
       248   11 Jun 2027 05:16:48.357   11 Jun 2027 05:17:18.069            29.712         14856.000
       249   11 Jun 2027 05:18:03.225   11 Jun 2027 05:18:23.171            19.946          9973.000
       250   11 Jun 2027 05:20:24.704   11 Jun 2027 05:20:46.954            22.250         11125.000
       251   11 Jun 2027 06:50:56.037   11 Jun 2027 06:53:03.918           127.881         63940.500
       252   11 Jun 2027 06:53:28.879   11 Jun 2027 06:53:40.845            11.966          5983.000
       253   11 Jun 2027 06:54:37.021   11 Jun 2027 06:55:13.552            36.531         18265.500
       254   11 Jun 2027 06:56:00.239   11 Jun 2027 06:56:16.230            15.991          7995.500
       255   11 Jun 2027 06:56:25.483   11 Jun 2027 06:56:26.183             0.700           350.000
       256   11 Jun 2027 06:56:32.468   11 Jun 2027 06:56:35.104             2.636          1318.000
       257   11 Jun 2027 08:27:41.555   11 Jun 2027 08:28:34.113            52.558         26279.000
       258   11 Jun 2027 08:28:58.134   11 Jun 2027 08:29:23.200            25.066         12533.000
       259   11 Jun 2027 08:30:48.842   11 Jun 2027 08:30:54.083             5.241          2620.500
       260   11 Jun 2027 08:31:19.408   11 Jun 2027 08:31:27.656             8.248          4124.000
       261   11 Jun 2027 08:32:06.627   11 Jun 2027 08:32:11.150             4.523          2261.500
       262   11 Jun 2027 10:02:57.579   11 Jun 2027 10:03:04.297             6.718          3359.000
       263   11 Jun 2027 10:04:39.195   11 Jun 2027 10:05:01.193            21.998         10999.000
       264   11 Jun 2027 10:05:54.865   11 Jun 2027 10:05:54.865             0.000             0.000
       265   11 Jun 2027 10:06:36.238   11 Jun 2027 10:06:58.064            21.826         10913.000
       266   11 Jun 2027 10:07:24.171   11 Jun 2027 10:07:28.072             3.901          1950.500
       267   12 Jun 2027 03:49:02.929   12 Jun 2027 03:53:39.042           276.113        138056.500
       268   12 Jun 2027 03:54:37.523   12 Jun 2027 03:54:55.910            18.387          9193.500
       269   12 Jun 2027 03:55:07.121   12 Jun 2027 03:55:13.026             5.905          2952.500
       270   12 Jun 2027 03:55:22.907   12 Jun 2027 03:55:45.953            23.046         11523.000
       271   12 Jun 2027 03:56:56.040   12 Jun 2027 03:56:58.201             2.161          1080.500
       272   12 Jun 2027 05:26:04.822   12 Jun 2027 05:28:29.277           144.455         72227.500
       273   12 Jun 2027 05:29:16.455   12 Jun 2027 05:30:11.106            54.651         27325.500
       274   12 Jun 2027 05:31:10.835   12 Jun 2027 05:31:12.063             1.228           614.000
       275   12 Jun 2027 05:31:24.336   12 Jun 2027 05:31:51.810            27.474         13737.000
       276   12 Jun 2027 07:03:02.282   12 Jun 2027 07:05:23.826           141.544         70772.000
       277   12 Jun 2027 07:05:25.321   12 Jun 2027 07:05:26.763             1.442           721.000
       278   12 Jun 2027 07:05:54.006   12 Jun 2027 07:05:55.892             1.886           943.000
       279   12 Jun 2027 07:06:05.626   12 Jun 2027 07:06:11.606             5.980          2990.000
       280   12 Jun 2027 07:06:48.766   12 Jun 2027 07:07:13.832            25.066         12533.000
       281   12 Jun 2027 08:39:47.580   12 Jun 2027 08:40:30.139            42.559         21279.500
       282   12 Jun 2027 08:40:59.995   12 Jun 2027 08:41:19.462            19.467          9733.500
       283   12 Jun 2027 08:42:23.814   12 Jun 2027 08:42:35.971            12.157          6078.500
       284   12 Jun 2027 08:43:51.204   12 Jun 2027 08:44:03.973            12.769          6384.500
       285   12 Jun 2027 08:44:13.292   12 Jun 2027 08:44:16.229             2.937          1468.500
       286   12 Jun 2027 10:18:02.032   12 Jun 2027 10:18:37.159            35.127         17563.500
       287   13 Jun 2027 04:02:13.947   13 Jun 2027 04:06:48.564           274.617        137308.500
       288   13 Jun 2027 04:06:57.195   13 Jun 2027 04:07:36.925            39.730         19865.000
       289   13 Jun 2027 04:08:50.197   13 Jun 2027 04:08:59.826             9.629          4814.500
       290   13 Jun 2027 05:38:35.896   13 Jun 2027 05:41:34.061           178.165         89082.500
       291   13 Jun 2027 05:42:06.316   13 Jun 2027 05:42:16.153             9.837          4918.500
       292   13 Jun 2027 05:42:31.149   13 Jun 2027 05:42:57.956            26.807         13403.500
       293   13 Jun 2027 07:16:03.411   13 Jun 2027 07:18:55.197           171.786         85893.000
       294   13 Jun 2027 07:19:03.331   13 Jun 2027 07:19:13.852            10.521          5260.500
       295   13 Jun 2027 07:19:48.727   13 Jun 2027 07:19:53.448             4.721          2360.500
       296   13 Jun 2027 07:20:00.104   13 Jun 2027 07:20:03.106             3.002          1501.000
       297   13 Jun 2027 08:52:10.579   13 Jun 2027 08:53:01.796            51.217         25608.500
       298   13 Jun 2027 08:54:06.010   13 Jun 2027 08:54:12.067             6.057          3028.500
       299   13 Jun 2027 08:54:50.971   13 Jun 2027 08:55:02.500            11.529          5764.500
       300   13 Jun 2027 08:55:12.426   13 Jun 2027 08:55:12.587             0.161            80.500
       301   13 Jun 2027 08:55:53.286   13 Jun 2027 08:56:01.863             8.577          4288.500
       302   13 Jun 2027 08:56:10.379   13 Jun 2027 08:56:16.879             6.500          3250.000
