uniorb/output/strategy_1/Camera/Camera_KinoSat_110601.txt

KinoSat_110601
-------------------------
    Access    *     Start Time (UTCG)     *     Stop Time (UTCG)  *   Duration (s) *   Data (Mbytes)
         1   01 Jun 2027 04:19:46.789   01 Jun 2027 04:21:35.416           108.627         54313.500
         2   01 Jun 2027 04:22:37.746   01 Jun 2027 04:22:43.954             6.208          3104.000
         3   01 Jun 2027 04:24:22.622   01 Jun 2027 04:24:23.920             1.298           649.000
         4   01 Jun 2027 04:25:34.934   01 Jun 2027 04:25:38.608             3.674          1837.000
         5   01 Jun 2027 04:27:43.114   01 Jun 2027 04:27:48.975             5.861          2930.500
         6   01 Jun 2027 05:57:12.496   01 Jun 2027 05:59:35.708           143.212         71606.000
         7   01 Jun 2027 06:02:06.920   01 Jun 2027 06:02:23.899            16.979          8489.500
         8   01 Jun 2027 06:02:41.693   01 Jun 2027 06:02:41.693             0.000             0.000
         9   01 Jun 2027 06:03:24.584   01 Jun 2027 06:03:26.780             2.196          1098.000
        10   01 Jun 2027 06:04:30.977   01 Jun 2027 06:04:31.462             0.485           242.500
        11   01 Jun 2027 07:33:59.559   01 Jun 2027 07:36:09.878           130.319         65159.500
        12   01 Jun 2027 07:37:28.334   01 Jun 2027 07:38:06.758            38.424         19212.000
        13   01 Jun 2027 07:39:06.421   01 Jun 2027 07:39:19.110            12.689          6344.500
        14   01 Jun 2027 07:39:26.061   01 Jun 2027 07:39:27.876             1.815           907.500
        15   01 Jun 2027 09:11:57.449   01 Jun 2027 09:14:01.898           124.449         62224.500
        16   01 Jun 2027 09:14:18.373   01 Jun 2027 09:14:37.529            19.156          9578.000
        17   01 Jun 2027 10:45:34.728   01 Jun 2027 10:47:17.666           102.938         51469.000
        18   01 Jun 2027 10:47:29.398   01 Jun 2027 10:47:29.398             0.000             0.000
        19   01 Jun 2027 10:48:19.517   01 Jun 2027 10:48:28.544             9.027          4513.500
        20   01 Jun 2027 10:48:36.882   01 Jun 2027 10:48:36.882             0.000             0.000
        21   01 Jun 2027 10:48:49.807   01 Jun 2027 10:49:12.960            23.153         11576.500
        22   02 Jun 2027 03:00:19.390   02 Jun 2027 03:00:26.923             7.533          3766.500
        23   02 Jun 2027 03:00:32.486   02 Jun 2027 03:00:36.965             4.479          2239.500
        24   02 Jun 2027 03:00:48.832   02 Jun 2027 03:00:48.832             0.000             0.000
        25   02 Jun 2027 03:00:48.941   02 Jun 2027 03:01:02.078            13.137          6568.500
        26   02 Jun 2027 04:31:15.545   02 Jun 2027 04:31:46.801            31.256         15628.000
        27   02 Jun 2027 04:32:42.025   02 Jun 2027 04:33:33.039            51.014         25507.000
        28   02 Jun 2027 04:34:07.808   02 Jun 2027 04:34:28.606            20.798         10399.000
        29   02 Jun 2027 04:36:23.414   02 Jun 2027 04:36:24.088             0.674           337.000
        30   02 Jun 2027 04:36:58.112   02 Jun 2027 04:37:06.469             8.357          4178.500
        31   02 Jun 2027 04:37:33.781   02 Jun 2027 04:37:39.709             5.928          2964.000
        32   02 Jun 2027 04:37:55.058   02 Jun 2027 04:38:02.365             7.307          3653.500
        33   02 Jun 2027 04:40:07.761   02 Jun 2027 04:40:21.397            13.636          6818.000
        34   02 Jun 2027 06:09:06.448   02 Jun 2027 06:10:36.709            90.261         45130.500
        35   02 Jun 2027 06:11:23.906   02 Jun 2027 06:11:46.404            22.498         11249.000
        36   02 Jun 2027 06:12:10.036   02 Jun 2027 06:12:12.483             2.447          1223.500
        37   02 Jun 2027 06:13:36.972   02 Jun 2027 06:13:37.869             0.897           448.500
        38   02 Jun 2027 06:13:48.775   02 Jun 2027 06:14:11.905            23.130         11565.000
        39   02 Jun 2027 06:15:01.100   02 Jun 2027 06:15:02.000             0.900           450.000
        40   02 Jun 2027 06:15:45.272   02 Jun 2027 06:15:47.261             1.989           994.500
        41   02 Jun 2027 07:45:51.093   02 Jun 2027 07:47:45.614           114.521         57260.500
        42   02 Jun 2027 07:47:55.255   02 Jun 2027 07:48:18.741            23.486         11743.000
        43   02 Jun 2027 07:49:05.122   02 Jun 2027 07:49:05.122             0.000             0.000
        44   02 Jun 2027 07:50:05.830   02 Jun 2027 07:50:08.297             2.467          1233.500
        45   02 Jun 2027 07:50:36.224   02 Jun 2027 07:50:45.021             8.797          4398.500
        46   02 Jun 2027 09:23:59.979   02 Jun 2027 09:26:17.103           137.124         68562.000
        47   02 Jun 2027 09:26:56.377   02 Jun 2027 09:27:01.440             5.063          2531.500
        48   02 Jun 2027 09:27:49.984   02 Jun 2027 09:27:54.371             4.387          2193.500
        49   02 Jun 2027 10:57:51.470   02 Jun 2027 10:59:46.889           115.419         57709.500
        50   02 Jun 2027 11:02:21.430   02 Jun 2027 11:02:22.043             0.613           306.500
        51   02 Jun 2027 11:02:30.715   02 Jun 2027 11:02:36.523             5.808          2904.000
        52   02 Jun 2027 11:02:41.824   02 Jun 2027 11:02:41.824             0.000             0.000
        53   03 Jun 2027 03:10:15.764   03 Jun 2027 03:10:30.264            14.500          7250.000
        54   03 Jun 2027 03:10:55.365   03 Jun 2027 03:10:59.863             4.498          2249.000
        55   03 Jun 2027 03:12:41.863   03 Jun 2027 03:12:46.360             4.497          2248.500
        56   03 Jun 2027 03:13:32.848   03 Jun 2027 03:13:48.418            15.570          7785.000
        57   03 Jun 2027 03:14:00.086   03 Jun 2027 03:14:10.886            10.800          5400.000
        58   03 Jun 2027 04:44:03.953   03 Jun 2027 04:45:29.738            85.785         42892.500
        59   03 Jun 2027 04:46:14.641   03 Jun 2027 04:46:16.237             1.596           798.000
        60   03 Jun 2027 04:46:19.270   03 Jun 2027 04:46:32.508            13.238          6619.000
        61   03 Jun 2027 04:47:09.277   03 Jun 2027 04:47:09.277             0.000             0.000
        62   03 Jun 2027 04:47:36.694   03 Jun 2027 04:47:50.866            14.172          7086.000
        63   03 Jun 2027 04:49:48.820   03 Jun 2027 04:49:48.820             0.000             0.000
        64   03 Jun 2027 04:50:42.689   03 Jun 2027 04:50:54.822            12.133          6066.500
        65   03 Jun 2027 06:21:13.502   03 Jun 2027 06:23:06.431           112.929         56464.500
        66   03 Jun 2027 06:28:26.592   03 Jun 2027 06:28:32.380             5.788          2894.000
        67   03 Jun 2027 07:58:16.875   03 Jun 2027 08:00:25.284           128.409         64204.500
        68   03 Jun 2027 08:01:33.959   03 Jun 2027 08:01:45.874            11.915          5957.500
        69   03 Jun 2027 08:02:46.596   03 Jun 2027 08:02:53.112             6.516          3258.000
        70   03 Jun 2027 09:35:11.000   03 Jun 2027 09:37:09.484           118.484         59242.000
        71   03 Jun 2027 09:38:41.146   03 Jun 2027 09:38:41.146             0.000             0.000
        72   03 Jun 2027 09:39:04.601   03 Jun 2027 09:39:14.961            10.360          5180.000
        73   03 Jun 2027 09:39:34.446   03 Jun 2027 09:39:42.513             8.067          4033.500
        74   03 Jun 2027 11:10:20.472   03 Jun 2027 11:10:40.818            20.346         10173.000
        75   03 Jun 2027 11:11:56.241   03 Jun 2027 11:12:17.060            20.819         10379.625
        76   03 Jun 2027 11:13:06.386   03 Jun 2027 11:13:08.480             2.094          1047.000
        77   03 Jun 2027 11:13:25.485   03 Jun 2027 11:13:27.538             2.053          1012.469
        78   03 Jun 2027 11:14:37.328   03 Jun 2027 11:14:42.548             5.220          2088.875
        79   04 Jun 2027 03:22:32.834   04 Jun 2027 03:22:54.978            22.144         11072.000
        80   04 Jun 2027 03:24:18.023   04 Jun 2027 03:24:26.406             8.383          4191.500
        81   04 Jun 2027 03:24:36.803   04 Jun 2027 03:24:40.659             3.856          1928.000
        82   04 Jun 2027 04:56:24.998   04 Jun 2027 04:58:30.599           125.601         62800.500
        83   04 Jun 2027 04:59:05.021   04 Jun 2027 04:59:17.654            12.633          6316.500
        84   04 Jun 2027 05:01:46.378   04 Jun 2027 05:01:46.378             0.000             0.000
        85   04 Jun 2027 05:02:50.863   04 Jun 2027 05:02:50.863             0.000             0.000
        86   04 Jun 2027 05:03:36.661   04 Jun 2027 05:03:39.461             2.800          1400.000
        87   04 Jun 2027 05:04:01.323   04 Jun 2027 05:04:12.573            11.250          5625.000
        88   04 Jun 2027 05:04:31.963   04 Jun 2027 05:04:34.369             2.406          1203.000
        89   04 Jun 2027 06:33:40.097   04 Jun 2027 06:35:53.676           133.579         66789.500
        90   04 Jun 2027 06:39:47.924   04 Jun 2027 06:39:51.293             3.369          1684.500
        91   04 Jun 2027 08:10:41.541   04 Jun 2027 08:12:10.805            89.264         44125.281
        92   04 Jun 2027 08:12:21.778   04 Jun 2027 08:12:23.764             1.986           342.906
        93   04 Jun 2027 08:12:39.401   04 Jun 2027 08:12:41.192             1.791           262.625
        94   04 Jun 2027 08:13:23.694   04 Jun 2027 08:13:23.694             0.000             0.000
        95   04 Jun 2027 08:13:50.049   04 Jun 2027 08:13:54.432             4.383          2032.656
        96   04 Jun 2027 08:14:04.331   04 Jun 2027 08:14:04.845             0.514           177.625
        97   04 Jun 2027 09:47:25.530   04 Jun 2027 09:47:47.932            22.402         10754.438
        98   04 Jun 2027 09:48:56.313   04 Jun 2027 09:49:00.770             4.457          1801.281
        99   04 Jun 2027 09:49:16.240   04 Jun 2027 09:49:22.393             6.153           460.563
       100   04 Jun 2027 09:49:39.809   04 Jun 2027 09:49:41.606             1.797           397.063
       101   04 Jun 2027 09:50:19.430   04 Jun 2027 09:50:24.124             4.694          1182.000
       102   04 Jun 2027 09:51:11.491   04 Jun 2027 09:51:13.939             2.448          1221.656
       103   04 Jun 2027 11:25:34.546   04 Jun 2027 11:25:44.582            10.036          2291.469
       104   04 Jun 2027 11:26:06.536   04 Jun 2027 11:26:08.704             2.168           540.406
       105   04 Jun 2027 11:26:32.611   04 Jun 2027 11:26:34.252             1.641           460.313
       106   05 Jun 2027 03:34:36.124   05 Jun 2027 03:35:02.310            26.186         13093.000
       107   05 Jun 2027 03:35:29.781   05 Jun 2027 03:35:34.235             4.454          2227.000
       108   05 Jun 2027 03:35:57.755   05 Jun 2027 03:36:08.330            10.575          5287.500
       109   05 Jun 2027 05:09:42.673   05 Jun 2027 05:12:00.262           137.589         68794.500
       110   05 Jun 2027 05:15:00.164   05 Jun 2027 05:15:14.361            14.197          7098.500
       111   05 Jun 2027 05:15:39.565   05 Jun 2027 05:15:39.565             0.000             0.000
       112   05 Jun 2027 05:16:11.402   05 Jun 2027 05:16:32.183            20.781         10390.500
       113   05 Jun 2027 06:46:03.328   05 Jun 2027 06:48:00.363           117.035         58517.500
       114   05 Jun 2027 06:48:27.595   05 Jun 2027 06:48:31.166             3.571          1785.500
       115   05 Jun 2027 06:50:25.456   05 Jun 2027 06:50:28.621             3.165          1582.500
       116   05 Jun 2027 08:23:33.366   05 Jun 2027 08:24:27.827            54.461         27054.187
       117   05 Jun 2027 08:25:04.189   05 Jun 2027 08:25:04.189             0.000             0.000
       118   05 Jun 2027 08:25:24.275   05 Jun 2027 08:25:31.573             7.298          1327.844
       119   05 Jun 2027 08:25:49.970   05 Jun 2027 08:25:51.568             1.598           449.156
       120   05 Jun 2027 08:26:16.022   05 Jun 2027 08:26:17.384             1.362           658.875
       121   05 Jun 2027 08:27:37.617   05 Jun 2027 08:27:45.626             8.009          2507.281
       122   05 Jun 2027 09:59:37.779   05 Jun 2027 09:59:55.645            17.866          8048.125
       123   05 Jun 2027 10:00:33.886   05 Jun 2027 10:00:36.611             2.725          1188.031
       124   05 Jun 2027 10:00:59.794   05 Jun 2027 10:01:03.317             3.523           502.781
       125   05 Jun 2027 10:01:13.845   05 Jun 2027 10:01:18.518             4.673           329.000
       126   05 Jun 2027 10:02:00.666   05 Jun 2027 10:02:08.243             7.577           998.313
       127   05 Jun 2027 10:02:31.664   05 Jun 2027 10:02:33.597             1.933           623.312
       128   05 Jun 2027 10:02:51.586   05 Jun 2027 10:02:57.740             6.154           349.563
       129   05 Jun 2027 10:03:27.488   05 Jun 2027 10:03:31.903             4.415           875.781
       130   06 Jun 2027 03:46:46.736   06 Jun 2027 03:47:13.492            26.756         13378.000
       131   06 Jun 2027 03:48:09.798   06 Jun 2027 03:48:39.520            29.722         14861.000
       132   06 Jun 2027 03:49:19.710   06 Jun 2027 03:49:19.710             0.000             0.000
       133   06 Jun 2027 03:50:13.130   06 Jun 2027 03:50:15.696             2.566          1283.000
       134   06 Jun 2027 05:21:56.463   06 Jun 2027 05:24:22.707           146.244         73122.000
       135   06 Jun 2027 05:24:47.660   06 Jun 2027 05:24:50.965             3.305          1652.500
       136   06 Jun 2027 05:27:15.706   06 Jun 2027 05:27:26.042            10.336          5168.000
       137   06 Jun 2027 05:27:35.161   06 Jun 2027 05:27:37.266             2.105          1052.500
       138   06 Jun 2027 05:27:42.599   06 Jun 2027 05:27:42.599             0.000             0.000
       139   06 Jun 2027 05:28:19.631   06 Jun 2027 05:28:32.358            12.727          6363.500
       140   06 Jun 2027 06:58:17.894   06 Jun 2027 07:00:09.395           111.501         55750.500
       141   06 Jun 2027 07:00:40.978   06 Jun 2027 07:00:44.522             3.544          1772.000
       142   06 Jun 2027 07:02:39.925   06 Jun 2027 07:02:42.643             2.718          1359.000
       143   06 Jun 2027 07:02:45.179   06 Jun 2027 07:02:48.298             3.119          1559.500
       144   06 Jun 2027 07:03:17.294   06 Jun 2027 07:03:19.264             1.970           985.000
       145   06 Jun 2027 07:03:28.517   06 Jun 2027 07:03:28.894             0.377           188.500
       146   06 Jun 2027 07:04:24.302   06 Jun 2027 07:04:27.155             2.853          1426.500
       147   06 Jun 2027 08:35:36.151   06 Jun 2027 08:36:02.899            26.748         13358.532
       148   06 Jun 2027 08:36:28.879   06 Jun 2027 08:36:31.395             2.516           261.625
       149   06 Jun 2027 08:36:47.432   06 Jun 2027 08:36:51.399             3.967           418.562
       150   06 Jun 2027 08:37:04.512   06 Jun 2027 08:37:04.512             0.000             0.000
       151   06 Jun 2027 08:37:24.514   06 Jun 2027 08:37:26.723             2.209          1034.844
       152   06 Jun 2027 08:37:42.126   06 Jun 2027 08:37:49.053             6.927           412.469
       153   06 Jun 2027 08:37:53.882   06 Jun 2027 08:37:54.735             0.853            84.438
       154   06 Jun 2027 08:38:05.684   06 Jun 2027 08:38:05.684             0.000             0.000
       155   06 Jun 2027 08:38:47.990   06 Jun 2027 08:38:51.445             3.455          1664.219
       156   06 Jun 2027 08:39:09.483   06 Jun 2027 08:39:11.057             1.574           106.844
       157   06 Jun 2027 08:39:25.172   06 Jun 2027 08:39:26.950             1.778           126.000
       158   06 Jun 2027 08:40:08.821   06 Jun 2027 08:40:11.435             2.614           897.219
       159   06 Jun 2027 10:11:48.043   06 Jun 2027 10:12:04.458            16.415          7688.281
       160   06 Jun 2027 10:12:49.264   06 Jun 2027 10:12:52.355             3.091          1389.438
       161   06 Jun 2027 10:12:59.493   06 Jun 2027 10:13:02.464             2.971           180.187
       162   06 Jun 2027 10:13:13.762   06 Jun 2027 10:13:16.160             2.398           353.062
       163   06 Jun 2027 10:14:47.222   06 Jun 2027 10:14:52.988             5.766          2369.813
       164   06 Jun 2027 10:15:20.029   06 Jun 2027 10:15:26.373             6.344           787.563
       165   06 Jun 2027 10:16:06.911   06 Jun 2027 10:16:11.584             4.673          1256.250
       166   07 Jun 2027 03:58:37.073   07 Jun 2027 03:59:28.796            51.723         25861.500
       167   07 Jun 2027 04:00:41.787   07 Jun 2027 04:00:41.787             0.000             0.000
       168   07 Jun 2027 05:33:30.901   07 Jun 2027 05:35:32.968           122.067         61033.500
       169   07 Jun 2027 05:36:04.199   07 Jun 2027 05:36:30.248            26.049         13024.500
       170   07 Jun 2027 05:36:49.872   07 Jun 2027 05:37:03.245            13.373          6686.500
       171   07 Jun 2027 05:39:28.297   07 Jun 2027 05:39:32.705             4.408          2204.000
       172   07 Jun 2027 05:40:10.270   07 Jun 2027 05:40:32.815            22.545         11272.500
       173   07 Jun 2027 07:09:54.211   07 Jun 2027 07:12:09.017           134.806         67403.000
       174   07 Jun 2027 07:13:11.413   07 Jun 2027 07:13:19.061             7.648          3824.000
       175   07 Jun 2027 07:14:48.162   07 Jun 2027 07:14:50.589             2.427          1213.500
       176   07 Jun 2027 07:15:08.287   07 Jun 2027 07:15:16.104             7.817          3267.687
       177   07 Jun 2027 08:48:10.732   07 Jun 2027 08:48:37.735            27.003         13501.500
       178   07 Jun 2027 08:49:51.752   07 Jun 2027 08:49:56.020             4.268          2134.000
       179   07 Jun 2027 08:50:49.959   07 Jun 2027 08:50:55.484             5.525          2138.375
       180   07 Jun 2027 08:51:13.760   07 Jun 2027 08:51:16.709             2.949           431.875
       181   07 Jun 2027 08:51:54.898   07 Jun 2027 08:51:58.524             3.626          1193.406
       182   07 Jun 2027 10:23:33.653   07 Jun 2027 10:23:48.243            14.590          7295.000
       183   07 Jun 2027 10:23:56.854   07 Jun 2027 10:23:59.754             2.900           963.750
       184   07 Jun 2027 10:24:05.402   07 Jun 2027 10:24:07.494             2.092           121.750
       185   07 Jun 2027 10:24:39.923   07 Jun 2027 10:24:40.036             0.113            56.500
       186   07 Jun 2027 10:25:34.250   07 Jun 2027 10:25:38.920             4.670          2262.594
       187   07 Jun 2027 10:26:36.861   07 Jun 2027 10:26:43.461             6.600          1791.000
       188   07 Jun 2027 10:27:08.878   07 Jun 2027 10:27:13.326             4.448           573.656
       189   07 Jun 2027 10:28:33.451   07 Jun 2027 10:28:40.691             7.240          2503.906
       190   07 Jun 2027 10:28:49.074   07 Jun 2027 10:28:50.339             1.265           261.969
       191   08 Jun 2027 04:08:54.609   08 Jun 2027 04:09:40.633            46.024         23012.000
       192   08 Jun 2027 04:10:21.004   08 Jun 2027 04:10:52.566            31.562         15781.000
       193   08 Jun 2027 05:45:07.369   08 Jun 2027 05:47:03.114           115.745         57872.500
       194   08 Jun 2027 05:47:22.499   08 Jun 2027 05:47:49.328            26.829         13414.500
       195   08 Jun 2027 05:48:54.822   08 Jun 2027 05:48:56.171             1.349           674.500
       196   08 Jun 2027 05:50:18.544   08 Jun 2027 05:50:24.791             6.247          3123.500
       197   08 Jun 2027 05:52:08.657   08 Jun 2027 05:52:13.507             4.850          2425.000
       198   08 Jun 2027 07:22:13.744   08 Jun 2027 07:23:27.147            73.403         36701.500
       199   08 Jun 2027 07:24:24.773   08 Jun 2027 07:25:37.629            72.856         36166.843
       200   08 Jun 2027 07:28:33.592   08 Jun 2027 07:28:35.772             2.180          1090.000
       201   08 Jun 2027 09:00:11.658   08 Jun 2027 09:00:43.045            31.387         13443.406
       202   08 Jun 2027 09:01:05.420   08 Jun 2027 09:01:07.140             1.720           696.562
       203   08 Jun 2027 09:01:24.470   08 Jun 2027 09:01:27.487             3.017           541.562
       204   08 Jun 2027 09:02:23.221   08 Jun 2027 09:02:28.525             5.304          1129.531
       205   08 Jun 2027 09:02:40.879   08 Jun 2027 09:02:43.919             3.040            67.687
       206   08 Jun 2027 09:03:12.290   08 Jun 2027 09:03:13.801             1.511           755.500
       207   08 Jun 2027 09:03:16.956   08 Jun 2027 09:03:21.180             4.224           229.687
       208   08 Jun 2027 09:03:52.106   08 Jun 2027 09:03:53.699             1.593           796.500
       209   08 Jun 2027 10:33:19.071   08 Jun 2027 10:33:34.502            15.431          6460.250
       210   08 Jun 2027 10:34:50.364   08 Jun 2027 10:34:57.160             6.796           964.937
       211   08 Jun 2027 10:35:18.756   08 Jun 2027 10:35:22.829             4.073           444.125
       212   08 Jun 2027 10:35:49.946   08 Jun 2027 10:35:51.376             1.430           605.313
       213   08 Jun 2027 10:36:14.365   08 Jun 2027 10:36:23.892             9.527           108.594
       214   08 Jun 2027 10:37:49.266   08 Jun 2027 10:37:53.853             4.587          2102.562
       215   08 Jun 2027 10:38:38.259   08 Jun 2027 10:38:43.278             5.019          1351.062
       216   08 Jun 2027 10:39:24.923   08 Jun 2027 10:39:31.336             6.413          1111.594
       217   08 Jun 2027 10:40:18.035   08 Jun 2027 10:40:22.035             4.000          1206.312
       218   09 Jun 2027 04:20:01.257   09 Jun 2027 04:21:49.755           108.498         54249.000
       219   09 Jun 2027 04:23:03.573   09 Jun 2027 04:23:14.752            11.179          5589.500
       220   09 Jun 2027 04:26:34.768   09 Jun 2027 04:26:40.415             5.647          2823.500
       221   09 Jun 2027 04:27:09.466   09 Jun 2027 04:27:19.760            10.294          5147.000
       222   09 Jun 2027 04:28:14.265   09 Jun 2027 04:28:21.083             6.818          3409.000
       223   09 Jun 2027 05:57:27.215   09 Jun 2027 05:59:11.257           104.042         52021.000
       224   09 Jun 2027 05:59:55.790   09 Jun 2027 06:00:02.520             6.730          3365.000
       225   09 Jun 2027 06:03:40.444   09 Jun 2027 06:03:42.422             1.978           989.000
       226   09 Jun 2027 06:04:04.293   09 Jun 2027 06:04:13.289             8.996          4498.000
       227   09 Jun 2027 07:34:14.065   09 Jun 2027 07:36:02.341           108.276         54138.000
       228   09 Jun 2027 07:36:24.584   09 Jun 2027 07:36:41.401            16.817          8066.594
       229   09 Jun 2027 07:36:59.775   09 Jun 2027 07:36:59.775             0.000             0.000
       230   09 Jun 2027 07:38:32.156   09 Jun 2027 07:38:37.790             5.634          2817.000
       231   09 Jun 2027 07:39:07.681   09 Jun 2027 07:39:10.613             2.932          1435.844
       232   09 Jun 2027 07:39:19.703   09 Jun 2027 07:39:21.461             1.758            55.344
       233   09 Jun 2027 07:39:26.296   09 Jun 2027 07:39:26.624             0.328           151.094
       234   09 Jun 2027 07:39:42.322   09 Jun 2027 07:39:44.799             2.477           259.437
       235   09 Jun 2027 07:40:09.754   09 Jun 2027 07:40:10.418             0.664           314.500
       236   09 Jun 2027 09:12:12.119   09 Jun 2027 09:12:35.363            23.244         10730.438
       237   09 Jun 2027 09:12:58.809   09 Jun 2027 09:13:01.737             2.928           720.687
       238   09 Jun 2027 09:13:38.872   09 Jun 2027 09:13:38.872             0.000             0.000
       239   09 Jun 2027 09:13:51.585   09 Jun 2027 09:13:56.880             5.295          1459.375
       240   09 Jun 2027 09:14:16.628   09 Jun 2027 09:14:20.079             3.451           617.125
       241   09 Jun 2027 09:15:13.784   09 Jun 2027 09:15:21.180             7.396          1469.594
       242   09 Jun 2027 09:15:50.127   09 Jun 2027 09:15:52.384             2.257           904.594
       243   09 Jun 2027 10:45:49.616   09 Jun 2027 10:45:58.261             8.645          3103.719
       244   09 Jun 2027 10:46:35.666   09 Jun 2027 10:46:37.998             2.332           469.156
       245   09 Jun 2027 10:46:58.475   09 Jun 2027 10:47:02.329             3.854           272.781
       246   09 Jun 2027 10:47:55.378   09 Jun 2027 10:48:00.781             5.403           351.125
       247   09 Jun 2027 10:48:31.691   09 Jun 2027 10:48:31.990             0.299            70.187
       248   09 Jun 2027 10:49:29.364   09 Jun 2027 10:49:38.658             9.294          1442.437
       249   09 Jun 2027 10:49:49.721   09 Jun 2027 10:49:52.336             2.615           237.750
       250   09 Jun 2027 10:50:40.190   09 Jun 2027 10:50:43.379             3.189          1423.375
       251   09 Jun 2027 10:51:02.157   09 Jun 2027 10:51:02.157             0.000             0.000
       252   09 Jun 2027 10:51:41.156   09 Jun 2027 10:51:43.029             1.873           936.500
       253   09 Jun 2027 10:52:30.190   09 Jun 2027 10:52:34.597             4.407          2110.687
       254   10 Jun 2027 03:00:00.000   10 Jun 2027 03:00:07.901             7.901          3950.500
       255   10 Jun 2027 03:00:38.738   10 Jun 2027 03:00:42.067             3.329          1664.500
       256   10 Jun 2027 03:01:17.713   10 Jun 2027 03:01:17.713             0.000             0.000
       257   10 Jun 2027 03:01:50.367   10 Jun 2027 03:02:00.728            10.361          5180.500
       258   10 Jun 2027 04:31:29.798   10 Jun 2027 04:32:01.477            31.679         15839.500
       259   10 Jun 2027 04:32:57.477   10 Jun 2027 04:33:59.168            61.691         30845.500
       260   10 Jun 2027 04:34:04.054   10 Jun 2027 04:34:08.524             4.470          2235.000
       261   10 Jun 2027 04:35:29.911   10 Jun 2027 04:35:49.652            19.741          9870.500
       262   10 Jun 2027 04:37:46.659   10 Jun 2027 04:37:46.659             0.000             0.000
       263   10 Jun 2027 04:38:05.138   10 Jun 2027 04:38:10.457             5.319          2659.500
       264   10 Jun 2027 04:39:03.968   10 Jun 2027 04:39:18.785            14.817          7408.500
       265   10 Jun 2027 04:40:01.710   10 Jun 2027 04:40:05.427             3.717          1858.500
       266   10 Jun 2027 04:40:48.650   10 Jun 2027 04:40:48.934             0.284           142.000
       267   10 Jun 2027 06:09:21.223   10 Jun 2027 06:11:07.946           106.723         53361.500
       268   10 Jun 2027 06:11:35.192   10 Jun 2027 06:11:38.531             3.339          1669.500
       269   10 Jun 2027 06:13:41.516   10 Jun 2027 06:13:45.556             4.040          2020.000
       270   10 Jun 2027 06:16:27.556   10 Jun 2027 06:16:45.792            18.236          9118.000
       271   10 Jun 2027 07:46:05.689   10 Jun 2027 07:48:01.980           116.291         54906.531
       272   10 Jun 2027 07:49:05.688   10 Jun 2027 07:49:10.341             4.653          1990.875
       273   10 Jun 2027 07:49:49.725   10 Jun 2027 07:49:51.951             2.226          1113.000
       274   10 Jun 2027 07:50:51.609   10 Jun 2027 07:50:59.667             8.058          1982.062
       275   10 Jun 2027 07:51:02.915   10 Jun 2027 07:51:04.592             1.677           101.500
       276   10 Jun 2027 07:51:18.816   10 Jun 2027 07:51:19.979             1.163           413.875
       277   10 Jun 2027 09:24:14.903   10 Jun 2027 09:24:36.720            21.817         10675.000
       278   10 Jun 2027 09:24:53.224   10 Jun 2027 09:24:53.224             0.000             0.000
       279   10 Jun 2027 09:24:59.774   10 Jun 2027 09:25:04.623             4.849           604.406
       280   10 Jun 2027 09:25:21.364   10 Jun 2027 09:25:23.949             2.585           412.594
       281   10 Jun 2027 09:26:31.896   10 Jun 2027 09:26:37.075             5.179          1889.594
       282   10 Jun 2027 09:26:53.608   10 Jun 2027 09:26:55.612             2.004           516.656
       283   10 Jun 2027 09:27:32.725   10 Jun 2027 09:27:36.299             3.574          1073.281
       284   10 Jun 2027 09:27:59.984   10 Jun 2027 09:28:01.836             1.852           510.313
       285   10 Jun 2027 09:28:10.153   10 Jun 2027 09:28:10.410             0.257            67.531
       286   10 Jun 2027 10:58:06.582   10 Jun 2027 10:58:13.645             7.063          2907.281
       287   10 Jun 2027 10:58:53.646   10 Jun 2027 10:58:56.829             3.183          1219.281
       288   10 Jun 2027 10:59:32.620   10 Jun 2027 10:59:39.518             6.898           589.531
       289   10 Jun 2027 11:00:22.676   10 Jun 2027 11:00:24.073             1.397           698.500
       290   10 Jun 2027 11:00:26.355   10 Jun 2027 11:00:29.861             3.506           721.500
       291   10 Jun 2027 11:00:51.812   10 Jun 2027 11:00:53.572             1.760           313.062
       292   10 Jun 2027 11:01:17.458   10 Jun 2027 11:01:17.519             0.061            30.500
       293   10 Jun 2027 11:01:33.112   10 Jun 2027 11:01:37.277             4.165           813.000
       294   10 Jun 2027 11:01:43.584   10 Jun 2027 11:01:43.584             0.000             0.000
       295   10 Jun 2027 11:01:49.057   10 Jun 2027 11:01:53.455             4.398           368.125
       296   10 Jun 2027 11:02:51.376   10 Jun 2027 11:02:54.895             3.519          1365.000
       297   10 Jun 2027 11:03:30.864   10 Jun 2027 11:03:35.441             4.577          1124.031
       298   10 Jun 2027 11:04:13.274   10 Jun 2027 11:04:17.664             4.390          1151.094
       299   11 Jun 2027 03:10:30.654   11 Jun 2027 03:10:31.151             0.497           248.500
       300   11 Jun 2027 03:10:46.825   11 Jun 2027 03:11:10.455            23.630         11815.000
       301   11 Jun 2027 03:12:59.244   11 Jun 2027 03:13:04.888             5.644          2822.000
       302   11 Jun 2027 03:13:06.945   11 Jun 2027 03:13:47.732            40.787         20393.500
       303   11 Jun 2027 04:44:18.646   11 Jun 2027 04:45:38.378            79.732         39866.000
       304   11 Jun 2027 04:46:56.255   11 Jun 2027 04:46:56.255             0.000             0.000
       305   11 Jun 2027 04:48:03.699   11 Jun 2027 04:48:16.959            13.260          6630.000
       306   11 Jun 2027 04:50:04.082   11 Jun 2027 04:50:06.351             2.269          1134.500
       307   11 Jun 2027 04:52:31.164   11 Jun 2027 04:52:31.164             0.000             0.000
       308   11 Jun 2027 06:21:28.198   11 Jun 2027 06:23:32.759           124.561         62280.500
       309   11 Jun 2027 06:25:00.220   11 Jun 2027 06:25:07.068             6.848          3424.000
       310   11 Jun 2027 06:26:54.201   11 Jun 2027 06:27:10.116            15.915          7957.500
       311   11 Jun 2027 07:58:32.060   11 Jun 2027 08:00:00.088            88.028         43646.751
       312   11 Jun 2027 08:00:10.005   11 Jun 2027 08:00:10.446             0.441           211.250
       313   11 Jun 2027 08:00:21.033   11 Jun 2027 08:00:21.802             0.769           203.344
       314   11 Jun 2027 08:00:47.409   11 Jun 2027 08:00:53.685             6.276           155.656
       315   11 Jun 2027 08:01:19.090   11 Jun 2027 08:01:20.162             1.072           536.000
       316   11 Jun 2027 08:02:00.627   11 Jun 2027 08:02:03.455             2.828          1265.031
       317   11 Jun 2027 08:02:08.255   11 Jun 2027 08:02:09.489             1.234           150.000
       318   11 Jun 2027 08:02:39.740   11 Jun 2027 08:02:40.956             1.216           608.000
       319   11 Jun 2027 08:02:59.755   11 Jun 2027 08:03:01.278             1.523           761.500
       320   11 Jun 2027 08:03:08.235   11 Jun 2027 08:03:14.644             6.409           380.719
       321   11 Jun 2027 08:04:03.373   11 Jun 2027 08:04:06.437             3.064          1434.562
       322   11 Jun 2027 09:35:25.408   11 Jun 2027 09:35:46.114            20.706          9976.500
       323   11 Jun 2027 09:35:49.284   11 Jun 2027 09:35:51.196             1.912            99.063
       324   11 Jun 2027 09:35:53.587   11 Jun 2027 09:35:54.697             1.110            74.719
       325   11 Jun 2027 09:36:27.675   11 Jun 2027 09:36:27.675             0.000             0.000
       326   11 Jun 2027 09:36:42.085   11 Jun 2027 09:36:47.767             5.682          1364.187
       327   11 Jun 2027 09:37:09.504   11 Jun 2027 09:37:13.495             3.991           653.344
       328   11 Jun 2027 09:37:19.566   11 Jun 2027 09:37:19.984             0.418           158.844
       329   11 Jun 2027 09:37:41.371   11 Jun 2027 09:37:45.925             4.554           668.344
       330   11 Jun 2027 09:38:03.239   11 Jun 2027 09:38:07.409             4.170           541.062
       331   11 Jun 2027 09:38:27.435   11 Jun 2027 09:38:28.568             1.133           309.688
       332   11 Jun 2027 09:39:09.117   11 Jun 2027 09:39:14.227             5.110          1267.156
       333   11 Jun 2027 11:10:35.935   11 Jun 2027 11:10:41.169             5.234          2617.000
       334   11 Jun 2027 11:10:49.565   11 Jun 2027 11:10:50.528             0.963           315.719
       335   11 Jun 2027 11:12:40.179   11 Jun 2027 11:12:45.239             5.060          2442.187
       336   11 Jun 2027 11:13:07.556   11 Jun 2027 11:13:09.443             1.887           506.250
       337   11 Jun 2027 11:13:55.441   11 Jun 2027 11:13:58.466             3.025          1079.281
       338   11 Jun 2027 11:14:34.733   11 Jun 2027 11:14:36.744             2.011          1005.500
       339   12 Jun 2027 03:22:47.461   12 Jun 2027 03:23:15.635            28.174         14087.000
       340   12 Jun 2027 03:23:49.161   12 Jun 2027 03:24:07.209            18.048          9024.000
       341   12 Jun 2027 03:24:56.017   12 Jun 2027 03:25:06.973            10.956          5478.000
       342   12 Jun 2027 04:56:40.012   12 Jun 2027 04:58:45.385           125.373         62686.500
       343   12 Jun 2027 04:59:19.736   12 Jun 2027 04:59:32.747            13.011          6505.500
       344   12 Jun 2027 04:59:55.314   12 Jun 2027 04:59:55.314             0.000             0.000
       345   12 Jun 2027 05:00:05.676   12 Jun 2027 05:00:18.434            12.758          6379.000
       346   12 Jun 2027 05:02:44.096   12 Jun 2027 05:02:44.096             0.000             0.000
       347   12 Jun 2027 05:03:29.840   12 Jun 2027 05:03:43.571            13.731          6865.500
       348   12 Jun 2027 05:04:11.960   12 Jun 2027 05:04:11.960             0.000             0.000
       349   12 Jun 2027 06:33:54.544   12 Jun 2027 06:35:34.369            99.825         49912.500
       350   12 Jun 2027 06:35:56.973   12 Jun 2027 06:36:08.452            11.479          5739.500
       351   12 Jun 2027 06:36:28.844   12 Jun 2027 06:36:46.686            17.842          8921.000
       352   12 Jun 2027 06:37:45.470   12 Jun 2027 06:37:53.493             8.023          4011.500
       353   12 Jun 2027 06:39:44.151   12 Jun 2027 06:39:52.376             8.225          4112.500
       354   12 Jun 2027 08:10:56.655   12 Jun 2027 08:11:47.134            50.479         22580.657
       355   12 Jun 2027 08:11:54.465   12 Jun 2027 08:11:57.381             2.916           229.094
       356   12 Jun 2027 08:12:11.886   12 Jun 2027 08:12:14.429             2.543           442.750
       357   12 Jun 2027 08:12:46.025   12 Jun 2027 08:12:49.404             3.379           896.156
       358   12 Jun 2027 08:13:02.670   12 Jun 2027 08:13:03.566             0.896           414.563
       359   12 Jun 2027 08:13:16.663   12 Jun 2027 08:13:18.791             2.128           336.438
       360   12 Jun 2027 08:14:06.488   12 Jun 2027 08:14:10.170             3.682          1490.531
       361   12 Jun 2027 08:14:19.091   12 Jun 2027 08:14:19.555             0.464           167.375
       362   12 Jun 2027 08:15:52.800   12 Jun 2027 08:15:55.992             3.192          1596.000
       363   12 Jun 2027 09:47:40.300   12 Jun 2027 09:47:59.626            19.326          9662.313
       364   12 Jun 2027 09:48:20.126   12 Jun 2027 09:48:26.026             5.900           519.094
       365   12 Jun 2027 09:49:10.971   12 Jun 2027 09:49:13.847             2.876          1231.813
       366   12 Jun 2027 09:49:16.361   12 Jun 2027 09:49:16.750             0.389            78.563
       367   12 Jun 2027 09:49:51.710   12 Jun 2027 09:49:55.019             3.309          1028.562
       368   12 Jun 2027 09:49:56.593   12 Jun 2027 09:50:00.120             3.527            49.188
       369   12 Jun 2027 09:50:43.721   12 Jun 2027 09:50:47.240             3.519          1362.531
       370   12 Jun 2027 09:50:54.450   12 Jun 2027 09:50:54.450             0.000             0.000
       371   12 Jun 2027 09:51:07.540   12 Jun 2027 09:51:09.334             1.794           634.375
       372   12 Jun 2027 09:51:27.567   12 Jun 2027 09:51:27.567             0.000             0.000
       373   12 Jun 2027 09:51:51.327   12 Jun 2027 09:51:53.990             2.663          1312.281
       374   12 Jun 2027 11:25:49.460   12 Jun 2027 11:26:01.891            12.431          3444.156
       375   12 Jun 2027 11:26:32.461   12 Jun 2027 11:26:37.512             5.051           847.563
       376   13 Jun 2027 03:34:50.678   13 Jun 2027 03:35:03.056            12.378          6189.000
       377   13 Jun 2027 03:35:44.483   13 Jun 2027 03:35:55.583            11.100          5550.000
       378   13 Jun 2027 03:36:51.350   13 Jun 2027 03:36:53.396             2.046          1023.000
       379   13 Jun 2027 03:37:42.593   13 Jun 2027 03:37:50.966             8.373          4186.500
       380   13 Jun 2027 03:37:54.169   13 Jun 2027 03:38:08.871            14.702          7351.000
       381   13 Jun 2027 05:09:57.713   13 Jun 2027 05:11:58.017           120.304         60152.000
       382   13 Jun 2027 05:12:08.080   13 Jun 2027 05:12:15.440             7.360          3680.000
       383   13 Jun 2027 05:12:27.769   13 Jun 2027 05:12:40.045            12.276          6138.000
       384   13 Jun 2027 05:16:26.603   13 Jun 2027 05:16:39.536            12.933          6466.500
       385   13 Jun 2027 06:46:18.200   13 Jun 2027 06:48:37.535           139.335         69667.500
       386   13 Jun 2027 06:49:47.332   13 Jun 2027 06:49:51.298             3.966          1983.000
       387   13 Jun 2027 06:51:38.151   13 Jun 2027 06:51:45.409             7.258          3629.000
       388   13 Jun 2027 08:23:48.547   13 Jun 2027 08:24:35.089            46.542         21744.719
       389   13 Jun 2027 08:25:02.512   13 Jun 2027 08:25:04.414             1.902           856.969
       390   13 Jun 2027 08:25:18.243   13 Jun 2027 08:25:19.724             1.481           432.156
       391   13 Jun 2027 08:26:22.550   13 Jun 2027 08:26:26.439             3.889          1924.594
       392   13 Jun 2027 08:27:44.013   13 Jun 2027 08:27:45.038             1.025           512.500
       393   13 Jun 2027 08:28:11.226   13 Jun 2027 08:28:12.819             1.593           796.500
       394   13 Jun 2027 09:59:53.415   13 Jun 2027 10:00:10.505            17.090          7885.469
       395   13 Jun 2027 10:00:28.355   13 Jun 2027 10:00:29.130             0.775           208.438
       396   13 Jun 2027 10:01:00.299   13 Jun 2027 10:01:02.811             2.512           324.156
       397   13 Jun 2027 10:01:52.325   13 Jun 2027 10:01:56.590             4.265          1547.312
       398   13 Jun 2027 10:02:57.558   13 Jun 2027 10:02:58.235             0.677            16.969
       399   13 Jun 2027 10:03:18.237   13 Jun 2027 10:03:19.576             1.339           625.062
