uniorb/output/strategy_1/Camera/Camera_KinoSat_111001.txt

KinoSat_111001
-------------------------
    Access    *     Start Time (UTCG)     *     Stop Time (UTCG)  *   Duration (s) *   Data (Mbytes)
         1   01 Jun 2027 04:05:26.076   01 Jun 2027 04:07:12.318           106.242         53121.000
         2   01 Jun 2027 04:07:18.878   01 Jun 2027 04:07:21.802             2.924          1462.000
         3   01 Jun 2027 05:41:55.226   01 Jun 2027 05:43:52.014           116.788         58394.000
         4   01 Jun 2027 05:44:42.122   01 Jun 2027 05:44:51.892             9.770          4885.000
         5   01 Jun 2027 07:17:02.124   01 Jun 2027 07:19:38.456           156.332         78166.000
         6   01 Jun 2027 07:23:40.846   01 Jun 2027 07:23:47.187             6.341          3170.500
         7   01 Jun 2027 08:53:23.497   01 Jun 2027 08:55:27.174           123.677         61838.500
         8   01 Jun 2027 08:55:31.069   01 Jun 2027 08:55:37.142             6.073          3036.500
         9   01 Jun 2027 08:57:37.105   01 Jun 2027 08:57:39.018             1.913           956.500
        10   01 Jun 2027 08:58:19.551   01 Jun 2027 08:58:22.516             2.965          1482.500
        11   01 Jun 2027 08:59:41.532   01 Jun 2027 08:59:41.927             0.395           197.500
        12   01 Jun 2027 10:30:50.503   01 Jun 2027 10:32:40.611           110.108         55054.000
        13   01 Jun 2027 10:34:47.256   01 Jun 2027 10:35:11.280            24.024         12012.000
        14   02 Jun 2027 04:17:29.585   02 Jun 2027 04:18:16.953            47.368         23684.000
        15   02 Jun 2027 04:18:37.951   02 Jun 2027 04:18:48.177            10.226          5113.000
        16   02 Jun 2027 05:53:58.604   02 Jun 2027 05:56:16.010           137.406         68703.000
        17   02 Jun 2027 07:29:09.433   02 Jun 2027 07:31:27.405           137.972         68986.000
        18   02 Jun 2027 07:32:56.095   02 Jun 2027 07:33:01.401             5.306          2653.000
        19   02 Jun 2027 07:33:53.442   02 Jun 2027 07:34:00.434             6.992          3496.000
        20   02 Jun 2027 07:34:51.679   02 Jun 2027 07:35:00.379             8.700          4350.000
        21   02 Jun 2027 07:35:19.707   02 Jun 2027 07:35:20.873             1.166           583.000
        22   02 Jun 2027 09:05:06.876   02 Jun 2027 09:07:15.117           128.241         64120.500
        23   02 Jun 2027 09:08:43.727   02 Jun 2027 09:08:45.434             1.707           853.500
        24   02 Jun 2027 10:42:57.158   02 Jun 2027 10:45:06.829           129.671         64835.500
        25   02 Jun 2027 10:46:11.342   02 Jun 2027 10:46:12.134             0.792           396.000
        26   02 Jun 2027 10:46:42.814   02 Jun 2027 10:46:52.841            10.027          5013.500
        27   03 Jun 2027 03:06:46.761   03 Jun 2027 03:07:34.279            47.518         23759.000
        28   03 Jun 2027 03:08:09.562   03 Jun 2027 03:08:39.447            29.885         14942.500
        29   03 Jun 2027 04:29:56.303   03 Jun 2027 04:30:19.746            23.443         11721.500
        30   03 Jun 2027 04:31:59.584   03 Jun 2027 04:32:10.348            10.764          5382.000
        31   03 Jun 2027 06:05:43.000   03 Jun 2027 06:05:51.878             8.878          4439.000
        32   03 Jun 2027 06:06:05.289   03 Jun 2027 06:07:22.267            76.978         38489.000
        33   03 Jun 2027 06:08:48.245   03 Jun 2027 06:08:55.362             7.117          3558.500
        34   03 Jun 2027 06:09:01.621   03 Jun 2027 06:09:03.411             1.790           895.000
        35   03 Jun 2027 07:40:26.410   03 Jun 2027 07:42:35.674           129.264         64632.000
        36   03 Jun 2027 07:42:55.255   03 Jun 2027 07:43:24.849            29.594         14797.000
        37   03 Jun 2027 07:43:28.685   03 Jun 2027 07:43:32.869             4.184          2092.000
        38   03 Jun 2027 07:44:43.087   03 Jun 2027 07:44:59.495            16.408          8204.000
        39   03 Jun 2027 07:47:19.541   03 Jun 2027 07:47:21.112             1.571           785.500
        40   03 Jun 2027 09:17:11.157   03 Jun 2027 09:18:56.460           105.303         52651.500
        41   03 Jun 2027 09:19:20.613   03 Jun 2027 09:19:44.733            24.120         12060.000
        42   03 Jun 2027 09:20:07.879   03 Jun 2027 09:20:20.159            12.280          6140.000
        43   03 Jun 2027 09:21:17.808   03 Jun 2027 09:21:17.808             0.000             0.000
        44   03 Jun 2027 09:22:48.676   03 Jun 2027 09:23:02.576            13.900          6950.000
        45   03 Jun 2027 10:55:28.025   03 Jun 2027 10:56:26.878            58.853         29357.907
        46   03 Jun 2027 10:57:01.947   03 Jun 2027 10:57:05.070             3.123          1095.906
        47   03 Jun 2027 10:57:46.321   03 Jun 2027 10:57:49.429             3.108          1289.094
        48   03 Jun 2027 10:58:39.625   03 Jun 2027 10:58:42.897             3.272          1460.469
        49   04 Jun 2027 03:06:22.520   04 Jun 2027 03:06:37.775            15.255          7627.500
        50   04 Jun 2027 03:06:58.849   04 Jun 2027 03:07:02.140             3.291          1645.500
        51   04 Jun 2027 03:17:56.983   04 Jun 2027 03:19:07.347            70.364         35182.000
        52   04 Jun 2027 04:40:34.569   04 Jun 2027 04:40:51.794            17.225          8612.500
        53   04 Jun 2027 04:42:11.549   04 Jun 2027 04:42:22.664            11.115          5557.500
        54   04 Jun 2027 04:42:41.801   04 Jun 2027 04:42:54.195            12.394          6197.000
        55   04 Jun 2027 06:15:43.516   04 Jun 2027 06:16:57.128            73.612         36806.000
        56   04 Jun 2027 06:17:26.139   04 Jun 2027 06:17:34.382             8.243          4121.500
        57   04 Jun 2027 06:18:12.014   04 Jun 2027 06:18:29.598            17.584          8792.000
        58   04 Jun 2027 06:18:30.659   04 Jun 2027 06:18:33.219             2.560          1280.000
        59   04 Jun 2027 06:21:24.723   04 Jun 2027 06:22:00.270            35.547         17773.500
        60   04 Jun 2027 07:52:30.348   04 Jun 2027 07:54:06.812            96.464         47667.031
        61   04 Jun 2027 07:54:35.194   04 Jun 2027 07:54:38.888             3.694           838.750
        62   04 Jun 2027 07:55:28.252   04 Jun 2027 07:55:28.252             0.000             0.000
        63   04 Jun 2027 07:56:34.392   04 Jun 2027 07:56:43.466             9.074          3609.500
        64   04 Jun 2027 07:57:55.369   04 Jun 2027 07:57:57.642             2.273          1136.500
        65   04 Jun 2027 07:58:02.034   04 Jun 2027 07:58:04.037             2.003           803.844
        66   04 Jun 2027 07:58:55.185   04 Jun 2027 07:58:58.322             3.137          1568.500
        67   04 Jun 2027 07:59:06.531   04 Jun 2027 07:59:07.145             0.614           286.406
        68   04 Jun 2027 07:59:21.844   04 Jun 2027 07:59:22.835             0.991           142.781
        69   04 Jun 2027 09:29:31.378   04 Jun 2027 09:29:54.623            23.245         11593.531
        70   04 Jun 2027 09:30:06.653   04 Jun 2027 09:30:10.648             3.995           286.781
        71   04 Jun 2027 09:30:53.840   04 Jun 2027 09:31:00.684             6.844           137.937
        72   04 Jun 2027 09:31:14.727   04 Jun 2027 09:31:14.827             0.100            43.938
        73   04 Jun 2027 09:31:34.138   04 Jun 2027 09:31:35.197             1.059            18.125
        74   04 Jun 2027 09:32:00.319   04 Jun 2027 09:32:02.849             2.530           237.969
        75   04 Jun 2027 09:32:14.129   04 Jun 2027 09:32:15.236             1.107            19.250
        76   04 Jun 2027 09:32:30.979   04 Jun 2027 09:32:35.165             4.186           260.719
        77   04 Jun 2027 09:33:08.350   04 Jun 2027 09:33:08.350             0.000             0.000
        78   04 Jun 2027 09:33:40.410   04 Jun 2027 09:33:45.502             5.092          1840.219
        79   04 Jun 2027 09:33:51.520   04 Jun 2027 09:33:54.996             3.476           188.063
        80   04 Jun 2027 09:34:53.122   04 Jun 2027 09:34:58.112             4.990          1816.438
        81   04 Jun 2027 11:07:25.165   04 Jun 2027 11:07:39.759            14.594          6983.625
        82   04 Jun 2027 11:08:10.271   04 Jun 2027 11:08:14.937             4.666           927.250
        83   04 Jun 2027 11:08:47.996   04 Jun 2027 11:08:53.624             5.628           976.500
        84   04 Jun 2027 11:09:26.552   04 Jun 2027 11:09:28.830             2.278           802.500
        85   04 Jun 2027 11:09:51.698   04 Jun 2027 11:09:54.072             2.374           714.625
        86   04 Jun 2027 11:10:02.946   04 Jun 2027 11:10:06.228             3.282           177.125
        87   04 Jun 2027 11:10:21.205   04 Jun 2027 11:10:29.557             8.352           468.031
        88   04 Jun 2027 11:11:07.808   04 Jun 2027 11:11:15.359             7.551          1195.344
        89   05 Jun 2027 03:17:42.444   05 Jun 2027 03:18:24.200            41.756         20878.000
        90   05 Jun 2027 03:18:30.543   05 Jun 2027 03:18:37.985             7.442          3721.000
        91   05 Jun 2027 03:19:10.631   05 Jun 2027 03:19:54.379            43.748         21874.000
        92   05 Jun 2027 03:29:56.114   05 Jun 2027 03:30:17.995            21.881         10940.500
        93   05 Jun 2027 04:52:10.464   05 Jun 2027 04:53:05.249            54.785         27392.500
        94   05 Jun 2027 04:55:18.004   05 Jun 2027 04:55:36.631            18.627          9313.500
        95   05 Jun 2027 04:56:22.517   05 Jun 2027 04:56:22.517             0.000             0.000
        96   05 Jun 2027 04:56:26.433   05 Jun 2027 04:56:28.556             2.123          1061.500
        97   05 Jun 2027 06:27:03.577   05 Jun 2027 06:28:14.801            71.224         35612.000
        98   05 Jun 2027 06:29:05.672   05 Jun 2027 06:29:11.181             5.509          2754.500
        99   05 Jun 2027 06:29:14.154   05 Jun 2027 06:29:30.810            16.656          8328.000
       100   05 Jun 2027 06:29:46.372   05 Jun 2027 06:29:52.351             5.979          2989.500
       101   05 Jun 2027 06:31:48.497   05 Jun 2027 06:31:57.520             9.023          4511.500
       102   05 Jun 2027 06:33:27.524   05 Jun 2027 06:33:27.650             0.126            63.000
       103   05 Jun 2027 06:33:57.356   05 Jun 2027 06:34:02.267             4.911          2455.500
       104   05 Jun 2027 06:34:09.228   05 Jun 2027 06:34:18.830             9.602          4801.000
       105   05 Jun 2027 06:34:29.098   05 Jun 2027 06:34:29.098             0.000             0.000
       106   05 Jun 2027 08:04:38.188   05 Jun 2027 08:05:36.937            58.749         28753.501
       107   05 Jun 2027 08:06:32.291   05 Jun 2027 08:06:37.810             5.519          1521.500
       108   05 Jun 2027 08:07:00.712   05 Jun 2027 08:07:04.667             3.955           715.687
       109   05 Jun 2027 08:08:03.524   05 Jun 2027 08:08:04.197             0.673           336.500
       110   05 Jun 2027 08:08:35.931   05 Jun 2027 08:08:43.212             7.281          2297.219
       111   05 Jun 2027 08:09:08.897   05 Jun 2027 08:09:10.116             1.219           609.500
       112   05 Jun 2027 08:09:23.886   05 Jun 2027 08:09:27.871             3.985           469.781
       113   05 Jun 2027 08:10:28.068   05 Jun 2027 08:10:29.829             1.761           880.500
       114   05 Jun 2027 08:11:04.903   05 Jun 2027 08:11:10.117             5.214          1960.469
       115   05 Jun 2027 08:11:27.322   05 Jun 2027 08:11:33.247             5.925           140.781
       116   05 Jun 2027 09:41:21.064   05 Jun 2027 09:41:46.092            25.028          9623.750
       117   05 Jun 2027 09:42:11.280   05 Jun 2027 09:42:13.256             1.976           680.969
       118   05 Jun 2027 09:42:47.569   05 Jun 2027 09:42:49.392             1.823           377.125
       119   05 Jun 2027 09:44:10.098   05 Jun 2027 09:44:11.189             1.091           488.844
       120   05 Jun 2027 09:44:44.392   05 Jun 2027 09:44:51.870             7.478           863.594
       121   05 Jun 2027 09:45:35.810   05 Jun 2027 09:45:40.424             4.614          1373.125
       122   05 Jun 2027 09:45:47.930   05 Jun 2027 09:45:50.823             2.893           234.562
       123   05 Jun 2027 09:46:13.259   05 Jun 2027 09:46:16.573             3.314           701.125
       124   05 Jun 2027 09:47:08.033   05 Jun 2027 09:47:14.634             6.601          1316.312
       125   05 Jun 2027 09:47:20.972   05 Jun 2027 09:47:22.661             1.689           198.062
       126   05 Jun 2027 11:19:25.100   05 Jun 2027 11:19:40.474            15.374          6429.469
       127   05 Jun 2027 11:20:11.168   05 Jun 2027 11:20:13.050             1.882           864.656
       128   05 Jun 2027 11:21:24.924   05 Jun 2027 11:21:29.884             4.960          2246.062
       129   05 Jun 2027 11:21:49.497   05 Jun 2027 11:21:51.523             2.026           612.906
       130   05 Jun 2027 11:21:56.690   05 Jun 2027 11:22:00.839             4.149           149.281
       131   05 Jun 2027 11:22:21.888   05 Jun 2027 11:22:21.888             0.000             0.000
       132   05 Jun 2027 11:22:47.781   05 Jun 2027 11:22:50.213             2.432          1216.000
       133   05 Jun 2027 11:23:05.461   05 Jun 2027 11:23:09.811             4.350           727.438
       134   05 Jun 2027 11:23:19.075   05 Jun 2027 11:23:21.770             2.695           289.500
       135   06 Jun 2027 03:29:48.195   06 Jun 2027 03:30:43.234            55.039         27519.500
       136   06 Jun 2027 03:30:49.561   06 Jun 2027 03:31:02.937            13.376          6688.000
       137   06 Jun 2027 03:42:11.029   06 Jun 2027 03:42:29.327            18.298          9149.000
       138   06 Jun 2027 05:03:39.191   06 Jun 2027 05:05:15.475            96.284         48142.000
       139   06 Jun 2027 05:05:17.463   06 Jun 2027 05:05:17.463             0.000             0.000
       140   06 Jun 2027 05:05:23.312   06 Jun 2027 05:05:26.079             2.767          1383.500
       141   06 Jun 2027 05:07:35.534   06 Jun 2027 05:07:44.234             8.700          4350.000
       142   06 Jun 2027 05:08:40.601   06 Jun 2027 05:08:53.793            13.192          6596.000
       143   06 Jun 2027 05:09:04.033   06 Jun 2027 05:09:20.946            16.913          8456.500
       144   06 Jun 2027 06:38:33.516   06 Jun 2027 06:40:13.580           100.064         50032.000
       145   06 Jun 2027 06:41:09.260   06 Jun 2027 06:41:14.472             5.212          2606.000
       146   06 Jun 2027 06:41:55.118   06 Jun 2027 06:41:55.118             0.000             0.000
       147   06 Jun 2027 06:43:10.197   06 Jun 2027 06:43:16.070             5.873          2936.500
       148   06 Jun 2027 06:45:17.169   06 Jun 2027 06:45:22.933             5.764          2882.000
       149   06 Jun 2027 06:45:59.421   06 Jun 2027 06:46:09.644            10.223          5111.500
       150   06 Jun 2027 06:47:27.325   06 Jun 2027 06:47:36.991             9.666          4833.000
       151   06 Jun 2027 06:48:01.008   06 Jun 2027 06:48:02.189             1.181           590.500
       152   06 Jun 2027 08:16:33.199   06 Jun 2027 08:17:03.354            30.155         14189.062
       153   06 Jun 2027 08:17:32.519   06 Jun 2027 08:17:33.426             0.907             8.813
       154   06 Jun 2027 08:17:57.655   06 Jun 2027 08:18:01.670             4.015           684.594
       155   06 Jun 2027 08:19:23.530   06 Jun 2027 08:19:27.517             3.987          1865.969
       156   06 Jun 2027 08:20:03.095   06 Jun 2027 08:20:06.479             3.384          1016.594
       157   06 Jun 2027 08:20:33.000   06 Jun 2027 08:20:34.667             1.667           302.313
       158   06 Jun 2027 08:21:55.245   06 Jun 2027 08:22:00.937             5.692          2442.219
       159   06 Jun 2027 08:23:03.726   06 Jun 2027 08:23:07.720             3.994          1901.437
       160   06 Jun 2027 08:23:28.155   06 Jun 2027 08:23:32.267             4.112           635.000
       161   06 Jun 2027 08:23:39.104   06 Jun 2027 08:23:40.625             1.521            99.563
       162   06 Jun 2027 09:53:29.173   06 Jun 2027 09:53:47.859            18.686          8311.719
       163   06 Jun 2027 09:53:53.209   06 Jun 2027 09:53:58.660             5.451           107.656
       164   06 Jun 2027 09:55:14.465   06 Jun 2027 09:55:19.224             4.759          2118.750
       165   06 Jun 2027 09:55:33.234   06 Jun 2027 09:55:34.808             1.574           345.375
       166   06 Jun 2027 09:55:43.175   06 Jun 2027 09:55:43.629             0.454            41.781
       167   06 Jun 2027 09:56:23.459   06 Jun 2027 09:56:25.327             1.868           800.344
       168   06 Jun 2027 09:56:35.646   06 Jun 2027 09:56:36.218             0.572            21.937
       169   06 Jun 2027 09:57:16.842   06 Jun 2027 09:57:21.169             4.327           989.906
       170   06 Jun 2027 09:58:27.591   06 Jun 2027 09:58:31.433             3.842          1741.000
       171   06 Jun 2027 09:59:15.343   06 Jun 2027 09:59:19.511             4.168          1205.531
       172   06 Jun 2027 09:59:54.148   06 Jun 2027 09:59:56.424             2.276          1082.406
       173   06 Jun 2027 11:31:02.590   06 Jun 2027 11:31:21.718            19.128          6518.875
       174   06 Jun 2027 11:31:28.082   06 Jun 2027 11:31:29.042             0.960           141.937
       175   06 Jun 2027 11:32:06.629   06 Jun 2027 11:32:09.524             2.895          1151.594
       176   06 Jun 2027 11:32:23.966   06 Jun 2027 11:32:28.381             4.415            98.156
       177   06 Jun 2027 11:33:37.250   06 Jun 2027 11:33:43.337             6.087          1784.344
       178   06 Jun 2027 11:33:55.212   06 Jun 2027 11:33:55.821             0.609           290.469
       179   06 Jun 2027 11:34:24.471   06 Jun 2027 11:34:26.409             1.938           681.625
       180   06 Jun 2027 11:34:39.504   06 Jun 2027 11:34:43.045             3.541           409.219
       181   07 Jun 2027 03:41:44.415   07 Jun 2027 03:42:45.857            61.442         30721.000
       182   07 Jun 2027 03:43:12.083   07 Jun 2027 03:43:12.083             0.000             0.000
       183   07 Jun 2027 05:17:57.692   07 Jun 2027 05:20:27.132           149.440         74720.000
       184   07 Jun 2027 06:51:29.040   07 Jun 2027 06:53:14.656           105.616         52808.000
       185   07 Jun 2027 06:53:37.823   07 Jun 2027 06:53:37.864             0.041            20.500
       186   07 Jun 2027 06:54:36.380   07 Jun 2027 06:54:36.380             0.000             0.000
       187   07 Jun 2027 06:54:40.316   07 Jun 2027 06:54:49.343             9.027          4513.500
       188   07 Jun 2027 06:55:12.092   07 Jun 2027 06:55:12.092             0.000             0.000
       189   07 Jun 2027 06:57:40.296   07 Jun 2027 06:57:41.664             1.368           684.000
       190   07 Jun 2027 06:58:21.660   07 Jun 2027 06:58:21.716             0.056            28.000
       191   07 Jun 2027 06:58:35.712   07 Jun 2027 06:58:35.712             0.000             0.000
       192   07 Jun 2027 06:59:05.761   07 Jun 2027 06:59:10.965             5.204          2602.000
       193   07 Jun 2027 06:59:36.126   07 Jun 2027 06:59:52.293            16.167          8083.500
       194   07 Jun 2027 07:00:02.839   07 Jun 2027 07:00:02.839             0.000             0.000
       195   07 Jun 2027 08:28:55.084   07 Jun 2027 08:29:26.960            31.876         13888.218
       196   07 Jun 2027 08:30:27.440   07 Jun 2027 08:30:28.796             1.356           678.000
       197   07 Jun 2027 08:30:35.079   07 Jun 2027 08:30:40.750             5.671           789.281
       198   07 Jun 2027 08:31:01.314   07 Jun 2027 08:31:02.619             1.305           642.625
       199   07 Jun 2027 08:31:22.603   07 Jun 2027 08:31:22.603             0.000             0.000
       200   07 Jun 2027 08:32:37.830   07 Jun 2027 08:32:43.821             5.991          2820.375
       201   07 Jun 2027 08:33:06.195   07 Jun 2027 08:33:07.424             1.229           597.187
       202   07 Jun 2027 08:33:20.355   07 Jun 2027 08:33:20.654             0.299           135.000
       203   07 Jun 2027 08:34:29.253   07 Jun 2027 08:34:34.167             4.914          2005.094
       204   07 Jun 2027 10:05:58.072   07 Jun 2027 10:06:14.591            16.519          8216.937
       205   07 Jun 2027 10:06:47.111   07 Jun 2027 10:06:50.726             3.615           902.531
       206   07 Jun 2027 10:07:38.295   07 Jun 2027 10:07:42.215             3.920           273.719
       207   07 Jun 2027 10:08:07.093   07 Jun 2027 10:08:11.537             4.444           415.906
       208   07 Jun 2027 10:09:07.151   07 Jun 2027 10:09:12.963             5.812          1646.406
       209   07 Jun 2027 10:09:33.739   07 Jun 2027 10:09:38.580             4.841           412.000
       210   07 Jun 2027 10:09:45.850   07 Jun 2027 10:09:46.006             0.156            78.000
       211   07 Jun 2027 10:11:00.730   07 Jun 2027 10:11:06.920             6.190          2484.312
       212   07 Jun 2027 11:42:45.223   07 Jun 2027 11:42:57.024            11.801          5900.500
       213   07 Jun 2027 11:43:13.740   07 Jun 2027 11:43:18.142             4.402           680.437
       214   07 Jun 2027 11:43:36.062   07 Jun 2027 11:43:39.341             3.279           468.125
       215   07 Jun 2027 11:44:09.292   07 Jun 2027 11:44:11.171             1.879           935.969
       216   07 Jun 2027 11:45:28.516   07 Jun 2027 11:45:32.714             4.198          2099.000
       217   07 Jun 2027 11:45:57.828   07 Jun 2027 11:46:02.174             4.346          1043.781
       218   08 Jun 2027 03:53:36.237   08 Jun 2027 03:54:29.913            53.676         26838.000
       219   08 Jun 2027 03:55:04.852   08 Jun 2027 03:55:14.752             9.900          4950.000
       220   08 Jun 2027 05:30:02.796   08 Jun 2027 05:32:16.284           133.488         66744.000
       221   08 Jun 2027 05:32:56.457   08 Jun 2027 05:33:07.136            10.679          5339.500
       222   08 Jun 2027 05:33:31.149   08 Jun 2027 05:33:31.149             0.000             0.000
       223   08 Jun 2027 07:02:12.260   08 Jun 2027 07:02:22.585            10.325          5162.500
       224   08 Jun 2027 07:04:06.951   08 Jun 2027 07:05:44.530            97.579         48789.500
       225   08 Jun 2027 07:05:57.871   08 Jun 2027 07:06:06.590             8.719          4359.500
       226   08 Jun 2027 07:06:38.152   08 Jun 2027 07:06:43.672             5.520          2760.000
       227   08 Jun 2027 07:09:28.666   08 Jun 2027 07:09:32.913             4.247          2123.500
       228   08 Jun 2027 07:10:11.252   08 Jun 2027 07:10:11.441             0.189            94.500
       229   08 Jun 2027 07:10:23.940   08 Jun 2027 07:10:36.158            12.218          4793.625
       230   08 Jun 2027 07:11:16.496   08 Jun 2027 07:11:18.075             1.579           789.500
       231   08 Jun 2027 07:11:51.794   08 Jun 2027 07:11:51.888             0.094            47.000
       232   08 Jun 2027 07:12:00.183   08 Jun 2027 07:12:00.183             0.000             0.000
       233   08 Jun 2027 08:41:06.435   08 Jun 2027 08:41:31.890            25.455         10934.656
       234   08 Jun 2027 08:42:26.912   08 Jun 2027 08:42:34.840             7.928           958.531
       235   08 Jun 2027 08:42:51.287   08 Jun 2027 08:42:52.761             1.474           276.688
       236   08 Jun 2027 08:43:51.205   08 Jun 2027 08:43:55.753             4.548           635.219
       237   08 Jun 2027 08:43:59.715   08 Jun 2027 08:44:02.908             3.193           123.813
       238   08 Jun 2027 08:44:04.400   08 Jun 2027 08:44:05.707             1.307            46.625
       239   08 Jun 2027 08:44:46.927   08 Jun 2027 08:44:50.820             3.893          1286.406
       240   08 Jun 2027 08:45:17.595   08 Jun 2027 08:45:18.217             0.622           311.000
       241   08 Jun 2027 08:45:55.650   08 Jun 2027 08:45:59.436             3.786          1476.469
       242   08 Jun 2027 08:46:05.128   08 Jun 2027 08:46:05.874             0.746           117.531
       243   08 Jun 2027 08:46:09.305   08 Jun 2027 08:46:15.494             6.189           107.219
       244   08 Jun 2027 08:47:01.396   08 Jun 2027 08:47:02.574             1.178           589.000
       245   08 Jun 2027 10:18:09.395   08 Jun 2027 10:18:26.326            16.931          8345.562
       246   08 Jun 2027 10:19:25.358   08 Jun 2027 10:19:28.606             3.248          1175.375
       247   08 Jun 2027 10:19:41.653   08 Jun 2027 10:19:47.829             6.176           219.188
       248   08 Jun 2027 10:20:19.904   08 Jun 2027 10:20:24.426             4.522           972.625
       249   08 Jun 2027 10:21:25.848   08 Jun 2027 10:21:28.763             2.915          1423.563
       250   08 Jun 2027 10:21:40.535   08 Jun 2027 10:21:41.778             1.243           367.875
       251   08 Jun 2027 10:22:21.734   08 Jun 2027 10:22:23.669             1.935           803.219
       252   08 Jun 2027 11:54:49.233   08 Jun 2027 11:55:07.250            18.017          8657.625
       253   08 Jun 2027 11:55:23.971   08 Jun 2027 11:55:30.497             6.526           487.594
       254   08 Jun 2027 11:56:19.498   08 Jun 2027 11:56:20.671             1.173           586.500
       255   08 Jun 2027 11:56:31.217   08 Jun 2027 11:56:32.266             1.049           524.500
       256   08 Jun 2027 11:57:02.845   08 Jun 2027 11:57:05.182             2.337          1168.500
       257   08 Jun 2027 11:57:42.296   08 Jun 2027 11:57:44.590             2.294          1147.000
       258   08 Jun 2027 11:58:22.013   08 Jun 2027 11:58:26.381             4.368          1719.219
       259   08 Jun 2027 11:59:24.113   08 Jun 2027 11:59:30.564             6.451          1478.844
       260   08 Jun 2027 11:59:45.192   08 Jun 2027 11:59:46.724             1.532           457.125
       261   09 Jun 2027 04:05:41.620   09 Jun 2027 04:06:30.809            49.189         24594.500
       262   09 Jun 2027 04:06:41.137   09 Jun 2027 04:06:49.707             8.570          4285.000
       263   09 Jun 2027 04:07:28.716   09 Jun 2027 04:07:33.618             4.902          2451.000
       264   09 Jun 2027 05:42:10.435   09 Jun 2027 05:44:06.663           116.228         58114.000
       265   09 Jun 2027 05:45:30.205   09 Jun 2027 05:45:49.496            19.291          9645.500
       266   09 Jun 2027 07:17:17.979   09 Jun 2027 07:19:26.757           128.778         63702.531
       267   09 Jun 2027 07:21:59.318   09 Jun 2027 07:22:11.330            12.012          4758.844
       268   09 Jun 2027 07:23:56.234   09 Jun 2027 07:24:02.202             5.968          2984.000
       269   09 Jun 2027 08:53:39.559   09 Jun 2027 08:54:03.926            24.367         11348.813
       270   09 Jun 2027 08:55:35.065   09 Jun 2027 08:55:42.637             7.572          2831.750
       271   09 Jun 2027 08:56:25.530   09 Jun 2027 08:56:35.800            10.270           994.937
       272   09 Jun 2027 08:56:52.926   09 Jun 2027 08:56:54.594             1.668           411.719
       273   09 Jun 2027 08:57:16.945   09 Jun 2027 08:57:19.025             2.080           511.906
       274   09 Jun 2027 08:57:21.874   09 Jun 2027 08:57:23.287             1.413            66.688
       275   09 Jun 2027 08:58:13.510   09 Jun 2027 08:58:17.325             3.815          1385.781
       276   09 Jun 2027 10:31:05.485   09 Jun 2027 10:31:22.431            16.946          7950.344
       277   09 Jun 2027 10:31:37.269   09 Jun 2027 10:31:41.448             4.179           419.125
       278   09 Jun 2027 10:32:02.004   09 Jun 2027 10:32:03.832             1.828           642.375
       279   09 Jun 2027 10:32:57.068   09 Jun 2027 10:32:59.812             2.744           602.781
       280   09 Jun 2027 10:33:13.570   09 Jun 2027 10:33:16.822             3.252           412.594
       281   09 Jun 2027 10:33:21.465   09 Jun 2027 10:33:23.672             2.207           145.094
       282   09 Jun 2027 10:33:54.697   09 Jun 2027 10:34:03.427             8.730           969.531
       283   09 Jun 2027 10:34:09.450   09 Jun 2027 10:34:09.935             0.485           188.219
       284   09 Jun 2027 10:34:28.458   09 Jun 2027 10:34:28.458             0.000             0.000
       285   09 Jun 2027 10:34:32.364   09 Jun 2027 10:34:34.688             2.324           468.437
       286   09 Jun 2027 10:34:42.371   09 Jun 2027 10:34:48.217             5.846           240.094
       287   10 Jun 2027 04:17:44.617   10 Jun 2027 04:18:53.003            68.386         34193.000
       288   10 Jun 2027 04:19:39.424   10 Jun 2027 04:20:29.965            50.541         25270.500
       289   10 Jun 2027 05:54:13.484   10 Jun 2027 05:55:53.890           100.406         50203.000
       290   10 Jun 2027 05:56:06.124   10 Jun 2027 05:56:06.156             0.032            16.000
       291   10 Jun 2027 05:56:14.001   10 Jun 2027 05:56:14.715             0.714           357.000
       292   10 Jun 2027 05:57:00.329   10 Jun 2027 05:57:10.634            10.305          5152.500
       293   10 Jun 2027 07:29:24.924   10 Jun 2027 07:31:17.716           112.792         55441.500
       294   10 Jun 2027 07:31:33.346   10 Jun 2027 07:31:34.132             0.786           284.406
       295   10 Jun 2027 07:32:37.105   10 Jun 2027 07:32:40.771             3.666          1771.750
       296   10 Jun 2027 07:33:12.806   10 Jun 2027 07:33:12.806             0.000             0.000
       297   10 Jun 2027 07:35:33.696   10 Jun 2027 07:35:44.780            11.084          5195.844
       298   10 Jun 2027 09:05:21.151   10 Jun 2027 09:05:45.953            24.802         10356.219
       299   10 Jun 2027 09:07:30.362   10 Jun 2027 09:07:35.511             5.149          2519.562
       300   10 Jun 2027 09:08:27.701   10 Jun 2027 09:08:32.114             4.413           731.156
       301   10 Jun 2027 09:08:40.731   10 Jun 2027 09:08:41.123             0.392           196.000
       302   10 Jun 2027 09:09:00.938   10 Jun 2027 09:09:04.195             3.257           691.656
       303   10 Jun 2027 09:09:17.868   10 Jun 2027 09:09:20.803             2.935           427.281
       304   10 Jun 2027 09:10:45.183   10 Jun 2027 09:10:51.188             6.005          2137.062
       305   10 Jun 2027 09:11:16.600   10 Jun 2027 09:11:19.315             2.715           475.375
       306   10 Jun 2027 10:43:12.659   10 Jun 2027 10:43:30.087            17.428          7519.750
       307   10 Jun 2027 10:44:17.897   10 Jun 2027 10:44:22.904             5.007          1414.625
       308   10 Jun 2027 10:44:33.200   10 Jun 2027 10:44:33.200             0.000             0.000
       309   10 Jun 2027 10:45:22.006   10 Jun 2027 10:45:29.931             7.925          1846.938
       310   10 Jun 2027 10:46:08.020   10 Jun 2027 10:46:09.885             1.865           856.500
       311   10 Jun 2027 10:46:18.374   10 Jun 2027 10:46:20.218             1.844           103.563
       312   10 Jun 2027 10:47:20.534   10 Jun 2027 10:47:24.571             4.037          1833.687
       313   10 Jun 2027 10:47:30.096   10 Jun 2027 10:47:30.245             0.149            61.500
       314   11 Jun 2027 03:06:14.087   11 Jun 2027 03:06:46.005            31.918         15959.000
       315   11 Jun 2027 03:07:22.551   11 Jun 2027 03:07:33.459            10.908          5454.000
       316   11 Jun 2027 03:07:51.780   11 Jun 2027 03:08:08.677            16.897          8448.500
       317   11 Jun 2027 03:09:48.647   11 Jun 2027 03:09:49.659             1.012           506.000
       318   11 Jun 2027 04:30:11.287   11 Jun 2027 04:30:30.637            19.350          9675.000
       319   11 Jun 2027 04:31:09.056   11 Jun 2027 04:31:19.023             9.967          4983.500
       320   11 Jun 2027 04:32:14.260   11 Jun 2027 04:32:24.840            10.580          5290.000
       321   11 Jun 2027 04:32:38.762   11 Jun 2027 04:32:56.005            17.243          8621.500
       322   11 Jun 2027 06:05:57.616   11 Jun 2027 06:07:55.454           117.838         58919.000
       323   11 Jun 2027 06:09:46.997   11 Jun 2027 06:10:10.026            23.029         11514.500
       324   11 Jun 2027 07:40:40.664   11 Jun 2027 07:42:19.834            99.170         49585.000
       325   11 Jun 2027 07:42:35.794   11 Jun 2027 07:42:40.515             4.721          2175.937
       326   11 Jun 2027 07:43:11.692   11 Jun 2027 07:43:13.828             2.136           948.250
       327   11 Jun 2027 07:45:26.323   11 Jun 2027 07:45:34.586             8.263          3803.875
       328   11 Jun 2027 07:46:05.730   11 Jun 2027 07:46:06.627             0.897           448.500
       329   11 Jun 2027 07:46:15.789   11 Jun 2027 07:46:19.580             3.791           605.656
       330   11 Jun 2027 07:46:44.126   11 Jun 2027 07:46:46.450             2.324           767.062
       331   11 Jun 2027 07:46:58.853   11 Jun 2027 07:46:59.548             0.695           330.687
       332   11 Jun 2027 07:48:07.355   11 Jun 2027 07:48:10.930             3.575          1787.500
       333   11 Jun 2027 09:17:26.596   11 Jun 2027 09:17:51.297            24.701         11912.156
       334   11 Jun 2027 09:19:12.050   11 Jun 2027 09:19:19.570             7.520          1681.000
       335   11 Jun 2027 09:19:50.838   11 Jun 2027 09:19:52.635             1.797           589.906
       336   11 Jun 2027 09:20:21.061   11 Jun 2027 09:20:24.224             3.163           888.313
       337   11 Jun 2027 09:20:53.604   11 Jun 2027 09:20:56.737             3.133           611.344
       338   11 Jun 2027 09:21:04.257   11 Jun 2027 09:21:07.152             2.895           235.000
       339   11 Jun 2027 09:21:32.377   11 Jun 2027 09:21:41.225             8.848           788.281
       340   11 Jun 2027 09:22:35.342   11 Jun 2027 09:22:40.577             5.235          1691.156
       341   11 Jun 2027 09:22:55.200   11 Jun 2027 09:22:56.761             1.561           456.969
       342   11 Jun 2027 09:23:18.788   11 Jun 2027 09:23:23.512             4.724           580.375
       343   11 Jun 2027 10:55:42.480   11 Jun 2027 10:56:01.199            18.719          8081.281
       344   11 Jun 2027 10:56:37.771   11 Jun 2027 10:56:40.207             2.436          1142.875
       345   11 Jun 2027 10:57:20.797   11 Jun 2027 10:57:25.059             4.262          1216.656
       346   11 Jun 2027 10:57:33.374   11 Jun 2027 10:57:38.681             5.307           238.000
       347   11 Jun 2027 10:58:01.809   11 Jun 2027 10:58:05.652             3.843           516.875
       348   11 Jun 2027 10:58:12.415   11 Jun 2027 10:58:13.338             0.923           151.219
       349   11 Jun 2027 10:58:59.099   11 Jun 2027 10:59:10.049            10.950          1264.906
       350   12 Jun 2027 03:06:36.314   12 Jun 2027 03:07:15.624            39.310         19655.000
       351   12 Jun 2027 03:07:56.771   12 Jun 2027 03:07:56.771             0.000             0.000
       352   12 Jun 2027 03:18:12.276   12 Jun 2027 03:19:40.106            87.830         43915.000
       353   12 Jun 2027 04:40:48.765   12 Jun 2027 04:41:07.538            18.773          9386.500
       354   12 Jun 2027 04:42:26.932   12 Jun 2027 04:42:39.130            12.198          6099.000
       355   12 Jun 2027 04:43:38.293   12 Jun 2027 04:44:10.119            31.826         15913.000
       356   12 Jun 2027 06:15:58.382   12 Jun 2027 06:17:12.501            74.119         37059.500
       357   12 Jun 2027 06:17:48.746   12 Jun 2027 06:17:57.046             8.300          4150.000
       358   12 Jun 2027 06:18:07.187   12 Jun 2027 06:18:07.693             0.506           253.000
       359   12 Jun 2027 06:18:44.902   12 Jun 2027 06:18:55.880            10.978          5489.000
       360   12 Jun 2027 06:19:54.191   12 Jun 2027 06:19:58.739             4.548          2274.000
       361   12 Jun 2027 06:21:56.556   12 Jun 2027 06:22:16.606            20.050         10025.000
       362   12 Jun 2027 07:52:46.035   12 Jun 2027 07:53:52.167            66.132         31302.781
       363   12 Jun 2027 07:54:05.269   12 Jun 2027 07:54:05.410             0.141            70.500
       364   12 Jun 2027 07:54:40.307   12 Jun 2027 07:54:41.516             1.209           604.500
       365   12 Jun 2027 07:54:56.869   12 Jun 2027 07:55:03.530             6.661          1170.875
       366   12 Jun 2027 07:57:13.020   12 Jun 2027 07:57:21.253             8.233          3361.844
       367   12 Jun 2027 07:58:41.183   12 Jun 2027 07:58:43.934             2.751          1375.500
       368   12 Jun 2027 07:59:13.265   12 Jun 2027 07:59:20.325             7.060          1999.719
       369   12 Jun 2027 08:00:06.688   12 Jun 2027 08:00:06.688             0.000             0.000
       370   12 Jun 2027 09:29:47.065   12 Jun 2027 09:30:12.121            25.056          9106.687
       371   12 Jun 2027 09:30:46.392   12 Jun 2027 09:30:52.171             5.779           724.594
       372   12 Jun 2027 09:31:50.513   12 Jun 2027 09:31:50.757             0.244            12.469
       373   12 Jun 2027 09:33:04.725   12 Jun 2027 09:33:10.480             5.755          1770.938
       374   12 Jun 2027 09:33:24.446   12 Jun 2027 09:33:27.820             3.374            80.844
       375   12 Jun 2027 09:33:30.123   12 Jun 2027 09:33:32.419             2.296            71.969
       376   12 Jun 2027 09:33:43.043   12 Jun 2027 09:33:45.170             2.127           129.969
       377   12 Jun 2027 09:34:38.968   12 Jun 2027 09:34:41.859             2.891          1358.406
       378   12 Jun 2027 09:35:04.067   12 Jun 2027 09:35:09.491             5.424           694.000
       379   12 Jun 2027 09:35:47.301   12 Jun 2027 09:35:50.258             2.957           964.281
       380   12 Jun 2027 11:07:40.450   12 Jun 2027 11:07:55.955            15.505          6971.656
       381   12 Jun 2027 11:08:31.473   12 Jun 2027 11:08:33.794             2.321          1032.500
       382   12 Jun 2027 11:09:22.919   12 Jun 2027 11:09:24.604             1.685           668.687
       383   12 Jun 2027 11:09:55.746   12 Jun 2027 11:09:57.430             1.684           774.219
       384   12 Jun 2027 11:10:19.151   12 Jun 2027 11:10:19.151             0.000             0.000
       385   12 Jun 2027 11:10:21.149   12 Jun 2027 11:10:22.419             1.270           281.344
       386   12 Jun 2027 11:10:45.497   12 Jun 2027 11:10:48.556             3.059           635.844
       387   12 Jun 2027 11:10:57.745   12 Jun 2027 11:11:00.740             2.995           213.812
       388   12 Jun 2027 11:11:04.910   12 Jun 2027 11:11:05.509             0.599           130.313
       389   13 Jun 2027 03:17:57.618   13 Jun 2027 03:18:40.330            42.712         21356.000
       390   13 Jun 2027 03:18:52.907   13 Jun 2027 03:18:52.907             0.000             0.000
       391   13 Jun 2027 03:30:11.338   13 Jun 2027 03:31:09.526            58.188         29094.000
       392   13 Jun 2027 04:52:24.642   13 Jun 2027 04:53:08.858            44.216         22108.000
       393   13 Jun 2027 04:55:02.294   13 Jun 2027 04:55:02.294             0.000             0.000
       394   13 Jun 2027 04:55:38.202   13 Jun 2027 04:55:51.471            13.269          6634.500
       395   13 Jun 2027 04:56:38.042   13 Jun 2027 04:56:42.784             4.742          2371.000
       396   13 Jun 2027 06:27:18.328   13 Jun 2027 06:28:53.202            94.874         47437.000
       397   13 Jun 2027 06:29:30.036   13 Jun 2027 06:29:30.562             0.526           263.000
       398   13 Jun 2027 06:30:31.825   13 Jun 2027 06:30:38.214             6.389          3194.500
       399   13 Jun 2027 06:32:23.386   13 Jun 2027 06:32:34.513            11.127          5563.500
       400   13 Jun 2027 06:32:50.992   13 Jun 2027 06:33:02.379            11.387          5693.500
       401   13 Jun 2027 06:34:08.387   13 Jun 2027 06:34:17.779             9.392          4696.000
       402   13 Jun 2027 06:35:21.711   13 Jun 2027 06:35:39.198            17.487          8743.500
       403   13 Jun 2027 08:04:53.068   13 Jun 2027 08:05:49.670            56.602         27382.375
       404   13 Jun 2027 08:06:03.723   13 Jun 2027 08:06:04.868             1.145           439.156
       405   13 Jun 2027 08:06:28.850   13 Jun 2027 08:06:30.269             1.419           690.656
       406   13 Jun 2027 08:06:46.602   13 Jun 2027 08:06:49.376             2.774           182.844
       407   13 Jun 2027 08:07:14.919   13 Jun 2027 08:07:22.149             7.230           698.625
       408   13 Jun 2027 08:08:18.494   13 Jun 2027 08:08:21.203             2.709          1354.500
       409   13 Jun 2027 08:08:23.425   13 Jun 2027 08:08:24.813             1.388           300.031
       410   13 Jun 2027 08:10:18.558   13 Jun 2027 08:10:20.430             1.872           936.000
       411   13 Jun 2027 08:10:33.890   13 Jun 2027 08:10:40.409             6.519          2161.656
       412   13 Jun 2027 08:11:10.703   13 Jun 2027 08:11:17.631             6.928           946.687
       413   13 Jun 2027 09:41:36.367   13 Jun 2027 09:41:54.141            17.774          8408.313
       414   13 Jun 2027 09:42:45.890   13 Jun 2027 09:42:47.067             1.177           565.625
       415   13 Jun 2027 09:42:50.659   13 Jun 2027 09:42:53.898             3.239           112.250
       416   13 Jun 2027 09:44:14.718   13 Jun 2027 09:44:22.801             8.083          2292.531
       417   13 Jun 2027 09:44:41.001   13 Jun 2027 09:44:43.784             2.783            54.562
       418   13 Jun 2027 09:45:48.340   13 Jun 2027 09:45:50.916             2.576          1288.000
       419   13 Jun 2027 09:46:40.645   13 Jun 2027 09:46:46.463             5.818          2160.406
       420   13 Jun 2027 09:46:48.709   13 Jun 2027 09:46:57.091             8.382            70.187
       421   13 Jun 2027 09:47:56.851   13 Jun 2027 09:48:03.486             6.635          1867.500
       422   13 Jun 2027 11:19:39.910   13 Jun 2027 11:19:54.838            14.928          7464.000
       423   13 Jun 2027 11:20:10.148   13 Jun 2027 11:20:16.912             6.764           819.438
       424   13 Jun 2027 11:20:25.044   13 Jun 2027 11:20:27.257             2.213           254.125
       425   13 Jun 2027 11:21:40.278   13 Jun 2027 11:21:45.413             5.135          2263.375
       426   13 Jun 2027 11:22:04.144   13 Jun 2027 11:22:06.601             2.457           531.344
       427   13 Jun 2027 11:22:12.939   13 Jun 2027 11:22:12.939             0.000             0.000
       428   13 Jun 2027 11:22:15.719   13 Jun 2027 11:22:22.598             6.879           278.531
       429   13 Jun 2027 11:22:58.553   13 Jun 2027 11:23:01.851             3.298          1123.594
       430   13 Jun 2027 11:23:26.184   13 Jun 2027 11:23:34.069             7.885           760.406
