uniorb/output/strategy_1/Camera/Camera_KinoSat_111003.txt

KinoSat_111003
-------------------------
    Access    *     Start Time (UTCG)     *     Stop Time (UTCG)  *   Duration (s) *   Data (Mbytes)
         1   01 Jun 2027 03:46:17.055   01 Jun 2027 03:47:44.407            87.352         43676.000
         2   01 Jun 2027 03:47:58.744   01 Jun 2027 03:48:11.890            13.146          6573.000
         3   01 Jun 2027 03:48:20.640   01 Jun 2027 03:48:22.821             2.181          1090.500
         4   01 Jun 2027 03:48:36.093   01 Jun 2027 03:48:42.095             6.002          3001.000
         5   01 Jun 2027 05:22:38.690   01 Jun 2027 05:24:39.625           120.935         60467.500
         6   01 Jun 2027 05:24:59.593   01 Jun 2027 05:24:59.593             0.000             0.000
         7   01 Jun 2027 05:25:03.559   01 Jun 2027 05:25:04.813             1.254           627.000
         8   01 Jun 2027 05:25:32.079   01 Jun 2027 05:25:39.051             6.972          3486.000
         9   01 Jun 2027 06:56:08.220   01 Jun 2027 06:58:09.054           120.834         60417.000
        10   01 Jun 2027 06:58:38.138   01 Jun 2027 06:58:47.529             9.391          4695.500
        11   01 Jun 2027 07:01:50.051   01 Jun 2027 07:01:54.020             3.969          1984.500
        12   01 Jun 2027 07:02:46.881   01 Jun 2027 07:02:57.300            10.419          5209.500
        13   01 Jun 2027 07:04:37.057   01 Jun 2027 07:04:37.219             0.162            81.000
        14   01 Jun 2027 08:33:39.548   01 Jun 2027 08:35:27.606           108.058         54029.000
        15   01 Jun 2027 08:35:42.469   01 Jun 2027 08:36:02.783            20.314         10157.000
        16   01 Jun 2027 08:38:32.669   01 Jun 2027 08:38:44.374            11.705          5852.500
        17   01 Jun 2027 08:40:08.273   01 Jun 2027 08:40:23.950            15.677          7838.500
        18   01 Jun 2027 10:10:35.075   01 Jun 2027 10:12:12.191            97.116         48558.000
        19   01 Jun 2027 10:12:29.639   01 Jun 2027 10:12:34.063             4.424          2212.000
        20   01 Jun 2027 10:12:42.253   01 Jun 2027 10:12:42.525             0.272           136.000
        21   01 Jun 2027 10:13:37.556   01 Jun 2027 10:13:39.214             1.658           829.000
        22   01 Jun 2027 10:14:28.889   01 Jun 2027 10:14:39.412            10.523          5261.500
        23   01 Jun 2027 10:15:13.178   01 Jun 2027 10:15:21.904             8.726          4363.000
        24   01 Jun 2027 10:15:30.786   01 Jun 2027 10:15:44.993            14.207          7103.500
        25   01 Jun 2027 11:47:25.543   01 Jun 2027 11:49:21.555           116.012         58006.000
        26   02 Jun 2027 03:58:08.080   02 Jun 2027 03:58:47.912            39.832         19916.000
        27   02 Jun 2027 03:59:04.207   02 Jun 2027 03:59:15.369            11.162          5581.000
        28   02 Jun 2027 03:59:40.253   02 Jun 2027 03:59:42.296             2.043          1021.500
        29   02 Jun 2027 04:00:14.352   02 Jun 2027 04:00:14.352             0.000             0.000
        30   02 Jun 2027 05:34:40.247   02 Jun 2027 05:36:55.950           135.703         67851.500
        31   02 Jun 2027 05:37:56.794   02 Jun 2027 05:37:56.794             0.000             0.000
        32   02 Jun 2027 07:09:08.499   02 Jun 2027 07:11:00.670           112.171         56085.500
        33   02 Jun 2027 07:12:38.483   02 Jun 2027 07:13:03.206            24.723         12361.500
        34   02 Jun 2027 07:14:59.936   02 Jun 2027 07:15:14.092            14.156          7078.000
        35   02 Jun 2027 07:16:22.370   02 Jun 2027 07:16:26.399             4.029          2014.500
        36   02 Jun 2027 08:45:47.204   02 Jun 2027 08:48:01.515           134.311         67155.500
        37   02 Jun 2027 08:48:20.196   02 Jun 2027 08:48:25.321             5.125          2562.500
        38   02 Jun 2027 08:48:29.667   02 Jun 2027 08:48:34.024             4.357          2178.500
        39   02 Jun 2027 08:50:49.174   02 Jun 2027 08:50:53.894             4.720          2360.000
        40   02 Jun 2027 10:23:28.087   02 Jun 2027 10:25:26.883           118.796         59398.000
        41   02 Jun 2027 10:27:42.078   02 Jun 2027 10:27:52.978            10.900          5450.000
        42   02 Jun 2027 11:59:28.088   02 Jun 2027 12:00:00.000            31.912         15956.000
        43   03 Jun 2027 04:10:18.226   03 Jun 2027 04:11:06.657            48.431         24215.500
        44   03 Jun 2027 04:12:58.691   03 Jun 2027 04:12:58.691             0.000             0.000
        45   03 Jun 2027 05:46:49.616   03 Jun 2027 05:49:07.131           137.515         68757.500
        46   03 Jun 2027 05:49:15.557   03 Jun 2027 05:49:17.359             1.802           901.000
        47   03 Jun 2027 07:21:58.883   03 Jun 2027 07:24:16.642           137.759         68879.500
        48   03 Jun 2027 07:24:35.811   03 Jun 2027 07:24:48.447            12.636          6318.000
        49   03 Jun 2027 07:25:20.401   03 Jun 2027 07:25:20.401             0.000             0.000
        50   03 Jun 2027 07:28:25.725   03 Jun 2027 07:28:34.326             8.601          4300.500
        51   03 Jun 2027 08:58:22.089   03 Jun 2027 09:00:38.718           136.629         68314.500
        52   03 Jun 2027 09:03:40.706   03 Jun 2027 09:03:46.982             6.276          3138.000
        53   03 Jun 2027 09:03:54.651   03 Jun 2027 09:04:05.197            10.546          5273.000
        54   03 Jun 2027 10:35:36.367   03 Jun 2027 10:36:46.513            70.146         32181.312
        55   03 Jun 2027 10:37:11.050   03 Jun 2027 10:37:11.050             0.000             0.000
        56   03 Jun 2027 10:37:58.814   03 Jun 2027 10:38:04.551             5.737          2194.594
        57   03 Jun 2027 10:38:18.879   03 Jun 2027 10:38:21.176             2.297           447.750
        58   03 Jun 2027 10:38:46.033   03 Jun 2027 10:38:47.004             0.971           248.312
        59   03 Jun 2027 10:39:10.512   03 Jun 2027 10:39:10.560             0.048            24.000
        60   03 Jun 2027 10:39:46.514   03 Jun 2027 10:39:54.461             7.947          1834.187
        61   03 Jun 2027 10:40:05.234   03 Jun 2027 10:40:06.666             1.432           336.656
        62   04 Jun 2027 03:00:00.126   04 Jun 2027 03:00:16.947            16.821          8410.500
        63   04 Jun 2027 03:00:44.340   04 Jun 2027 03:00:53.601             9.261          4630.500
        64   04 Jun 2027 03:01:30.914   04 Jun 2027 03:02:07.685            36.771         18385.500
        65   04 Jun 2027 04:22:56.891   04 Jun 2027 04:23:16.306            19.415          9707.500
        66   04 Jun 2027 04:24:12.019   04 Jun 2027 04:24:15.852             3.833          1916.500
        67   04 Jun 2027 04:25:06.770   04 Jun 2027 04:25:11.996             5.226          2613.000
        68   04 Jun 2027 05:58:43.093   04 Jun 2027 06:00:38.487           115.394         57697.000
        69   04 Jun 2027 07:33:40.832   04 Jun 2027 07:35:59.554           138.722         68270.125
        70   04 Jun 2027 07:36:32.760   04 Jun 2027 07:36:36.657             3.897          1021.250
        71   04 Jun 2027 07:39:14.184   04 Jun 2027 07:39:18.106             3.922          1961.000
        72   04 Jun 2027 07:40:40.059   04 Jun 2027 07:40:43.335             3.276          1638.000
        73   04 Jun 2027 09:09:53.765   04 Jun 2027 09:10:21.800            28.035         11809.875
        74   04 Jun 2027 09:10:43.949   04 Jun 2027 09:10:48.541             4.592           206.687
        75   04 Jun 2027 09:10:57.068   04 Jun 2027 09:11:00.510             3.442           255.469
        76   04 Jun 2027 09:11:53.264   04 Jun 2027 09:11:57.778             4.514          1648.562
        77   04 Jun 2027 09:12:50.921   04 Jun 2027 09:12:52.771             1.850           707.094
        78   04 Jun 2027 09:13:10.676   04 Jun 2027 09:13:13.473             2.797           488.344
        79   04 Jun 2027 09:13:14.043   04 Jun 2027 09:13:15.936             1.893            17.812
        80   04 Jun 2027 09:13:34.246   04 Jun 2027 09:13:37.369             3.123           480.938
        81   04 Jun 2027 09:14:20.216   04 Jun 2027 09:14:24.544             4.328           711.563
        82   04 Jun 2027 09:14:43.390   04 Jun 2027 09:14:45.663             2.273           127.313
        83   04 Jun 2027 09:15:21.030   04 Jun 2027 09:15:22.442             1.412           389.656
        84   04 Jun 2027 09:15:26.829   04 Jun 2027 09:15:27.901             1.072           123.344
        85   04 Jun 2027 10:48:14.137   04 Jun 2027 10:48:33.430            19.293          9302.531
        86   04 Jun 2027 10:48:36.297   04 Jun 2027 10:48:36.896             0.599            57.094
        87   04 Jun 2027 10:49:57.834   04 Jun 2027 10:50:02.847             5.013          2198.781
        88   04 Jun 2027 10:50:19.334   04 Jun 2027 10:50:24.471             5.137            28.750
        89   04 Jun 2027 10:50:59.165   04 Jun 2027 10:51:00.448             1.283           641.500
        90   04 Jun 2027 10:51:55.046   04 Jun 2027 10:52:02.434             7.388          1813.156
        91   05 Jun 2027 03:00:00.000   05 Jun 2027 03:00:21.028            21.028         10514.000
        92   05 Jun 2027 03:10:48.646   05 Jun 2027 03:12:01.323            72.677         36338.500
        93   05 Jun 2027 03:13:35.211   05 Jun 2027 03:13:37.945             2.734          1367.000
        94   05 Jun 2027 03:14:02.270   05 Jun 2027 03:14:02.270             0.000             0.000
        95   05 Jun 2027 04:33:45.628   05 Jun 2027 04:34:07.014            21.386         10693.000
        96   05 Jun 2027 04:37:32.075   05 Jun 2027 04:37:48.197            16.122          8061.000
        97   05 Jun 2027 06:09:05.349   05 Jun 2027 06:09:30.250            24.901         12450.500
        98   05 Jun 2027 06:10:28.294   05 Jun 2027 06:11:39.808            71.514         35757.000
        99   05 Jun 2027 06:12:34.479   05 Jun 2027 06:12:42.435             7.956          3978.000
       100   05 Jun 2027 06:13:06.448   05 Jun 2027 06:13:09.468             3.020          1510.000
       101   05 Jun 2027 06:14:05.808   05 Jun 2027 06:14:05.808             0.000             0.000
       102   05 Jun 2027 06:14:07.700   05 Jun 2027 06:14:22.719            15.019          7509.500
       103   05 Jun 2027 07:45:13.807   05 Jun 2027 07:46:48.029            94.222         46885.782
       104   05 Jun 2027 07:46:56.236   05 Jun 2027 07:46:58.001             1.765           256.469
       105   05 Jun 2027 07:47:22.520   05 Jun 2027 07:47:24.338             1.818           766.219
       106   05 Jun 2027 07:48:28.700   05 Jun 2027 07:48:32.346             3.646          1823.000
       107   05 Jun 2027 07:48:38.998   05 Jun 2027 07:48:38.998             0.000             0.000
       108   05 Jun 2027 07:49:24.708   05 Jun 2027 07:49:24.740             0.032            16.000
       109   05 Jun 2027 07:50:21.183   05 Jun 2027 07:50:32.736            11.553          3572.469
       110   05 Jun 2027 07:50:52.001   05 Jun 2027 07:50:53.951             1.950           478.812
       111   05 Jun 2027 07:51:06.556   05 Jun 2027 07:51:08.198             1.642           371.781
       112   05 Jun 2027 07:52:43.068   05 Jun 2027 07:52:43.068             0.000             0.000
       113   05 Jun 2027 07:52:45.172   05 Jun 2027 07:52:48.312             3.140          1570.000
       114   05 Jun 2027 09:22:15.767   05 Jun 2027 09:22:38.919            23.152         11576.000
       115   05 Jun 2027 09:22:52.214   05 Jun 2027 09:22:57.980             5.766          1851.843
       116   05 Jun 2027 09:23:43.630   05 Jun 2027 09:23:56.934            13.304           848.375
       117   05 Jun 2027 09:25:00.031   05 Jun 2027 09:25:05.127             5.096           773.781
       118   05 Jun 2027 09:25:10.573   05 Jun 2027 09:25:13.142             2.569           143.844
       119   05 Jun 2027 09:26:04.836   05 Jun 2027 09:26:07.908             3.072          1355.313
       120   05 Jun 2027 09:26:27.953   05 Jun 2027 09:26:34.511             6.558           328.687
       121   05 Jun 2027 09:27:14.193   05 Jun 2027 09:27:17.089             2.896          1240.062
       122   05 Jun 2027 09:27:17.289   05 Jun 2027 09:27:18.331             1.042             6.250
       123   05 Jun 2027 11:00:15.586   05 Jun 2027 11:00:30.394            14.808          7404.000
       124   05 Jun 2027 11:01:06.885   05 Jun 2027 11:01:13.424             6.539          1383.969
       125   05 Jun 2027 11:01:56.285   05 Jun 2027 11:01:58.254             1.969           944.719
       126   05 Jun 2027 11:02:03.806   05 Jun 2027 11:02:08.606             4.800           173.500
       127   05 Jun 2027 11:02:32.330   05 Jun 2027 11:02:34.764             2.434           451.250
       128   05 Jun 2027 11:02:58.302   05 Jun 2027 11:02:59.081             0.779           196.438
       129   05 Jun 2027 11:03:11.595   05 Jun 2027 11:03:11.869             0.274           137.000
       130   05 Jun 2027 11:03:57.935   05 Jun 2027 11:04:00.438             2.503          1251.500
       131   06 Jun 2027 03:11:07.826   06 Jun 2027 03:11:48.589            40.763         20381.500
       132   06 Jun 2027 03:12:20.593   06 Jun 2027 03:12:38.440            17.847          8923.500
       133   06 Jun 2027 03:22:50.144   06 Jun 2027 03:23:53.082            62.938         31469.000
       134   06 Jun 2027 04:45:03.151   06 Jun 2027 04:45:43.486            40.335         20167.500
       135   06 Jun 2027 04:49:33.033   06 Jun 2027 04:49:33.033             0.000             0.000
       136   06 Jun 2027 06:20:09.999   06 Jun 2027 06:21:39.250            89.251         44625.500
       137   06 Jun 2027 06:22:11.969   06 Jun 2027 06:22:47.361            35.392         17696.000
       138   06 Jun 2027 06:25:38.898   06 Jun 2027 06:25:41.692             2.794          1397.000
       139   06 Jun 2027 06:25:50.825   06 Jun 2027 06:26:03.912            13.087          6543.500
       140   06 Jun 2027 06:26:12.790   06 Jun 2027 06:26:17.651             4.861          2430.500
       141   06 Jun 2027 07:57:24.317   06 Jun 2027 07:58:28.765            64.448         28846.906
       142   06 Jun 2027 07:59:15.556   06 Jun 2027 07:59:16.424             0.868           434.000
       143   06 Jun 2027 07:59:31.743   06 Jun 2027 07:59:35.609             3.866          1370.813
       144   06 Jun 2027 07:59:36.813   06 Jun 2027 07:59:37.327             0.514            37.625
       145   06 Jun 2027 08:00:06.599   06 Jun 2027 08:00:10.306             3.707           643.625
       146   06 Jun 2027 08:00:31.700   06 Jun 2027 08:00:34.140             2.440           231.437
       147   06 Jun 2027 08:01:26.445   06 Jun 2027 08:01:32.179             5.734          1631.719
       148   06 Jun 2027 08:02:06.974   06 Jun 2027 08:02:07.803             0.829           414.500
       149   06 Jun 2027 08:02:33.304   06 Jun 2027 08:02:38.896             5.592          1027.437
       150   06 Jun 2027 08:02:53.654   06 Jun 2027 08:02:54.394             0.740           279.719
       151   06 Jun 2027 08:03:26.070   06 Jun 2027 08:03:27.675             1.605           802.500
       152   06 Jun 2027 08:04:48.926   06 Jun 2027 08:04:49.370             0.444           222.000
       153   06 Jun 2027 09:34:19.608   06 Jun 2027 09:34:40.182            20.574         10287.000
       154   06 Jun 2027 09:35:02.740   06 Jun 2027 09:35:05.512             2.772          1121.062
       155   06 Jun 2027 09:35:56.231   06 Jun 2027 09:35:58.894             2.663           549.906
       156   06 Jun 2027 09:36:44.513   06 Jun 2027 09:36:47.637             3.124          1084.406
       157   06 Jun 2027 09:36:51.137   06 Jun 2027 09:36:53.097             1.960           109.375
       158   06 Jun 2027 09:37:08.806   06 Jun 2027 09:37:13.272             4.466           490.906
       159   06 Jun 2027 09:37:30.154   06 Jun 2027 09:37:34.946             4.792            42.531
       160   06 Jun 2027 09:37:44.789   06 Jun 2027 09:37:45.217             0.428             5.906
       161   06 Jun 2027 09:38:09.766   06 Jun 2027 09:38:12.196             2.430           509.125
       162   06 Jun 2027 09:38:29.892   06 Jun 2027 09:38:39.454             9.562           533.625
       163   06 Jun 2027 09:39:01.257   06 Jun 2027 09:39:02.373             1.116           333.469
       164   06 Jun 2027 09:39:55.044   06 Jun 2027 09:40:02.150             7.106          1494.781
       165   06 Jun 2027 09:40:10.807   06 Jun 2027 09:40:14.668             3.861           162.188
       166   06 Jun 2027 09:40:21.546   06 Jun 2027 09:40:22.585             1.039           206.938
       167   06 Jun 2027 11:12:14.807   06 Jun 2027 11:12:29.406            14.599          6699.312
       168   06 Jun 2027 11:13:01.483   06 Jun 2027 11:13:05.995             4.512           886.656
       169   06 Jun 2027 11:13:39.446   06 Jun 2027 11:13:43.724             4.278           921.000
       170   06 Jun 2027 11:14:01.576   06 Jun 2027 11:14:07.253             5.677           487.719
       171   06 Jun 2027 11:14:41.943   06 Jun 2027 11:14:45.343             3.400          1035.156
       172   06 Jun 2027 11:14:51.598   06 Jun 2027 11:14:55.310             3.712           175.937
       173   06 Jun 2027 11:15:12.464   06 Jun 2027 11:15:18.034             5.570           536.063
       174   06 Jun 2027 11:15:59.876   06 Jun 2027 11:16:02.338             2.462          1026.125
       175   07 Jun 2027 03:22:36.221   07 Jun 2027 03:23:15.889            39.668         19834.000
       176   07 Jun 2027 03:23:28.727   07 Jun 2027 03:23:48.698            19.971          9985.500
       177   07 Jun 2027 03:24:42.133   07 Jun 2027 03:24:46.205             4.072          2036.000
       178   07 Jun 2027 03:34:46.895   07 Jun 2027 03:35:25.994            39.099         19549.500
       179   07 Jun 2027 04:56:48.699   07 Jun 2027 04:57:44.758            56.059         28029.500
       180   07 Jun 2027 05:00:15.005   07 Jun 2027 05:00:31.012            16.007          8003.500
       181   07 Jun 2027 05:01:18.551   07 Jun 2027 05:01:18.947             0.396           198.000
       182   07 Jun 2027 05:02:07.354   07 Jun 2027 05:02:14.679             7.325          3662.500
       183   07 Jun 2027 06:31:39.395   07 Jun 2027 06:33:22.236           102.841         51420.500
       184   07 Jun 2027 06:35:03.529   07 Jun 2027 06:35:03.529             0.000             0.000
       185   07 Jun 2027 06:37:26.522   07 Jun 2027 06:37:32.958             6.436          3218.000
       186   07 Jun 2027 06:38:30.699   07 Jun 2027 06:38:42.073            11.374          5687.000
       187   07 Jun 2027 06:39:21.503   07 Jun 2027 06:39:21.503             0.000             0.000
       188   07 Jun 2027 06:39:56.134   07 Jun 2027 06:40:20.089            23.955         11977.500
       189   07 Jun 2027 08:09:25.590   07 Jun 2027 08:10:10.365            44.775         20765.467
       190   07 Jun 2027 08:11:15.780   07 Jun 2027 08:11:28.291            12.511          2044.219
       191   07 Jun 2027 08:13:04.809   07 Jun 2027 08:13:13.153             8.344          2812.781
       192   07 Jun 2027 08:14:09.869   07 Jun 2027 08:14:13.490             3.621          1710.781
       193   07 Jun 2027 08:14:34.166   07 Jun 2027 08:14:34.410             0.244           122.000
       194   07 Jun 2027 08:15:21.081   07 Jun 2027 08:15:22.401             1.320           660.000
       195   07 Jun 2027 08:15:28.131   07 Jun 2027 08:15:31.168             3.037          1501.656
       196   07 Jun 2027 08:16:44.297   07 Jun 2027 08:16:48.184             3.887          1943.500
       197   07 Jun 2027 09:46:11.231   07 Jun 2027 09:46:29.362            18.131          8780.719
       198   07 Jun 2027 09:46:59.679   07 Jun 2027 09:47:04.217             4.538           607.687
       199   07 Jun 2027 09:47:13.169   07 Jun 2027 09:47:17.986             4.817           279.750
       200   07 Jun 2027 09:48:11.404   07 Jun 2027 09:48:16.796             5.392          1605.844
       201   07 Jun 2027 09:49:19.690   07 Jun 2027 09:49:25.623             5.933          1229.406
       202   07 Jun 2027 09:50:25.448   07 Jun 2027 09:50:28.964             3.516          1607.125
       203   07 Jun 2027 09:50:53.023   07 Jun 2027 09:50:55.142             2.119           664.594
       204   07 Jun 2027 09:51:32.633   07 Jun 2027 09:51:37.104             4.471          1087.781
       205   07 Jun 2027 09:52:35.181   07 Jun 2027 09:52:39.573             4.392          1758.906
       206   07 Jun 2027 09:52:54.618   07 Jun 2027 09:52:55.801             1.183           470.156
       207   07 Jun 2027 11:24:16.249   07 Jun 2027 11:24:31.678            15.429          6997.500
       208   07 Jun 2027 11:25:01.983   07 Jun 2027 11:25:03.569             1.586           697.031
       209   07 Jun 2027 11:25:33.617   07 Jun 2027 11:25:36.439             2.822           239.969
       210   07 Jun 2027 11:25:55.406   07 Jun 2027 11:25:55.406             0.000             0.000
       211   07 Jun 2027 11:26:02.016   07 Jun 2027 11:26:03.833             1.817           761.687
       212   07 Jun 2027 11:27:10.703   07 Jun 2027 11:27:16.060             5.357          1962.219
       213   07 Jun 2027 11:27:29.653   07 Jun 2027 11:27:33.681             4.028           205.750
       214   07 Jun 2027 11:28:10.303   07 Jun 2027 11:28:19.628             9.325          1046.062
       215   07 Jun 2027 11:28:21.619   07 Jun 2027 11:28:21.697             0.078            15.750
       216   08 Jun 2027 03:34:38.083   08 Jun 2027 03:35:35.306            57.223         28611.500
       217   08 Jun 2027 03:35:49.115   08 Jun 2027 03:35:54.506             5.391          2695.500
       218   08 Jun 2027 05:10:35.673   08 Jun 2027 05:12:09.620            93.947         46973.500
       219   08 Jun 2027 05:12:20.769   08 Jun 2027 05:12:48.370            27.601         13800.500
       220   08 Jun 2027 05:12:59.449   08 Jun 2027 05:13:15.603            16.154          8077.000
       221   08 Jun 2027 05:13:21.819   08 Jun 2027 05:13:21.819             0.000             0.000
       222   08 Jun 2027 05:13:40.289   08 Jun 2027 05:13:45.305             5.016          2508.000
       223   08 Jun 2027 05:13:53.216   08 Jun 2027 05:13:53.521             0.305           152.500
       224   08 Jun 2027 06:44:25.193   08 Jun 2027 06:46:10.159           104.966         52483.000
       225   08 Jun 2027 06:47:52.809   08 Jun 2027 06:47:55.253             2.444          1222.000
       226   08 Jun 2027 06:48:05.489   08 Jun 2027 06:48:06.845             1.356           678.000
       227   08 Jun 2027 06:51:20.804   08 Jun 2027 06:51:38.912            18.108          9054.000
       228   08 Jun 2027 06:51:55.947   08 Jun 2027 06:51:56.405             0.458           229.000
       229   08 Jun 2027 06:52:27.248   08 Jun 2027 06:52:31.334             4.086          2043.000
       230   08 Jun 2027 06:52:53.122   08 Jun 2027 06:52:54.851             1.729           864.500
       231   08 Jun 2027 08:21:28.989   08 Jun 2027 08:22:01.075            32.086         13340.781
       232   08 Jun 2027 08:23:14.408   08 Jun 2027 08:23:18.299             3.891          1800.406
       233   08 Jun 2027 08:24:38.830   08 Jun 2027 08:24:43.447             4.617          2102.344
       234   08 Jun 2027 08:26:07.546   08 Jun 2027 08:26:12.895             5.349          2628.094
       235   08 Jun 2027 08:26:41.689   08 Jun 2027 08:26:47.073             5.384           597.156
       236   08 Jun 2027 08:26:50.325   08 Jun 2027 08:26:51.278             0.953            44.031
       237   08 Jun 2027 08:27:15.510   08 Jun 2027 08:27:19.609             4.099           741.969
       238   08 Jun 2027 08:28:15.522   08 Jun 2027 08:28:19.641             4.119          1731.906
       239   08 Jun 2027 09:58:24.032   08 Jun 2027 09:58:39.416            15.384          7441.687
       240   08 Jun 2027 09:58:44.904   08 Jun 2027 09:58:46.143             1.239           101.594
       241   08 Jun 2027 09:59:07.760   08 Jun 2027 09:59:14.447             6.687           416.688
       242   08 Jun 2027 10:00:47.082   08 Jun 2027 10:00:50.296             3.214           928.750
       243   08 Jun 2027 10:01:22.877   08 Jun 2027 10:01:28.763             5.886           644.062
       244   08 Jun 2027 10:01:34.996   08 Jun 2027 10:01:40.387             5.391            98.281
       245   08 Jun 2027 10:02:16.080   08 Jun 2027 10:02:19.618             3.538          1115.406
       246   08 Jun 2027 10:03:19.206   08 Jun 2027 10:03:24.600             5.394          1803.031
       247   08 Jun 2027 10:04:06.963   08 Jun 2027 10:04:09.822             2.859          1306.531
       248   08 Jun 2027 10:04:30.694   08 Jun 2027 10:04:38.284             7.590           499.312
       249   08 Jun 2027 10:04:39.472   08 Jun 2027 10:04:41.827             2.355            37.125
       250   08 Jun 2027 11:35:29.770   08 Jun 2027 11:35:46.278            16.508          7347.750
       251   08 Jun 2027 11:36:23.073   08 Jun 2027 11:36:31.082             8.009           748.469
       252   08 Jun 2027 11:36:55.320   08 Jun 2027 11:36:59.976             4.656           757.437
       253   08 Jun 2027 11:37:03.370   08 Jun 2027 11:37:03.667             0.297            86.125
       254   08 Jun 2027 11:38:11.882   08 Jun 2027 11:38:17.348             5.466          1976.312
       255   08 Jun 2027 11:39:15.313   08 Jun 2027 11:39:23.674             8.361          1811.406
       256   09 Jun 2027 03:46:32.074   09 Jun 2027 03:47:18.521            46.447         23223.500
       257   09 Jun 2027 03:47:26.173   09 Jun 2027 03:47:37.897            11.724          5862.000
       258   09 Jun 2027 03:47:54.303   09 Jun 2027 03:47:54.303             0.000             0.000
       259   09 Jun 2027 03:48:51.831   09 Jun 2027 03:48:57.571             5.740          2870.000
       260   09 Jun 2027 05:22:54.481   09 Jun 2027 05:25:14.775           140.294         70147.000
       261   09 Jun 2027 06:57:00.816   09 Jun 2027 06:59:02.350           121.534         60767.000
       262   09 Jun 2027 06:59:33.259   09 Jun 2027 06:59:40.295             7.036          2577.594
       263   09 Jun 2027 07:03:44.591   09 Jun 2027 07:03:49.671             5.080          2540.000
       264   09 Jun 2027 07:04:37.686   09 Jun 2027 07:04:44.644             6.958          3479.000
       265   09 Jun 2027 07:04:52.132   09 Jun 2027 07:04:54.164             2.032          1016.000
       266   09 Jun 2027 08:33:55.375   09 Jun 2027 08:34:21.271            25.896         11121.687
       267   09 Jun 2027 08:35:32.879   09 Jun 2027 08:35:36.936             4.057          1955.844
       268   09 Jun 2027 08:35:57.331   09 Jun 2027 08:35:58.598             1.267           400.031
       269   09 Jun 2027 08:36:24.547   09 Jun 2027 08:36:27.904             3.357           171.031
       270   09 Jun 2027 08:37:10.808   09 Jun 2027 08:37:12.254             1.446           682.250
       271   09 Jun 2027 08:38:13.976   09 Jun 2027 08:38:17.080             3.104          1542.469
       272   09 Jun 2027 08:38:34.515   09 Jun 2027 08:38:38.334             3.819           544.844
       273   09 Jun 2027 08:39:16.863   09 Jun 2027 08:39:16.863             0.000             0.000
       274   09 Jun 2027 08:39:53.687   09 Jun 2027 08:39:59.175             5.488          2323.031
       275   09 Jun 2027 08:40:18.966   09 Jun 2027 08:40:21.050             2.084           618.469
       276   09 Jun 2027 10:10:50.311   09 Jun 2027 10:11:09.280            18.969          8370.375
       277   09 Jun 2027 10:11:40.247   09 Jun 2027 10:11:40.608             0.361            57.062
       278   09 Jun 2027 10:12:25.152   09 Jun 2027 10:12:28.781             3.629           286.438
       279   09 Jun 2027 10:12:34.203   09 Jun 2027 10:12:35.576             1.373            49.469
       280   09 Jun 2027 10:12:43.036   09 Jun 2027 10:12:44.610             1.574           233.125
       281   09 Jun 2027 10:13:48.510   09 Jun 2027 10:13:52.762             4.252          1996.875
       282   09 Jun 2027 10:14:22.147   09 Jun 2027 10:14:25.753             3.606           918.281
       283   09 Jun 2027 10:14:45.987   09 Jun 2027 10:14:47.158             1.171           568.937
       284   09 Jun 2027 10:14:55.410   09 Jun 2027 10:14:57.666             2.256           257.875
       285   09 Jun 2027 10:15:18.597   09 Jun 2027 10:15:20.157             1.560           654.094
       286   09 Jun 2027 10:15:41.111   09 Jun 2027 10:15:41.111             0.000             0.000
       287   09 Jun 2027 10:15:44.368   09 Jun 2027 10:15:47.033             2.665           756.594
       288   09 Jun 2027 10:16:14.492   09 Jun 2027 10:16:16.560             2.068           858.094
       289   09 Jun 2027 10:16:31.314   09 Jun 2027 10:16:32.453             1.139           458.656
       290   09 Jun 2027 11:47:41.045   09 Jun 2027 11:47:54.349            13.304          5862.094
       291   09 Jun 2027 11:48:12.705   09 Jun 2027 11:48:14.029             1.324           411.187
       292   09 Jun 2027 11:48:30.895   09 Jun 2027 11:48:31.998             1.103           323.063
       293   09 Jun 2027 11:49:16.809   09 Jun 2027 11:49:17.233             0.424           212.000
       294   09 Jun 2027 11:49:43.109   09 Jun 2027 11:49:55.814            12.705          1761.719
       295   09 Jun 2027 11:51:08.792   09 Jun 2027 11:51:12.765             3.973          1986.500
       296   09 Jun 2027 11:51:42.406   09 Jun 2027 11:51:45.801             3.395          1218.719
       297   10 Jun 2027 03:58:22.347   10 Jun 2027 03:59:28.011            65.664         32832.000
       298   10 Jun 2027 05:34:56.342   10 Jun 2027 05:37:03.696           127.354         63677.000
       299   10 Jun 2027 05:37:47.618   10 Jun 2027 05:37:54.164             6.546          3273.000
       300   10 Jun 2027 05:38:11.635   10 Jun 2027 05:38:23.549            11.914          5957.000
       301   10 Jun 2027 07:09:25.493   10 Jun 2027 07:11:20.217           114.724         57362.000
       302   10 Jun 2027 07:11:30.043   10 Jun 2027 07:11:36.624             6.581          2592.343
       303   10 Jun 2027 07:13:06.631   10 Jun 2027 07:13:14.168             7.537          2812.719
       304   10 Jun 2027 07:14:03.605   10 Jun 2027 07:14:03.605             0.000             0.000
       305   10 Jun 2027 07:14:10.370   10 Jun 2027 07:14:14.926             4.556          1396.625
       306   10 Jun 2027 07:15:02.064   10 Jun 2027 07:15:02.627             0.563           281.500
       307   10 Jun 2027 07:15:26.739   10 Jun 2027 07:15:31.588             4.849          1821.031
       308   10 Jun 2027 07:15:52.994   10 Jun 2027 07:15:55.652             2.658           668.937
       309   10 Jun 2027 08:46:02.567   10 Jun 2027 08:46:23.779            21.212          9725.250
       310   10 Jun 2027 08:48:35.419   10 Jun 2027 08:48:39.494             4.075           496.531
       311   10 Jun 2027 08:49:02.488   10 Jun 2027 08:49:03.480             0.992           364.656
       312   10 Jun 2027 08:49:45.401   10 Jun 2027 08:49:47.552             2.151           257.031
       313   10 Jun 2027 08:50:49.353   10 Jun 2027 08:50:57.341             7.988          1757.750
       314   10 Jun 2027 08:51:44.394   10 Jun 2027 08:51:48.581             4.187          1250.000
       315   10 Jun 2027 08:52:15.281   10 Jun 2027 08:52:18.497             3.216           834.375
       316   10 Jun 2027 08:52:23.152   10 Jun 2027 08:52:24.885             1.733           144.438
       317   10 Jun 2027 10:23:44.543   10 Jun 2027 10:24:00.309            15.766          7417.719
       318   10 Jun 2027 10:24:21.489   10 Jun 2027 10:24:23.652             2.163           545.906
       319   10 Jun 2027 10:24:32.493   10 Jun 2027 10:24:32.493             0.000             0.000
       320   10 Jun 2027 10:24:47.881   10 Jun 2027 10:24:56.891             9.010           691.094
       321   10 Jun 2027 10:26:15.948   10 Jun 2027 10:26:19.642             3.694          1847.000
       322   10 Jun 2027 10:27:03.240   10 Jun 2027 10:27:11.861             8.621          1985.969
       323   10 Jun 2027 10:27:19.906   10 Jun 2027 10:27:22.416             2.510           251.406
       324   10 Jun 2027 10:27:31.196   10 Jun 2027 10:27:38.431             7.235           274.375
       325   10 Jun 2027 10:27:45.843   10 Jun 2027 10:27:48.902             3.059           212.562
       326   10 Jun 2027 10:28:01.915   10 Jun 2027 10:28:03.025             1.110           406.656
       327   10 Jun 2027 11:59:43.364   10 Jun 2027 11:59:59.147            15.783          7250.469
       328   11 Jun 2027 04:10:33.331   11 Jun 2027 04:11:29.020            55.689         27844.500
       329   11 Jun 2027 04:12:13.300   11 Jun 2027 04:12:27.521            14.221          7110.500
       330   11 Jun 2027 05:47:05.011   11 Jun 2027 05:49:22.617           137.606         68803.000
       331   11 Jun 2027 05:49:30.773   11 Jun 2027 05:49:31.110             0.337           168.500
       332   11 Jun 2027 05:49:40.310   11 Jun 2027 05:49:42.318             2.008          1004.000
       333   11 Jun 2027 07:22:14.127   11 Jun 2027 07:24:04.371           110.244         55122.000
       334   11 Jun 2027 07:24:13.335   11 Jun 2027 07:24:16.502             3.167          1583.500
       335   11 Jun 2027 07:24:36.679   11 Jun 2027 07:24:40.318             3.639          1819.500
       336   11 Jun 2027 07:25:20.871   11 Jun 2027 07:25:32.121            11.250          4995.561
       337   11 Jun 2027 07:25:49.977   11 Jun 2027 07:25:52.772             2.795           558.000
       338   11 Jun 2027 07:28:28.280   11 Jun 2027 07:28:33.923             5.643          2821.500
       339   11 Jun 2027 07:28:41.918   11 Jun 2027 07:28:48.436             6.518          2287.969
       340   11 Jun 2027 08:58:37.793   11 Jun 2027 08:59:03.178            25.385         12665.500
       341   11 Jun 2027 08:59:32.690   11 Jun 2027 08:59:33.590             0.900           450.000
       342   11 Jun 2027 08:59:59.983   11 Jun 2027 09:00:04.598             4.615          1297.031
       343   11 Jun 2027 09:00:20.550   11 Jun 2027 09:00:28.415             7.865           268.469
       344   11 Jun 2027 09:00:53.781   11 Jun 2027 09:00:55.540             1.759           761.375
       345   11 Jun 2027 09:01:10.031   11 Jun 2027 09:01:10.571             0.540           204.750
       346   11 Jun 2027 09:01:27.005   11 Jun 2027 09:01:28.727             1.722           327.219
       347   11 Jun 2027 09:01:44.198   11 Jun 2027 09:01:44.909             0.711            90.719
       348   11 Jun 2027 09:02:03.063   11 Jun 2027 09:02:04.125             1.062           518.312
       349   11 Jun 2027 09:02:13.226   11 Jun 2027 09:02:15.426             2.200            65.594
       350   11 Jun 2027 09:03:41.555   11 Jun 2027 09:03:47.180             5.625          2391.625
       351   11 Jun 2027 09:04:37.593   11 Jun 2027 09:04:49.655            12.062          1555.875
       352   11 Jun 2027 10:35:51.589   11 Jun 2027 10:36:08.321            16.732          8071.469
       353   11 Jun 2027 10:36:50.803   11 Jun 2027 10:36:56.557             5.754          1245.031
       354   11 Jun 2027 10:37:57.460   11 Jun 2027 10:38:07.248             9.788          1685.313
       355   11 Jun 2027 10:38:19.967   11 Jun 2027 10:38:23.008             3.041           350.281
       356   11 Jun 2027 10:38:33.381   11 Jun 2027 10:38:35.152             1.771            96.344
       357   11 Jun 2027 10:38:54.384   11 Jun 2027 10:38:58.930             4.546           572.500
       358   11 Jun 2027 10:39:02.790   11 Jun 2027 10:39:03.748             0.958           120.625
       359   11 Jun 2027 10:39:19.015   11 Jun 2027 10:39:22.127             3.112           477.094
       360   11 Jun 2027 10:39:30.096   11 Jun 2027 10:39:34.534             4.438           249.031
       361   12 Jun 2027 03:00:15.212   12 Jun 2027 03:00:32.318            17.106          8553.000
       362   12 Jun 2027 03:00:45.961   12 Jun 2027 03:00:59.189            13.228          6614.000
       363   12 Jun 2027 03:01:46.598   12 Jun 2027 03:01:46.598             0.000             0.000
       364   12 Jun 2027 03:01:51.965   12 Jun 2027 03:02:25.094            33.129         16564.500
       365   12 Jun 2027 04:23:09.776   12 Jun 2027 04:23:25.809            16.033          8016.500
       366   12 Jun 2027 04:23:44.847   12 Jun 2027 04:23:59.399            14.552          7276.000
       367   12 Jun 2027 05:58:58.069   12 Jun 2027 06:01:03.946           125.877         62938.500
       368   12 Jun 2027 06:01:52.013   12 Jun 2027 06:01:54.007             1.994           997.000
       369   12 Jun 2027 06:02:11.923   12 Jun 2027 06:02:26.848            14.925          7462.500
       370   12 Jun 2027 07:33:55.602   12 Jun 2027 07:35:32.266            96.664         48332.000
       371   12 Jun 2027 07:36:25.727   12 Jun 2027 07:36:29.018             3.291          1645.500
       372   12 Jun 2027 07:36:37.830   12 Jun 2027 07:36:44.471             6.641          3320.500
       373   12 Jun 2027 07:36:48.461   12 Jun 2027 07:36:51.271             2.810           322.750
       374   12 Jun 2027 07:36:59.113   12 Jun 2027 07:36:59.708             0.595            59.313
       375   12 Jun 2027 07:39:13.957   12 Jun 2027 07:39:13.957             0.000             0.000
       376   12 Jun 2027 07:39:38.037   12 Jun 2027 07:39:52.804            14.767          4947.781
       377   12 Jun 2027 07:40:54.218   12 Jun 2027 07:40:55.021             0.803           401.500
       378   12 Jun 2027 09:10:09.541   12 Jun 2027 09:10:32.973            23.432         11213.281
       379   12 Jun 2027 09:11:14.039   12 Jun 2027 09:11:15.185             1.146            64.656
       380   12 Jun 2027 09:12:10.030   12 Jun 2027 09:12:12.708             2.678          1162.875
       381   12 Jun 2027 09:12:56.238   12 Jun 2027 09:12:59.535             3.297          1360.312
       382   12 Jun 2027 09:13:56.168   12 Jun 2027 09:13:59.986             3.818          1555.625
       383   12 Jun 2027 09:14:29.345   12 Jun 2027 09:14:29.747             0.402           201.000
       384   12 Jun 2027 09:15:32.528   12 Jun 2027 09:15:38.261             5.733          2533.906
       385   12 Jun 2027 09:16:10.717   12 Jun 2027 09:16:14.156             3.439           910.187
       386   12 Jun 2027 09:16:21.788   12 Jun 2027 09:16:23.248             1.460           183.812
       387   12 Jun 2027 10:48:29.588   12 Jun 2027 10:48:45.454            15.866          6940.969
       388   12 Jun 2027 10:49:21.228   12 Jun 2027 10:49:23.347             2.119          1059.500
       389   12 Jun 2027 10:50:12.506   12 Jun 2027 10:50:12.879             0.373           186.500
       390   12 Jun 2027 10:50:13.391   12 Jun 2027 10:50:16.272             2.881          1424.156
       391   12 Jun 2027 10:50:39.931   12 Jun 2027 10:50:45.081             5.150           111.219
       392   12 Jun 2027 10:51:13.995   12 Jun 2027 10:51:15.752             1.757           696.375
       393   12 Jun 2027 10:51:25.197   12 Jun 2027 10:51:25.764             0.567           246.938
       394   12 Jun 2027 10:52:09.612   12 Jun 2027 10:52:12.494             2.882          1312.875
       395   13 Jun 2027 03:00:00.000   13 Jun 2027 03:00:09.699             9.699          4849.500
       396   13 Jun 2027 03:11:03.756   13 Jun 2027 03:12:16.402            72.646         36323.000
       397   13 Jun 2027 04:34:00.470   13 Jun 2027 04:34:21.636            21.166         10583.000
       398   13 Jun 2027 04:34:48.036   13 Jun 2027 04:34:55.573             7.537          3768.500
       399   13 Jun 2027 04:36:17.304   13 Jun 2027 04:36:17.304             0.000             0.000
       400   13 Jun 2027 04:36:33.241   13 Jun 2027 04:36:52.275            19.034          9517.000
       401   13 Jun 2027 06:09:20.277   13 Jun 2027 06:09:46.190            25.913         12956.500
       402   13 Jun 2027 06:10:42.858   13 Jun 2027 06:11:56.116            73.258         36629.000
       403   13 Jun 2027 06:14:41.979   13 Jun 2027 06:14:55.946            13.967          6983.500
       404   13 Jun 2027 07:45:28.611   13 Jun 2027 07:47:08.413            99.802         49901.000
       405   13 Jun 2027 07:47:28.046   13 Jun 2027 07:47:32.733             4.687          2343.500
       406   13 Jun 2027 07:48:41.141   13 Jun 2027 07:48:43.840             2.699          1349.500
       407   13 Jun 2027 07:49:39.159   13 Jun 2027 07:49:46.378             7.219          3217.000
       408   13 Jun 2027 07:50:16.057   13 Jun 2027 07:50:17.917             1.860           927.469
       409   13 Jun 2027 07:50:53.000   13 Jun 2027 07:50:56.737             3.737           946.281
       410   13 Jun 2027 07:51:12.504   13 Jun 2027 07:51:12.982             0.478           180.187
       411   13 Jun 2027 07:52:17.752   13 Jun 2027 07:52:26.356             8.604          2024.062
       412   13 Jun 2027 09:22:31.140   13 Jun 2027 09:22:54.127            22.987         11493.500
       413   13 Jun 2027 09:23:23.541   13 Jun 2027 09:23:26.696             3.155          1164.812
       414   13 Jun 2027 09:23:58.648   13 Jun 2027 09:24:10.460            11.812           859.000
       415   13 Jun 2027 09:24:56.226   13 Jun 2027 09:25:00.268             4.042          1272.000
       416   13 Jun 2027 09:26:09.242   13 Jun 2027 09:26:12.648             3.406          1703.000
       417   13 Jun 2027 09:26:14.902   13 Jun 2027 09:26:19.409             4.507           314.500
       418   13 Jun 2027 09:26:45.588   13 Jun 2027 09:26:49.590             4.002           818.094
       419   13 Jun 2027 09:27:28.928   13 Jun 2027 09:27:31.841             2.913          1229.312
       420   13 Jun 2027 09:27:54.510   13 Jun 2027 09:27:57.799             3.289           699.750
       421   13 Jun 2027 09:28:35.734   13 Jun 2027 09:28:38.815             3.081           754.906
       422   13 Jun 2027 11:00:30.753   13 Jun 2027 11:00:43.904            13.151          6575.500
       423   13 Jun 2027 11:01:41.059   13 Jun 2027 11:01:53.155            12.096          2624.094
       424   13 Jun 2027 11:02:47.702   13 Jun 2027 11:02:53.635             5.933          1704.594
       425   13 Jun 2027 11:03:01.985   13 Jun 2027 11:03:02.964             0.979           120.375
       426   13 Jun 2027 11:03:27.771   13 Jun 2027 11:03:29.428             1.657           772.375
       427   13 Jun 2027 11:03:55.732   13 Jun 2027 11:03:57.036             1.304           585.406
       428   13 Jun 2027 11:03:58.991   13 Jun 2027 11:03:59.908             0.917            61.094
       429   13 Jun 2027 11:04:24.074   13 Jun 2027 11:04:25.064             0.990           495.000
