uniorb/output/strategy_1/Camera/Camera_KinoSat_111305.txt

KinoSat_111305
-------------------------
    Access    *     Start Time (UTCG)     *     Stop Time (UTCG)  *   Duration (s) *   Data (Mbytes)
         1   01 Jun 2027 03:27:29.954   01 Jun 2027 03:29:41.953           131.999         65999.500
         2   01 Jun 2027 03:30:47.189   01 Jun 2027 03:31:00.066            12.877          6438.500
         3   01 Jun 2027 04:51:36.975   01 Jun 2027 04:52:21.077            44.102         22051.000
         4   01 Jun 2027 04:52:29.845   01 Jun 2027 04:52:45.246            15.401          7700.500
         5   01 Jun 2027 06:25:23.993   01 Jun 2027 06:26:58.713            94.720         47360.000
         6   01 Jun 2027 06:27:04.081   01 Jun 2027 06:27:07.214             3.133          1566.500
         7   01 Jun 2027 06:27:44.772   01 Jun 2027 06:27:50.718             5.946          2973.000
         8   01 Jun 2027 06:29:23.636   01 Jun 2027 06:29:37.673            14.037          7018.500
         9   01 Jun 2027 08:00:16.193   01 Jun 2027 08:02:12.513           116.320         58160.000
        10   01 Jun 2027 08:05:22.596   01 Jun 2027 08:06:04.357            41.761         20880.500
        11   01 Jun 2027 08:09:15.236   01 Jun 2027 08:09:16.662             1.426           713.000
        12   01 Jun 2027 09:38:25.949   01 Jun 2027 09:40:05.194            99.245         49622.500
        13   01 Jun 2027 09:42:03.022   01 Jun 2027 09:42:13.370            10.348          5174.000
        14   01 Jun 2027 09:42:40.119   01 Jun 2027 09:42:53.739            13.620          6810.000
        15   01 Jun 2027 09:43:55.723   01 Jun 2027 09:43:58.761             3.038          1519.000
        16   01 Jun 2027 11:15:20.798   01 Jun 2027 11:16:22.669            61.871         30935.500
        17   01 Jun 2027 11:16:52.086   01 Jun 2027 11:17:53.921            61.835         30917.500
        18   01 Jun 2027 11:18:05.906   01 Jun 2027 11:18:19.147            13.241          6620.500
        19   01 Jun 2027 11:21:23.422   01 Jun 2027 11:21:43.886            20.464         10232.000
        20   02 Jun 2027 03:40:06.664   02 Jun 2027 03:42:11.358           124.694         62347.000
        21   02 Jun 2027 03:43:03.394   02 Jun 2027 03:43:09.938             6.544          3272.000
        22   02 Jun 2027 03:44:35.976   02 Jun 2027 03:44:35.976             0.000             0.000
        23   02 Jun 2027 05:03:31.887   02 Jun 2027 05:04:17.342            45.455         22727.500
        24   02 Jun 2027 05:05:07.881   02 Jun 2027 05:05:09.671             1.790           895.000
        25   02 Jun 2027 05:05:43.825   02 Jun 2027 05:05:54.798            10.973          5486.500
        26   02 Jun 2027 06:39:48.164   02 Jun 2027 06:41:18.214            90.050         45025.000
        27   02 Jun 2027 06:41:56.612   02 Jun 2027 06:42:12.384            15.772          7886.000
        28   02 Jun 2027 06:42:26.145   02 Jun 2027 06:42:26.145             0.000             0.000
        29   02 Jun 2027 06:42:27.990   02 Jun 2027 06:42:41.554            13.564          6782.000
        30   02 Jun 2027 08:13:20.060   02 Jun 2027 08:15:16.545           116.485         58242.500
        31   02 Jun 2027 08:18:35.997   02 Jun 2027 08:18:56.985            20.988         10494.000
        32   02 Jun 2027 08:20:49.190   02 Jun 2027 08:21:05.657            16.467          8233.500
        33   02 Jun 2027 09:50:52.482   02 Jun 2027 09:52:50.684           118.202         59101.000
        34   02 Jun 2027 09:57:02.435   02 Jun 2027 09:57:07.306             4.871          2435.500
        35   02 Jun 2027 11:27:47.714   02 Jun 2027 11:29:32.358           104.644         52322.000
        36   02 Jun 2027 11:29:44.111   02 Jun 2027 11:29:46.411             2.300          1150.000
        37   02 Jun 2027 11:33:02.999   02 Jun 2027 11:33:14.876            11.877          5938.500
        38   02 Jun 2027 11:33:17.229   02 Jun 2027 11:33:29.706            12.477          6238.500
        39   03 Jun 2027 03:51:45.326   03 Jun 2027 03:53:33.117           107.791         53895.500
        40   03 Jun 2027 03:54:19.396   03 Jun 2027 03:54:21.532             2.136          1068.000
        41   03 Jun 2027 05:15:23.652   03 Jun 2027 05:16:26.507            62.855         31427.500
        42   03 Jun 2027 06:51:51.808   03 Jun 2027 06:53:45.401           113.593         56796.500
        43   03 Jun 2027 06:53:53.927   03 Jun 2027 06:53:53.927             0.000             0.000
        44   03 Jun 2027 06:54:06.734   03 Jun 2027 06:54:09.015             2.281          1140.500
        45   03 Jun 2027 08:25:59.736   03 Jun 2027 08:28:06.130           126.394         63197.000
        46   03 Jun 2027 08:31:00.179   03 Jun 2027 08:31:13.922            13.743          6871.500
        47   03 Jun 2027 08:32:29.378   03 Jun 2027 08:32:46.476            17.098          8549.000
        48   03 Jun 2027 10:02:58.315   03 Jun 2027 10:04:19.400            81.085         40332.625
        49   03 Jun 2027 10:04:39.607   03 Jun 2027 10:04:42.866             3.259           222.875
        50   03 Jun 2027 10:05:53.907   03 Jun 2027 10:05:55.847             1.940           970.000
        51   03 Jun 2027 10:06:18.155   03 Jun 2027 10:06:24.925             6.770          1947.156
        52   03 Jun 2027 10:08:00.116   03 Jun 2027 10:08:04.841             4.725          2362.500
        53   03 Jun 2027 10:08:41.393   03 Jun 2027 10:08:46.743             5.350          1313.781
        54   03 Jun 2027 10:08:57.057   03 Jun 2027 10:08:59.110             2.053           199.969
        55   03 Jun 2027 11:40:34.542   03 Jun 2027 11:40:49.778            15.236          7618.000
        56   03 Jun 2027 11:41:44.138   03 Jun 2027 11:41:55.094            10.956          4766.031
        57   03 Jun 2027 11:42:18.043   03 Jun 2027 11:42:21.151             3.108           273.625
        58   03 Jun 2027 11:43:06.085   03 Jun 2027 11:43:08.098             2.013           842.875
        59   03 Jun 2027 11:43:26.867   03 Jun 2027 11:43:30.388             3.521           433.812
        60   03 Jun 2027 11:44:00.903   03 Jun 2027 11:44:02.564             1.661           830.500
        61   04 Jun 2027 04:04:13.245   04 Jun 2027 04:04:35.813            22.568         11284.000
        62   04 Jun 2027 04:04:58.524   04 Jun 2027 04:06:07.315            68.791         34395.500
        63   04 Jun 2027 04:06:33.372   04 Jun 2027 04:06:45.779            12.407          6203.500
        64   04 Jun 2027 05:27:32.307   04 Jun 2027 05:28:29.039            56.732         28366.000
        65   04 Jun 2027 05:29:20.026   04 Jun 2027 05:29:41.899            21.873         10936.500
        66   04 Jun 2027 07:04:02.477   04 Jun 2027 07:05:59.194           116.717         58358.500
        67   04 Jun 2027 07:06:05.366   04 Jun 2027 07:06:10.522             5.156          2578.000
        68   04 Jun 2027 07:06:40.333   04 Jun 2027 07:06:40.333             0.000             0.000
        69   04 Jun 2027 08:39:12.730   04 Jun 2027 08:39:30.831            18.101          9050.500
        70   04 Jun 2027 08:39:35.322   04 Jun 2027 08:39:55.351            20.029          6131.500
        71   04 Jun 2027 08:40:13.492   04 Jun 2027 08:40:14.813             1.321           215.594
        72   04 Jun 2027 08:40:33.772   04 Jun 2027 08:40:33.772             0.000             0.000
        73   04 Jun 2027 08:41:31.965   04 Jun 2027 08:41:42.733            10.768          1970.656
        74   04 Jun 2027 08:42:19.425   04 Jun 2027 08:42:27.538             8.113           986.594
        75   04 Jun 2027 08:42:42.737   04 Jun 2027 08:42:45.189             2.452           239.594
        76   04 Jun 2027 08:43:20.023   04 Jun 2027 08:43:21.626             1.603           468.344
        77   04 Jun 2027 08:43:43.621   04 Jun 2027 08:43:47.526             3.905           595.375
        78   04 Jun 2027 08:43:51.221   04 Jun 2027 08:43:55.305             4.084           115.469
        79   04 Jun 2027 08:43:58.967   04 Jun 2027 08:44:01.699             2.732            20.937
        80   04 Jun 2027 08:44:40.728   04 Jun 2027 08:44:43.422             2.694          1187.188
        81   04 Jun 2027 08:45:33.239   04 Jun 2027 08:45:40.617             7.378          1317.156
        82   04 Jun 2027 10:15:34.561   04 Jun 2027 10:15:50.822            16.261          7462.594
        83   04 Jun 2027 10:16:58.317   04 Jun 2027 10:17:03.607             5.290          1357.344
        84   04 Jun 2027 10:17:25.341   04 Jun 2027 10:17:31.759             6.418           279.000
        85   04 Jun 2027 10:17:42.460   04 Jun 2027 10:17:43.756             1.296           334.406
        86   04 Jun 2027 10:17:54.177   04 Jun 2027 10:17:57.695             3.518           198.906
        87   04 Jun 2027 10:18:14.413   04 Jun 2027 10:18:16.590             2.177           354.062
        88   04 Jun 2027 10:18:42.442   04 Jun 2027 10:18:44.640             2.198           732.719
        89   04 Jun 2027 10:19:41.163   04 Jun 2027 10:19:45.292             4.129          1764.563
        90   04 Jun 2027 10:20:42.377   04 Jun 2027 10:20:49.674             7.297          1783.906
        91   04 Jun 2027 11:52:52.949   04 Jun 2027 11:53:08.647            15.698          6790.063
        92   04 Jun 2027 11:53:13.710   04 Jun 2027 11:53:14.084             0.374            52.406
        93   04 Jun 2027 11:54:23.409   04 Jun 2027 11:54:28.291             4.882          2022.469
        94   04 Jun 2027 11:55:00.159   04 Jun 2027 11:55:05.634             5.475           626.969
        95   04 Jun 2027 11:55:25.010   04 Jun 2027 11:55:25.856             0.846           391.000
        96   04 Jun 2027 11:55:36.887   04 Jun 2027 11:55:36.887             0.000             0.000
        97   04 Jun 2027 11:56:12.997   04 Jun 2027 11:56:18.147             5.150          1473.156
        98   04 Jun 2027 11:57:00.930   04 Jun 2027 11:57:05.212             4.282          1163.469
        99   05 Jun 2027 04:16:06.829   05 Jun 2027 04:16:43.807            36.978         18489.000
       100   05 Jun 2027 04:17:12.855   05 Jun 2027 04:17:58.479            45.624         22812.000
       101   05 Jun 2027 04:18:21.872   05 Jun 2027 04:18:38.719            16.847          8423.500
       102   05 Jun 2027 04:19:29.970   05 Jun 2027 04:19:29.970             0.000             0.000
       103   05 Jun 2027 05:40:12.460   05 Jun 2027 05:41:40.655            88.195         44097.500
       104   05 Jun 2027 07:15:58.086   05 Jun 2027 07:18:05.858           127.772         63886.000
       105   05 Jun 2027 07:18:43.926   05 Jun 2027 07:18:45.007             1.081           540.500
       106   05 Jun 2027 07:19:19.655   05 Jun 2027 07:19:23.756             4.101          2050.500
       107   05 Jun 2027 08:50:55.633   05 Jun 2027 08:51:13.192            17.559          8044.938
       108   05 Jun 2027 08:52:47.184   05 Jun 2027 08:52:55.554             8.370          2668.906
       109   05 Jun 2027 08:53:23.015   05 Jun 2027 08:53:26.094             3.079           858.156
       110   05 Jun 2027 08:54:00.945   05 Jun 2027 08:54:02.271             1.326           485.281
       111   05 Jun 2027 08:54:43.868   05 Jun 2027 08:54:47.579             3.711          1150.562
       112   05 Jun 2027 08:55:21.291   05 Jun 2027 08:55:27.414             6.123           146.281
       113   05 Jun 2027 08:55:41.553   05 Jun 2027 08:55:45.383             3.830           441.844
       114   05 Jun 2027 08:56:01.786   05 Jun 2027 08:56:02.580             0.794           197.156
       115   05 Jun 2027 08:56:15.142   05 Jun 2027 08:56:16.312             1.170           392.469
       116   05 Jun 2027 08:56:32.553   05 Jun 2027 08:56:37.442             4.889           458.187
       117   05 Jun 2027 08:56:41.174   05 Jun 2027 08:56:42.328             1.154           113.750
       118   05 Jun 2027 08:57:21.423   05 Jun 2027 08:57:24.056             2.633          1221.719
       119   05 Jun 2027 10:27:07.794   05 Jun 2027 10:27:23.608            15.814          7166.625
       120   05 Jun 2027 10:28:01.124   05 Jun 2027 10:28:06.296             5.172          1060.687
       121   05 Jun 2027 10:29:21.000   05 Jun 2027 10:29:25.382             4.382          1546.781
       122   05 Jun 2027 10:29:42.385   05 Jun 2027 10:29:45.425             3.040           501.250
       123   05 Jun 2027 10:30:08.564   05 Jun 2027 10:30:13.846             5.282           681.375
       124   05 Jun 2027 10:31:34.309   05 Jun 2027 10:31:43.104             8.795          2514.469
       125   05 Jun 2027 10:32:44.989   05 Jun 2027 10:32:49.020             4.031          1933.906
       126   05 Jun 2027 10:33:27.417   05 Jun 2027 10:33:31.240             3.823          1199.906
       127   06 Jun 2027 04:16:59.902   06 Jun 2027 04:17:38.305            38.403         19201.500
       128   06 Jun 2027 04:28:02.718   06 Jun 2027 04:28:53.267            50.549         25274.500
       129   06 Jun 2027 04:29:33.199   06 Jun 2027 04:29:45.136            11.937          5968.500
       130   06 Jun 2027 05:51:02.161   06 Jun 2027 05:52:55.000           112.839         56419.500
       131   06 Jun 2027 05:54:32.398   06 Jun 2027 05:54:32.398             0.000             0.000
       132   06 Jun 2027 05:54:34.106   06 Jun 2027 05:54:37.819             3.713          1856.500
       133   06 Jun 2027 07:26:34.093   06 Jun 2027 07:26:40.173             6.080          3040.000
       134   06 Jun 2027 07:27:43.762   06 Jun 2027 07:29:08.400            84.638         42319.000
       135   06 Jun 2027 07:30:24.617   06 Jun 2027 07:30:32.527             7.910          3955.000
       136   06 Jun 2027 07:30:35.007   06 Jun 2027 07:30:36.188             1.181           590.500
       137   06 Jun 2027 07:31:54.934   06 Jun 2027 07:32:09.973            15.039          7519.500
       138   06 Jun 2027 09:02:29.346   06 Jun 2027 09:02:41.775            12.429          5317.031
       139   06 Jun 2027 09:03:02.848   06 Jun 2027 09:03:02.848             0.000             0.000
       140   06 Jun 2027 09:03:26.656   06 Jun 2027 09:03:31.304             4.648          1175.625
       141   06 Jun 2027 09:04:08.216   06 Jun 2027 09:04:09.657             1.441            70.938
       142   06 Jun 2027 09:04:39.391   06 Jun 2027 09:04:41.187             1.796           782.719
       143   06 Jun 2027 09:05:11.195   06 Jun 2027 09:05:14.004             2.809           811.344
       144   06 Jun 2027 09:06:46.019   06 Jun 2027 09:06:54.906             8.887          2484.031
       145   06 Jun 2027 09:07:20.647   06 Jun 2027 09:07:22.139             1.492           445.219
       146   06 Jun 2027 09:08:28.267   06 Jun 2027 09:08:32.453             4.186          2066.500
       147   06 Jun 2027 09:08:45.464   06 Jun 2027 09:08:47.201             1.737           406.594
       148   06 Jun 2027 09:09:05.872   06 Jun 2027 09:09:07.453             1.581           423.094
       149   06 Jun 2027 09:09:35.339   06 Jun 2027 09:09:35.339             0.000             0.000
       150   06 Jun 2027 09:09:49.293   06 Jun 2027 09:09:55.689             6.396          1224.219
       151   06 Jun 2027 10:39:29.160   06 Jun 2027 10:39:44.740            15.580          6828.219
       152   06 Jun 2027 10:41:04.732   06 Jun 2027 10:41:13.339             8.607          2313.344
       153   06 Jun 2027 10:41:18.321   06 Jun 2027 10:41:21.180             2.859           155.687
       154   06 Jun 2027 10:41:51.956   06 Jun 2027 10:41:55.734             3.778           920.937
       155   06 Jun 2027 10:42:14.466   06 Jun 2027 10:42:19.583             5.117           439.531
       156   06 Jun 2027 10:42:48.143   06 Jun 2027 10:42:51.303             3.160           244.563
       157   06 Jun 2027 10:42:51.584   06 Jun 2027 10:42:56.420             4.836             8.781
       158   06 Jun 2027 10:43:34.145   06 Jun 2027 10:43:35.289             1.144           572.000
       159   06 Jun 2027 10:43:48.472   06 Jun 2027 10:43:50.504             2.032           732.062
       160   06 Jun 2027 10:43:54.579   06 Jun 2027 10:44:09.538            14.959           124.000
       161   06 Jun 2027 10:44:19.851   06 Jun 2027 10:44:20.580             0.729           309.969
       162   06 Jun 2027 10:44:24.946   06 Jun 2027 10:44:25.859             0.913             3.625
       163   06 Jun 2027 10:45:14.419   06 Jun 2027 10:45:22.015             7.596          1517.500
       164   07 Jun 2027 03:03:23.415   07 Jun 2027 03:04:17.306            53.891         26945.500
       165   07 Jun 2027 03:04:55.707   07 Jun 2027 03:05:00.358             4.651          2325.500
       166   07 Jun 2027 03:06:13.855   07 Jun 2027 03:06:28.536            14.681          7340.500
       167   07 Jun 2027 03:09:22.523   07 Jun 2027 03:09:33.703            11.180          5590.000
       168   07 Jun 2027 03:09:40.311   07 Jun 2027 03:09:49.089             8.778          4389.000
       169   07 Jun 2027 03:10:13.236   07 Jun 2027 03:10:38.071            24.835         12417.500
       170   07 Jun 2027 04:28:22.349   07 Jun 2027 04:28:50.049            27.700         13850.000
       171   07 Jun 2027 04:29:24.144   07 Jun 2027 04:29:25.362             1.218           609.000
       172   07 Jun 2027 04:40:04.129   07 Jun 2027 04:40:51.947            47.818         23909.000
       173   07 Jun 2027 06:02:18.382   07 Jun 2027 06:03:19.582            61.200         30600.000
       174   07 Jun 2027 06:05:17.799   07 Jun 2027 06:05:43.840            26.041         13020.500
       175   07 Jun 2027 07:37:26.081   07 Jun 2027 07:38:54.205            88.124         44062.000
       176   07 Jun 2027 07:39:27.333   07 Jun 2027 07:39:46.088            18.755          8340.749
       177   07 Jun 2027 07:40:55.071   07 Jun 2027 07:41:02.107             7.036          2155.719
       178   07 Jun 2027 07:42:12.452   07 Jun 2027 07:42:18.760             6.308          2019.656
       179   07 Jun 2027 07:42:43.080   07 Jun 2027 07:42:44.672             1.592           463.188
       180   07 Jun 2027 07:43:03.474   07 Jun 2027 07:43:03.474             0.000             0.000
       181   07 Jun 2027 07:43:34.917   07 Jun 2027 07:43:39.211             4.294          1570.156
       182   07 Jun 2027 07:43:43.689   07 Jun 2027 07:43:45.804             2.115           106.031
       183   07 Jun 2027 07:43:57.943   07 Jun 2027 07:43:59.948             2.005           149.125
       184   07 Jun 2027 07:45:23.807   07 Jun 2027 07:45:26.278             2.471          1235.500
       185   07 Jun 2027 09:14:37.480   07 Jun 2027 09:14:50.392            12.912          6231.250
       186   07 Jun 2027 09:16:47.610   07 Jun 2027 09:16:55.015             7.405          3624.688
       187   07 Jun 2027 09:17:31.107   07 Jun 2027 09:17:33.047             1.940           860.656
       188   07 Jun 2027 09:18:33.660   07 Jun 2027 09:18:37.990             4.330          1847.031
       189   07 Jun 2027 09:19:30.106   07 Jun 2027 09:19:33.927             3.821          1319.813
       190   07 Jun 2027 09:20:13.481   07 Jun 2027 09:20:15.362             1.881           885.125
       191   07 Jun 2027 09:20:43.383   07 Jun 2027 09:20:44.969             1.586           659.344
       192   07 Jun 2027 09:20:46.941   07 Jun 2027 09:20:49.263             2.322            61.625
       193   07 Jun 2027 09:21:33.434   07 Jun 2027 09:21:37.011             3.577          1145.719
       194   07 Jun 2027 09:22:02.722   07 Jun 2027 09:22:03.244             0.522           261.000
       195   07 Jun 2027 10:51:34.815   07 Jun 2027 10:51:49.238            14.423          6275.500
       196   07 Jun 2027 10:52:53.691   07 Jun 2027 10:53:01.549             7.858          1841.969
       197   07 Jun 2027 10:53:09.963   07 Jun 2027 10:53:11.943             1.980           116.719
       198   07 Jun 2027 10:53:42.768   07 Jun 2027 10:53:46.030             3.262           832.656
       199   07 Jun 2027 10:53:51.863   07 Jun 2027 10:53:52.935             1.072           159.188
       200   07 Jun 2027 10:54:08.210   07 Jun 2027 10:54:08.495             0.285           142.500
       201   07 Jun 2027 10:54:26.291   07 Jun 2027 10:54:26.689             0.398           199.000
       202   07 Jun 2027 10:55:06.208   07 Jun 2027 10:55:12.819             6.611          1926.938
       203   07 Jun 2027 10:55:18.495   07 Jun 2027 10:55:20.028             1.533           177.375
       204   07 Jun 2027 10:55:53.124   07 Jun 2027 10:56:01.004             7.880           928.750
       205   07 Jun 2027 10:56:20.145   07 Jun 2027 10:56:21.984             1.839           516.969
       206   07 Jun 2027 10:56:51.245   07 Jun 2027 10:56:53.271             2.026           883.562
       207   07 Jun 2027 10:57:12.956   07 Jun 2027 10:57:13.209             0.253           126.500
       208   08 Jun 2027 03:15:41.756   08 Jun 2027 03:16:53.339            71.583         35791.500
       209   08 Jun 2027 03:17:27.214   08 Jun 2027 03:17:32.655             5.441          2720.500
       210   08 Jun 2027 03:18:10.456   08 Jun 2027 03:18:23.309            12.853          6426.500
       211   08 Jun 2027 03:18:35.218   08 Jun 2027 03:18:39.689             4.471          2235.500
       212   08 Jun 2027 03:19:32.338   08 Jun 2027 03:19:36.659             4.321          2160.500
       213   08 Jun 2027 03:20:01.831   08 Jun 2027 03:20:01.831             0.000             0.000
       214   08 Jun 2027 03:20:58.030   08 Jun 2027 03:21:12.543            14.513          7256.500
       215   08 Jun 2027 03:22:24.719   08 Jun 2027 03:22:37.748            13.029          6514.500
       216   08 Jun 2027 04:39:48.822   08 Jun 2027 04:40:34.058            45.236         22618.000
       217   08 Jun 2027 04:40:45.571   08 Jun 2027 04:40:45.571             0.000             0.000
       218   08 Jun 2027 04:41:08.716   08 Jun 2027 04:41:10.248             1.532           766.000
       219   08 Jun 2027 04:52:01.059   08 Jun 2027 04:52:40.466            39.407         19703.500
       220   08 Jun 2027 06:14:03.311   08 Jun 2027 06:14:50.583            47.272         23636.000
       221   08 Jun 2027 06:16:06.568   08 Jun 2027 06:16:13.218             6.650          3325.000
       222   08 Jun 2027 06:18:57.164   08 Jun 2027 06:19:15.537            18.373          9186.500
       223   08 Jun 2027 07:48:55.629   08 Jun 2027 07:50:24.864            89.235         43540.656
       224   08 Jun 2027 07:50:48.504   08 Jun 2027 07:50:51.469             2.965           386.500
       225   08 Jun 2027 07:51:05.474   08 Jun 2027 07:51:10.405             4.931           437.656
       226   08 Jun 2027 07:53:12.530   08 Jun 2027 07:53:15.370             2.840          1420.000
       227   08 Jun 2027 07:53:53.447   08 Jun 2027 07:54:03.050             9.603          3383.156
       228   08 Jun 2027 07:57:34.393   08 Jun 2027 07:57:43.629             9.236          4618.000
       229   08 Jun 2027 09:26:39.024   08 Jun 2027 09:26:53.960            14.936          6491.375
       230   08 Jun 2027 09:29:44.130   08 Jun 2027 09:29:56.877            12.747          5317.812
       231   08 Jun 2027 09:29:57.228   08 Jun 2027 09:30:03.374             6.146            10.969
       232   08 Jun 2027 09:30:38.446   08 Jun 2027 09:30:44.485             6.039           734.844
       233   08 Jun 2027 09:30:45.248   08 Jun 2027 09:30:49.138             3.890            23.844
       234   08 Jun 2027 09:31:40.860   08 Jun 2027 09:31:49.883             9.023          1609.125
       235   08 Jun 2027 09:32:08.028   08 Jun 2027 09:32:11.020             2.992           205.375
       236   08 Jun 2027 09:32:21.729   08 Jun 2027 09:32:23.546             1.817            56.531
       237   08 Jun 2027 09:32:44.149   08 Jun 2027 09:32:49.305             5.156           643.844
       238   08 Jun 2027 09:33:47.955   08 Jun 2027 09:33:53.263             5.308          1832.812
       239   08 Jun 2027 09:33:59.334   08 Jun 2027 09:34:01.712             2.378           189.719
       240   08 Jun 2027 11:03:27.212   08 Jun 2027 11:03:46.743            19.531          8482.000
       241   08 Jun 2027 11:03:59.335   08 Jun 2027 11:04:03.295             3.960           393.500
       242   08 Jun 2027 11:04:30.592   08 Jun 2027 11:04:34.568             3.976           662.719
       243   08 Jun 2027 11:05:07.374   08 Jun 2027 11:05:09.838             2.464           960.875
       244   08 Jun 2027 11:05:26.386   08 Jun 2027 11:05:31.842             5.456            57.531
       245   08 Jun 2027 11:05:51.994   08 Jun 2027 11:05:53.556             1.562           440.594
       246   08 Jun 2027 11:06:18.288   08 Jun 2027 11:06:21.601             3.313           772.875
       247   08 Jun 2027 11:07:26.185   08 Jun 2027 11:07:30.937             4.752          1879.469
       248   08 Jun 2027 11:08:15.461   08 Jun 2027 11:08:18.250             2.789          1391.375
       249   08 Jun 2027 11:08:54.537   08 Jun 2027 11:08:55.510             0.973           486.500
       250   08 Jun 2027 11:09:10.110   08 Jun 2027 11:09:12.423             2.313          1103.719
       251   08 Jun 2027 11:10:04.713   08 Jun 2027 11:10:09.552             4.839          1634.063
       252   09 Jun 2027 03:27:46.445   09 Jun 2027 03:29:35.941           109.496         54748.000
       253   09 Jun 2027 03:29:49.346   09 Jun 2027 03:29:58.937             9.591          4795.500
       254   09 Jun 2027 03:31:01.665   09 Jun 2027 03:31:10.501             8.836          4418.000
       255   09 Jun 2027 03:32:55.964   09 Jun 2027 03:33:01.829             5.865          2932.500
       256   09 Jun 2027 04:51:52.789   09 Jun 2027 04:52:36.119            43.330         21665.000
       257   09 Jun 2027 04:52:47.222   09 Jun 2027 04:53:00.989            13.767          6883.500
       258   09 Jun 2027 06:25:38.862   09 Jun 2027 06:27:15.348            96.486         48243.000
       259   09 Jun 2027 06:28:45.410   09 Jun 2027 06:28:53.057             7.647          3823.500
       260   09 Jun 2027 06:31:07.945   09 Jun 2027 06:31:17.286             9.341          4670.500
       261   09 Jun 2027 08:01:39.666   09 Jun 2027 08:02:24.793            45.127         22526.719
       262   09 Jun 2027 08:02:35.803   09 Jun 2027 08:02:36.169             0.366           171.375
       263   09 Jun 2027 08:03:02.680   09 Jun 2027 08:03:03.639             0.959           337.531
       264   09 Jun 2027 08:03:15.677   09 Jun 2027 08:03:17.079             1.402           225.812
       265   09 Jun 2027 08:03:41.837   09 Jun 2027 08:03:42.907             1.070           470.188
       266   09 Jun 2027 08:03:57.002   09 Jun 2027 08:03:57.307             0.305           152.500
       267   09 Jun 2027 08:04:11.099   09 Jun 2027 08:04:13.578             2.479           561.781
       268   09 Jun 2027 08:07:13.565   09 Jun 2027 08:07:27.651            14.086          5624.594
       269   09 Jun 2027 08:08:11.010   09 Jun 2027 08:08:12.700             1.690           845.000
       270   09 Jun 2027 08:08:44.413   09 Jun 2027 08:08:51.350             6.937          1341.656
       271   09 Jun 2027 08:09:30.224   09 Jun 2027 08:09:35.718             5.494          1208.031
       272   09 Jun 2027 09:38:42.525   09 Jun 2027 09:39:03.845            21.320          7051.313
       273   09 Jun 2027 09:42:50.463   09 Jun 2027 09:43:08.859            18.396          6435.563
       274   09 Jun 2027 09:43:34.222   09 Jun 2027 09:43:38.667             4.445           675.125
       275   09 Jun 2027 09:43:51.985   09 Jun 2027 09:43:51.985             0.000             0.000
       276   09 Jun 2027 09:43:59.555   09 Jun 2027 09:44:00.971             1.416           652.750
       277   09 Jun 2027 09:45:08.413   09 Jun 2027 09:45:14.345             5.932          2089.531
       278   09 Jun 2027 09:45:48.202   09 Jun 2027 09:45:53.344             5.142          1058.031
       279   09 Jun 2027 11:15:37.408   09 Jun 2027 11:15:56.875            19.467          7285.094
       280   09 Jun 2027 11:16:10.347   09 Jun 2027 11:16:11.328             0.981           421.000
       281   09 Jun 2027 11:17:15.264   09 Jun 2027 11:17:20.329             5.065          1998.000
       282   09 Jun 2027 11:17:48.801   09 Jun 2027 11:17:51.402             2.601           171.969
       283   09 Jun 2027 11:18:03.403   09 Jun 2027 11:18:06.143             2.740           364.938
       284   09 Jun 2027 11:18:24.186   09 Jun 2027 11:18:25.702             1.516           442.844
       285   09 Jun 2027 11:18:30.108   09 Jun 2027 11:18:31.308             1.200            81.313
       286   09 Jun 2027 11:19:28.903   09 Jun 2027 11:19:32.483             3.580          1725.437
       287   09 Jun 2027 11:20:02.171   09 Jun 2027 11:20:04.139             1.968           917.563
       288   09 Jun 2027 11:20:26.788   09 Jun 2027 11:20:28.001             1.213           516.594
       289   09 Jun 2027 11:21:17.117   09 Jun 2027 11:21:18.942             1.825           912.500
       290   10 Jun 2027 03:40:22.829   10 Jun 2027 03:42:25.809           122.980         61490.000
       291   10 Jun 2027 03:43:17.527   10 Jun 2027 03:43:32.141            14.614          7307.000
       292   10 Jun 2027 03:44:05.087   10 Jun 2027 03:44:05.087             0.000             0.000
       293   10 Jun 2027 03:44:50.476   10 Jun 2027 03:44:59.181             8.705          4352.500
       294   10 Jun 2027 05:03:47.662   10 Jun 2027 05:05:02.166            74.504         37252.000
       295   10 Jun 2027 06:40:07.200   10 Jun 2027 06:41:34.072            86.872         43436.000
       296   10 Jun 2027 06:42:12.654   10 Jun 2027 06:42:27.263            14.609          7304.500
       297   10 Jun 2027 08:13:37.222   10 Jun 2027 08:14:11.594            34.372         15506.875
       298   10 Jun 2027 08:16:08.184   10 Jun 2027 08:16:16.337             8.153          2357.313
       299   10 Jun 2027 08:16:38.726   10 Jun 2027 08:16:40.860             2.134           603.219
       300   10 Jun 2027 08:17:02.036   10 Jun 2027 08:17:11.890             9.854            50.187
       301   10 Jun 2027 08:18:10.082   10 Jun 2027 08:18:15.431             5.349          1818.500
       302   10 Jun 2027 08:20:36.919   10 Jun 2027 08:20:36.919             0.000             0.000
       303   10 Jun 2027 08:20:45.561   10 Jun 2027 08:20:49.019             3.458          1729.000
       304   10 Jun 2027 08:21:03.482   10 Jun 2027 08:21:09.535             6.053          2899.625
       305   10 Jun 2027 08:21:57.385   10 Jun 2027 08:22:00.915             3.530          1121.937
       306   10 Jun 2027 09:51:08.414   10 Jun 2027 09:51:24.507            16.093          7079.250
       307   10 Jun 2027 09:52:40.211   10 Jun 2027 09:52:42.568             2.357          1130.531
       308   10 Jun 2027 09:53:09.097   10 Jun 2027 09:53:10.792             1.695           611.750
       309   10 Jun 2027 09:53:24.653   10 Jun 2027 09:53:25.739             1.086           141.719
       310   10 Jun 2027 09:54:42.736   10 Jun 2027 09:54:48.040             5.304          2252.031
       311   10 Jun 2027 09:56:04.893   10 Jun 2027 09:56:10.184             5.291          2256.219
       312   10 Jun 2027 09:56:26.998   10 Jun 2027 09:56:29.413             2.415           507.469
       313   10 Jun 2027 09:56:59.509   10 Jun 2027 09:57:04.314             4.805           882.375
       314   10 Jun 2027 09:57:19.372   10 Jun 2027 09:57:20.037             0.665           185.250
       315   10 Jun 2027 09:57:25.859   10 Jun 2027 09:57:28.541             2.682           181.937
       316   10 Jun 2027 11:28:04.885   10 Jun 2027 11:28:26.164            21.279          6749.094
       317   10 Jun 2027 11:29:48.023   10 Jun 2027 11:29:51.881             3.858          1929.000
       318   10 Jun 2027 11:30:13.591   10 Jun 2027 11:30:19.048             5.457           971.969
       319   10 Jun 2027 11:30:43.720   10 Jun 2027 11:30:46.919             3.199           706.031
       320   10 Jun 2027 11:31:08.845   10 Jun 2027 11:31:09.984             1.139            27.594
       321   10 Jun 2027 11:31:31.510   10 Jun 2027 11:31:32.693             1.183           493.281
       322   10 Jun 2027 11:31:37.207   10 Jun 2027 11:31:38.209             1.002           141.062
       323   10 Jun 2027 11:32:23.116   10 Jun 2027 11:32:27.151             4.035           907.688
       324   10 Jun 2027 11:32:41.554   10 Jun 2027 11:32:43.059             1.505           443.031
       325   10 Jun 2027 11:33:44.795   10 Jun 2027 11:33:52.057             7.262          1781.375
       326   11 Jun 2027 03:52:01.370   11 Jun 2027 03:54:01.816           120.446         60223.000
       327   11 Jun 2027 03:56:05.361   11 Jun 2027 03:56:08.485             3.124          1562.000
       328   11 Jun 2027 05:15:38.406   11 Jun 2027 05:16:42.318            63.912         31956.000
       329   11 Jun 2027 05:17:18.069   11 Jun 2027 05:17:20.260             2.191          1095.500
       330   11 Jun 2027 06:52:09.512   11 Jun 2027 06:54:01.589           112.077         56038.500
       331   11 Jun 2027 06:54:09.587   11 Jun 2027 06:54:14.965             5.378          2689.000
       332   11 Jun 2027 08:26:16.955   11 Jun 2027 08:26:52.608            35.653         17250.844
       333   11 Jun 2027 08:26:58.393   11 Jun 2027 08:27:00.906             2.513           180.781
       334   11 Jun 2027 08:27:18.556   11 Jun 2027 08:27:20.799             2.243           330.344
       335   11 Jun 2027 08:28:09.390   11 Jun 2027 08:28:10.051             0.661           273.469
       336   11 Jun 2027 08:28:34.113   11 Jun 2027 08:28:35.396             1.283           543.281
       337   11 Jun 2027 08:30:30.016   11 Jun 2027 08:30:35.933             5.917          2746.469
       338   11 Jun 2027 08:30:56.762   11 Jun 2027 08:30:58.900             2.138           624.250
       339   11 Jun 2027 08:31:27.656   11 Jun 2027 08:31:31.107             3.451           550.406
       340   11 Jun 2027 08:32:46.279   11 Jun 2027 08:32:51.629             5.350          2343.594
       341   11 Jun 2027 08:33:15.948   11 Jun 2027 08:33:15.948             0.000             0.000
       342   11 Jun 2027 08:33:49.866   11 Jun 2027 08:33:54.445             4.579          1819.906
       343   11 Jun 2027 08:34:02.691   11 Jun 2027 08:34:03.275             0.584           257.687
       344   11 Jun 2027 10:03:14.971   11 Jun 2027 10:03:29.613            14.642          6217.031
       345   11 Jun 2027 10:04:05.495   11 Jun 2027 10:04:07.632             2.137           548.094
       346   11 Jun 2027 10:04:25.009   11 Jun 2027 10:04:29.229             4.220           125.937
       347   11 Jun 2027 10:05:22.973   11 Jun 2027 10:05:29.144             6.171           474.875
       348   11 Jun 2027 10:05:37.226   11 Jun 2027 10:05:38.858             1.632           163.094
       349   11 Jun 2027 10:06:01.453   11 Jun 2027 10:06:05.345             3.892           596.719
       350   11 Jun 2027 10:06:26.441   11 Jun 2027 10:06:31.486             5.045           616.250
       351   11 Jun 2027 10:07:09.700   11 Jun 2027 10:07:13.856             4.156           453.313
       352   11 Jun 2027 10:07:45.734   11 Jun 2027 10:07:49.630             3.896           334.594
       353   11 Jun 2027 10:07:54.054   11 Jun 2027 10:07:55.240             1.186           138.250
       354   11 Jun 2027 10:08:23.108   11 Jun 2027 10:08:23.377             0.269           134.500
       355   11 Jun 2027 10:08:52.997   11 Jun 2027 10:08:56.707             3.710          1468.656
       356   11 Jun 2027 10:09:05.738   11 Jun 2027 10:09:10.513             4.775           282.219
       357   11 Jun 2027 10:09:29.306   11 Jun 2027 10:09:32.958             3.652           587.281
       358   11 Jun 2027 11:40:55.587   11 Jun 2027 11:41:10.740            15.153          6552.500
       359   11 Jun 2027 11:41:30.609   11 Jun 2027 11:41:31.490             0.881           346.937
       360   11 Jun 2027 11:41:52.074   11 Jun 2027 11:41:54.129             2.055           605.156
       361   11 Jun 2027 11:42:20.570   11 Jun 2027 11:42:23.491             2.921           826.281
       362   11 Jun 2027 11:42:32.704   11 Jun 2027 11:42:35.353             2.649           216.406
       363   11 Jun 2027 11:43:17.139   11 Jun 2027 11:43:21.400             4.261          1305.812
       364   11 Jun 2027 11:43:29.177   11 Jun 2027 11:43:30.286             1.109           243.031
       365   11 Jun 2027 11:44:28.346   11 Jun 2027 11:44:32.594             4.248          1814.375
       366   11 Jun 2027 11:45:03.676   11 Jun 2027 11:45:04.866             1.190           595.000
       367   12 Jun 2027 04:04:28.336   12 Jun 2027 04:04:52.632            24.296         12148.000
       368   12 Jun 2027 04:05:14.617   12 Jun 2027 04:06:23.624            69.007         34503.500
       369   12 Jun 2027 04:06:48.850   12 Jun 2027 04:07:00.644            11.794          5897.000
       370   12 Jun 2027 05:27:48.105   12 Jun 2027 05:29:07.476            79.371         39685.500
       371   12 Jun 2027 05:29:58.633   12 Jun 2027 05:30:13.032            14.399          7199.500
       372   12 Jun 2027 07:04:18.897   12 Jun 2027 07:06:25.317           126.420         63058.250
       373   12 Jun 2027 08:39:28.871   12 Jun 2027 08:39:44.638            15.767          7883.500
       374   12 Jun 2027 08:39:49.798   12 Jun 2027 08:39:50.533             0.735           367.500
       375   12 Jun 2027 08:40:46.498   12 Jun 2027 08:40:51.240             4.742          1791.875
       376   12 Jun 2027 08:42:51.888   12 Jun 2027 08:42:59.375             7.487          3743.500
       377   12 Jun 2027 08:43:31.705   12 Jun 2027 08:43:31.705             0.000             0.000
       378   12 Jun 2027 08:44:46.494   12 Jun 2027 08:44:54.274             7.780          3374.219
       379   12 Jun 2027 08:45:25.736   12 Jun 2027 08:45:27.863             2.127           983.187
       380   12 Jun 2027 08:46:02.564   12 Jun 2027 08:46:03.038             0.474           237.000
       381   12 Jun 2027 10:15:51.197   12 Jun 2027 10:16:06.335            15.138          7543.563
       382   12 Jun 2027 10:17:09.916   12 Jun 2027 10:17:12.801             2.885          1442.500
       383   12 Jun 2027 10:17:47.803   12 Jun 2027 10:17:53.305             5.502          1638.219
       384   12 Jun 2027 10:18:24.286   12 Jun 2027 10:18:28.716             4.430           890.156
       385   12 Jun 2027 10:18:33.663   12 Jun 2027 10:18:36.406             2.743           154.594
       386   12 Jun 2027 10:19:01.018   12 Jun 2027 10:19:02.264             1.246           126.469
       387   12 Jun 2027 10:20:00.247   12 Jun 2027 10:20:04.414             4.167           354.594
       388   12 Jun 2027 10:20:18.385   12 Jun 2027 10:20:21.791             3.406           378.406
       389   12 Jun 2027 10:21:08.689   12 Jun 2027 10:21:11.984             3.295          1255.406
       390   12 Jun 2027 10:21:22.813   12 Jun 2027 10:21:24.141             1.328           338.406
       391   12 Jun 2027 10:21:53.375   12 Jun 2027 10:21:56.176             2.801           691.719
       392   12 Jun 2027 11:53:07.349   12 Jun 2027 11:53:21.282            13.933          6063.594
       393   12 Jun 2027 11:53:52.044   12 Jun 2027 11:53:54.267             2.223           527.719
       394   12 Jun 2027 11:54:20.098   12 Jun 2027 11:54:21.362             1.264           632.000
       395   12 Jun 2027 11:54:56.039   12 Jun 2027 11:54:57.284             1.245           622.500
       396   12 Jun 2027 11:55:52.387   12 Jun 2027 11:55:57.065             4.678          2335.562
       397   12 Jun 2027 11:56:40.217   12 Jun 2027 11:56:40.750             0.533           266.500
       398   12 Jun 2027 11:57:14.726   12 Jun 2027 11:57:17.388             2.662          1331.000
       399   12 Jun 2027 11:57:20.424   12 Jun 2027 11:57:23.130             2.706           907.625
       400   12 Jun 2027 11:57:43.074   12 Jun 2027 11:57:44.279             1.205           602.500
       401   13 Jun 2027 04:16:22.405   13 Jun 2027 04:16:59.965            37.560         18780.000
       402   13 Jun 2027 04:17:29.974   13 Jun 2027 04:18:43.281            73.307         36653.500
       403   13 Jun 2027 04:19:12.695   13 Jun 2027 04:19:22.351             9.656          4828.000
       404   13 Jun 2027 05:40:28.099   13 Jun 2027 05:41:57.510            89.411         44705.500
       405   13 Jun 2027 07:16:13.561   13 Jun 2027 07:18:26.759           133.198         64098.125
       406   13 Jun 2027 08:51:10.873   13 Jun 2027 08:51:28.503            17.630          7964.656
       407   13 Jun 2027 08:53:04.395   13 Jun 2027 08:53:12.313             7.918          2736.875
       408   13 Jun 2027 08:53:40.840   13 Jun 2027 08:53:45.838             4.998           858.562
       409   13 Jun 2027 08:54:14.697   13 Jun 2027 08:54:17.244             2.547           355.656
       410   13 Jun 2027 08:55:01.757   13 Jun 2027 08:55:05.554             3.797          1209.656
       411   13 Jun 2027 08:56:46.108   13 Jun 2027 08:56:46.108             0.000             0.000
       412   13 Jun 2027 08:57:35.567   13 Jun 2027 08:57:46.311            10.744          3779.344
       413   13 Jun 2027 10:27:23.481   13 Jun 2027 10:27:38.136            14.655          7205.063
       414   13 Jun 2027 10:28:39.224   13 Jun 2027 10:28:44.196             4.972           704.625
       415   13 Jun 2027 10:29:37.254   13 Jun 2027 10:29:44.242             6.988          1609.062
       416   13 Jun 2027 10:29:56.894   13 Jun 2027 10:29:58.570             1.676           395.375
       417   13 Jun 2027 10:30:19.670   13 Jun 2027 10:30:21.028             1.358           659.375
       418   13 Jun 2027 10:31:10.331   13 Jun 2027 10:31:13.753             3.422          1418.625
       419   13 Jun 2027 10:31:31.953   13 Jun 2027 10:31:33.774             1.821           568.750
       420   13 Jun 2027 10:31:43.516   13 Jun 2027 10:31:44.605             1.089           242.938
       421   13 Jun 2027 10:31:48.868   13 Jun 2027 10:31:48.868             0.000             0.000
       422   13 Jun 2027 10:32:09.869   13 Jun 2027 10:32:11.522             1.653           789.500
       423   13 Jun 2027 10:33:03.855   13 Jun 2027 10:33:07.231             3.376          1525.781
       424   13 Jun 2027 10:33:29.163   13 Jun 2027 10:33:31.254             2.091           139.344
       425   13 Jun 2027 10:33:49.598   13 Jun 2027 10:33:50.004             0.406           203.000
