uniorb/output/strategy_1/Camera/Camera_KinoSat_110909.txt

KinoSat_110909
-------------------------
    Access    *     Start Time (UTCG)     *     Stop Time (UTCG)  *   Duration (s) *   Data (Mbytes)
         1   01 Jun 2027 03:05:00.805   01 Jun 2027 03:05:54.974            54.169         27084.500
         2   01 Jun 2027 04:27:02.898   01 Jun 2027 04:28:07.825            64.927         32463.500
         3   01 Jun 2027 04:29:06.108   01 Jun 2027 04:29:16.393            10.285          5142.500
         4   01 Jun 2027 04:29:53.992   01 Jun 2027 04:30:02.398             8.406          4203.000
         5   01 Jun 2027 04:32:22.876   01 Jun 2027 04:32:38.210            15.334          7667.000
         6   01 Jun 2027 06:01:56.100   01 Jun 2027 06:04:01.692           125.592         62796.000
         7   01 Jun 2027 06:08:31.229   01 Jun 2027 06:08:31.229             0.000             0.000
         8   01 Jun 2027 06:08:50.458   01 Jun 2027 06:08:51.840             1.382           691.000
         9   01 Jun 2027 06:10:09.916   01 Jun 2027 06:10:19.687             9.771          4885.500
        10   01 Jun 2027 07:39:37.971   01 Jun 2027 07:41:59.187           141.216         70608.000
        11   01 Jun 2027 07:42:33.051   01 Jun 2027 07:42:33.051             0.000             0.000
        12   01 Jun 2027 07:43:13.481   01 Jun 2027 07:43:25.425            11.944          5972.000
        13   01 Jun 2027 07:45:06.277   01 Jun 2027 07:45:06.277             0.000             0.000
        14   01 Jun 2027 07:45:28.795   01 Jun 2027 07:45:31.433             2.638          1319.000
        15   01 Jun 2027 09:16:25.889   01 Jun 2027 09:16:47.069            21.180         10590.000
        16   01 Jun 2027 09:16:47.378   01 Jun 2027 09:18:36.818           109.440         54720.000
        17   01 Jun 2027 09:20:13.112   01 Jun 2027 09:20:16.885             3.773          1886.500
        18   01 Jun 2027 09:20:39.329   01 Jun 2027 09:20:39.329             0.000             0.000
        19   01 Jun 2027 09:21:27.157   01 Jun 2027 09:21:28.283             1.126           563.000
        20   01 Jun 2027 09:21:48.551   01 Jun 2027 09:21:54.063             5.512          2756.000
        21   01 Jun 2027 10:54:27.492   01 Jun 2027 10:56:24.267           116.775         58387.500
        22   01 Jun 2027 10:57:25.376   01 Jun 2027 10:57:41.578            16.202          8101.000
        23   01 Jun 2027 10:58:19.457   01 Jun 2027 10:58:29.364             9.907          4953.500
        24   02 Jun 2027 03:04:51.997   02 Jun 2027 03:05:00.578             8.581          4290.500
        25   02 Jun 2027 03:05:16.081   02 Jun 2027 03:05:16.081             0.000             0.000
        26   02 Jun 2027 03:05:54.467   02 Jun 2027 03:05:54.467             0.000             0.000
        27   02 Jun 2027 03:06:38.322   02 Jun 2027 03:06:48.507            10.185          5092.500
        28   02 Jun 2027 04:38:38.963   02 Jun 2027 04:40:20.853           101.890         50945.000
        29   02 Jun 2027 04:42:13.701   02 Jun 2027 04:42:13.701             0.000             0.000
        30   02 Jun 2027 04:42:19.650   02 Jun 2027 04:43:04.181            44.531         22265.500
        31   02 Jun 2027 06:13:31.316   02 Jun 2027 06:15:01.100            89.784         44892.000
        32   02 Jun 2027 06:17:19.691   02 Jun 2027 06:17:19.691             0.000             0.000
        33   02 Jun 2027 06:19:15.982   02 Jun 2027 06:19:15.982             0.000             0.000
        34   02 Jun 2027 06:19:26.332   02 Jun 2027 06:19:33.198             6.866          3433.000
        35   02 Jun 2027 06:20:10.121   02 Jun 2027 06:20:32.616            22.495         11247.500
        36   02 Jun 2027 06:22:28.716   02 Jun 2027 06:22:29.377             0.661           330.500
        37   02 Jun 2027 07:51:41.073   02 Jun 2027 07:53:14.437            93.364         46682.000
        38   02 Jun 2027 07:54:17.391   02 Jun 2027 07:54:21.372             3.981          1990.500
        39   02 Jun 2027 07:54:54.183   02 Jun 2027 07:55:20.895            26.712         13356.000
        40   02 Jun 2027 07:56:14.164   02 Jun 2027 07:56:14.727             0.563           281.500
        41   02 Jun 2027 07:57:06.237   02 Jun 2027 07:57:22.242            16.005          8002.500
        42   02 Jun 2027 09:28:35.901   02 Jun 2027 09:30:42.826           126.925         63462.500
        43   02 Jun 2027 09:30:48.752   02 Jun 2027 09:30:48.752             0.000             0.000
        44   02 Jun 2027 09:30:58.773   02 Jun 2027 09:30:58.773             0.000             0.000
        45   02 Jun 2027 09:32:35.547   02 Jun 2027 09:32:35.547             0.000             0.000
        46   02 Jun 2027 09:33:17.730   02 Jun 2027 09:33:26.984             9.254          4627.000
        47   02 Jun 2027 09:34:54.144   02 Jun 2027 09:34:58.186             4.042          2021.000
        48   02 Jun 2027 11:05:42.448   02 Jun 2027 11:07:57.734           135.286         67643.000
        49   02 Jun 2027 11:10:11.185   02 Jun 2027 11:10:23.569            12.384          6192.000
        50   03 Jun 2027 03:16:46.740   03 Jun 2027 03:16:54.006             7.266          3633.000
        51   03 Jun 2027 03:17:39.541   03 Jun 2027 03:17:54.440            14.899          7449.500
        52   03 Jun 2027 04:53:05.688   03 Jun 2027 04:55:09.600           123.912         61956.000
        53   03 Jun 2027 06:26:35.030   03 Jun 2027 06:27:39.105            64.075         32037.500
        54   03 Jun 2027 06:28:36.269   03 Jun 2027 06:28:42.834             6.565          3282.500
        55   03 Jun 2027 06:28:56.067   03 Jun 2027 06:29:01.997             5.930          2965.000
        56   03 Jun 2027 06:29:21.217   03 Jun 2027 06:29:21.217             0.000             0.000
        57   03 Jun 2027 06:29:36.234   03 Jun 2027 06:29:39.835             3.601          1800.500
        58   03 Jun 2027 06:30:07.760   03 Jun 2027 06:30:25.819            18.059          9029.500
        59   03 Jun 2027 06:31:39.088   03 Jun 2027 06:31:47.663             8.575          4287.500
        60   03 Jun 2027 06:33:50.766   03 Jun 2027 06:33:56.259             5.493          2746.500
        61   03 Jun 2027 06:34:02.115   03 Jun 2027 06:34:02.255             0.140            70.000
        62   03 Jun 2027 06:35:06.031   03 Jun 2027 06:35:07.726             1.695           847.500
        63   03 Jun 2027 08:04:07.448   03 Jun 2027 08:06:04.852           117.404         58702.000
        64   03 Jun 2027 08:07:25.121   03 Jun 2027 08:07:26.619             1.498           749.000
        65   03 Jun 2027 08:07:48.213   03 Jun 2027 08:07:51.653             3.440          1720.000
        66   03 Jun 2027 08:09:38.086   03 Jun 2027 08:10:08.070            29.984         14992.000
        67   03 Jun 2027 08:10:50.742   03 Jun 2027 08:10:51.664             0.922           461.000
        68   03 Jun 2027 09:41:02.686   03 Jun 2027 09:42:50.553           107.867         53933.500
        69   03 Jun 2027 09:43:12.473   03 Jun 2027 09:43:30.477            18.004          9002.000
        70   03 Jun 2027 09:44:40.817   03 Jun 2027 09:44:44.095             3.278          1639.000
        71   03 Jun 2027 09:46:29.167   03 Jun 2027 09:46:32.369             3.202          1601.000
        72   03 Jun 2027 09:46:51.063   03 Jun 2027 09:46:51.606             0.543           271.500
        73   03 Jun 2027 11:17:54.212   03 Jun 2027 11:18:38.204            43.992         21273.593
        74   03 Jun 2027 11:18:47.487   03 Jun 2027 11:18:47.937             0.450           225.000
        75   03 Jun 2027 11:19:13.317   03 Jun 2027 11:19:14.496             1.179           589.500
        76   03 Jun 2027 11:19:40.048   03 Jun 2027 11:19:43.312             3.264          1050.250
        77   03 Jun 2027 11:19:45.505   03 Jun 2027 11:19:47.889             2.384            68.531
        78   03 Jun 2027 11:20:54.111   03 Jun 2027 11:20:56.131             2.020          1010.000
        79   03 Jun 2027 11:21:13.381   03 Jun 2027 11:21:15.941             2.560          1280.000
        80   03 Jun 2027 11:21:37.061   03 Jun 2027 11:21:45.082             8.021           965.406
        81   03 Jun 2027 11:22:04.441   03 Jun 2027 11:22:09.580             5.139           573.906
        82   03 Jun 2027 11:22:14.072   03 Jun 2027 11:22:15.871             1.799           120.844
        83   03 Jun 2027 11:22:24.368   03 Jun 2027 11:22:26.652             2.284            19.250
        84   04 Jun 2027 03:28:38.421   04 Jun 2027 03:28:55.274            16.853          8426.500
        85   04 Jun 2027 03:30:42.653   04 Jun 2027 03:30:54.871            12.218          6109.000
        86   04 Jun 2027 05:05:06.833   04 Jun 2027 05:07:13.035           126.202         63101.000
        87   04 Jun 2027 06:39:14.529   04 Jun 2027 06:41:08.065           113.536         56768.000
        88   04 Jun 2027 06:41:18.501   04 Jun 2027 06:41:28.624            10.123          5061.500
        89   04 Jun 2027 06:45:15.205   04 Jun 2027 06:45:18.103             2.898          1449.000
        90   04 Jun 2027 06:45:54.053   04 Jun 2027 06:46:01.561             7.508          3754.000
        91   04 Jun 2027 06:46:14.727   04 Jun 2027 06:46:29.620            14.893          7446.500
        92   04 Jun 2027 08:16:13.119   04 Jun 2027 08:17:13.869            60.750         29574.094
        93   04 Jun 2027 08:18:32.491   04 Jun 2027 08:18:38.535             6.044          2456.937
        94   04 Jun 2027 08:19:48.592   04 Jun 2027 08:19:53.824             5.232          1442.031
        95   04 Jun 2027 08:20:11.325   04 Jun 2027 08:20:13.291             1.966           546.906
        96   04 Jun 2027 08:20:20.369   04 Jun 2027 08:20:21.580             1.211           200.063
        97   04 Jun 2027 08:20:53.693   04 Jun 2027 08:20:55.981             2.288           829.219
        98   04 Jun 2027 08:21:11.538   04 Jun 2027 08:21:17.936             6.398           486.156
        99   04 Jun 2027 08:22:16.771   04 Jun 2027 08:22:21.622             4.851          1793.031
       100   04 Jun 2027 08:22:37.563   04 Jun 2027 08:22:38.511             0.948           450.500
       101   04 Jun 2027 09:53:49.359   04 Jun 2027 09:54:09.127            19.768          9807.844
       102   04 Jun 2027 09:54:25.413   04 Jun 2027 09:54:25.413             0.000             0.000
       103   04 Jun 2027 09:54:57.643   04 Jun 2027 09:55:01.301             3.658          1211.719
       104   04 Jun 2027 09:55:13.628   04 Jun 2027 09:55:14.639             1.011           385.219
       105   04 Jun 2027 09:55:53.993   04 Jun 2027 09:55:56.950             2.957           108.094
       106   04 Jun 2027 09:56:56.585   04 Jun 2027 09:57:02.266             5.681          1775.031
       107   04 Jun 2027 09:57:13.824   04 Jun 2027 09:57:15.390             1.566           243.594
       108   04 Jun 2027 09:57:42.232   04 Jun 2027 09:57:46.963             4.731           604.406
       109   04 Jun 2027 11:29:58.063   04 Jun 2027 11:30:18.875            20.812          8704.562
       110   04 Jun 2027 11:31:22.504   04 Jun 2027 11:31:28.792             6.288          1739.187
       111   04 Jun 2027 11:31:44.329   04 Jun 2027 11:31:47.245             2.916           260.656
       112   04 Jun 2027 11:32:39.368   04 Jun 2027 11:32:42.922             3.554          1255.750
       113   04 Jun 2027 11:33:11.552   04 Jun 2027 11:33:17.716             6.164           894.688
       114   04 Jun 2027 11:33:37.127   04 Jun 2027 11:33:37.759             0.632            95.844
       115   04 Jun 2027 11:34:02.153   04 Jun 2027 11:34:04.367             2.214           708.750
       116   04 Jun 2027 11:34:27.476   04 Jun 2027 11:34:29.070             1.594           653.188
       117   05 Jun 2027 03:40:46.999   05 Jun 2027 03:41:37.439            50.440         25220.000
       118   05 Jun 2027 03:42:16.344   05 Jun 2027 03:42:16.344             0.000             0.000
       119   05 Jun 2027 05:17:17.242   05 Jun 2027 05:19:27.833           130.591         65295.500
       120   05 Jun 2027 06:52:27.439   05 Jun 2027 06:54:10.426           102.987         51493.500
       121   05 Jun 2027 06:54:23.896   05 Jun 2027 06:54:41.193            17.297          8648.500
       122   05 Jun 2027 06:55:11.518   05 Jun 2027 06:55:13.025             1.507           753.500
       123   05 Jun 2027 06:58:30.222   05 Jun 2027 06:58:49.012            18.790          9395.000
       124   05 Jun 2027 08:28:48.996   05 Jun 2027 08:29:28.406            39.410         19020.031
       125   05 Jun 2027 08:30:33.783   05 Jun 2027 08:30:41.662             7.879          1797.344
       126   05 Jun 2027 08:31:12.836   05 Jun 2027 08:31:13.078             0.242           121.000
       127   05 Jun 2027 08:31:32.464   05 Jun 2027 08:31:38.767             6.303          1435.000
       128   05 Jun 2027 08:32:04.738   05 Jun 2027 08:32:06.727             1.989           770.125
       129   05 Jun 2027 08:32:17.630   05 Jun 2027 08:32:20.014             2.384           325.187
       130   05 Jun 2027 08:33:08.257   05 Jun 2027 08:33:16.163             7.906          1442.219
       131   05 Jun 2027 08:34:12.541   05 Jun 2027 08:34:16.822             4.281          1761.813
       132   05 Jun 2027 08:34:23.037   05 Jun 2027 08:34:23.910             0.873           150.906
       133   05 Jun 2027 08:34:38.960   05 Jun 2027 08:34:41.860             2.900           417.625
       134   05 Jun 2027 10:06:07.645   05 Jun 2027 10:06:24.623            16.978          8489.000
       135   05 Jun 2027 10:06:33.090   05 Jun 2027 10:06:33.780             0.690           345.000
       136   05 Jun 2027 10:07:03.534   05 Jun 2027 10:07:12.677             9.143          1078.875
       137   05 Jun 2027 10:07:56.501   05 Jun 2027 10:08:01.531             5.030          1170.062
       138   05 Jun 2027 10:08:45.073   05 Jun 2027 10:08:49.443             4.370          1360.688
       139   05 Jun 2027 10:09:01.287   05 Jun 2027 10:09:01.958             0.671           296.719
       140   05 Jun 2027 10:09:30.585   05 Jun 2027 10:09:32.201             1.616           682.156
       141   05 Jun 2027 10:10:01.382   05 Jun 2027 10:10:05.693             4.311           902.437
       142   05 Jun 2027 10:10:36.585   05 Jun 2027 10:10:39.118             2.533           850.281
       143   05 Jun 2027 11:42:19.402   05 Jun 2027 11:42:39.206            19.804          8915.500
       144   05 Jun 2027 11:42:50.935   05 Jun 2027 11:42:52.950             2.015            64.875
       145   05 Jun 2027 11:43:31.662   05 Jun 2027 11:43:33.595             1.933           759.312
       146   05 Jun 2027 11:43:59.194   05 Jun 2027 11:44:03.549             4.355           752.438
       147   05 Jun 2027 11:44:53.261   05 Jun 2027 11:44:56.454             3.193          1410.000
       148   05 Jun 2027 11:46:08.708   05 Jun 2027 11:46:17.444             8.736          2257.937
       149   05 Jun 2027 11:46:42.753   05 Jun 2027 11:46:45.670             2.917           659.187
       150   06 Jun 2027 03:53:26.944   06 Jun 2027 03:54:27.573            60.629         30314.500
       151   06 Jun 2027 03:54:34.366   06 Jun 2027 03:54:46.251            11.885          5942.500
       152   06 Jun 2027 05:29:12.668   06 Jun 2027 05:31:21.361           128.693         64346.500
       153   06 Jun 2027 05:32:29.118   06 Jun 2027 05:32:36.799             7.681          3840.500
       154   06 Jun 2027 07:04:10.440   06 Jun 2027 07:05:46.135            95.695         47847.500
       155   06 Jun 2027 07:05:47.181   06 Jun 2027 07:06:00.603            13.422          6596.657
       156   06 Jun 2027 07:06:47.978   06 Jun 2027 07:06:50.317             2.339          1099.438
       157   06 Jun 2027 07:08:04.508   06 Jun 2027 07:08:09.056             4.548          2164.156
       158   06 Jun 2027 07:09:34.626   06 Jun 2027 07:09:37.816             3.190          1595.000
       159   06 Jun 2027 07:10:46.475   06 Jun 2027 07:10:52.078             5.603          2292.813
       160   06 Jun 2027 08:40:22.464   06 Jun 2027 08:40:46.249            23.785         11761.469
       161   06 Jun 2027 08:41:01.806   06 Jun 2027 08:41:05.135             3.329           448.469
       162   06 Jun 2027 08:42:14.711   06 Jun 2027 08:42:22.002             7.291          1369.844
       163   06 Jun 2027 08:42:58.049   06 Jun 2027 08:43:00.845             2.796           612.531
       164   06 Jun 2027 08:43:32.056   06 Jun 2027 08:43:34.953             2.897           666.313
       165   06 Jun 2027 08:44:08.208   06 Jun 2027 08:44:10.300             2.092          1039.219
       166   06 Jun 2027 08:44:37.279   06 Jun 2027 08:44:40.324             3.045           843.094
       167   06 Jun 2027 08:44:57.773   06 Jun 2027 08:44:57.802             0.029            14.500
       168   06 Jun 2027 08:45:09.606   06 Jun 2027 08:45:09.606             0.000             0.000
       169   06 Jun 2027 08:46:07.094   06 Jun 2027 08:46:13.427             6.333          2365.813
       170   06 Jun 2027 08:46:41.016   06 Jun 2027 08:46:42.634             1.618           616.281
       171   06 Jun 2027 10:18:22.722   06 Jun 2027 10:18:40.134            17.412          7782.406
       172   06 Jun 2027 10:18:57.868   06 Jun 2027 10:19:02.041             4.173           271.781
       173   06 Jun 2027 10:19:24.113   06 Jun 2027 10:19:26.166             2.053           689.750
       174   06 Jun 2027 10:19:54.539   06 Jun 2027 10:19:54.539             0.000             0.000
       175   06 Jun 2027 10:20:26.156   06 Jun 2027 10:20:31.764             5.608          1874.687
       176   06 Jun 2027 10:20:42.320   06 Jun 2027 10:20:43.922             1.602           329.875
       177   06 Jun 2027 10:21:20.433   06 Jun 2027 10:21:24.286             3.853           927.469
       178   06 Jun 2027 10:22:24.689   06 Jun 2027 10:22:31.167             6.478          1887.594
       179   06 Jun 2027 10:22:32.321   06 Jun 2027 10:22:32.383             0.062            31.000
       180   06 Jun 2027 11:54:03.897   06 Jun 2027 11:54:18.883            14.986          7479.875
       181   06 Jun 2027 11:54:52.556   06 Jun 2027 11:54:52.779             0.223           111.500
       182   06 Jun 2027 11:55:33.344   06 Jun 2027 11:55:43.086             9.742          1634.938
       183   06 Jun 2027 11:56:28.997   06 Jun 2027 11:56:32.149             3.152          1434.719
       184   06 Jun 2027 11:56:47.569   06 Jun 2027 11:56:48.262             0.693           199.500
       185   06 Jun 2027 11:57:46.048   06 Jun 2027 11:57:56.940            10.892          1300.250
       186   06 Jun 2027 11:58:00.995   06 Jun 2027 11:58:00.995             0.000             0.000
       187   06 Jun 2027 11:58:01.103   06 Jun 2027 11:58:02.552             1.449           130.094
       188   06 Jun 2027 11:58:36.793   06 Jun 2027 11:58:36.793             0.000             0.000
       189   06 Jun 2027 11:58:45.528   06 Jun 2027 11:58:48.453             2.925          1033.875
       190   06 Jun 2027 11:59:11.293   06 Jun 2027 11:59:14.856             3.563           578.313
       191   07 Jun 2027 04:04:16.733   07 Jun 2027 04:05:07.260            50.527         25263.500
       192   07 Jun 2027 04:07:28.430   07 Jun 2027 04:07:50.493            22.063         11031.500
       193   07 Jun 2027 05:39:48.734   07 Jun 2027 05:39:54.606             5.872          2936.000
       194   07 Jun 2027 05:40:58.244   07 Jun 2027 05:42:53.042           114.798         57399.000
       195   07 Jun 2027 05:44:06.475   07 Jun 2027 05:44:09.915             3.440          1720.000
       196   07 Jun 2027 07:15:44.210   07 Jun 2027 07:17:49.367           125.157         62578.500
       197   07 Jun 2027 07:18:16.386   07 Jun 2027 07:18:34.147            17.761          6020.468
       198   07 Jun 2027 07:18:57.946   07 Jun 2027 07:19:00.066             2.120           697.000
       199   07 Jun 2027 07:20:18.986   07 Jun 2027 07:20:23.515             4.529          2264.500
       200   07 Jun 2027 07:22:18.765   07 Jun 2027 07:22:18.765             0.000             0.000
       201   07 Jun 2027 07:22:35.146   07 Jun 2027 07:22:39.050             3.904          1952.000
       202   07 Jun 2027 08:52:43.524   07 Jun 2027 08:53:08.020            24.496         12176.719
       203   07 Jun 2027 08:53:47.581   07 Jun 2027 08:53:50.566             2.985           676.250
       204   07 Jun 2027 08:54:10.347   07 Jun 2027 08:54:11.582             1.235           258.500
       205   07 Jun 2027 08:54:50.841   07 Jun 2027 08:54:57.831             6.990          1143.500
       206   07 Jun 2027 08:56:02.563   07 Jun 2027 08:56:05.994             3.431          1474.094
       207   07 Jun 2027 08:56:51.243   07 Jun 2027 08:56:55.833             4.590          1006.281
       208   07 Jun 2027 08:57:28.105   07 Jun 2027 08:57:38.114            10.009           938.875
       209   07 Jun 2027 08:58:20.971   07 Jun 2027 08:58:27.611             6.640          1319.000
       210   07 Jun 2027 08:58:40.284   07 Jun 2027 08:58:42.225             1.941           356.125
       211   07 Jun 2027 10:30:44.520   07 Jun 2027 10:31:02.609            18.089          8281.625
       212   07 Jun 2027 10:31:20.634   07 Jun 2027 10:31:26.768             6.134           563.281
       213   07 Jun 2027 10:31:45.790   07 Jun 2027 10:31:48.673             2.883           336.906
       214   07 Jun 2027 10:32:50.756   07 Jun 2027 10:32:57.743             6.987          1940.094
       215   07 Jun 2027 10:33:43.572   07 Jun 2027 10:33:46.687             3.115          1432.156
       216   07 Jun 2027 10:34:08.048   07 Jun 2027 10:34:08.830             0.782           134.344
       217   08 Jun 2027 04:15:32.903   08 Jun 2027 04:16:23.900            50.997         25498.500
       218   08 Jun 2027 04:17:32.540   08 Jun 2027 04:17:55.893            23.353         11676.500
       219   08 Jun 2027 04:19:04.423   08 Jun 2027 04:19:27.455            23.032         11516.000
       220   08 Jun 2027 05:50:41.580   08 Jun 2027 05:52:05.567            83.987         41993.500
       221   08 Jun 2027 05:52:41.893   08 Jun 2027 05:52:47.018             5.125          2562.500
       222   08 Jun 2027 05:53:21.702   08 Jun 2027 05:53:50.723            29.021         14510.500
       223   08 Jun 2027 05:56:47.973   08 Jun 2027 05:57:09.513            21.540         10770.000
       224   08 Jun 2027 07:27:51.704   08 Jun 2027 07:29:49.578           117.874         58882.407
       225   08 Jun 2027 07:30:18.394   08 Jun 2027 07:30:22.105             3.711           900.500
       226   08 Jun 2027 07:30:29.111   08 Jun 2027 07:30:29.763             0.652           170.813
       227   08 Jun 2027 07:30:52.846   08 Jun 2027 07:30:57.168             4.322           536.656
       228   08 Jun 2027 07:34:05.984   08 Jun 2027 07:34:14.867             8.883          4441.500
       229   08 Jun 2027 09:04:49.110   08 Jun 2027 09:05:18.367            29.257         14522.531
       230   08 Jun 2027 09:06:00.709   08 Jun 2027 09:06:01.783             1.074            93.219
       231   08 Jun 2027 09:07:15.187   08 Jun 2027 09:07:16.259             1.072           508.156
       232   08 Jun 2027 09:08:22.473   08 Jun 2027 09:08:26.644             4.171          2039.813
       233   08 Jun 2027 09:08:45.401   08 Jun 2027 09:08:47.584             2.183           586.156
       234   08 Jun 2027 09:08:51.990   08 Jun 2027 09:08:52.861             0.871            76.719
       235   08 Jun 2027 09:09:40.422   08 Jun 2027 09:09:40.604             0.182            91.000
       236   08 Jun 2027 09:09:49.773   08 Jun 2027 09:09:52.250             2.477          1238.500
       237   08 Jun 2027 09:10:08.538   08 Jun 2027 09:10:16.777             8.239           948.688
       238   08 Jun 2027 09:10:57.208   08 Jun 2027 09:10:57.800             0.592           296.000
       239   08 Jun 2027 10:42:42.161   08 Jun 2027 10:42:56.806            14.645          6696.906
       240   08 Jun 2027 10:43:56.521   08 Jun 2027 10:44:00.993             4.472          1809.344
       241   08 Jun 2027 10:44:24.335   08 Jun 2027 10:44:25.973             1.638           506.531
       242   08 Jun 2027 10:45:09.354   08 Jun 2027 10:45:19.737            10.383          1072.594
       243   08 Jun 2027 10:45:24.698   08 Jun 2027 10:45:25.523             0.825           155.031
       244   08 Jun 2027 10:46:08.079   08 Jun 2027 10:46:09.955             1.876           503.125
       245   08 Jun 2027 10:46:11.520   08 Jun 2027 10:46:12.171             0.651            48.906
       246   09 Jun 2027 03:05:15.841   09 Jun 2027 03:06:09.238            53.397         26698.500
       247   09 Jun 2027 04:27:17.916   09 Jun 2027 04:28:04.447            46.531         23265.500
       248   09 Jun 2027 04:28:24.784   09 Jun 2027 04:28:31.256             6.472          3236.000
       249   09 Jun 2027 04:30:02.583   09 Jun 2027 04:30:08.854             6.271          3135.500
       250   09 Jun 2027 04:30:57.385   09 Jun 2027 04:31:11.375            13.990          6995.000
       251   09 Jun 2027 04:32:14.647   09 Jun 2027 04:32:22.787             8.140          4070.000
       252   09 Jun 2027 06:02:10.409   09 Jun 2027 06:03:40.444            90.035         45017.500
       253   09 Jun 2027 06:06:08.396   09 Jun 2027 06:06:21.708            13.312          6656.000
       254   09 Jun 2027 06:08:08.137   09 Jun 2027 06:08:11.624             3.487          1743.500
       255   09 Jun 2027 06:08:56.546   09 Jun 2027 06:08:57.927             1.381           690.500
       256   09 Jun 2027 06:09:06.272   09 Jun 2027 06:09:08.883             2.611          1305.500
       257   09 Jun 2027 06:09:38.971   09 Jun 2027 06:09:46.811             7.840          3920.000
       258   09 Jun 2027 07:39:53.045   09 Jun 2027 07:41:31.443            98.398         49113.844
       259   09 Jun 2027 07:42:15.256   09 Jun 2027 07:42:15.256             0.000             0.000
       260   09 Jun 2027 07:43:13.403   09 Jun 2027 07:43:27.933            14.530          3186.250
       261   09 Jun 2027 07:44:16.266   09 Jun 2027 07:44:19.756             3.490          1507.656
       262   09 Jun 2027 07:45:57.733   09 Jun 2027 07:46:04.667             6.934          3061.781
       263   09 Jun 2027 09:16:41.231   09 Jun 2027 09:17:00.704            19.473          9736.500
       264   09 Jun 2027 09:17:02.920   09 Jun 2027 09:17:10.076             7.156          1901.469
       265   09 Jun 2027 09:17:53.856   09 Jun 2027 09:17:55.618             1.762           518.500
       266   09 Jun 2027 09:19:13.470   09 Jun 2027 09:19:14.645             1.175           313.938
       267   09 Jun 2027 09:20:31.434   09 Jun 2027 09:20:34.567             3.133          1566.500
       268   09 Jun 2027 09:21:37.750   09 Jun 2027 09:21:39.654             1.904           952.000
       269   09 Jun 2027 09:22:46.754   09 Jun 2027 09:22:55.950             9.196          3310.844
       270   09 Jun 2027 09:23:07.335   09 Jun 2027 09:23:09.722             2.387           355.781
       271   09 Jun 2027 10:54:42.910   09 Jun 2027 10:54:57.449            14.539          6921.656
       272   09 Jun 2027 10:55:55.402   09 Jun 2027 10:55:59.956             4.554          1725.719
       273   09 Jun 2027 10:56:24.014   09 Jun 2027 10:56:31.344             7.330           717.500
       274   09 Jun 2027 10:56:48.013   09 Jun 2027 10:56:51.114             3.101           269.375
       275   09 Jun 2027 10:57:14.872   09 Jun 2027 10:57:21.834             6.962           370.000
       276   09 Jun 2027 10:57:46.735   09 Jun 2027 10:57:48.333             1.598           173.219
       277   09 Jun 2027 10:58:05.571   09 Jun 2027 10:58:06.957             1.386           440.375
       278   09 Jun 2027 10:58:16.390   09 Jun 2027 10:58:16.642             0.252           126.000
       279   09 Jun 2027 10:58:26.351   09 Jun 2027 10:58:26.351             0.000             0.000
       280   09 Jun 2027 10:58:40.281   09 Jun 2027 10:58:43.355             3.074           752.563
       281   10 Jun 2027 03:05:06.918   10 Jun 2027 03:05:19.961            13.043          6521.500
       282   10 Jun 2027 03:06:09.694   10 Jun 2027 03:06:32.350            22.656         11328.000
       283   10 Jun 2027 04:38:53.360   10 Jun 2027 04:40:22.188            88.828         44414.000
       284   10 Jun 2027 04:41:04.310   10 Jun 2027 04:41:23.585            19.275          9637.500
       285   10 Jun 2027 04:42:31.176   10 Jun 2027 04:42:31.176             0.000             0.000
       286   10 Jun 2027 04:44:09.976   10 Jun 2027 04:44:30.864            20.888         10444.000
       287   10 Jun 2027 06:14:53.843   10 Jun 2027 06:16:37.154           103.311         51655.500
       288   10 Jun 2027 06:18:27.853   10 Jun 2027 06:18:39.907            12.054          6027.000
       289   10 Jun 2027 06:19:04.697   10 Jun 2027 06:19:04.897             0.200           100.000
       290   10 Jun 2027 06:19:13.147   10 Jun 2027 06:19:17.408             4.261          2130.500
       291   10 Jun 2027 06:22:22.842   10 Jun 2027 06:22:25.009             2.167          1083.500
       292   10 Jun 2027 06:22:58.097   10 Jun 2027 06:22:58.097             0.000             0.000
       293   10 Jun 2027 07:51:56.373   10 Jun 2027 07:53:13.048            76.675         38030.031
       294   10 Jun 2027 07:53:26.724   10 Jun 2027 07:53:27.543             0.819           221.563
       295   10 Jun 2027 07:53:42.894   10 Jun 2027 07:53:44.969             2.075           479.719
       296   10 Jun 2027 07:54:37.414   10 Jun 2027 07:54:42.617             5.203          1412.687
       297   10 Jun 2027 07:55:07.834   10 Jun 2027 07:55:12.059             4.225           696.781
       298   10 Jun 2027 07:55:36.431   10 Jun 2027 07:55:37.612             1.181           590.500
       299   10 Jun 2027 07:55:43.196   10 Jun 2027 07:55:46.695             3.499           174.688
       300   10 Jun 2027 07:56:10.147   10 Jun 2027 07:56:14.306             4.159            78.719
       301   10 Jun 2027 07:57:07.548   10 Jun 2027 07:57:09.395             1.847           923.500
       302   10 Jun 2027 07:57:23.173   10 Jun 2027 07:57:28.422             5.249          1107.094
       303   10 Jun 2027 07:57:47.562   10 Jun 2027 07:57:48.560             0.998           335.969
       304   10 Jun 2027 07:58:53.728   10 Jun 2027 07:58:53.728             0.000             0.000
       305   10 Jun 2027 07:59:14.605   10 Jun 2027 07:59:17.565             2.960          1480.000
       306   10 Jun 2027 09:28:51.138   10 Jun 2027 09:29:14.176            23.038          9195.438
       307   10 Jun 2027 09:30:36.064   10 Jun 2027 09:30:39.184             3.120          1480.531
       308   10 Jun 2027 09:31:09.363   10 Jun 2027 09:31:11.551             2.188           943.094
       309   10 Jun 2027 09:31:56.198   10 Jun 2027 09:31:59.159             2.961          1309.187
       310   10 Jun 2027 09:32:26.108   10 Jun 2027 09:32:28.998             2.890           268.750
       311   10 Jun 2027 09:34:47.201   10 Jun 2027 09:34:56.341             9.140          4042.125
       312   10 Jun 2027 11:05:57.411   10 Jun 2027 11:06:11.008            13.597          6737.781
       313   10 Jun 2027 11:06:36.914   10 Jun 2027 11:06:39.366             2.452           796.531
       314   10 Jun 2027 11:06:50.910   10 Jun 2027 11:06:52.482             1.572           263.406
       315   10 Jun 2027 11:07:07.742   10 Jun 2027 11:07:08.746             1.004           476.875
       316   10 Jun 2027 11:07:50.106   10 Jun 2027 11:07:55.091             4.985          1292.500
       317   10 Jun 2027 11:08:12.566   10 Jun 2027 11:08:14.209             1.643           357.125
       318   10 Jun 2027 11:08:24.028   10 Jun 2027 11:08:29.553             5.525           306.844
       319   10 Jun 2027 11:09:15.446   10 Jun 2027 11:09:16.263             0.817           408.500
       320   10 Jun 2027 11:09:34.572   10 Jun 2027 11:09:42.454             7.882           914.875
       321   10 Jun 2027 11:10:06.090   10 Jun 2027 11:10:12.158             6.068           363.219
       322   10 Jun 2027 11:10:20.889   10 Jun 2027 11:10:21.274             0.385           186.406
       323   10 Jun 2027 11:10:40.831   10 Jun 2027 11:10:41.800             0.969           484.500
       324   11 Jun 2027 03:17:01.651   11 Jun 2027 03:17:18.937            17.286          8643.000
       325   11 Jun 2027 03:18:33.298   11 Jun 2027 03:18:47.944            14.646          7323.000
       326   11 Jun 2027 03:19:16.485   11 Jun 2027 03:19:25.083             8.598          4299.000
       327   11 Jun 2027 04:53:21.002   11 Jun 2027 04:54:42.618            81.616         40808.000
       328   11 Jun 2027 04:55:25.849   11 Jun 2027 04:55:38.898            13.049          6524.500
       329   11 Jun 2027 04:56:11.557   11 Jun 2027 04:56:29.156            17.599          8799.500
       330   11 Jun 2027 06:26:50.310   11 Jun 2027 06:27:58.083            67.773         33886.500
       331   11 Jun 2027 06:28:50.936   11 Jun 2027 06:29:28.864            37.928         18964.000
       332   11 Jun 2027 06:30:29.593   11 Jun 2027 06:30:41.378            11.785          5892.500
       333   11 Jun 2027 06:35:03.640   11 Jun 2027 06:35:11.508             7.868          3934.000
       334   11 Jun 2027 06:35:20.928   11 Jun 2027 06:35:22.697             1.769           884.500
       335   11 Jun 2027 08:04:22.393   11 Jun 2027 08:05:34.435            72.042         33373.250
       336   11 Jun 2027 08:06:05.442   11 Jun 2027 08:06:07.306             1.864           926.875
       337   11 Jun 2027 08:07:18.196   11 Jun 2027 08:07:22.846             4.650          2215.313
       338   11 Jun 2027 08:07:25.520   11 Jun 2027 08:07:29.265             3.745            83.562
       339   11 Jun 2027 08:07:58.377   11 Jun 2027 08:07:59.381             1.004           422.500
       340   11 Jun 2027 08:09:36.922   11 Jun 2027 08:09:45.598             8.676          2820.531
       341   11 Jun 2027 08:10:40.659   11 Jun 2027 08:10:46.228             5.569          1706.781
       342   11 Jun 2027 08:11:07.542   11 Jun 2027 08:11:07.578             0.036            18.000
       343   11 Jun 2027 09:41:18.601   11 Jun 2027 09:41:40.746            22.145         10670.406
       344   11 Jun 2027 09:42:39.944   11 Jun 2027 09:42:43.659             3.715          1849.937
       345   11 Jun 2027 09:43:12.731   11 Jun 2027 09:43:16.249             3.518           855.531
       346   11 Jun 2027 09:44:13.265   11 Jun 2027 09:44:16.714             3.449          1647.531
       347   11 Jun 2027 09:44:47.329   11 Jun 2027 09:44:48.834             1.505           752.500
       348   11 Jun 2027 09:45:16.687   11 Jun 2027 09:45:20.885             4.198          1006.250
       349   11 Jun 2027 09:45:51.833   11 Jun 2027 09:45:54.310             2.477           856.094
       350   11 Jun 2027 09:46:03.547   11 Jun 2027 09:46:08.031             4.484           288.656
       351   11 Jun 2027 09:46:35.548   11 Jun 2027 09:46:35.548             0.000             0.000
       352   11 Jun 2027 09:46:45.207   11 Jun 2027 09:46:48.096             2.889          1161.750
       353   11 Jun 2027 11:18:09.303   11 Jun 2027 11:18:30.798            21.495          9167.969
       354   11 Jun 2027 11:19:02.674   11 Jun 2027 11:19:05.603             2.929           996.125
       355   11 Jun 2027 11:19:30.080   11 Jun 2027 11:19:30.080             0.000             0.000
       356   11 Jun 2027 11:19:40.155   11 Jun 2027 11:19:43.938             3.783          1079.437
       357   11 Jun 2027 11:20:52.281   11 Jun 2027 11:20:56.294             4.013          1924.000
       358   11 Jun 2027 11:21:11.794   11 Jun 2027 11:21:13.494             1.700           484.375
       359   11 Jun 2027 11:21:51.758   11 Jun 2027 11:22:02.279            10.521           656.375
       360   12 Jun 2027 03:28:52.627   12 Jun 2027 03:29:09.930            17.303          8651.500
       361   12 Jun 2027 03:29:56.990   12 Jun 2027 03:30:24.319            27.329         13664.500
       362   12 Jun 2027 03:30:32.774   12 Jun 2027 03:30:34.024             1.250           625.000
       363   12 Jun 2027 03:31:17.554   12 Jun 2027 03:31:34.479            16.925          8462.500
       364   12 Jun 2027 05:05:22.515   12 Jun 2027 05:07:29.544           127.029         63514.500
       365   12 Jun 2027 06:39:29.925   12 Jun 2027 06:41:23.591           113.666         56833.000
       366   12 Jun 2027 06:41:33.227   12 Jun 2027 06:41:44.676            11.449          5724.500
       367   12 Jun 2027 06:45:30.922   12 Jun 2027 06:45:30.922             0.000             0.000
       368   12 Jun 2027 06:45:49.041   12 Jun 2027 06:45:49.041             0.000             0.000
       369   12 Jun 2027 06:46:19.374   12 Jun 2027 06:46:30.619            11.245          5622.500
       370   12 Jun 2027 06:47:16.157   12 Jun 2027 06:47:17.314             1.157           578.500
       371   12 Jun 2027 08:16:28.416   12 Jun 2027 08:17:02.861            34.445         15210.781
       372   12 Jun 2027 08:18:19.971   12 Jun 2027 08:18:27.237             7.266           681.500
       373   12 Jun 2027 08:18:37.898   12 Jun 2027 08:18:46.954             9.056           333.156
       374   12 Jun 2027 08:19:24.807   12 Jun 2027 08:19:25.972             1.165           241.625
       375   12 Jun 2027 08:19:54.987   12 Jun 2027 08:19:59.987             5.000           405.344
       376   12 Jun 2027 08:20:20.774   12 Jun 2027 08:20:25.385             4.611           542.500
       377   12 Jun 2027 08:21:47.813   12 Jun 2027 08:21:55.149             7.336          2575.875
       378   12 Jun 2027 08:22:24.901   12 Jun 2027 08:22:34.342             9.441           493.125
       379   12 Jun 2027 08:22:53.334   12 Jun 2027 08:22:56.048             2.714           593.500
       380   12 Jun 2027 09:54:07.427   12 Jun 2027 09:54:33.611            26.184         10124.562
       381   12 Jun 2027 09:55:12.361   12 Jun 2027 09:55:16.759             4.398          1210.937
       382   12 Jun 2027 09:55:58.089   12 Jun 2027 09:56:02.144             4.055          1291.562
       383   12 Jun 2027 09:56:44.745   12 Jun 2027 09:56:47.142             2.397           949.062
       384   12 Jun 2027 09:56:52.327   12 Jun 2027 09:56:55.736             3.409           162.031
       385   12 Jun 2027 09:57:41.679   12 Jun 2027 09:57:44.951             3.272          1435.719
       386   12 Jun 2027 09:58:11.102   12 Jun 2027 09:58:17.661             6.559           817.219
       387   12 Jun 2027 09:58:24.106   12 Jun 2027 09:58:26.924             2.818           201.406
       388   12 Jun 2027 11:30:12.429   12 Jun 2027 11:30:28.491            16.062          7857.344
       389   12 Jun 2027 11:31:39.090   12 Jun 2027 11:31:43.790             4.700          1803.312
       390   12 Jun 2027 11:32:08.593   12 Jun 2027 11:32:13.931             5.338           561.594
       391   12 Jun 2027 11:32:47.495   12 Jun 2027 11:32:53.354             5.859          1048.875
       392   12 Jun 2027 11:33:04.794   12 Jun 2027 11:33:06.404             1.610           357.500
       393   12 Jun 2027 11:33:54.922   12 Jun 2027 11:33:58.801             3.879          1470.375
       394   12 Jun 2027 11:34:38.765   12 Jun 2027 11:34:38.799             0.034            17.000
       395   12 Jun 2027 11:34:55.343   12 Jun 2027 11:35:00.063             4.720          1309.406
       396   13 Jun 2027 03:41:01.911   13 Jun 2027 03:41:37.673            35.762         17881.000
       397   13 Jun 2027 03:41:52.644   13 Jun 2027 03:42:07.649            15.005          7502.500
       398   13 Jun 2027 05:17:32.453   13 Jun 2027 05:19:44.625           132.172         66086.000
       399   13 Jun 2027 06:52:42.522   13 Jun 2027 06:54:49.201           126.679         63339.500
       400   13 Jun 2027 06:55:32.926   13 Jun 2027 06:55:34.479             1.553           776.500
       401   13 Jun 2027 06:58:46.214   13 Jun 2027 06:58:52.654             6.440          3220.000
       402   13 Jun 2027 08:29:04.540   13 Jun 2027 08:29:35.839            31.299         15435.282
       403   13 Jun 2027 08:30:48.811   13 Jun 2027 08:30:54.760             5.949          1742.844
       404   13 Jun 2027 08:30:57.128   13 Jun 2027 08:30:59.159             2.031            74.000
       405   13 Jun 2027 08:31:55.680   13 Jun 2027 08:32:02.587             6.907          1752.500
       406   13 Jun 2027 08:32:14.445   13 Jun 2027 08:32:15.029             0.584            89.563
       407   13 Jun 2027 08:33:22.762   13 Jun 2027 08:33:31.031             8.269          2082.125
       408   13 Jun 2027 08:34:29.996   13 Jun 2027 08:34:34.402             4.406          1842.656
       409   13 Jun 2027 10:06:22.270   13 Jun 2027 10:06:39.178            16.908          8454.000
       410   13 Jun 2027 10:06:46.478   13 Jun 2027 10:06:48.120             1.642           566.656
       411   13 Jun 2027 10:07:04.301   13 Jun 2027 10:07:10.352             6.051           505.656
       412   13 Jun 2027 10:07:33.777   13 Jun 2027 10:07:44.122            10.345           732.031
       413   13 Jun 2027 10:08:00.899   13 Jun 2027 10:08:02.895             1.996           456.500
       414   13 Jun 2027 10:09:11.628   13 Jun 2027 10:09:16.241             4.613          2147.906
       415   13 Jun 2027 10:09:38.094   13 Jun 2027 10:09:40.401             2.307           682.906
       416   13 Jun 2027 10:10:15.956   13 Jun 2027 10:10:19.408             3.452           952.281
       417   13 Jun 2027 10:10:45.063   13 Jun 2027 10:10:46.591             1.528           764.000
       418   13 Jun 2027 10:10:52.253   13 Jun 2027 10:10:52.422             0.169            84.500
       419   13 Jun 2027 10:10:54.058   13 Jun 2027 10:10:55.571             1.513           181.281
       420   13 Jun 2027 11:42:34.570   13 Jun 2027 11:42:52.192            17.622          8609.812
       421   13 Jun 2027 11:43:05.672   13 Jun 2027 11:43:05.683             0.011             5.500
       422   13 Jun 2027 11:43:22.538   13 Jun 2027 11:43:26.214             3.676           942.469
       423   13 Jun 2027 11:43:54.151   13 Jun 2027 11:44:00.843             6.692           497.656
       424   13 Jun 2027 11:44:58.425   13 Jun 2027 11:45:02.591             4.166          1389.875
       425   13 Jun 2027 11:45:51.613   13 Jun 2027 11:45:54.797             3.184          1357.500
       426   13 Jun 2027 11:46:11.092   13 Jun 2027 11:46:12.448             1.356           506.969
       427   13 Jun 2027 11:46:56.358   13 Jun 2027 11:47:00.285             3.927          1372.187
