uniorb/output/strategy_1/Camera/Camera_KinoSat_110507.txt

KinoSat_110507
-------------------------
    Access    *     Start Time (UTCG)     *     Stop Time (UTCG)  *   Duration (s) *   Data (Mbytes)
         1   01 Jun 2027 03:29:05.811   01 Jun 2027 03:30:15.487            69.676         34838.000
         2   01 Jun 2027 03:30:18.438   01 Jun 2027 03:30:23.975             5.537          2768.500
         3   01 Jun 2027 03:31:13.624   01 Jun 2027 03:31:20.347             6.723          3361.500
         4   01 Jun 2027 03:32:13.255   01 Jun 2027 03:32:33.684            20.429         10214.500
         5   01 Jun 2027 05:03:49.681   01 Jun 2027 05:06:30.088           160.407         80203.500
         6   01 Jun 2027 05:07:43.445   01 Jun 2027 05:08:03.676            20.231         10115.500
         7   01 Jun 2027 05:09:18.170   01 Jun 2027 05:09:30.696            12.526          6263.000
         8   01 Jun 2027 05:09:47.412   01 Jun 2027 05:09:50.519             3.107          1553.500
         9   01 Jun 2027 05:10:00.899   01 Jun 2027 05:10:29.353            28.454         14227.000
        10   01 Jun 2027 05:10:43.198   01 Jun 2027 05:10:48.180             4.982          2491.000
        11   01 Jun 2027 06:40:37.641   01 Jun 2027 06:42:56.064           138.423         69211.500
        12   01 Jun 2027 06:44:23.696   01 Jun 2027 06:44:45.557            21.861         10930.500
        13   01 Jun 2027 06:45:10.952   01 Jun 2027 06:45:16.003             5.051          2525.500
        14   01 Jun 2027 06:45:45.287   01 Jun 2027 06:45:55.331            10.044          5022.000
        15   01 Jun 2027 06:46:54.789   01 Jun 2027 06:46:58.639             3.850          1925.000
        16   01 Jun 2027 08:18:52.707   01 Jun 2027 08:21:11.992           139.285         69642.500
        17   01 Jun 2027 08:22:18.710   01 Jun 2027 08:22:35.530            16.820          8410.000
        18   01 Jun 2027 09:52:09.924   01 Jun 2027 09:53:42.314            92.390         46195.000
        19   01 Jun 2027 09:53:47.320   01 Jun 2027 09:54:20.872            33.552         16776.000
        20   01 Jun 2027 09:54:36.941   01 Jun 2027 09:54:36.941             0.000             0.000
        21   01 Jun 2027 09:54:59.541   01 Jun 2027 09:55:22.276            22.735         11367.500
        22   01 Jun 2027 09:56:47.881   01 Jun 2027 09:57:06.209            18.328          9164.000
        23   01 Jun 2027 09:58:28.901   01 Jun 2027 09:58:30.275             1.374           687.000
        24   01 Jun 2027 09:58:48.269   01 Jun 2027 09:59:06.726            18.457          9228.500
        25   02 Jun 2027 03:39:00.171   02 Jun 2027 03:40:17.969            77.798         38899.000
        26   02 Jun 2027 03:40:50.158   02 Jun 2027 03:44:20.247           210.089        105044.500
        27   02 Jun 2027 03:45:13.638   02 Jun 2027 03:45:43.129            29.491         14745.500
        28   02 Jun 2027 05:15:57.865   02 Jun 2027 05:18:29.369           151.504         75752.000
        29   02 Jun 2027 05:19:39.423   02 Jun 2027 05:19:49.093             9.670          4835.000
        30   02 Jun 2027 05:20:53.481   02 Jun 2027 05:21:30.804            37.323         18661.500
        31   02 Jun 2027 05:22:01.444   02 Jun 2027 05:22:07.311             5.867          2933.500
        32   02 Jun 2027 05:22:28.651   02 Jun 2027 05:22:56.568            27.917         13958.500
        33   02 Jun 2027 06:52:56.194   02 Jun 2027 06:54:56.508           120.314         60157.000
        34   02 Jun 2027 06:55:58.635   02 Jun 2027 06:56:32.611            33.976         16988.000
        35   02 Jun 2027 06:56:39.089   02 Jun 2027 06:56:39.265             0.176            88.000
        36   02 Jun 2027 06:56:58.855   02 Jun 2027 06:57:12.750            13.895          6947.500
        37   02 Jun 2027 06:57:32.638   02 Jun 2027 06:57:42.133             9.495          4747.500
        38   02 Jun 2027 06:57:51.665   02 Jun 2027 06:57:57.709             6.044          3022.000
        39   02 Jun 2027 08:30:50.805   02 Jun 2027 08:33:27.057           156.252         78126.000
        40   02 Jun 2027 08:33:49.672   02 Jun 2027 08:33:56.179             6.507          3253.500
        41   02 Jun 2027 08:34:22.784   02 Jun 2027 08:34:35.538            12.754          6377.000
        42   02 Jun 2027 10:04:09.784   02 Jun 2027 10:06:14.124           124.340         62170.000
        43   02 Jun 2027 10:07:56.050   02 Jun 2027 10:08:11.250            15.200          7600.000
        44   02 Jun 2027 10:09:11.469   02 Jun 2027 10:09:38.460            26.991         13495.500
        45   02 Jun 2027 10:10:14.154   02 Jun 2027 10:10:25.986            11.832          5916.000
        46   02 Jun 2027 10:10:29.572   02 Jun 2027 10:10:30.770             1.198           599.000
        47   02 Jun 2027 10:10:38.401   02 Jun 2027 10:10:40.376             1.975           987.500
        48   02 Jun 2027 10:10:45.381   02 Jun 2027 10:10:45.705             0.324           162.000
        49   02 Jun 2027 10:11:09.520   02 Jun 2027 10:11:22.822            13.302          6651.000
        50   03 Jun 2027 03:50:25.173   03 Jun 2027 03:56:44.995           379.822        189911.000
        51   03 Jun 2027 03:56:51.057   03 Jun 2027 03:57:07.827            16.770          8385.000
        52   03 Jun 2027 03:57:48.716   03 Jun 2027 03:57:50.742             2.026          1013.000
        53   03 Jun 2027 03:58:31.092   03 Jun 2027 03:58:54.466            23.374         11687.000
        54   03 Jun 2027 05:28:01.400   03 Jun 2027 05:30:51.275           169.875         84937.500
        55   03 Jun 2027 05:33:34.716   03 Jun 2027 05:34:42.581            67.865         33932.500
        56   03 Jun 2027 07:04:45.561   03 Jun 2027 07:06:56.000           130.439         65219.500
        57   03 Jun 2027 07:07:51.343   03 Jun 2027 07:08:02.529            11.186          5593.000
        58   03 Jun 2027 07:08:52.442   03 Jun 2027 07:09:45.627            53.185         26592.500
        59   03 Jun 2027 07:10:36.683   03 Jun 2027 07:10:48.941            12.258          6129.000
        60   03 Jun 2027 08:42:50.197   03 Jun 2027 08:45:11.133           140.936         70468.000
        61   03 Jun 2027 08:45:35.088   03 Jun 2027 08:45:36.049             0.961           480.500
        62   03 Jun 2027 08:46:29.452   03 Jun 2027 08:46:52.650            23.198         11599.000
        63   03 Jun 2027 10:16:35.559   03 Jun 2027 10:18:04.606            89.047         44523.500
        64   03 Jun 2027 10:19:28.657   03 Jun 2027 10:19:29.561             0.904           452.000
        65   03 Jun 2027 10:19:56.125   03 Jun 2027 10:20:13.228            17.103          8551.500
        66   03 Jun 2027 10:21:05.910   03 Jun 2027 10:21:16.063            10.153          5076.500
        67   03 Jun 2027 10:22:12.458   03 Jun 2027 10:22:28.495            16.037          8018.500
        68   03 Jun 2027 10:23:21.286   03 Jun 2027 10:23:25.479             4.193          2096.500
        69   04 Jun 2027 04:01:55.737   04 Jun 2027 04:07:39.291           343.554        171777.000
        70   04 Jun 2027 04:10:28.416   04 Jun 2027 04:11:18.873            50.457         25228.500
        71   04 Jun 2027 05:40:00.187   04 Jun 2027 05:42:56.445           176.258         88129.000
        72   04 Jun 2027 05:43:28.463   04 Jun 2027 05:43:42.067            13.604          6802.000
        73   04 Jun 2027 05:45:04.153   04 Jun 2027 05:45:56.078            51.925         25962.500
        74   04 Jun 2027 05:46:36.927   04 Jun 2027 05:46:50.923            13.996          6998.000
        75   04 Jun 2027 07:16:53.382   04 Jun 2027 07:19:29.625           156.243         78121.500
        76   04 Jun 2027 07:19:59.939   04 Jun 2027 07:20:11.103            11.164          5582.000
        77   04 Jun 2027 07:20:27.558   04 Jun 2027 07:20:30.440             2.882          1441.000
        78   04 Jun 2027 07:21:22.082   04 Jun 2027 07:21:29.404             7.322          3661.000
        79   04 Jun 2027 07:22:59.762   04 Jun 2027 07:23:14.003            14.241          7120.500
        80   04 Jun 2027 08:54:03.328   04 Jun 2027 08:54:43.202            39.874         19937.000
        81   04 Jun 2027 08:55:59.550   04 Jun 2027 08:56:19.714            20.164         10082.000
        82   04 Jun 2027 08:57:03.618   04 Jun 2027 08:57:15.877            12.259          6129.500
        83   04 Jun 2027 08:58:03.108   04 Jun 2027 08:58:07.804             4.696          2348.000
        84   04 Jun 2027 08:58:29.384   04 Jun 2027 08:58:36.648             7.264          3632.000
        85   04 Jun 2027 10:28:50.312   04 Jun 2027 10:29:03.595            13.283          6641.500
        86   04 Jun 2027 10:30:45.653   04 Jun 2027 10:30:50.972             5.319          2659.500
        87   04 Jun 2027 10:31:45.979   04 Jun 2027 10:32:03.625            17.646          8823.000
        88   04 Jun 2027 10:32:10.528   04 Jun 2027 10:32:19.978             9.450          4725.000
        89   04 Jun 2027 10:33:13.710   04 Jun 2027 10:33:20.566             6.856          3428.000
        90   04 Jun 2027 10:34:03.359   04 Jun 2027 10:34:07.531             4.172          2086.000
        91   05 Jun 2027 04:14:54.780   05 Jun 2027 04:20:12.193           317.413        158706.500
        92   05 Jun 2027 04:21:23.900   05 Jun 2027 04:21:38.288            14.388          7194.000
        93   05 Jun 2027 04:22:27.707   05 Jun 2027 04:22:45.198            17.491          8745.500
        94   05 Jun 2027 04:23:27.183   05 Jun 2027 04:23:28.427             1.244           622.000
        95   05 Jun 2027 05:52:22.263   05 Jun 2027 05:54:59.837           157.574         78787.000
        96   05 Jun 2027 05:55:41.521   05 Jun 2027 05:55:54.374            12.853          6426.500
        97   05 Jun 2027 05:56:27.328   05 Jun 2027 05:56:35.546             8.218          4109.000
        98   05 Jun 2027 05:58:20.446   05 Jun 2027 05:58:28.701             8.255          4127.500
        99   05 Jun 2027 05:58:45.911   05 Jun 2027 05:59:12.088            26.177         13088.500
       100   05 Jun 2027 07:29:21.964   05 Jun 2027 07:32:04.953           162.989         81494.500
       101   05 Jun 2027 07:33:32.892   05 Jun 2027 07:33:41.502             8.610          4305.000
       102   05 Jun 2027 07:34:34.219   05 Jun 2027 07:34:48.305            14.086          7043.000
       103   05 Jun 2027 09:06:15.946   05 Jun 2027 09:07:02.489            46.543         23271.500
       104   05 Jun 2027 09:08:14.211   05 Jun 2027 09:08:29.928            15.717          7858.500
       105   05 Jun 2027 09:09:24.781   05 Jun 2027 09:09:29.638             4.857          2428.500
       106   05 Jun 2027 09:09:34.019   05 Jun 2027 09:09:36.736             2.717          1358.500
       107   05 Jun 2027 09:10:13.776   05 Jun 2027 09:10:38.168            24.392         12196.000
       108   05 Jun 2027 10:43:25.306   05 Jun 2027 10:43:33.704             8.398          4199.000
       109   05 Jun 2027 10:43:54.463   05 Jun 2027 10:44:00.647             6.184          3092.000
       110   05 Jun 2027 10:44:24.345   05 Jun 2027 10:44:32.962             8.617          4308.500
       111   05 Jun 2027 10:45:17.476   05 Jun 2027 10:45:43.800            26.324         13162.000
       112   06 Jun 2027 04:25:37.373   06 Jun 2027 04:25:46.097             8.724          4362.000
       113   06 Jun 2027 04:27:33.665   06 Jun 2027 04:32:48.185           314.520        157260.000
       114   06 Jun 2027 04:33:39.857   06 Jun 2027 04:34:01.010            21.153         10576.500
       115   06 Jun 2027 04:35:22.636   06 Jun 2027 04:35:22.657             0.021            10.500
       116   06 Jun 2027 06:04:31.648   06 Jun 2027 06:07:44.289           192.641         96320.500
       117   06 Jun 2027 06:09:20.004   06 Jun 2027 06:09:45.767            25.763         12881.500
       118   06 Jun 2027 06:10:11.519   06 Jun 2027 06:10:11.519             0.000             0.000
       119   06 Jun 2027 06:10:40.603   06 Jun 2027 06:10:57.486            16.883          8441.500
       120   06 Jun 2027 06:11:16.356   06 Jun 2027 06:11:16.586             0.230           115.000
       121   06 Jun 2027 07:41:49.260   06 Jun 2027 07:44:07.153           137.893         68946.500
       122   06 Jun 2027 07:44:36.300   06 Jun 2027 07:44:45.938             9.638          4819.000
       123   06 Jun 2027 07:45:48.861   06 Jun 2027 07:45:57.289             8.428          4214.000
       124   06 Jun 2027 07:45:59.505   06 Jun 2027 07:46:04.484             4.979          2489.500
       125   06 Jun 2027 09:18:16.979   06 Jun 2027 09:19:01.625            44.646         22323.000
       126   06 Jun 2027 09:20:04.172   06 Jun 2027 09:20:11.761             7.589          3794.500
       127   06 Jun 2027 09:20:48.401   06 Jun 2027 09:20:58.751            10.350          5175.000
       128   06 Jun 2027 09:21:30.247   06 Jun 2027 09:21:37.312             7.065          3532.500
       129   06 Jun 2027 09:22:14.835   06 Jun 2027 09:22:26.155            11.320          5660.000
       130   06 Jun 2027 09:22:58.305   06 Jun 2027 09:23:11.479            13.174          6587.000
       131   06 Jun 2027 10:56:33.479   06 Jun 2027 10:56:53.378            19.899          9949.500
       132   07 Jun 2027 03:05:35.960   07 Jun 2027 03:09:06.240           210.280        105140.000
       133   07 Jun 2027 04:40:46.600   07 Jun 2027 04:42:09.069            82.469         41234.500
       134   07 Jun 2027 04:42:17.058   07 Jun 2027 04:42:33.096            16.038          8019.000
       135   07 Jun 2027 04:42:56.076   07 Jun 2027 04:43:10.941            14.865          7432.500
       136   07 Jun 2027 04:44:28.136   07 Jun 2027 04:44:54.694            26.558         13279.000
       137   07 Jun 2027 04:45:16.061   07 Jun 2027 04:45:26.448            10.387          5193.500
       138   07 Jun 2027 04:45:47.741   07 Jun 2027 04:45:53.522             5.781          2890.500
       139   07 Jun 2027 04:46:19.366   07 Jun 2027 04:46:40.006            20.640         10320.000
       140   07 Jun 2027 04:47:16.543   07 Jun 2027 04:47:24.766             8.223          4111.500
       141   07 Jun 2027 06:17:05.671   07 Jun 2027 06:18:47.202           101.531         50765.500
       142   07 Jun 2027 06:18:53.686   07 Jun 2027 06:19:07.328            13.642          6821.000
       143   07 Jun 2027 06:19:57.158   07 Jun 2027 06:20:18.503            21.345         10672.500
       144   07 Jun 2027 06:22:29.853   07 Jun 2027 06:23:11.853            42.000         21000.000
       145   07 Jun 2027 07:54:29.257   07 Jun 2027 07:56:20.444           111.187         55593.500
       146   07 Jun 2027 07:56:53.571   07 Jun 2027 07:57:08.865            15.294          7647.000
       147   07 Jun 2027 07:57:15.009   07 Jun 2027 07:57:19.502             4.493          2246.500
       148   07 Jun 2027 07:57:53.951   07 Jun 2027 07:57:56.614             2.663          1331.500
       149   07 Jun 2027 07:58:17.906   07 Jun 2027 07:58:23.828             5.922          2961.000
       150   07 Jun 2027 07:58:42.418   07 Jun 2027 07:58:44.749             2.331          1165.500
       151   07 Jun 2027 07:58:49.335   07 Jun 2027 07:58:59.695            10.360          5180.000
       152   07 Jun 2027 09:30:41.671   07 Jun 2027 09:31:11.078            29.407         14703.500
       153   07 Jun 2027 09:31:43.512   07 Jun 2027 09:32:05.457            21.945         10972.500
       154   07 Jun 2027 09:33:37.177   07 Jun 2027 09:33:48.041            10.864          5432.000
       155   07 Jun 2027 09:34:41.554   07 Jun 2027 09:34:51.808            10.254          5127.000
       156   08 Jun 2027 03:17:36.769   08 Jun 2027 03:21:01.415           204.646        102323.000
       157   08 Jun 2027 04:52:49.574   08 Jun 2027 04:55:07.935           138.361         69180.500
       158   08 Jun 2027 04:56:08.754   08 Jun 2027 04:56:08.754             0.000             0.000
       159   08 Jun 2027 04:56:28.731   08 Jun 2027 04:56:59.293            30.562         15281.000
       160   08 Jun 2027 04:57:53.439   08 Jun 2027 04:57:53.439             0.000             0.000
       161   08 Jun 2027 04:58:13.844   08 Jun 2027 04:58:18.984             5.140          2570.000
       162   08 Jun 2027 04:58:37.993   08 Jun 2027 04:59:00.097            22.104         11052.000
       163   08 Jun 2027 04:59:21.158   08 Jun 2027 04:59:30.329             9.171          4585.500
       164   08 Jun 2027 06:28:44.726   08 Jun 2027 06:31:06.723           141.997         70998.500
       165   08 Jun 2027 06:32:02.578   08 Jun 2027 06:32:11.422             8.844          4422.000
       166   08 Jun 2027 06:32:31.307   08 Jun 2027 06:32:47.440            16.133          8066.500
       167   08 Jun 2027 06:33:51.433   08 Jun 2027 06:34:17.657            26.224         13112.000
       168   08 Jun 2027 08:06:43.003   08 Jun 2027 08:07:57.642            74.639         37319.500
       169   08 Jun 2027 08:08:15.927   08 Jun 2027 08:08:26.714            10.787          5393.500
       170   08 Jun 2027 08:08:47.031   08 Jun 2027 08:09:04.616            17.585          8792.500
       171   08 Jun 2027 08:10:08.780   08 Jun 2027 08:10:16.098             7.318          3659.000
       172   08 Jun 2027 08:10:35.273   08 Jun 2027 08:10:40.386             5.113          2556.500
       173   08 Jun 2027 09:42:35.271   08 Jun 2027 09:43:02.620            27.349         13674.500
       174   08 Jun 2027 09:43:51.473   08 Jun 2027 09:43:57.070             5.597          2798.500
       175   08 Jun 2027 09:44:50.574   08 Jun 2027 09:45:07.703            17.129          8564.500
       176   08 Jun 2027 09:45:34.693   08 Jun 2027 09:45:40.257             5.564          2782.000
       177   08 Jun 2027 09:46:21.468   08 Jun 2027 09:46:34.444            12.976          6488.000
       178   08 Jun 2027 09:47:07.278   08 Jun 2027 09:47:10.078             2.800          1400.000
       179   08 Jun 2027 09:47:17.108   08 Jun 2027 09:47:23.690             6.582          3291.000
       180   09 Jun 2027 03:29:20.411   09 Jun 2027 03:31:58.070           157.659         78829.500
       181   09 Jun 2027 03:32:25.194   09 Jun 2027 03:32:29.300             4.106          2053.000
       182   09 Jun 2027 03:32:36.118   09 Jun 2027 03:32:49.563            13.445          6722.500
       183   09 Jun 2027 05:04:04.300   09 Jun 2027 05:06:34.651           150.351         75175.500
       184   09 Jun 2027 05:08:15.680   09 Jun 2027 05:08:51.789            36.109         18054.500
       185   09 Jun 2027 05:10:26.259   09 Jun 2027 05:10:44.453            18.194          9097.000
       186   09 Jun 2027 05:10:53.561   09 Jun 2027 05:11:08.336            14.775          7387.500
       187   09 Jun 2027 06:40:52.626   09 Jun 2027 06:42:56.917           124.291         62145.500
       188   09 Jun 2027 06:43:40.404   09 Jun 2027 06:43:51.432            11.028          5514.000
       189   09 Jun 2027 06:44:17.300   09 Jun 2027 06:44:18.217             0.917           458.500
       190   09 Jun 2027 06:44:29.237   09 Jun 2027 06:44:38.478             9.241          4620.500
       191   09 Jun 2027 06:45:12.545   09 Jun 2027 06:45:25.503            12.958          6479.000
       192   09 Jun 2027 06:46:10.210   09 Jun 2027 06:46:13.502             3.292          1646.000
       193   09 Jun 2027 06:47:09.379   09 Jun 2027 06:47:13.315             3.936          1968.000
       194   09 Jun 2027 08:19:06.778   09 Jun 2027 08:20:06.256            59.478         29739.000
       195   09 Jun 2027 08:20:58.343   09 Jun 2027 08:21:13.524            15.181          7590.500
       196   09 Jun 2027 08:21:35.314   09 Jun 2027 08:21:36.233             0.919           459.500
       197   09 Jun 2027 08:22:00.020   09 Jun 2027 08:22:09.420             9.400          4700.000
       198   09 Jun 2027 08:22:51.379   09 Jun 2027 08:23:02.286            10.907          5453.500
       199   09 Jun 2027 09:52:24.300   09 Jun 2027 09:53:02.420            38.120         19060.000
       200   09 Jun 2027 09:54:46.316   09 Jun 2027 09:54:52.262             5.946          2973.000
       201   09 Jun 2027 09:55:03.729   09 Jun 2027 09:55:14.660            10.931          5465.500
       202   09 Jun 2027 09:56:09.150   09 Jun 2027 09:56:10.563             1.413           706.500
       203   09 Jun 2027 09:56:33.182   09 Jun 2027 09:56:40.435             7.253          3626.500
       204   09 Jun 2027 09:56:56.755   09 Jun 2027 09:57:02.618             5.863          2931.500
       205   09 Jun 2027 09:57:35.849   09 Jun 2027 09:57:47.403            11.554          5777.000
       206   09 Jun 2027 09:58:31.785   09 Jun 2027 09:58:38.422             6.637          3318.500
       207   09 Jun 2027 09:59:03.026   09 Jun 2027 09:59:09.503             6.477          3238.500
       208   09 Jun 2027 09:59:34.424   09 Jun 2027 09:59:44.757            10.333          5166.500
       209   10 Jun 2027 03:39:14.342   10 Jun 2027 03:40:32.678            78.336         39168.000
       210   10 Jun 2027 03:41:04.581   10 Jun 2027 03:42:17.192            72.611         36305.500
       211   10 Jun 2027 03:42:32.460   10 Jun 2027 03:42:35.649             3.189          1594.500
       212   10 Jun 2027 03:43:55.704   10 Jun 2027 03:44:07.333            11.629          5814.500
       213   10 Jun 2027 03:44:11.334   10 Jun 2027 03:44:22.766            11.432          5716.000
       214   10 Jun 2027 03:44:30.540   10 Jun 2027 03:44:35.128             4.588          2294.000
       215   10 Jun 2027 03:45:04.931   10 Jun 2027 03:45:28.351            23.420         11710.000
       216   10 Jun 2027 05:16:12.457   10 Jun 2027 05:18:20.913           128.456         64228.000
       217   10 Jun 2027 05:18:44.585   10 Jun 2027 05:18:58.153            13.568          6784.000
       218   10 Jun 2027 05:19:54.178   10 Jun 2027 05:20:02.470             8.292          4146.000
       219   10 Jun 2027 05:20:11.801   10 Jun 2027 05:20:28.469            16.668          8334.000
       220   10 Jun 2027 05:21:00.305   10 Jun 2027 05:21:01.711             1.406           703.000
       221   10 Jun 2027 05:21:12.070   10 Jun 2027 05:21:25.711            13.641          6820.500
       222   10 Jun 2027 05:21:46.019   10 Jun 2027 05:22:02.528            16.509          8254.500
       223   10 Jun 2027 05:22:43.058   10 Jun 2027 05:23:07.222            24.164         12082.000
       224   10 Jun 2027 06:53:10.597   10 Jun 2027 06:55:11.150           120.553         60276.500
       225   10 Jun 2027 06:56:13.549   10 Jun 2027 06:56:54.095            40.546         20273.000
       226   10 Jun 2027 06:57:13.544   10 Jun 2027 06:57:20.211             6.667          3333.500
       227   10 Jun 2027 06:57:32.729   10 Jun 2027 06:57:45.640            12.911          6455.500
       228   10 Jun 2027 06:58:59.971   10 Jun 2027 06:59:03.668             3.697          1848.500
       229   10 Jun 2027 08:31:05.545   10 Jun 2027 08:31:41.476            35.931         17965.500
       230   10 Jun 2027 08:31:48.927   10 Jun 2027 08:31:52.886             3.959          1979.500
       231   10 Jun 2027 08:32:06.577   10 Jun 2027 08:32:09.237             2.660          1330.000
       232   10 Jun 2027 08:33:07.080   10 Jun 2027 08:33:21.845            14.765          7382.500
       233   10 Jun 2027 08:33:46.293   10 Jun 2027 08:33:55.241             8.948          4474.000
       234   10 Jun 2027 08:34:39.781   10 Jun 2027 08:34:50.998            11.217          5608.500
       235   10 Jun 2027 10:04:24.624   10 Jun 2027 10:04:52.675            28.051         14025.500
       236   10 Jun 2027 10:05:45.373   10 Jun 2027 10:05:59.328            13.955          6977.500
       237   10 Jun 2027 10:07:11.238   10 Jun 2027 10:07:23.578            12.340          6170.000
       238   10 Jun 2027 10:07:32.075   10 Jun 2027 10:07:41.110             9.035          4517.500
       239   10 Jun 2027 10:08:50.532   10 Jun 2027 10:09:06.495            15.963          7981.500
       240   10 Jun 2027 10:09:39.073   10 Jun 2027 10:09:53.181            14.108          7054.000
       241   10 Jun 2027 10:11:00.356   10 Jun 2027 10:11:00.665             0.309           154.500
       242   10 Jun 2027 10:11:24.115   10 Jun 2027 10:11:37.785            13.670          6835.000
       243   11 Jun 2027 03:50:39.324   11 Jun 2027 03:55:29.549           290.225        145112.500
       244   11 Jun 2027 03:55:51.429   11 Jun 2027 03:55:58.270             6.841          3420.500
       245   11 Jun 2027 03:56:06.624   11 Jun 2027 03:56:25.358            18.734          9367.000
       246   11 Jun 2027 03:56:42.675   11 Jun 2027 03:56:52.630             9.955          4977.500
       247   11 Jun 2027 03:58:45.664   11 Jun 2027 03:59:09.261            23.597         11798.500
       248   11 Jun 2027 05:28:15.200   11 Jun 2027 05:30:46.371           151.171         75585.500
       249   11 Jun 2027 05:30:54.138   11 Jun 2027 05:31:05.994            11.856          5928.000
       250   11 Jun 2027 05:33:49.201   11 Jun 2027 05:34:28.003            38.802         19401.000
       251   11 Jun 2027 07:05:00.139   11 Jun 2027 07:07:32.772           152.633         76316.500
       252   11 Jun 2027 07:08:20.061   11 Jun 2027 07:08:26.520             6.459          3229.500
       253   11 Jun 2027 07:08:51.121   11 Jun 2027 07:08:59.486             8.365          4182.500
       254   11 Jun 2027 07:09:23.681   11 Jun 2027 07:09:31.189             7.508          3754.000
       255   11 Jun 2027 07:09:53.008   11 Jun 2027 07:10:00.362             7.354          3677.000
       256   11 Jun 2027 07:10:51.291   11 Jun 2027 07:11:03.079            11.788          5894.000
       257   11 Jun 2027 08:43:04.875   11 Jun 2027 08:43:37.655            32.780         16390.000
       258   11 Jun 2027 08:43:40.624   11 Jun 2027 08:43:44.531             3.907          1953.500
       259   11 Jun 2027 08:44:17.551   11 Jun 2027 08:44:36.502            18.951          9475.500
       260   11 Jun 2027 08:45:50.457   11 Jun 2027 08:45:53.241             2.784          1392.000
       261   11 Jun 2027 08:46:25.966   11 Jun 2027 08:46:32.011             6.045          3022.500
       262   11 Jun 2027 08:46:51.629   11 Jun 2027 08:47:07.304            15.675          7837.500
       263   11 Jun 2027 10:16:50.855   11 Jun 2027 10:17:06.882            16.027          8013.500
       264   11 Jun 2027 10:18:21.095   11 Jun 2027 10:18:29.184             8.089          4044.500
       265   11 Jun 2027 10:18:46.972   11 Jun 2027 10:19:00.884            13.912          6956.000
       266   11 Jun 2027 10:19:43.301   11 Jun 2027 10:19:44.736             1.435           717.500
       267   11 Jun 2027 10:20:29.474   11 Jun 2027 10:20:46.656            17.182          8591.000
       268   11 Jun 2027 10:21:36.178   11 Jun 2027 10:21:48.932            12.754          6377.000
       269   11 Jun 2027 10:23:06.632   11 Jun 2027 10:23:23.663            17.031          8515.500
       270   12 Jun 2027 04:02:09.793   12 Jun 2027 04:07:18.679           308.886        154443.000
       271   12 Jun 2027 04:08:19.692   12 Jun 2027 04:08:33.398            13.706          6853.000
       272   12 Jun 2027 04:08:52.225   12 Jun 2027 04:09:00.171             7.946          3973.000
       273   12 Jun 2027 04:10:42.976   12 Jun 2027 04:11:06.077            23.101         11550.500
       274   12 Jun 2027 05:40:14.965   12 Jun 2027 05:42:38.633           143.668         71834.000
       275   12 Jun 2027 05:43:42.757   12 Jun 2027 05:44:07.957            25.200         12600.000
       276   12 Jun 2027 05:44:16.786   12 Jun 2027 05:44:22.295             5.509          2754.500
       277   12 Jun 2027 05:45:35.439   12 Jun 2027 05:46:17.513            42.074         21037.000
       278   12 Jun 2027 05:46:41.065   12 Jun 2027 05:46:53.259            12.194          6097.000
       279   12 Jun 2027 07:17:08.281   12 Jun 2027 07:19:30.706           142.425         71212.500
       280   12 Jun 2027 07:20:21.279   12 Jun 2027 07:20:43.923            22.644         11322.000
       281   12 Jun 2027 07:21:32.206   12 Jun 2027 07:21:46.813            14.607          7303.500
       282   12 Jun 2027 07:23:14.659   12 Jun 2027 07:23:25.974            11.315          5657.500
       283   12 Jun 2027 08:54:17.948   12 Jun 2027 08:54:53.481            35.533         17766.500
       284   12 Jun 2027 08:55:01.347   12 Jun 2027 08:55:01.894             0.547           273.500
       285   12 Jun 2027 08:55:13.676   12 Jun 2027 08:55:16.336             2.660          1330.000
       286   12 Jun 2027 08:56:07.081   12 Jun 2027 08:56:34.317            27.236         13618.000
       287   12 Jun 2027 08:57:50.384   12 Jun 2027 08:57:56.400             6.016          3008.000
       288   12 Jun 2027 08:58:13.161   12 Jun 2027 08:58:24.919            11.758          5879.000
       289   12 Jun 2027 10:29:05.373   12 Jun 2027 10:29:18.263            12.890          6445.000
       290   12 Jun 2027 10:29:44.881   12 Jun 2027 10:29:54.364             9.483          4741.500
       291   12 Jun 2027 10:31:00.110   12 Jun 2027 10:31:06.133             6.023          3011.500
       292   12 Jun 2027 10:32:02.430   12 Jun 2027 10:32:13.964            11.534          5767.000
       293   12 Jun 2027 10:32:26.586   12 Jun 2027 10:32:34.582             7.996          3998.000
       294   12 Jun 2027 10:33:10.212   12 Jun 2027 10:33:16.608             6.396          3198.000
       295   12 Jun 2027 10:34:09.851   12 Jun 2027 10:34:21.975            12.124          6062.000
       296   13 Jun 2027 04:15:09.374   13 Jun 2027 04:20:18.046           308.672        154336.000
       297   13 Jun 2027 04:21:43.096   13 Jun 2027 04:22:30.003            46.907         23453.500
       298   13 Jun 2027 04:22:42.260   13 Jun 2027 04:22:43.780             1.520           760.000
       299   13 Jun 2027 04:23:30.372   13 Jun 2027 04:23:43.030            12.658          6329.000
       300   13 Jun 2027 05:52:37.447   13 Jun 2027 05:55:14.194           156.747         78373.500
       301   13 Jun 2027 05:55:56.532   13 Jun 2027 05:56:09.974            13.442          6721.000
       302   13 Jun 2027 05:56:19.701   13 Jun 2027 05:56:22.968             3.267          1633.500
       303   13 Jun 2027 05:56:42.930   13 Jun 2027 05:56:59.009            16.079          8039.500
       304   13 Jun 2027 05:57:42.652   13 Jun 2027 05:57:48.395             5.743          2871.500
       305   13 Jun 2027 05:58:08.537   13 Jun 2027 05:58:12.438             3.901          1950.500
       306   13 Jun 2027 05:58:41.810   13 Jun 2027 05:59:00.540            18.730          9365.000
       307   13 Jun 2027 07:29:36.514   13 Jun 2027 07:32:21.819           165.305         82652.500
       308   13 Jun 2027 07:33:48.939   13 Jun 2027 07:34:06.436            17.497          8748.500
       309   13 Jun 2027 07:35:05.939   13 Jun 2027 07:35:10.422             4.483          2241.500
       310   13 Jun 2027 09:06:30.528   13 Jun 2027 09:07:18.093            47.565         23782.500
       311   13 Jun 2027 09:08:29.138   13 Jun 2027 09:08:44.550            15.412          7706.000
       312   13 Jun 2027 09:09:21.048   13 Jun 2027 09:09:30.096             9.048          4524.000
       313   13 Jun 2027 09:10:32.264   13 Jun 2027 09:10:53.644            21.380         10690.000
       314   13 Jun 2027 10:43:40.088   13 Jun 2027 10:43:50.181            10.093          5046.500
       315   13 Jun 2027 10:44:09.435   13 Jun 2027 10:44:12.398             2.963          1481.500
       316   13 Jun 2027 10:44:18.349   13 Jun 2027 10:44:38.980            20.631         10315.500
