uniorb/output/strategy_1/Camera/Camera_KinoSat_110704.txt

KinoSat_110704
-------------------------
    Access    *     Start Time (UTCG)     *     Stop Time (UTCG)  *   Duration (s) *   Data (Mbytes)
         1   01 Jun 2027 03:49:16.363   01 Jun 2027 03:50:49.847            93.484         46742.000
         2   01 Jun 2027 03:51:00.027   01 Jun 2027 03:51:08.349             8.322          4161.000
         3   01 Jun 2027 03:51:24.088   01 Jun 2027 03:51:24.088             0.000             0.000
         4   01 Jun 2027 03:51:54.597   01 Jun 2027 03:52:00.395             5.798          2899.000
         5   01 Jun 2027 05:22:49.878   01 Jun 2027 05:24:59.593           129.715         64857.500
         6   01 Jun 2027 05:25:39.051   01 Jun 2027 05:25:40.504             1.453           726.500
         7   01 Jun 2027 05:27:19.929   01 Jun 2027 05:27:19.929             0.000             0.000
         8   01 Jun 2027 05:28:24.151   01 Jun 2027 05:28:25.867             1.716           858.000
         9   01 Jun 2027 05:29:34.787   01 Jun 2027 05:29:44.999            10.212          5106.000
        10   01 Jun 2027 05:30:45.352   01 Jun 2027 05:30:54.886             9.534          4767.000
        11   01 Jun 2027 05:31:22.350   01 Jun 2027 05:31:23.507             1.157           578.500
        12   01 Jun 2027 07:00:16.642   01 Jun 2027 07:00:39.866            23.224         11612.000
        13   01 Jun 2027 07:00:50.615   01 Jun 2027 07:02:20.829            90.214         45107.000
        14   01 Jun 2027 07:03:34.982   01 Jun 2027 07:03:41.125             6.143          3071.500
        15   01 Jun 2027 07:04:22.722   01 Jun 2027 07:04:44.148            21.426         10713.000
        16   01 Jun 2027 08:37:17.175   01 Jun 2027 08:39:29.122           131.947         65973.500
        17   01 Jun 2027 08:40:34.416   01 Jun 2027 08:40:36.702             2.286          1143.000
        18   01 Jun 2027 08:41:24.094   01 Jun 2027 08:41:39.821            15.727          7863.500
        19   01 Jun 2027 08:42:27.127   01 Jun 2027 08:42:37.928            10.801          5400.500
        20   01 Jun 2027 10:14:11.273   01 Jun 2027 10:16:01.604           110.331         55165.500
        21   01 Jun 2027 10:17:40.833   01 Jun 2027 10:17:53.442            12.609          6304.500
        22   01 Jun 2027 11:51:20.254   01 Jun 2027 11:53:01.009           100.755         50377.500
        23   02 Jun 2027 04:01:22.045   02 Jun 2027 04:02:12.691            50.646         25323.000
        24   02 Jun 2027 05:33:33.222   02 Jun 2027 05:33:41.137             7.915          3957.500
        25   02 Jun 2027 05:35:28.661   02 Jun 2027 05:37:32.973           124.312         62156.000
        26   02 Jun 2027 05:38:33.463   02 Jun 2027 05:38:50.070            16.607          8303.500
        27   02 Jun 2027 05:43:10.301   02 Jun 2027 05:43:17.791             7.490          3745.000
        28   02 Jun 2027 07:12:26.489   02 Jun 2027 07:14:47.892           141.403         70701.500
        29   02 Jun 2027 07:15:29.558   02 Jun 2027 07:15:33.297             3.739          1869.500
        30   02 Jun 2027 07:16:22.045   02 Jun 2027 07:16:28.822             6.777          3388.500
        31   02 Jun 2027 08:49:41.383   02 Jun 2027 08:50:33.084            51.701         25850.500
        32   02 Jun 2027 08:50:54.220   02 Jun 2027 08:52:00.492            66.272         33136.000
        33   02 Jun 2027 08:52:42.189   02 Jun 2027 08:53:05.328            23.139         11569.500
        34   02 Jun 2027 08:53:39.551   02 Jun 2027 08:53:52.045            12.494          6247.000
        35   02 Jun 2027 08:53:54.370   02 Jun 2027 08:53:59.849             5.479          2739.500
        36   02 Jun 2027 10:26:11.518   02 Jun 2027 10:28:11.809           120.291         60145.500
        37   02 Jun 2027 10:28:25.440   02 Jun 2027 10:28:26.154             0.714           357.000
        38   02 Jun 2027 10:29:32.293   02 Jun 2027 10:29:42.820            10.527          5263.500
        39   03 Jun 2027 04:13:30.864   03 Jun 2027 04:14:13.519            42.655         21327.500
        40   03 Jun 2027 05:48:41.263   03 Jun 2027 05:50:46.807           125.544         62772.000
        41   03 Jun 2027 05:51:10.239   03 Jun 2027 05:51:35.743            25.504         12752.000
        42   03 Jun 2027 05:53:38.804   03 Jun 2027 05:53:43.090             4.286          2143.000
        43   03 Jun 2027 07:25:00.606   03 Jun 2027 07:26:14.449            73.843         36921.500
        44   03 Jun 2027 07:26:28.282   03 Jun 2027 07:27:16.208            47.926         23963.000
        45   03 Jun 2027 07:28:13.469   03 Jun 2027 07:28:43.634            30.165         15082.500
        46   03 Jun 2027 07:28:56.924   03 Jun 2027 07:29:33.402            36.478         18239.000
        47   03 Jun 2027 09:02:24.563   03 Jun 2027 09:04:42.194           137.631         68815.500
        48   03 Jun 2027 09:05:43.732   03 Jun 2027 09:05:58.971            15.239          7619.500
        49   03 Jun 2027 10:38:36.582   03 Jun 2027 10:39:43.556            66.974         31508.251
        50   03 Jun 2027 10:40:11.511   03 Jun 2027 10:40:11.608             0.097            48.500
        51   03 Jun 2027 10:40:28.622   03 Jun 2027 10:40:31.790             3.168          1264.344
        52   03 Jun 2027 10:41:13.831   03 Jun 2027 10:41:15.724             1.893           946.500
        53   03 Jun 2027 10:41:24.001   03 Jun 2027 10:41:26.066             2.065           625.937
        54   03 Jun 2027 10:42:07.948   03 Jun 2027 10:42:09.066             1.118           559.000
        55   03 Jun 2027 10:42:23.343   03 Jun 2027 10:42:26.762             3.419          1077.625
        56   04 Jun 2027 04:25:32.363   04 Jun 2027 04:26:58.263            85.900         42950.000
        57   04 Jun 2027 04:28:32.713   04 Jun 2027 04:28:32.713             0.000             0.000
        58   04 Jun 2027 06:00:45.042   04 Jun 2027 06:02:33.121           108.079         54039.500
        59   04 Jun 2027 06:03:00.527   04 Jun 2027 06:03:04.636             4.109          2054.500
        60   04 Jun 2027 06:03:50.353   04 Jun 2027 06:03:50.353             0.000             0.000
        61   04 Jun 2027 06:05:05.501   04 Jun 2027 06:05:27.334            21.833         10916.500
        62   04 Jun 2027 07:36:39.992   04 Jun 2027 07:38:57.408           137.416         68708.000
        63   04 Jun 2027 07:39:42.977   04 Jun 2027 07:39:48.286             5.309          2654.500
        64   04 Jun 2027 07:40:38.954   04 Jun 2027 07:40:43.382             4.428          2214.000
        65   04 Jun 2027 07:41:45.349   04 Jun 2027 07:41:48.045             2.696          1348.000
        66   04 Jun 2027 07:42:04.494   04 Jun 2027 07:42:06.353             1.859           929.500
        67   04 Jun 2027 07:42:07.868   04 Jun 2027 07:42:13.704             5.836          2462.562
        68   04 Jun 2027 07:42:29.807   04 Jun 2027 07:42:33.001             3.194           319.094
        69   04 Jun 2027 07:42:51.008   04 Jun 2027 07:42:54.636             3.628           562.719
        70   04 Jun 2027 09:14:37.049   04 Jun 2027 09:15:01.478            24.429         11626.063
        71   04 Jun 2027 09:16:23.556   04 Jun 2027 09:16:30.138             6.582          2096.219
        72   04 Jun 2027 09:16:45.891   04 Jun 2027 09:16:45.891             0.000             0.000
        73   04 Jun 2027 09:17:00.054   04 Jun 2027 09:17:01.170             1.116           558.000
        74   04 Jun 2027 09:17:33.251   04 Jun 2027 09:17:37.065             3.814          1342.313
        75   04 Jun 2027 09:18:21.911   04 Jun 2027 09:18:22.131             0.220           110.000
        76   04 Jun 2027 10:50:30.349   04 Jun 2027 10:50:45.908            15.559          7210.469
        77   04 Jun 2027 10:51:34.398   04 Jun 2027 10:51:37.729             3.331          1101.031
        78   04 Jun 2027 10:52:02.434   04 Jun 2027 10:52:02.650             0.216           108.000
        79   04 Jun 2027 10:52:26.103   04 Jun 2027 10:52:31.362             5.259          1181.156
        80   04 Jun 2027 10:52:47.864   04 Jun 2027 10:52:50.255             2.391            64.375
        81   04 Jun 2027 10:54:06.766   04 Jun 2027 10:54:12.953             6.187          2234.000
        82   04 Jun 2027 10:55:09.491   04 Jun 2027 10:55:12.749             3.258          1629.000
        83   04 Jun 2027 10:55:32.717   04 Jun 2027 10:55:35.624             2.907           761.812
        84   05 Jun 2027 03:01:30.601   05 Jun 2027 03:01:39.027             8.426          4213.000
        85   05 Jun 2027 03:01:50.082   05 Jun 2027 03:02:09.910            19.828          9914.000
        86   05 Jun 2027 04:37:15.569   05 Jun 2027 04:38:42.361            86.792         43396.000
        87   05 Jun 2027 04:39:02.320   05 Jun 2027 04:39:17.185            14.865          7432.500
        88   05 Jun 2027 04:41:01.041   05 Jun 2027 04:41:06.757             5.716          2858.000
        89   05 Jun 2027 06:11:59.407   05 Jun 2027 06:13:49.068           109.661         54830.500
        90   05 Jun 2027 06:14:52.452   05 Jun 2027 06:15:00.120             7.668          3834.000
        91   05 Jun 2027 06:15:59.689   05 Jun 2027 06:16:04.759             5.070          2535.000
        92   05 Jun 2027 06:16:30.960   05 Jun 2027 06:16:38.485             7.525          3762.500
        93   05 Jun 2027 06:19:27.736   05 Jun 2027 06:19:32.396             4.660          2330.000
        94   05 Jun 2027 07:48:47.243   05 Jun 2027 07:50:32.736           105.493         51936.812
        95   05 Jun 2027 07:50:56.860   05 Jun 2027 07:50:58.373             1.513           571.688
        96   05 Jun 2027 07:52:33.356   05 Jun 2027 07:52:41.399             8.043          2317.687
        97   05 Jun 2027 07:53:20.639   05 Jun 2027 07:53:20.639             0.000             0.000
        98   05 Jun 2027 07:53:36.289   05 Jun 2027 07:53:37.691             1.402           701.000
        99   05 Jun 2027 07:53:55.500   05 Jun 2027 07:54:00.056             4.556          1518.687
       100   05 Jun 2027 07:54:19.173   05 Jun 2027 07:54:21.926             2.753           597.406
       101   05 Jun 2027 09:27:02.389   05 Jun 2027 09:27:25.625            23.236         11335.438
       102   05 Jun 2027 09:28:21.516   05 Jun 2027 09:28:27.109             5.593          1746.594
       103   05 Jun 2027 09:29:00.977   05 Jun 2027 09:29:03.128             2.151           761.469
       104   05 Jun 2027 09:29:53.156   05 Jun 2027 09:29:55.606             2.450          1225.000
       105   05 Jun 2027 09:30:55.360   05 Jun 2027 09:30:57.393             2.033          1016.500
       106   05 Jun 2027 11:00:19.749   05 Jun 2027 11:00:34.255            14.506          7107.219
       107   05 Jun 2027 11:02:08.606   05 Jun 2027 11:02:17.890             9.284          1764.500
       108   05 Jun 2027 11:02:52.016   05 Jun 2027 11:02:54.019             2.003           888.125
       109   05 Jun 2027 11:02:59.558   05 Jun 2027 11:03:00.891             1.333            39.250
       110   05 Jun 2027 11:03:36.060   05 Jun 2027 11:03:36.060             0.000             0.000
       111   05 Jun 2027 11:04:00.438   05 Jun 2027 11:04:04.222             3.784          1526.344
       112   05 Jun 2027 11:04:30.404   05 Jun 2027 11:04:32.011             1.607           615.938
       113   05 Jun 2027 11:05:48.907   05 Jun 2027 11:05:59.117            10.210          2403.000
       114   05 Jun 2027 11:06:26.990   05 Jun 2027 11:06:38.997            12.007           710.375
       115   05 Jun 2027 11:07:41.590   05 Jun 2027 11:07:45.526             3.936          1956.031
       116   05 Jun 2027 11:08:00.365   05 Jun 2027 11:08:01.627             1.262           222.937
       117   06 Jun 2027 03:12:06.314   06 Jun 2027 03:12:54.914            48.600         24300.000
       118   06 Jun 2027 04:47:10.129   06 Jun 2027 04:48:27.628            77.499         38749.500
       119   06 Jun 2027 04:48:59.983   06 Jun 2027 04:49:24.972            24.989         12494.500
       120   06 Jun 2027 04:49:39.417   06 Jun 2027 04:49:41.754             2.337          1168.500
       121   06 Jun 2027 04:49:45.654   06 Jun 2027 04:49:50.628             4.974          2487.000
       122   06 Jun 2027 04:51:03.386   06 Jun 2027 04:51:03.443             0.057            28.500
       123   06 Jun 2027 04:53:07.118   06 Jun 2027 04:53:24.844            17.726          8863.000
       124   06 Jun 2027 06:24:07.606   06 Jun 2027 06:25:47.629           100.023         50011.500
       125   06 Jun 2027 06:26:03.912   06 Jun 2027 06:26:06.258             2.346          1173.000
       126   06 Jun 2027 06:27:10.845   06 Jun 2027 06:27:18.673             7.828          3914.000
       127   06 Jun 2027 06:28:59.777   06 Jun 2027 06:28:59.777             0.000             0.000
       128   06 Jun 2027 06:29:01.350   06 Jun 2027 06:29:11.312             9.962          4981.000
       129   06 Jun 2027 06:30:38.550   06 Jun 2027 06:30:43.279             4.729          2364.500
       130   06 Jun 2027 06:30:59.034   06 Jun 2027 06:31:00.288             1.254           627.000
       131   06 Jun 2027 06:31:15.278   06 Jun 2027 06:31:22.076             6.798          3399.000
       132   06 Jun 2027 08:01:06.070   06 Jun 2027 08:02:14.213            68.143         32785.657
       133   06 Jun 2027 08:02:25.533   06 Jun 2027 08:02:26.960             1.427           345.094
       134   06 Jun 2027 08:02:50.667   06 Jun 2027 08:02:53.654             2.987           542.594
       135   06 Jun 2027 08:03:04.005   06 Jun 2027 08:03:09.552             5.547           323.469
       136   06 Jun 2027 08:03:27.675   06 Jun 2027 08:03:32.837             5.162           259.281
       137   06 Jun 2027 08:04:12.046   06 Jun 2027 08:04:19.543             7.497          1225.281
       138   06 Jun 2027 08:04:42.952   06 Jun 2027 08:04:46.780             3.828           731.531
       139   06 Jun 2027 08:05:11.797   06 Jun 2027 08:05:14.460             2.663           752.219
       140   06 Jun 2027 08:05:20.035   06 Jun 2027 08:05:22.159             2.124           146.406
       141   06 Jun 2027 08:05:33.606   06 Jun 2027 08:05:35.877             2.271           342.938
       142   06 Jun 2027 08:06:30.767   06 Jun 2027 08:06:30.767             0.000             0.000
       143   06 Jun 2027 09:39:00.509   06 Jun 2027 09:39:18.299            17.790          8895.000
       144   06 Jun 2027 09:39:40.732   06 Jun 2027 09:39:44.262             3.530           878.813
       145   06 Jun 2027 09:40:14.924   06 Jun 2027 09:40:18.369             3.445           251.375
       146   06 Jun 2027 09:40:40.025   06 Jun 2027 09:40:43.129             3.104           577.469
       147   06 Jun 2027 09:41:40.547   06 Jun 2027 09:41:44.280             3.733          1712.000
       148   06 Jun 2027 09:41:50.851   06 Jun 2027 09:41:52.398             1.547           205.344
       149   06 Jun 2027 09:42:00.839   06 Jun 2027 09:42:06.564             5.725           263.781
       150   06 Jun 2027 09:42:15.718   06 Jun 2027 09:42:19.057             3.339           286.063
       151   06 Jun 2027 09:42:32.425   06 Jun 2027 09:42:33.379             0.954           389.375
       152   06 Jun 2027 09:42:43.068   06 Jun 2027 09:42:45.603             2.535           112.750
       153   06 Jun 2027 11:12:19.471   06 Jun 2027 11:12:32.727            13.256          5768.437
       154   06 Jun 2027 11:13:15.098   06 Jun 2027 11:13:23.538             8.440           472.375
       155   06 Jun 2027 11:13:55.659   06 Jun 2027 11:13:59.140             3.481           236.469
       156   06 Jun 2027 11:14:08.818   06 Jun 2027 11:14:11.328             2.510           226.312
       157   06 Jun 2027 11:14:45.968   06 Jun 2027 11:14:51.264             5.296          1045.875
       158   06 Jun 2027 11:14:55.310   06 Jun 2027 11:14:55.310             0.000             0.000
       159   06 Jun 2027 11:15:12.464   06 Jun 2027 11:15:18.034             5.570           652.063
       160   06 Jun 2027 11:16:17.233   06 Jun 2027 11:16:20.314             3.081          1491.625
       161   06 Jun 2027 11:16:40.101   06 Jun 2027 11:16:41.927             1.826           570.187
       162   06 Jun 2027 11:17:17.858   06 Jun 2027 11:17:24.130             6.272           911.187
       163   06 Jun 2027 11:17:52.632   06 Jun 2027 11:17:52.632             0.000             0.000
       164   06 Jun 2027 11:18:19.880   06 Jun 2027 11:18:21.304             1.424           712.000
       165   06 Jun 2027 11:18:23.941   06 Jun 2027 11:18:27.808             3.867          1112.594
       166   06 Jun 2027 11:19:19.264   06 Jun 2027 11:19:27.087             7.823          1595.812
       167   07 Jun 2027 03:23:36.151   07 Jun 2027 03:24:42.133            65.982         32991.000
       168   07 Jun 2027 03:27:40.939   07 Jun 2027 03:27:40.939             0.000             0.000
       169   07 Jun 2027 03:28:40.117   07 Jun 2027 03:28:40.117             0.000             0.000
       170   07 Jun 2027 04:58:35.124   07 Jun 2027 05:00:15.005            99.881         49940.500
       171   07 Jun 2027 05:01:05.824   07 Jun 2027 05:01:14.605             8.781          4390.500
       172   07 Jun 2027 05:01:15.487   07 Jun 2027 05:01:18.551             3.064          1532.000
       173   07 Jun 2027 05:02:07.354   07 Jun 2027 05:02:07.354             0.000             0.000
       174   07 Jun 2027 05:03:07.177   07 Jun 2027 05:03:07.710             0.533           266.500
       175   07 Jun 2027 05:03:49.866   07 Jun 2027 05:03:54.422             4.556          2278.000
       176   07 Jun 2027 05:04:06.080   07 Jun 2027 05:04:16.161            10.081          5040.500
       177   07 Jun 2027 05:04:57.403   07 Jun 2027 05:04:57.403             0.000             0.000
       178   07 Jun 2027 06:36:11.326   07 Jun 2027 06:38:01.046           109.720         54860.000
       179   07 Jun 2027 06:40:17.269   07 Jun 2027 06:40:23.327             6.058          3029.000
       180   07 Jun 2027 06:40:51.550   07 Jun 2027 06:40:58.170             6.620          3310.000
       181   07 Jun 2027 06:42:02.714   07 Jun 2027 06:42:02.714             0.000             0.000
       182   07 Jun 2027 06:42:18.174   07 Jun 2027 06:42:22.423             4.249          2124.500
       183   07 Jun 2027 06:42:51.524   07 Jun 2027 06:43:15.837            24.313         12156.500
       184   07 Jun 2027 08:12:55.325   07 Jun 2027 08:13:51.501            56.176         27397.625
       185   07 Jun 2027 08:14:00.384   07 Jun 2027 08:14:03.006             2.622           103.438
       186   07 Jun 2027 08:14:45.180   07 Jun 2027 08:14:51.864             6.684          1317.937
       187   07 Jun 2027 08:15:26.128   07 Jun 2027 08:15:28.131             2.003           960.094
       188   07 Jun 2027 08:16:44.297   07 Jun 2027 08:16:48.184             3.887          1943.500
       189   07 Jun 2027 08:17:10.743   07 Jun 2027 08:17:15.040             4.297          1141.656
       190   07 Jun 2027 08:17:59.501   07 Jun 2027 08:18:01.749             2.248          1124.000
       191   07 Jun 2027 08:18:52.574   07 Jun 2027 08:18:57.794             5.220          1781.406
       192   07 Jun 2027 09:50:59.913   07 Jun 2027 09:51:17.531            17.618          8654.625
       193   07 Jun 2027 09:51:54.242   07 Jun 2027 09:52:01.206             6.964          1147.219
       194   07 Jun 2027 09:52:44.860   07 Jun 2027 09:52:50.781             5.921          1088.531
       195   07 Jun 2027 09:53:52.570   07 Jun 2027 09:53:58.763             6.193          1886.062
       196   07 Jun 2027 09:54:03.014   07 Jun 2027 09:54:05.080             2.066           122.375
       197   07 Jun 2027 09:54:27.678   07 Jun 2027 09:54:30.223             2.545           482.406
       198   07 Jun 2027 09:54:47.556   07 Jun 2027 09:54:50.329             2.773           282.094
       199   07 Jun 2027 11:24:45.136   07 Jun 2027 11:24:51.220             6.084          2925.719
       200   07 Jun 2027 11:26:07.912   07 Jun 2027 11:26:12.466             4.554          2060.281
       201   07 Jun 2027 11:26:41.082   07 Jun 2027 11:26:43.028             1.946           894.250
       202   07 Jun 2027 11:26:48.980   07 Jun 2027 11:27:06.080            17.100           104.063
       203   07 Jun 2027 11:27:21.227   07 Jun 2027 11:27:22.992             1.765           328.875
       204   07 Jun 2027 11:27:55.844   07 Jun 2027 11:27:59.343             3.499           515.250
       205   07 Jun 2027 11:29:02.683   07 Jun 2027 11:29:11.396             8.713          1636.875
       206   07 Jun 2027 11:30:02.874   07 Jun 2027 11:30:07.299             4.425          1404.844
       207   07 Jun 2027 11:30:29.680   07 Jun 2027 11:30:31.183             1.503           699.406
       208   08 Jun 2027 03:35:12.323   08 Jun 2027 03:35:58.440            46.117         23058.500
       209   08 Jun 2027 03:39:36.806   08 Jun 2027 03:39:43.268             6.462          3231.000
       210   08 Jun 2027 03:40:09.780   08 Jun 2027 03:40:09.780             0.000             0.000
       211   08 Jun 2027 03:40:13.323   08 Jun 2027 03:40:37.710            24.387         12193.500
       212   08 Jun 2027 03:41:08.426   08 Jun 2027 03:41:08.426             0.000             0.000
       213   08 Jun 2027 05:10:05.716   08 Jun 2027 05:12:24.736           139.020         69510.000
       214   08 Jun 2027 05:14:24.551   08 Jun 2027 05:14:36.114            11.563          5781.500
       215   08 Jun 2027 05:16:16.225   08 Jun 2027 05:16:21.805             5.580          2790.000
       216   08 Jun 2027 05:19:02.347   08 Jun 2027 05:19:09.479             7.132          3566.000
       217   08 Jun 2027 06:48:09.859   08 Jun 2027 06:50:00.435           110.576         55288.000
       218   08 Jun 2027 06:50:45.638   08 Jun 2027 06:50:59.874            14.236          7118.000
       219   08 Jun 2027 06:52:55.685   08 Jun 2027 06:52:55.685             0.000             0.000
       220   08 Jun 2027 06:53:07.324   08 Jun 2027 06:53:10.386             3.062          1531.000
       221   08 Jun 2027 06:53:18.159   08 Jun 2027 06:53:20.183             2.024          1012.000
       222   08 Jun 2027 08:25:03.036   08 Jun 2027 08:25:18.192            15.156          7578.000
       223   08 Jun 2027 08:25:35.582   08 Jun 2027 08:26:01.524            25.942         12175.626
       224   08 Jun 2027 08:26:37.829   08 Jun 2027 08:26:40.248             2.419           946.344
       225   08 Jun 2027 08:27:22.000   08 Jun 2027 08:27:24.133             2.133           202.813
       226   08 Jun 2027 08:27:25.553   08 Jun 2027 08:27:26.070             0.517            44.375
       227   08 Jun 2027 08:27:47.059   08 Jun 2027 08:27:50.784             3.725           389.688
       228   08 Jun 2027 08:28:47.167   08 Jun 2027 08:28:47.167             0.000             0.000
       229   08 Jun 2027 08:29:06.798   08 Jun 2027 08:29:15.031             8.233          2265.719
       230   08 Jun 2027 08:30:52.234   08 Jun 2027 08:30:59.509             7.275          3037.594
       231   08 Jun 2027 10:02:13.088   08 Jun 2027 10:02:28.249            15.161          7318.094
       232   08 Jun 2027 10:02:46.684   08 Jun 2027 10:02:49.899             3.215           290.719
       233   08 Jun 2027 10:04:07.801   08 Jun 2027 10:04:12.625             4.824          2363.250
       234   08 Jun 2027 10:04:45.314   08 Jun 2027 10:04:48.787             3.473           604.000
       235   08 Jun 2027 10:05:57.019   08 Jun 2027 10:06:01.879             4.860          1790.406
       236   08 Jun 2027 10:06:23.625   08 Jun 2027 10:06:24.799             1.174           532.969
       237   08 Jun 2027 10:06:34.002   08 Jun 2027 10:06:34.168             0.166            83.000
       238   08 Jun 2027 10:07:02.199   08 Jun 2027 10:07:06.050             3.851           913.312
       239   08 Jun 2027 11:36:59.976   08 Jun 2027 11:37:03.080             3.104          1435.125
       240   08 Jun 2027 11:38:55.476   08 Jun 2027 11:39:06.762            11.286          2311.812
       241   08 Jun 2027 11:39:40.931   08 Jun 2027 11:39:43.404             2.473           868.250
       242   08 Jun 2027 11:40:01.111   08 Jun 2027 11:40:02.316             1.205           505.906
       243   08 Jun 2027 11:40:51.028   08 Jun 2027 11:40:51.028             0.000             0.000
       244   08 Jun 2027 11:41:15.836   08 Jun 2027 11:41:17.208             1.372           686.000
       245   08 Jun 2027 11:41:44.458   08 Jun 2027 11:41:48.113             3.655          1519.375
       246   09 Jun 2027 03:49:31.142   09 Jun 2027 03:49:42.435            11.293          5646.500
       247   09 Jun 2027 03:50:38.501   09 Jun 2027 03:51:00.488            21.987         10993.500
       248   09 Jun 2027 03:51:05.989   09 Jun 2027 03:51:17.376            11.387          5693.500
       249   09 Jun 2027 03:51:45.248   09 Jun 2027 03:51:55.770            10.522          5261.000
       250   09 Jun 2027 05:23:04.559   09 Jun 2027 05:25:11.799           127.240         63620.000
       251   09 Jun 2027 05:25:38.494   09 Jun 2027 05:25:51.335            12.841          6420.500
       252   09 Jun 2027 05:27:35.958   09 Jun 2027 05:27:36.970             1.012           506.000
       253   09 Jun 2027 05:29:12.635   09 Jun 2027 05:29:22.352             9.717          4858.500
       254   09 Jun 2027 05:30:38.092   09 Jun 2027 05:30:48.093            10.001          5000.500
       255   09 Jun 2027 05:31:17.447   09 Jun 2027 05:31:38.218            20.771         10385.500
       256   09 Jun 2027 07:00:31.836   09 Jun 2027 07:02:30.992           119.156         59578.000
       257   09 Jun 2027 07:04:44.644   09 Jun 2027 07:04:58.684            14.040          7020.000
       258   09 Jun 2027 07:06:03.755   09 Jun 2027 07:06:09.553             5.798          2428.250
       259   09 Jun 2027 07:06:42.131   09 Jun 2027 07:06:46.684             4.553           644.594
       260   09 Jun 2027 08:37:31.770   09 Jun 2027 08:38:07.427            35.657         17475.812
       261   09 Jun 2027 08:38:14.489   09 Jun 2027 08:38:17.080             2.591            56.813
       262   09 Jun 2027 08:38:28.088   09 Jun 2027 08:38:29.272             1.184           190.688
       263   09 Jun 2027 08:38:42.980   09 Jun 2027 08:38:43.703             0.723           264.531
       264   09 Jun 2027 08:40:39.320   09 Jun 2027 08:40:46.426             7.106          3199.625
       265   09 Jun 2027 08:40:56.503   09 Jun 2027 08:40:59.001             2.498           314.906
       266   09 Jun 2027 08:41:39.925   09 Jun 2027 08:41:43.039             3.114          1139.250
       267   09 Jun 2027 08:42:00.251   09 Jun 2027 08:42:01.521             1.270           519.250
       268   09 Jun 2027 08:42:40.566   09 Jun 2027 08:42:41.639             1.073           536.500
       269   09 Jun 2027 10:14:25.753   09 Jun 2027 10:14:42.664            16.911          7714.562
       270   09 Jun 2027 10:15:24.018   09 Jun 2027 10:15:24.715             0.697           348.500
       271   09 Jun 2027 10:15:59.669   09 Jun 2027 10:16:03.975             4.306          1932.281
       272   09 Jun 2027 10:16:39.681   09 Jun 2027 10:16:45.421             5.740           225.875
       273   09 Jun 2027 10:17:07.085   09 Jun 2027 10:17:08.753             1.668           677.000
       274   09 Jun 2027 10:18:13.288   09 Jun 2027 10:18:17.867             4.579          2016.719
       275   09 Jun 2027 10:18:37.062   09 Jun 2027 10:18:43.091             6.029           595.594
       276   09 Jun 2027 11:51:35.048   09 Jun 2027 11:51:42.406             7.358          1437.219
       277   09 Jun 2027 11:51:53.256   09 Jun 2027 11:51:56.820             3.564           339.063
       278   09 Jun 2027 11:52:34.123   09 Jun 2027 11:52:34.123             0.000             0.000
       279   09 Jun 2027 11:53:08.537   09 Jun 2027 11:53:14.506             5.969          1445.969
       280   10 Jun 2027 04:01:36.592   10 Jun 2027 04:02:29.349            52.757         26378.500
       281   10 Jun 2027 04:04:40.099   10 Jun 2027 04:04:40.099             0.000             0.000
       282   10 Jun 2027 04:04:43.013   10 Jun 2027 04:04:54.950            11.937          5968.500
       283   10 Jun 2027 04:05:10.761   10 Jun 2027 04:05:11.819             1.058           529.000
       284   10 Jun 2027 05:33:47.298   10 Jun 2027 05:33:55.880             8.582          4291.000
       285   10 Jun 2027 05:35:43.433   10 Jun 2027 05:37:47.618           124.185         62092.500
       286   10 Jun 2027 05:38:50.082   10 Jun 2027 05:38:51.523             1.441           720.500
       287   10 Jun 2027 05:41:52.504   10 Jun 2027 05:42:14.741            22.237         11118.500
       288   10 Jun 2027 07:12:41.375   10 Jun 2027 07:14:54.056           132.681         63778.313
       289   10 Jun 2027 07:15:44.539   10 Jun 2027 07:15:47.221             2.682          1327.344
       290   10 Jun 2027 07:17:31.804   10 Jun 2027 07:17:39.967             8.163          3087.812
       291   10 Jun 2027 08:49:58.336   10 Jun 2027 08:50:26.741            28.405         13540.062
       292   10 Jun 2027 08:51:24.392   10 Jun 2027 08:51:27.559             3.167          1002.781
       293   10 Jun 2027 08:51:55.010   10 Jun 2027 08:52:03.194             8.184           331.750
       294   10 Jun 2027 08:53:03.249   10 Jun 2027 08:53:06.562             3.313          1656.500
       295   10 Jun 2027 08:53:10.477   10 Jun 2027 08:53:10.477             0.000             0.000
       296   10 Jun 2027 08:53:44.258   10 Jun 2027 08:53:46.687             2.429          1207.250
       297   10 Jun 2027 08:54:14.526   10 Jun 2027 08:54:19.391             4.865           697.812
       298   10 Jun 2027 10:26:26.754   10 Jun 2027 10:26:44.728            17.974          7627.000
       299   10 Jun 2027 10:27:13.031   10 Jun 2027 10:27:15.281             2.250           454.219
       300   10 Jun 2027 10:27:52.891   10 Jun 2027 10:28:01.676             8.785          1152.719
       301   10 Jun 2027 10:28:34.092   10 Jun 2027 10:28:39.512             5.420          1005.531
       302   10 Jun 2027 10:29:15.002   10 Jun 2027 10:29:17.375             2.373          1088.531
       303   10 Jun 2027 10:30:18.937   10 Jun 2027 10:30:24.356             5.419          1652.281
       304   11 Jun 2027 04:13:45.711   11 Jun 2027 04:13:52.955             7.244          3622.000
       305   11 Jun 2027 04:15:05.085   11 Jun 2027 04:15:43.115            38.030         19015.000
       306   11 Jun 2027 04:16:00.776   11 Jun 2027 04:16:09.642             8.866          4433.000
       307   11 Jun 2027 05:48:56.312   11 Jun 2027 05:50:34.328            98.016         49008.000
       308   11 Jun 2027 05:51:01.830   11 Jun 2027 05:51:50.778            48.948         24474.000
       309   11 Jun 2027 05:52:22.781   11 Jun 2027 05:52:30.149             7.368          3684.000
       310   11 Jun 2027 05:54:56.417   11 Jun 2027 05:55:07.435            11.018          5509.000
       311   11 Jun 2027 05:55:18.470   11 Jun 2027 05:55:21.886             3.416          1708.000
       312   11 Jun 2027 07:25:15.432   11 Jun 2027 07:27:13.742           118.310         59155.000
       313   11 Jun 2027 07:27:55.830   11 Jun 2027 07:28:04.486             8.656          4328.000
       314   11 Jun 2027 07:28:59.669   11 Jun 2027 07:29:02.227             2.558          1279.000
       315   11 Jun 2027 07:30:20.641   11 Jun 2027 07:30:23.683             3.042          1521.000
       316   11 Jun 2027 09:02:39.099   11 Jun 2027 09:03:15.742            36.643         14691.813
       317   11 Jun 2027 09:04:24.712   11 Jun 2027 09:04:32.604             7.892          1953.781
       318   11 Jun 2027 09:04:39.467   11 Jun 2027 09:04:39.999             0.532           194.469
       319   11 Jun 2027 09:04:57.378   11 Jun 2027 09:04:58.518             1.140           543.094
       320   11 Jun 2027 09:05:07.330   11 Jun 2027 09:05:08.309             0.979           275.375
       321   11 Jun 2027 09:06:13.689   11 Jun 2027 09:06:19.149             5.460          1993.187
       322   11 Jun 2027 10:38:51.546   11 Jun 2027 10:39:10.190            18.644          8888.063
       323   11 Jun 2027 10:39:34.534   11 Jun 2027 10:39:36.371             1.837           560.594
       324   11 Jun 2027 10:40:22.929   11 Jun 2027 10:40:26.128             3.199          1220.625
       325   11 Jun 2027 10:41:25.284   11 Jun 2027 10:41:28.503             3.219          1386.719
       326   11 Jun 2027 10:42:23.998   11 Jun 2027 10:42:29.234             5.236          1734.219
       327   12 Jun 2027 04:26:28.361   12 Jun 2027 04:26:33.633             5.272          2636.000
       328   12 Jun 2027 04:27:19.075   12 Jun 2027 04:28:44.808            85.733         42866.500
       329   12 Jun 2027 04:28:55.732   12 Jun 2027 04:29:15.041            19.309          9654.500
       330   12 Jun 2027 06:00:59.450   12 Jun 2027 06:02:07.843            68.393         34196.500
       331   12 Jun 2027 06:02:26.848   12 Jun 2027 06:03:09.647            42.799         21399.500
       332   12 Jun 2027 06:06:21.652   12 Jun 2027 06:06:30.652             9.000          4500.000
       333   12 Jun 2027 06:07:09.872   12 Jun 2027 06:07:18.926             9.054          4527.000
       334   12 Jun 2027 07:36:54.563   12 Jun 2027 07:38:13.725            79.162         39581.000
       335   12 Jun 2027 07:38:27.084   12 Jun 2027 07:39:10.707            43.623         20418.125
       336   12 Jun 2027 07:39:57.155   12 Jun 2027 07:40:00.587             3.432          1410.469
       337   12 Jun 2027 07:40:10.320   12 Jun 2027 07:40:15.675             5.355           170.906
       338   12 Jun 2027 07:41:41.290   12 Jun 2027 07:41:48.548             7.258          2500.125
       339   12 Jun 2027 07:41:59.869   12 Jun 2027 07:42:00.940             1.071           353.781
       340   12 Jun 2027 07:42:23.006   12 Jun 2027 07:42:25.115             2.109           610.031
       341   12 Jun 2027 07:43:06.037   12 Jun 2027 07:43:08.147             2.110           987.625
       342   12 Jun 2027 09:14:52.485   12 Jun 2027 09:15:16.340            23.855         11131.375
       343   12 Jun 2027 09:15:30.724   12 Jun 2027 09:15:31.511             0.787           106.188
       344   12 Jun 2027 09:15:37.457   12 Jun 2027 09:15:38.261             0.804           154.031
       345   12 Jun 2027 09:16:47.813   12 Jun 2027 09:16:52.245             4.432          1685.438
       346   12 Jun 2027 09:17:16.676   12 Jun 2027 09:17:18.732             2.056           623.469
       347   12 Jun 2027 09:17:33.537   12 Jun 2027 09:17:42.577             9.040           311.656
       348   12 Jun 2027 09:18:03.315   12 Jun 2027 09:18:10.698             7.383           602.531
       349   12 Jun 2027 09:18:37.056   12 Jun 2027 09:18:38.674             1.618           697.281
       350   12 Jun 2027 09:18:39.017   12 Jun 2027 09:18:40.206             1.189            10.719
       351   12 Jun 2027 10:50:45.081   12 Jun 2027 10:50:58.861            13.780          6490.188
       352   12 Jun 2027 10:51:17.295   12 Jun 2027 10:51:17.295             0.000             0.000
       353   12 Jun 2027 10:51:21.903   12 Jun 2027 10:51:23.113             1.210           247.125
       354   12 Jun 2027 10:51:49.033   12 Jun 2027 10:51:52.459             3.426           744.875
       355   12 Jun 2027 10:52:18.949   12 Jun 2027 10:52:20.036             1.087           149.531
       356   12 Jun 2027 10:53:01.572   12 Jun 2027 10:53:06.904             5.332           921.875
       357   12 Jun 2027 10:53:10.003   12 Jun 2027 10:53:11.608             1.605            50.781
       358   12 Jun 2027 10:53:38.481   12 Jun 2027 10:53:40.123             1.642            33.437
       359   12 Jun 2027 10:54:06.047   12 Jun 2027 10:54:08.954             2.907           793.813
       360   12 Jun 2027 10:54:46.625   12 Jun 2027 10:54:50.956             4.331          1177.219
       361   12 Jun 2027 10:55:28.034   12 Jun 2027 10:55:28.600             0.566           283.000
       362   12 Jun 2027 10:55:40.169   12 Jun 2027 10:55:42.277             2.108          1028.063
       363   12 Jun 2027 10:55:48.551   12 Jun 2027 10:55:49.776             1.225           172.656
       364   13 Jun 2027 03:01:07.307   13 Jun 2027 03:01:18.463            11.156          5578.000
       365   13 Jun 2027 03:02:48.642   13 Jun 2027 03:03:01.948            13.306          6653.000
       366   13 Jun 2027 04:37:30.225   13 Jun 2027 04:39:02.763            92.538         46269.000
       367   13 Jun 2027 04:40:16.791   13 Jun 2027 04:40:28.632            11.841          5920.500
       368   13 Jun 2027 04:41:42.523   13 Jun 2027 04:41:51.134             8.611          4305.500
       369   13 Jun 2027 06:12:14.118   13 Jun 2027 06:13:44.293            90.175         45087.500
       370   13 Jun 2027 06:14:07.432   13 Jun 2027 06:14:15.593             8.161          4080.500
       371   13 Jun 2027 06:15:14.838   13 Jun 2027 06:15:18.350             3.512          1756.000
       372   13 Jun 2027 06:15:52.028   13 Jun 2027 06:16:07.073            15.045          7522.500
       373   13 Jun 2027 06:17:01.632   13 Jun 2027 06:17:14.520            12.888          6444.000
       374   13 Jun 2027 06:19:07.570   13 Jun 2027 06:19:29.129            21.559         10779.500
       375   13 Jun 2027 07:49:02.338   13 Jun 2027 07:50:53.000           110.662         55331.000
       376   13 Jun 2027 07:51:58.722   13 Jun 2027 07:52:08.392             9.670          2230.313
       377   13 Jun 2027 07:53:03.235   13 Jun 2027 07:53:03.235             0.000             0.000
       378   13 Jun 2027 07:53:35.285   13 Jun 2027 07:53:42.363             7.078          2715.406
       379   13 Jun 2027 09:27:16.990   13 Jun 2027 09:27:41.454            24.464         11556.625
       380   13 Jun 2027 09:28:36.302   13 Jun 2027 09:28:39.198             2.896          1385.750
       381   13 Jun 2027 09:28:55.565   13 Jun 2027 09:28:55.844             0.279           139.500
       382   13 Jun 2027 09:29:05.584   13 Jun 2027 09:29:10.769             5.185           325.313
       383   13 Jun 2027 09:29:26.427   13 Jun 2027 09:29:29.261             2.834           335.781
       384   13 Jun 2027 09:30:04.743   13 Jun 2027 09:30:06.271             1.528           599.438
       385   13 Jun 2027 09:30:37.042   13 Jun 2027 09:30:40.939             3.897           961.594
       386   13 Jun 2027 09:30:56.054   13 Jun 2027 09:31:00.076             4.022           442.563
       387   13 Jun 2027 11:00:34.167   13 Jun 2027 11:00:49.312            15.145          7234.875
       388   13 Jun 2027 11:02:12.920   13 Jun 2027 11:02:14.621             1.701           850.500
       389   13 Jun 2027 11:02:33.575   13 Jun 2027 11:02:37.001             3.426          1638.563
       390   13 Jun 2027 11:03:14.479   13 Jun 2027 11:03:16.990             2.511          1073.313
       391   13 Jun 2027 11:03:50.694   13 Jun 2027 11:03:53.224             2.530           761.688
       392   13 Jun 2027 11:04:25.064   13 Jun 2027 11:04:27.530             2.466           916.625
       393   13 Jun 2027 11:04:38.802   13 Jun 2027 11:04:39.900             1.098           134.688
       394   13 Jun 2027 11:04:48.326   13 Jun 2027 11:04:48.931             0.605           263.312
       395   13 Jun 2027 11:05:14.936   13 Jun 2027 11:05:16.192             1.256           545.625
       396   13 Jun 2027 11:05:51.452   13 Jun 2027 11:05:55.996             4.544           735.531
       397   13 Jun 2027 11:06:40.917   13 Jun 2027 11:06:43.656             2.739          1317.625
       398   13 Jun 2027 11:07:42.528   13 Jun 2027 11:07:46.127             3.599          1523.563
