uniorb/output/strategy_1/Camera/Camera_KinoSat_110504.txt

KinoSat_110504
-------------------------
    Access    *     Start Time (UTCG)     *     Stop Time (UTCG)  *   Duration (s) *   Data (Mbytes)
         1   01 Jun 2027 03:54:54.330   01 Jun 2027 03:56:38.112           103.782         51891.000
         2   01 Jun 2027 03:56:52.465   01 Jun 2027 03:56:59.315             6.850          3425.000
         3   01 Jun 2027 03:57:52.722   01 Jun 2027 03:58:34.989            42.267         21133.500
         4   01 Jun 2027 04:01:05.015   01 Jun 2027 04:01:06.645             1.630           815.000
         5   01 Jun 2027 04:01:58.770   01 Jun 2027 04:02:51.126            52.356         26178.000
         6   01 Jun 2027 04:03:46.191   01 Jun 2027 04:03:47.717             1.526           763.000
         7   01 Jun 2027 05:32:42.934   01 Jun 2027 05:35:07.403           144.469         72234.500
         8   01 Jun 2027 05:35:37.023   01 Jun 2027 05:35:37.692             0.669           334.500
         9   01 Jun 2027 05:36:33.405   01 Jun 2027 05:36:40.137             6.732          3366.000
        10   01 Jun 2027 05:37:05.967   01 Jun 2027 05:37:17.567            11.600          5800.000
        11   01 Jun 2027 05:38:08.425   01 Jun 2027 05:38:28.502            20.077         10038.500
        12   01 Jun 2027 05:38:41.224   01 Jun 2027 05:38:59.162            17.938          8969.000
        13   01 Jun 2027 05:39:26.831   01 Jun 2027 05:39:36.777             9.946          4973.000
        14   01 Jun 2027 07:09:27.391   01 Jun 2027 07:10:33.658            66.267         33133.500
        15   01 Jun 2027 07:11:12.544   01 Jun 2027 07:12:41.298            88.754         44377.000
        16   01 Jun 2027 07:13:32.171   01 Jun 2027 07:13:51.693            19.522          9761.000
        17   01 Jun 2027 07:14:00.952   01 Jun 2027 07:14:06.761             5.809          2904.500
        18   01 Jun 2027 07:14:34.245   01 Jun 2027 07:14:47.150            12.905          6452.500
        19   01 Jun 2027 07:15:02.269   01 Jun 2027 07:15:04.808             2.539          1269.500
        20   01 Jun 2027 07:15:38.775   01 Jun 2027 07:15:41.321             2.546          1273.000
        21   01 Jun 2027 07:16:11.737   01 Jun 2027 07:16:13.176             1.439           719.500
        22   01 Jun 2027 08:47:34.835   01 Jun 2027 08:49:59.408           144.573         72286.500
        23   01 Jun 2027 08:51:26.268   01 Jun 2027 08:51:42.267            15.999          7999.500
        24   01 Jun 2027 10:21:25.906   01 Jun 2027 10:23:01.823            95.917         47958.500
        25   01 Jun 2027 10:23:38.311   01 Jun 2027 10:24:18.564            40.253         20126.500
        26   01 Jun 2027 10:26:45.366   01 Jun 2027 10:27:04.661            19.295          9647.500
        27   01 Jun 2027 10:27:35.668   01 Jun 2027 10:27:37.421             1.753           876.500
        28   02 Jun 2027 04:07:42.726   02 Jun 2027 04:13:20.666           337.940        168970.000
        29   02 Jun 2027 04:13:28.042   02 Jun 2027 04:13:49.031            20.989         10494.500
        30   02 Jun 2027 04:14:35.854   02 Jun 2027 04:14:35.854             0.000             0.000
        31   02 Jun 2027 04:15:26.660   02 Jun 2027 04:15:32.087             5.427          2713.500
        32   02 Jun 2027 04:15:52.272   02 Jun 2027 04:16:12.638            20.366         10183.000
        33   02 Jun 2027 05:44:49.340   02 Jun 2027 05:47:41.882           172.542         86271.000
        34   02 Jun 2027 05:49:16.293   02 Jun 2027 05:49:39.583            23.290         11645.000
        35   02 Jun 2027 05:50:02.458   02 Jun 2027 05:50:03.591             1.133           566.500
        36   02 Jun 2027 05:50:51.173   02 Jun 2027 05:50:56.320             5.147          2573.500
        37   02 Jun 2027 07:21:51.654   02 Jun 2027 07:24:46.285           174.631         87315.500
        38   02 Jun 2027 07:26:15.653   02 Jun 2027 07:26:31.920            16.267          8133.500
        39   02 Jun 2027 07:27:32.228   02 Jun 2027 07:27:41.806             9.578          4789.000
        40   02 Jun 2027 08:58:48.891   02 Jun 2027 08:59:42.837            53.946         26973.000
        41   02 Jun 2027 09:01:02.159   02 Jun 2027 09:02:52.596           110.437         55218.500
        42   02 Jun 2027 09:03:33.450   02 Jun 2027 09:03:40.791             7.341          3670.500
        43   02 Jun 2027 10:33:52.628   02 Jun 2027 10:34:21.063            28.435         14217.500
        44   02 Jun 2027 10:35:30.942   02 Jun 2027 10:36:32.666            61.724         30862.000
        45   02 Jun 2027 10:36:57.730   02 Jun 2027 10:37:29.320            31.590         15795.000
        46   03 Jun 2027 04:19:41.234   03 Jun 2027 04:26:39.922           418.688        209344.000
        47   03 Jun 2027 04:27:42.351   03 Jun 2027 04:27:51.826             9.475          4737.500
        48   03 Jun 2027 05:57:15.113   03 Jun 2027 06:00:14.014           178.901         89450.500
        49   03 Jun 2027 06:00:58.965   03 Jun 2027 06:01:24.734            25.769         12884.500
        50   03 Jun 2027 06:03:26.484   03 Jun 2027 06:03:45.528            19.044          9522.000
        51   03 Jun 2027 06:03:48.918   03 Jun 2027 06:03:53.752             4.834          2417.000
        52   03 Jun 2027 07:34:09.134   03 Jun 2027 07:37:36.185           207.051        103525.500
        53   03 Jun 2027 07:39:02.480   03 Jun 2027 07:39:15.127            12.647          6323.500
        54   03 Jun 2027 07:39:40.043   03 Jun 2027 07:39:40.991             0.948           474.000
        55   03 Jun 2027 09:11:02.717   03 Jun 2027 09:12:58.350           115.633         57816.500
        56   03 Jun 2027 09:13:27.337   03 Jun 2027 09:14:08.031            40.694         20347.000
        57   03 Jun 2027 09:14:22.813   03 Jun 2027 09:14:22.813             0.000             0.000
        58   03 Jun 2027 09:14:32.507   03 Jun 2027 09:14:34.547             2.040          1020.000
        59   03 Jun 2027 10:48:42.339   03 Jun 2027 10:50:01.235            78.896         39448.000
        60   04 Jun 2027 03:00:00.000   04 Jun 2027 03:01:46.632           106.632         53316.000
        61   04 Jun 2027 04:33:09.904   04 Jun 2027 04:38:01.235           291.331        145665.500
        62   04 Jun 2027 04:38:06.012   04 Jun 2027 04:38:09.280             3.268          1634.000
        63   04 Jun 2027 04:38:32.598   04 Jun 2027 04:38:34.814             2.216          1108.000
        64   04 Jun 2027 04:38:40.772   04 Jun 2027 04:38:52.830            12.058          6029.000
        65   04 Jun 2027 04:39:37.102   04 Jun 2027 04:39:54.195            17.093          8546.500
        66   04 Jun 2027 04:40:01.772   04 Jun 2027 04:40:02.809             1.037           518.500
        67   04 Jun 2027 06:09:22.492   04 Jun 2027 06:11:35.692           133.200         66600.000
        68   04 Jun 2027 06:12:34.700   04 Jun 2027 06:12:36.428             1.728           864.000
        69   04 Jun 2027 06:15:11.059   04 Jun 2027 06:15:59.655            48.596         24298.000
        70   04 Jun 2027 07:47:05.792   04 Jun 2027 07:49:55.503           169.711         84855.500
        71   04 Jun 2027 07:50:05.521   04 Jun 2027 07:50:06.056             0.535           267.500
        72   04 Jun 2027 07:50:29.439   04 Jun 2027 07:50:34.344             4.905          2452.500
        73   04 Jun 2027 07:51:17.754   04 Jun 2027 07:51:28.534            10.780          5390.000
        74   04 Jun 2027 09:23:12.076   04 Jun 2027 09:23:41.306            29.230         14615.000
        75   04 Jun 2027 09:24:48.395   04 Jun 2027 09:25:03.195            14.800          7400.000
        76   04 Jun 2027 09:25:21.041   04 Jun 2027 09:25:26.278             5.237          2618.500
        77   04 Jun 2027 09:26:11.812   04 Jun 2027 09:26:20.899             9.087          4543.500
        78   04 Jun 2027 09:27:13.335   04 Jun 2027 09:27:29.020            15.685          7842.500
        79   05 Jun 2027 03:10:22.381   05 Jun 2027 03:13:54.139           211.758        105879.000
        80   05 Jun 2027 04:45:32.428   05 Jun 2027 04:47:43.074           130.646         65323.000
        81   05 Jun 2027 04:48:14.143   05 Jun 2027 04:48:16.201             2.058          1029.000
        82   05 Jun 2027 04:49:11.970   05 Jun 2027 04:49:49.808            37.838         18919.000
        83   05 Jun 2027 04:50:39.653   05 Jun 2027 04:50:42.983             3.330          1665.000
        84   05 Jun 2027 04:51:23.601   05 Jun 2027 04:51:34.584            10.983          5491.500
        85   05 Jun 2027 04:51:37.491   05 Jun 2027 04:51:46.152             8.661          4330.500
        86   05 Jun 2027 04:51:57.222   05 Jun 2027 04:52:05.857             8.635          4317.500
        87   05 Jun 2027 06:21:57.729   05 Jun 2027 06:24:18.558           140.829         70414.500
        88   05 Jun 2027 06:25:37.366   05 Jun 2027 06:25:47.343             9.977          4988.500
        89   05 Jun 2027 06:26:44.370   05 Jun 2027 06:27:05.244            20.874         10437.000
        90   05 Jun 2027 07:59:12.445   05 Jun 2027 08:00:53.931           101.486         50743.000
        91   05 Jun 2027 08:00:56.695   05 Jun 2027 08:01:08.597            11.902          5951.000
        92   05 Jun 2027 08:02:06.496   05 Jun 2027 08:02:08.351             1.855           927.500
        93   05 Jun 2027 08:02:49.532   05 Jun 2027 08:03:04.258            14.726          7363.000
        94   05 Jun 2027 08:03:22.627   05 Jun 2027 08:03:34.119            11.492          5746.000
        95   05 Jun 2027 09:35:26.890   05 Jun 2027 09:35:49.120            22.230         11115.000
        96   05 Jun 2027 09:35:55.900   05 Jun 2027 09:36:00.051             4.151          2075.500
        97   05 Jun 2027 09:36:50.041   05 Jun 2027 09:37:15.082            25.041         12520.500
        98   05 Jun 2027 09:38:14.688   05 Jun 2027 09:38:20.461             5.773          2886.500
        99   05 Jun 2027 09:39:18.010   05 Jun 2027 09:39:43.746            25.736         12868.000
       100   06 Jun 2027 03:22:15.293   06 Jun 2027 03:25:11.834           176.541         88270.500
       101   06 Jun 2027 04:57:11.433   06 Jun 2027 04:59:16.591           125.158         62579.000
       102   06 Jun 2027 04:59:32.007   06 Jun 2027 04:59:47.446            15.439          7719.500
       103   06 Jun 2027 05:00:40.975   06 Jun 2027 05:00:41.101             0.126            63.000
       104   06 Jun 2027 05:01:36.058   06 Jun 2027 05:02:01.120            25.062         12531.000
       105   06 Jun 2027 05:02:40.587   06 Jun 2027 05:02:44.997             4.410          2205.000
       106   06 Jun 2027 05:02:53.947   06 Jun 2027 05:03:17.265            23.318         11659.000
       107   06 Jun 2027 05:04:13.467   06 Jun 2027 05:04:17.533             4.066          2033.000
       108   06 Jun 2027 06:33:30.203   06 Jun 2027 06:35:39.607           129.404         64702.000
       109   06 Jun 2027 06:35:49.875   06 Jun 2027 06:35:53.644             3.769          1884.500
       110   06 Jun 2027 06:36:49.258   06 Jun 2027 06:37:01.349            12.091          6045.500
       111   06 Jun 2027 06:37:14.016   06 Jun 2027 06:37:47.527            33.511         16755.500
       112   06 Jun 2027 06:39:43.969   06 Jun 2027 06:39:48.714             4.745          2372.500
       113   06 Jun 2027 08:11:45.578   06 Jun 2027 08:12:52.508            66.930         33465.000
       114   06 Jun 2027 08:13:21.616   06 Jun 2027 08:13:30.089             8.473          4236.500
       115   06 Jun 2027 08:14:18.420   06 Jun 2027 08:14:31.636            13.216          6608.000
       116   06 Jun 2027 08:14:58.529   06 Jun 2027 08:15:15.090            16.561          8280.500
       117   06 Jun 2027 08:15:35.313   06 Jun 2027 08:15:35.313             0.000             0.000
       118   06 Jun 2027 09:47:05.749   06 Jun 2027 09:47:55.127            49.378         24689.000
       119   06 Jun 2027 09:49:49.434   06 Jun 2027 09:49:57.653             8.219          4109.500
       120   06 Jun 2027 09:50:18.832   06 Jun 2027 09:50:27.239             8.407          4203.500
       121   06 Jun 2027 09:51:38.170   06 Jun 2027 09:51:47.240             9.070          4535.000
       122   06 Jun 2027 09:52:18.097   06 Jun 2027 09:52:33.013            14.916          7458.000
       123   07 Jun 2027 03:32:33.962   07 Jun 2027 03:33:07.686            33.724         16862.000
       124   07 Jun 2027 03:33:59.181   07 Jun 2027 03:36:12.267           133.086         66543.000
       125   07 Jun 2027 03:36:37.445   07 Jun 2027 03:36:55.680            18.235          9117.500
       126   07 Jun 2027 03:37:05.887   07 Jun 2027 03:37:17.327            11.440          5720.000
       127   07 Jun 2027 03:37:41.666   07 Jun 2027 03:37:55.013            13.347          6673.500
       128   07 Jun 2027 05:08:44.771   07 Jun 2027 05:11:19.207           154.436         77218.000
       129   07 Jun 2027 05:11:55.671   07 Jun 2027 05:12:14.834            19.163          9581.500
       130   07 Jun 2027 05:13:55.560   07 Jun 2027 05:13:59.001             3.441          1720.500
       131   07 Jun 2027 05:16:18.091   07 Jun 2027 05:16:19.280             1.189           594.500
       132   07 Jun 2027 06:45:49.464   07 Jun 2027 06:48:17.617           148.153         74076.500
       133   07 Jun 2027 06:49:19.593   07 Jun 2027 06:49:27.806             8.213          4106.500
       134   07 Jun 2027 06:50:36.998   07 Jun 2027 06:50:54.585            17.587          8793.500
       135   07 Jun 2027 06:52:11.211   07 Jun 2027 06:52:12.076             0.865           432.500
       136   07 Jun 2027 08:23:48.553   07 Jun 2027 08:24:51.704            63.151         31575.500
       137   07 Jun 2027 08:26:03.433   07 Jun 2027 08:26:06.519             3.086          1543.000
       138   07 Jun 2027 08:26:28.192   07 Jun 2027 08:26:42.067            13.875          6937.500
       139   07 Jun 2027 08:27:29.601   07 Jun 2027 08:27:30.536             0.935           467.500
       140   07 Jun 2027 09:56:57.493   07 Jun 2027 09:57:47.079            49.586         24793.000
       141   07 Jun 2027 09:59:16.662   07 Jun 2027 09:59:38.960            22.298         11149.000
       142   07 Jun 2027 10:01:05.091   07 Jun 2027 10:01:17.288            12.197          6098.500
       143   07 Jun 2027 10:02:13.992   07 Jun 2027 10:02:19.744             5.752          2876.000
       144   07 Jun 2027 10:02:53.497   07 Jun 2027 10:03:11.347            17.850          8925.000
       145   07 Jun 2027 10:04:09.362   07 Jun 2027 10:04:11.176             1.814           907.000
       146   07 Jun 2027 10:04:33.982   07 Jun 2027 10:04:46.926            12.944          6472.000
       147   08 Jun 2027 03:43:40.498   08 Jun 2027 03:45:23.772           103.274         51637.000
       148   08 Jun 2027 03:45:43.581   08 Jun 2027 03:47:40.132           116.551         58275.500
       149   08 Jun 2027 03:47:54.326   08 Jun 2027 03:47:58.676             4.350          2175.000
       150   08 Jun 2027 03:49:01.025   08 Jun 2027 03:49:01.025             0.000             0.000
       151   08 Jun 2027 03:49:14.261   08 Jun 2027 03:49:36.206            21.945         10972.500
       152   08 Jun 2027 03:49:52.397   08 Jun 2027 03:49:56.072             3.675          1837.500
       153   08 Jun 2027 03:50:12.019   08 Jun 2027 03:50:21.684             9.665          4832.500
       154   08 Jun 2027 03:50:43.347   08 Jun 2027 03:50:45.083             1.736           868.000
       155   08 Jun 2027 03:51:38.333   08 Jun 2027 03:51:56.791            18.458          9229.000
       156   08 Jun 2027 05:21:02.430   08 Jun 2027 05:22:53.106           110.676         55338.000
       157   08 Jun 2027 05:22:58.511   08 Jun 2027 05:23:16.015            17.504          8752.000
       158   08 Jun 2027 05:24:24.732   08 Jun 2027 05:24:41.995            17.263          8631.500
       159   08 Jun 2027 05:25:55.820   08 Jun 2027 05:26:06.800            10.980          5490.000
       160   08 Jun 2027 05:27:06.407   08 Jun 2027 05:27:54.121            47.714         23857.000
       161   08 Jun 2027 05:28:21.947   08 Jun 2027 05:28:22.380             0.433           216.500
       162   08 Jun 2027 06:57:51.014   08 Jun 2027 06:58:41.975            50.961         25480.500
       163   08 Jun 2027 06:58:56.084   08 Jun 2027 07:00:24.115            88.031         44015.500
       164   08 Jun 2027 07:01:02.919   08 Jun 2027 07:01:03.694             0.775           387.500
       165   08 Jun 2027 07:01:45.034   08 Jun 2027 07:02:01.500            16.466          8233.000
       166   08 Jun 2027 07:02:08.938   08 Jun 2027 07:02:10.894             1.956           978.000
       167   08 Jun 2027 07:02:37.908   08 Jun 2027 07:02:47.423             9.515          4757.500
       168   08 Jun 2027 07:03:37.978   08 Jun 2027 07:03:56.474            18.496          9248.000
       169   08 Jun 2027 07:04:09.206   08 Jun 2027 07:04:16.286             7.080          3540.000
       170   08 Jun 2027 08:35:48.108   08 Jun 2027 08:36:27.921            39.813         19906.500
       171   08 Jun 2027 08:36:57.410   08 Jun 2027 08:37:00.014             2.604          1302.000
       172   08 Jun 2027 08:37:28.317   08 Jun 2027 08:37:48.117            19.800          9900.000
       173   08 Jun 2027 08:38:55.015   08 Jun 2027 08:39:00.978             5.963          2981.500
       174   08 Jun 2027 10:09:24.945   08 Jun 2027 10:09:49.375            24.430         12215.000
       175   08 Jun 2027 10:11:07.956   08 Jun 2027 10:11:25.595            17.639          8819.500
       176   08 Jun 2027 10:12:16.178   08 Jun 2027 10:12:51.661            35.483         17741.500
       177   08 Jun 2027 10:15:46.642   08 Jun 2027 10:16:07.212            20.570         10285.000
       178   08 Jun 2027 10:16:51.300   08 Jun 2027 10:16:52.444             1.144           572.000
       179   09 Jun 2027 03:55:08.699   09 Jun 2027 04:00:10.062           301.363        150681.500
       180   09 Jun 2027 04:01:15.681   09 Jun 2027 04:01:36.082            20.401         10200.500
       181   09 Jun 2027 04:03:27.793   09 Jun 2027 04:03:43.795            16.002          8001.000
       182   09 Jun 2027 04:03:54.294   09 Jun 2027 04:03:59.839             5.545          2772.500
       183   09 Jun 2027 04:04:00.622   09 Jun 2027 04:04:03.599             2.977          1488.500
       184   09 Jun 2027 05:32:57.552   09 Jun 2027 05:35:30.692           153.140         76570.000
       185   09 Jun 2027 05:35:52.513   09 Jun 2027 05:36:13.584            21.071         10535.500
       186   09 Jun 2027 05:38:22.011   09 Jun 2027 05:38:46.501            24.490         12245.000
       187   09 Jun 2027 05:38:55.484   09 Jun 2027 05:39:14.226            18.742          9371.000
       188   09 Jun 2027 05:39:43.172   09 Jun 2027 05:39:46.382             3.210          1605.000
       189   09 Jun 2027 05:40:07.850   09 Jun 2027 05:40:17.929            10.079          5039.500
       190   09 Jun 2027 07:09:41.935   09 Jun 2027 07:12:03.373           141.438         70719.000
       191   09 Jun 2027 07:12:49.176   09 Jun 2027 07:12:55.335             6.159          3079.500
       192   09 Jun 2027 07:13:46.925   09 Jun 2027 07:14:09.051            22.126         11063.000
       193   09 Jun 2027 07:14:21.726   09 Jun 2027 07:14:23.169             1.443           721.500
       194   09 Jun 2027 07:14:31.256   09 Jun 2027 07:14:31.256             0.000             0.000
       195   09 Jun 2027 07:14:41.853   09 Jun 2027 07:14:49.792             7.939          3969.500
       196   09 Jun 2027 07:15:54.161   09 Jun 2027 07:16:07.677            13.516          6758.000
       197   09 Jun 2027 08:47:49.670   09 Jun 2027 08:48:35.164            45.494         22747.000
       198   09 Jun 2027 08:49:52.700   09 Jun 2027 08:50:20.738            28.038         14019.000
       199   09 Jun 2027 08:51:49.564   09 Jun 2027 08:51:56.624             7.060          3530.000
       200   09 Jun 2027 10:21:40.669   09 Jun 2027 10:21:59.614            18.945          9472.500
       201   09 Jun 2027 10:22:32.627   09 Jun 2027 10:22:35.436             2.809          1404.500
       202   09 Jun 2027 10:22:41.465   09 Jun 2027 10:23:04.823            23.358         11679.000
       203   09 Jun 2027 10:24:40.241   09 Jun 2027 10:24:52.993            12.752          6376.000
       204   09 Jun 2027 10:26:02.759   09 Jun 2027 10:26:14.579            11.820          5910.000
       205   09 Jun 2027 10:26:47.683   09 Jun 2027 10:27:00.048            12.365          6182.500
       206   09 Jun 2027 10:27:52.368   09 Jun 2027 10:27:58.172             5.804          2902.000
       207   10 Jun 2027 04:07:57.181   10 Jun 2027 04:12:45.304           288.123        144061.500
       208   10 Jun 2027 04:13:14.954   10 Jun 2027 04:13:23.287             8.333          4166.500
       209   10 Jun 2027 04:14:03.676   10 Jun 2027 04:14:18.367            14.691          7345.500
       210   10 Jun 2027 04:14:34.544   10 Jun 2027 04:14:46.663            12.119          6059.500
       211   10 Jun 2027 04:14:51.136   10 Jun 2027 04:14:55.225             4.089          2044.500
       212   10 Jun 2027 04:15:42.148   10 Jun 2027 04:15:58.711            16.563          8281.500
       213   10 Jun 2027 04:16:00.919   10 Jun 2027 04:16:08.099             7.180          3590.000
       214   10 Jun 2027 05:45:03.951   10 Jun 2027 05:47:56.586           172.635         86317.500
       215   10 Jun 2027 05:48:54.847   10 Jun 2027 05:49:00.611             5.764          2882.000
       216   10 Jun 2027 05:49:28.100   10 Jun 2027 05:49:31.290             3.190          1595.000
       217   10 Jun 2027 05:49:45.389   10 Jun 2027 05:49:54.691             9.302          4651.000
       218   10 Jun 2027 05:50:16.427   10 Jun 2027 05:50:18.269             1.842           921.000
       219   10 Jun 2027 05:51:06.567   10 Jun 2027 05:51:10.756             4.189          2094.500
       220   10 Jun 2027 07:22:06.515   10 Jun 2027 07:22:29.731            23.216         11608.000
       221   10 Jun 2027 07:22:31.565   10 Jun 2027 07:24:30.867           119.302         59651.000
       222   10 Jun 2027 07:24:51.952   10 Jun 2027 07:25:01.691             9.739          4869.500
       223   10 Jun 2027 07:25:55.678   10 Jun 2027 07:26:00.996             5.318          2659.000
       224   10 Jun 2027 07:26:35.075   10 Jun 2027 07:26:55.710            20.635         10317.500
       225   10 Jun 2027 08:59:03.878   10 Jun 2027 08:59:33.008            29.130         14565.000
       226   10 Jun 2027 08:59:45.440   10 Jun 2027 08:59:47.544             2.104          1052.000
       227   10 Jun 2027 09:00:17.690   10 Jun 2027 09:00:25.275             7.585          3792.500
       228   10 Jun 2027 09:01:00.044   10 Jun 2027 09:01:07.712             7.668          3834.000
       229   10 Jun 2027 09:02:04.342   10 Jun 2027 09:02:14.105             9.763          4881.500
       230   10 Jun 2027 09:02:24.284   10 Jun 2027 09:02:28.422             4.138          2069.000
       231   10 Jun 2027 09:02:43.162   10 Jun 2027 09:02:51.310             8.148          4074.000
       232   10 Jun 2027 09:03:10.492   10 Jun 2027 09:03:21.760            11.268          5634.000
       233   10 Jun 2027 09:03:36.304   10 Jun 2027 09:03:38.816             2.512          1256.000
       234   10 Jun 2027 10:34:07.392   10 Jun 2027 10:34:26.389            18.997          9498.500
       235   10 Jun 2027 10:35:46.525   10 Jun 2027 10:35:48.819             2.294          1147.000
       236   10 Jun 2027 10:36:40.554   10 Jun 2027 10:36:58.126            17.572          8786.000
       237   10 Jun 2027 10:37:21.625   10 Jun 2027 10:37:50.807            29.182         14591.000
       238   11 Jun 2027 04:18:36.395   11 Jun 2027 04:23:18.886           282.491        141245.500
       239   11 Jun 2027 04:24:03.004   11 Jun 2027 04:24:23.449            20.445         10222.500
       240   11 Jun 2027 04:24:48.204   11 Jun 2027 04:24:54.393             6.189          3094.500
       241   11 Jun 2027 04:25:35.750   11 Jun 2027 04:26:19.255            43.505         21752.500
       242   11 Jun 2027 04:27:22.854   11 Jun 2027 04:27:24.084             1.230           615.000
       243   11 Jun 2027 04:27:25.288   11 Jun 2027 04:27:41.854            16.566          8283.000
       244   11 Jun 2027 04:28:23.719   11 Jun 2027 04:28:26.204             2.485          1242.500
       245   11 Jun 2027 05:57:29.917   11 Jun 2027 06:00:00.659           150.742         75371.000
       246   11 Jun 2027 06:00:35.442   11 Jun 2027 06:00:54.177            18.735          9367.500
       247   11 Jun 2027 06:01:13.696   11 Jun 2027 06:01:35.882            22.186         11093.000
       248   11 Jun 2027 06:02:43.815   11 Jun 2027 06:02:47.142             3.327          1663.500
       249   11 Jun 2027 06:03:41.639   11 Jun 2027 06:03:59.324            17.685          8842.500
       250   11 Jun 2027 07:34:26.996   11 Jun 2027 07:37:00.231           153.235         76617.500
       251   11 Jun 2027 07:38:30.293   11 Jun 2027 07:38:42.684            12.391          6195.500
       252   11 Jun 2027 07:39:29.156   11 Jun 2027 07:39:36.331             7.175          3587.500
       253   11 Jun 2027 07:39:51.470   11 Jun 2027 07:39:58.374             6.904          3452.000
       254   11 Jun 2027 09:11:17.394   11 Jun 2027 09:11:54.459            37.065         18532.500
       255   11 Jun 2027 09:12:16.795   11 Jun 2027 09:12:23.167             6.372          3186.000
       256   11 Jun 2027 09:13:01.541   11 Jun 2027 09:13:12.931            11.390          5695.000
       257   11 Jun 2027 09:13:43.675   11 Jun 2027 09:13:56.164            12.489          6244.500
       258   11 Jun 2027 09:14:32.141   11 Jun 2027 09:14:35.438             3.297          1648.500
       259   11 Jun 2027 09:15:19.189   11 Jun 2027 09:15:37.503            18.314          9157.000
       260   11 Jun 2027 10:48:57.328   11 Jun 2027 10:49:23.241            25.913         12956.500
       261   12 Jun 2027 03:00:00.000   12 Jun 2027 03:02:01.231           121.231         60615.500
       262   12 Jun 2027 04:33:24.829   12 Jun 2027 04:37:00.953           216.124        108062.000
       263   12 Jun 2027 04:37:09.078   12 Jun 2027 04:37:20.375            11.297          5648.500
       264   12 Jun 2027 04:38:00.534   12 Jun 2027 04:38:18.298            17.764          8882.000
       265   12 Jun 2027 04:39:28.687   12 Jun 2027 04:39:34.725             6.038          3019.000
       266   12 Jun 2027 04:39:44.924   12 Jun 2027 04:39:49.402             4.478          2239.000
       267   12 Jun 2027 04:40:08.929   12 Jun 2027 04:40:17.651             8.722          4361.000
       268   12 Jun 2027 06:09:37.294   12 Jun 2027 06:12:03.976           146.682         73341.000
       269   12 Jun 2027 06:12:51.407   12 Jun 2027 06:13:13.505            22.098         11049.000
       270   12 Jun 2027 06:15:25.176   12 Jun 2027 06:15:54.974            29.798         14899.000
       271   12 Jun 2027 07:47:20.927   12 Jun 2027 07:49:32.727           131.800         65900.000
       272   12 Jun 2027 07:49:50.658   12 Jun 2027 07:49:57.808             7.150          3575.000
       273   12 Jun 2027 07:50:43.100   12 Jun 2027 07:50:49.067             5.967          2983.500
       274   12 Jun 2027 07:51:32.205   12 Jun 2027 07:51:43.951            11.746          5873.000
       275   12 Jun 2027 09:23:27.173   12 Jun 2027 09:23:55.877            28.704         14352.000
       276   12 Jun 2027 09:24:25.165   12 Jun 2027 09:24:34.603             9.438          4719.000
       277   12 Jun 2027 09:25:56.043   12 Jun 2027 09:26:11.322            15.279          7639.500
       278   12 Jun 2027 09:26:29.919   12 Jun 2027 09:26:35.732             5.813          2906.500
       279   12 Jun 2027 09:27:30.603   12 Jun 2027 09:27:43.575            12.972          6486.000
       280   13 Jun 2027 03:10:36.988   13 Jun 2027 03:14:08.556           211.568        105784.000
       281   13 Jun 2027 04:45:47.113   13 Jun 2027 04:47:38.078           110.965         55482.500
       282   13 Jun 2027 04:48:52.180   13 Jun 2027 04:49:08.725            16.545          8272.500
       283   13 Jun 2027 04:49:26.814   13 Jun 2027 04:49:58.039            31.225         15612.500
       284   13 Jun 2027 04:50:57.664   13 Jun 2027 04:50:58.249             0.585           292.500
       285   13 Jun 2027 04:51:18.918   13 Jun 2027 04:51:38.615            19.697          9848.500
       286   13 Jun 2027 04:52:11.738   13 Jun 2027 04:52:17.320             5.582          2791.000
       287   13 Jun 2027 06:22:11.879   13 Jun 2027 06:24:34.635           142.756         71378.000
       288   13 Jun 2027 06:24:58.256   13 Jun 2027 06:25:10.642            12.386          6193.000
       289   13 Jun 2027 06:25:46.731   13 Jun 2027 06:25:51.559             4.828          2414.000
       290   13 Jun 2027 06:26:27.274   13 Jun 2027 06:26:47.497            20.223         10111.500
       291   13 Jun 2027 07:59:27.273   13 Jun 2027 08:01:08.762           101.489         50744.500
       292   13 Jun 2027 08:02:34.956   13 Jun 2027 08:03:05.541            30.585         15292.500
       293   13 Jun 2027 08:03:39.496   13 Jun 2027 08:03:49.553            10.057          5028.500
       294   13 Jun 2027 09:35:41.571   13 Jun 2027 09:36:11.462            29.891         14945.500
       295   13 Jun 2027 09:36:33.194   13 Jun 2027 09:36:42.496             9.302          4651.000
       296   13 Jun 2027 09:37:56.216   13 Jun 2027 09:38:08.392            12.176          6088.000
       297   13 Jun 2027 09:38:31.977   13 Jun 2027 09:38:43.627            11.650          5825.000
       298   13 Jun 2027 09:39:37.419   13 Jun 2027 09:39:44.417             6.998          3499.000
       299   13 Jun 2027 09:40:00.130   13 Jun 2027 09:40:05.006             4.876          2438.000
