uniorb/output/strategy_1/Camera/Camera_KinoSat_110402.txt

KinoSat_110402
-------------------------
    Access    *     Start Time (UTCG)     *     Stop Time (UTCG)  *   Duration (s) *   Data (Mbytes)
         1   01 Jun 2027 04:20:47.205   01 Jun 2027 04:22:37.746           110.541         55270.500
         2   01 Jun 2027 04:23:08.229   01 Jun 2027 04:23:19.896            11.667          5833.500
         3   01 Jun 2027 04:24:28.411   01 Jun 2027 04:24:32.409             3.998          1999.000
         4   01 Jun 2027 04:25:19.003   01 Jun 2027 04:25:20.262             1.259           629.500
         5   01 Jun 2027 04:26:20.805   01 Jun 2027 04:27:21.644            60.839         30419.500
         6   01 Jun 2027 04:27:23.924   01 Jun 2027 04:27:39.347            15.423          7711.500
         7   01 Jun 2027 05:57:06.403   01 Jun 2027 06:00:02.960           176.557         88278.500
         8   01 Jun 2027 06:02:38.798   01 Jun 2027 06:03:24.584            45.786         22893.000
         9   01 Jun 2027 07:35:21.950   01 Jun 2027 07:38:35.326           193.376         96688.000
        10   01 Jun 2027 07:38:46.299   01 Jun 2027 07:39:02.878            16.579          8289.500
        11   01 Jun 2027 09:10:42.542   01 Jun 2027 09:12:33.140           110.598         55299.000
        12   01 Jun 2027 09:13:35.991   01 Jun 2027 09:14:11.987            35.996         17998.000
        13   01 Jun 2027 09:14:47.749   01 Jun 2027 09:14:53.554             5.805          2902.500
        14   01 Jun 2027 09:15:14.442   01 Jun 2027 09:15:26.781            12.339          6169.500
        15   02 Jun 2027 03:00:00.000   02 Jun 2027 03:02:09.186           129.186         64593.000
        16   02 Jun 2027 04:32:20.446   02 Jun 2027 04:35:08.055           167.609         83804.500
        17   02 Jun 2027 04:36:12.959   02 Jun 2027 04:38:24.308           131.349         65674.500
        18   02 Jun 2027 04:39:11.655   02 Jun 2027 04:39:25.934            14.279          7139.500
        19   02 Jun 2027 04:39:44.458   02 Jun 2027 04:39:50.613             6.155          3077.500
        20   02 Jun 2027 06:09:26.207   02 Jun 2027 06:12:08.412           162.205         81102.500
        21   02 Jun 2027 06:12:55.437   02 Jun 2027 06:12:58.034             2.597          1298.500
        22   02 Jun 2027 06:13:43.019   02 Jun 2027 06:14:18.190            35.171         17585.500
        23   02 Jun 2027 07:47:24.465   02 Jun 2027 07:49:48.289           143.824         71912.000
        24   02 Jun 2027 07:50:08.297   02 Jun 2027 07:50:31.776            23.479         11739.500
        25   02 Jun 2027 07:51:15.526   02 Jun 2027 07:51:15.962             0.436           218.000
        26   02 Jun 2027 09:20:33.309   02 Jun 2027 09:22:50.823           137.514         68757.000
        27   02 Jun 2027 09:22:53.321   02 Jun 2027 09:22:59.590             6.269          3134.500
        28   02 Jun 2027 09:23:06.142   02 Jun 2027 09:23:42.926            36.784         18392.000
        29   02 Jun 2027 09:27:16.472   02 Jun 2027 09:27:28.254            11.782          5891.000
        30   03 Jun 2027 03:07:15.603   03 Jun 2027 03:08:59.478           103.875         51937.500
        31   03 Jun 2027 03:09:19.614   03 Jun 2027 03:13:32.848           253.234        126617.000
        32   03 Jun 2027 03:13:48.418   03 Jun 2027 03:14:00.086            11.668          5834.000
        33   03 Jun 2027 03:15:11.037   03 Jun 2027 03:15:11.599             0.562           281.000
        34   03 Jun 2027 04:44:39.681   03 Jun 2027 04:46:14.641            94.960         47480.000
        35   03 Jun 2027 04:46:32.508   03 Jun 2027 04:46:41.230             8.722          4361.000
        36   03 Jun 2027 04:47:09.277   03 Jun 2027 04:47:14.211             4.934          2467.000
        37   03 Jun 2027 04:47:24.805   03 Jun 2027 04:47:46.340            21.535         10767.500
        38   03 Jun 2027 04:48:28.157   03 Jun 2027 04:48:31.443             3.286          1643.000
        39   03 Jun 2027 04:51:25.402   03 Jun 2027 04:51:58.718            33.316         16658.000
        40   03 Jun 2027 06:21:27.645   03 Jun 2027 06:23:59.770           152.125         76062.500
        41   03 Jun 2027 06:24:25.370   03 Jun 2027 06:24:33.411             8.041          4020.500
        42   03 Jun 2027 06:24:59.557   03 Jun 2027 06:25:10.832            11.275          5637.500
        43   03 Jun 2027 06:25:12.018   03 Jun 2027 06:25:15.577             3.559          1779.500
        44   03 Jun 2027 06:25:26.580   03 Jun 2027 06:25:37.877            11.297          5648.500
        45   03 Jun 2027 06:26:36.698   03 Jun 2027 06:26:39.691             2.993          1496.500
        46   03 Jun 2027 06:26:52.910   03 Jun 2027 06:26:58.650             5.740          2870.000
        47   03 Jun 2027 06:27:02.308   03 Jun 2027 06:27:05.217             2.909          1454.500
        48   03 Jun 2027 06:27:49.116   03 Jun 2027 06:27:55.943             6.827          3413.500
        49   03 Jun 2027 07:59:24.682   03 Jun 2027 08:01:57.106           152.424         76212.000
        50   03 Jun 2027 08:03:01.332   03 Jun 2027 08:03:23.351            22.019         11009.500
        51   03 Jun 2027 09:33:00.372   03 Jun 2027 09:35:00.360           119.988         59994.000
        52   03 Jun 2027 09:35:41.445   03 Jun 2027 09:36:11.443            29.998         14999.000
        53   03 Jun 2027 09:38:23.887   03 Jun 2027 09:38:41.146            17.259          8629.500
        54   03 Jun 2027 09:39:23.874   03 Jun 2027 09:39:34.446            10.572          5286.000
        55   03 Jun 2027 09:40:16.278   03 Jun 2027 09:40:27.970            11.692          5846.000
        56   04 Jun 2027 03:18:44.073   04 Jun 2027 03:23:32.054           287.981        143990.500
        57   04 Jun 2027 03:26:11.407   04 Jun 2027 03:26:42.414            31.007         15503.500
        58   04 Jun 2027 03:27:36.222   04 Jun 2027 03:27:47.097            10.875          5437.500
        59   04 Jun 2027 04:56:33.703   04 Jun 2027 04:58:33.463           119.760         59880.000
        60   04 Jun 2027 04:59:17.654   04 Jun 2027 04:59:20.464             2.810          1405.000
        61   04 Jun 2027 05:01:08.242   04 Jun 2027 05:01:46.378            38.136         19068.000
        62   04 Jun 2027 05:02:30.494   04 Jun 2027 05:02:42.641            12.147          6073.500
        63   04 Jun 2027 05:03:01.344   04 Jun 2027 05:03:21.980            20.636         10318.000
        64   04 Jun 2027 06:33:18.110   04 Jun 2027 06:35:41.208           143.098         71549.000
        65   04 Jun 2027 06:35:53.676   04 Jun 2027 06:35:59.266             5.590          2795.000
        66   04 Jun 2027 06:36:32.235   04 Jun 2027 06:36:45.555            13.320          6660.000
        67   04 Jun 2027 06:37:05.768   04 Jun 2027 06:37:07.361             1.593           796.500
        68   04 Jun 2027 06:37:33.560   04 Jun 2027 06:37:36.866             3.306          1653.000
        69   04 Jun 2027 06:38:34.724   04 Jun 2027 06:38:54.858            20.134         10067.000
        70   04 Jun 2027 06:39:46.173   04 Jun 2027 06:39:47.924             1.751           875.500
        71   04 Jun 2027 08:11:26.711   04 Jun 2027 08:12:56.513            89.802         44901.000
        72   04 Jun 2027 08:13:26.526   04 Jun 2027 08:13:44.529            18.003          9001.500
        73   04 Jun 2027 08:14:14.789   04 Jun 2027 08:14:23.964             9.175          4587.500
        74   04 Jun 2027 09:45:17.334   04 Jun 2027 09:45:35.921            18.587          9293.500
        75   04 Jun 2027 09:46:28.779   04 Jun 2027 09:46:38.734             9.955          4977.500
        76   04 Jun 2027 09:47:31.068   04 Jun 2027 09:47:58.672            27.604         13802.000
        77   04 Jun 2027 09:49:37.059   04 Jun 2027 09:49:44.235             7.176          3588.000
        78   04 Jun 2027 09:49:52.161   04 Jun 2027 09:50:02.177            10.016          5008.000
        79   04 Jun 2027 09:51:06.104   04 Jun 2027 09:51:11.491             5.387          2693.500
        80   05 Jun 2027 03:31:32.540   05 Jun 2027 03:35:29.781           237.241        118620.500
        81   05 Jun 2027 03:36:15.490   05 Jun 2027 03:36:36.239            20.749         10374.500
        82   05 Jun 2027 03:38:12.141   05 Jun 2027 03:38:37.936            25.795         12897.500
        83   05 Jun 2027 03:39:45.992   05 Jun 2027 03:39:54.396             8.404          4202.000
        84   05 Jun 2027 05:08:40.356   05 Jun 2027 05:11:04.965           144.609         72304.500
        85   05 Jun 2027 05:11:33.275   05 Jun 2027 05:11:46.108            12.833          6416.500
        86   05 Jun 2027 05:13:28.130   05 Jun 2027 05:13:46.742            18.612          9306.000
        87   05 Jun 2027 05:14:06.928   05 Jun 2027 05:14:34.641            27.713         13856.500
        88   05 Jun 2027 05:15:43.102   05 Jun 2027 05:15:59.770            16.668          8334.000
        89   05 Jun 2027 06:45:43.374   05 Jun 2027 06:47:41.281           117.907         58953.500
        90   05 Jun 2027 06:48:14.274   05 Jun 2027 06:48:25.325            11.051          5525.500
        91   05 Jun 2027 06:48:31.166   05 Jun 2027 06:48:45.272            14.106          7053.000
        92   05 Jun 2027 06:49:29.888   05 Jun 2027 06:49:40.105            10.217          5108.500
        93   05 Jun 2027 06:50:10.425   05 Jun 2027 06:50:25.456            15.031          7515.500
        94   05 Jun 2027 06:51:22.882   05 Jun 2027 06:51:39.983            17.101          8550.500
        95   05 Jun 2027 08:22:40.626   05 Jun 2027 08:23:38.971            58.345         29172.500
        96   05 Jun 2027 08:24:46.403   05 Jun 2027 08:25:03.378            16.975          8487.500
        97   05 Jun 2027 08:25:36.985   05 Jun 2027 08:25:49.970            12.985          6492.500
        98   05 Jun 2027 08:26:58.696   05 Jun 2027 08:27:12.180            13.484          6742.000
        99   05 Jun 2027 09:57:44.314   05 Jun 2027 09:58:08.915            24.601         12300.500
       100   05 Jun 2027 09:59:45.996   05 Jun 2027 10:00:05.887            19.891          9945.500
       101   05 Jun 2027 10:01:37.671   05 Jun 2027 10:01:57.062            19.391          9695.500
       102   06 Jun 2027 03:43:47.020   06 Jun 2027 03:48:09.798           262.778        131389.000
       103   06 Jun 2027 03:48:39.520   06 Jun 2027 03:49:19.710            40.190         20095.000
       104   06 Jun 2027 03:50:46.092   06 Jun 2027 03:50:54.558             8.466          4233.000
       105   06 Jun 2027 03:51:04.872   06 Jun 2027 03:51:23.735            18.863          9431.500
       106   06 Jun 2027 03:51:59.735   06 Jun 2027 03:52:02.199             2.464          1232.000
       107   06 Jun 2027 05:21:06.639   06 Jun 2027 05:23:55.828           169.189         84594.500
       108   06 Jun 2027 05:27:28.482   06 Jun 2027 05:27:47.969            19.487          9743.500
       109   06 Jun 2027 06:58:03.385   06 Jun 2027 07:00:40.614           157.229         78614.500
       110   06 Jun 2027 07:01:05.950   06 Jun 2027 07:01:11.078             5.128          2564.000
       111   06 Jun 2027 07:01:26.076   06 Jun 2027 07:01:26.812             0.736           368.000
       112   06 Jun 2027 07:01:32.899   06 Jun 2027 07:01:32.899             0.000             0.000
       113   06 Jun 2027 07:02:28.549   06 Jun 2027 07:02:39.925            11.376          5688.000
       114   06 Jun 2027 07:02:42.643   06 Jun 2027 07:02:45.179             2.536          1268.000
       115   06 Jun 2027 07:03:21.166   06 Jun 2027 07:03:33.849            12.683          6341.500
       116   06 Jun 2027 08:34:53.779   06 Jun 2027 08:35:40.278            46.499         23249.500
       117   06 Jun 2027 08:36:37.291   06 Jun 2027 08:37:04.512            27.221         13610.500
       118   06 Jun 2027 08:37:54.735   06 Jun 2027 08:38:00.450             5.715          2857.500
       119   06 Jun 2027 08:38:17.354   06 Jun 2027 08:38:32.180            14.826          7413.000
       120   06 Jun 2027 10:12:35.065   06 Jun 2027 10:12:49.264            14.199          7099.500
       121   06 Jun 2027 10:13:38.505   06 Jun 2027 10:13:58.146            19.641          9820.500
       122   07 Jun 2027 03:57:06.177   07 Jun 2027 04:01:38.546           272.369        136184.500
       123   07 Jun 2027 04:01:54.713   07 Jun 2027 04:02:44.308            49.595         24797.500
       124   07 Jun 2027 04:03:54.546   07 Jun 2027 04:03:59.094             4.548          2274.000
       125   07 Jun 2027 05:33:14.408   07 Jun 2027 05:35:01.736           107.328         53664.000
       126   07 Jun 2027 05:35:32.968   07 Jun 2027 05:36:40.559            67.591         33795.500
       127   07 Jun 2027 05:36:48.340   07 Jun 2027 05:36:49.872             1.532           766.000
       128   07 Jun 2027 05:38:22.457   07 Jun 2027 05:38:54.535            32.078         16039.000
       129   07 Jun 2027 05:39:30.767   07 Jun 2027 05:39:51.494            20.727         10363.500
       130   07 Jun 2027 07:10:58.629   07 Jun 2027 07:13:34.791           156.162         78081.000
       131   07 Jun 2027 07:14:27.481   07 Jun 2027 07:14:43.166            15.685          7842.500
       132   07 Jun 2027 07:14:57.308   07 Jun 2027 07:15:08.251            10.943          5471.500
       133   07 Jun 2027 08:47:04.053   07 Jun 2027 08:47:33.872            29.819         14909.500
       134   07 Jun 2027 08:48:31.598   07 Jun 2027 08:48:46.795            15.197          7598.500
       135   07 Jun 2027 08:49:06.868   07 Jun 2027 08:49:16.363             9.495          4747.500
       136   07 Jun 2027 08:50:05.311   07 Jun 2027 08:50:23.497            18.186          9093.000
       137   07 Jun 2027 08:50:27.021   07 Jun 2027 08:50:28.235             1.214           607.000
       138   07 Jun 2027 08:51:16.709   07 Jun 2027 08:51:20.739             4.030          2015.000
       139   08 Jun 2027 04:09:23.632   08 Jun 2027 04:14:25.836           302.204        151102.000
       140   08 Jun 2027 04:14:48.531   08 Jun 2027 04:15:37.862            49.331         24665.500
       141   08 Jun 2027 04:15:47.625   08 Jun 2027 04:15:51.311             3.686          1843.000
       142   08 Jun 2027 04:15:59.148   08 Jun 2027 04:15:59.717             0.569           284.500
       143   08 Jun 2027 05:45:46.650   08 Jun 2027 05:48:11.467           144.817         72408.500
       144   08 Jun 2027 05:48:56.171   08 Jun 2027 05:49:31.372            35.201         17600.500
       145   08 Jun 2027 05:50:12.014   08 Jun 2027 05:50:18.544             6.530          3265.000
       146   08 Jun 2027 07:23:03.841   08 Jun 2027 07:25:36.541           152.700         76350.000
       147   08 Jun 2027 07:26:27.834   08 Jun 2027 07:26:36.191             8.357          4178.500
       148   08 Jun 2027 07:26:50.474   08 Jun 2027 07:26:55.508             5.034          2517.000
       149   08 Jun 2027 08:59:16.798   08 Jun 2027 08:59:54.370            37.572         18786.000
       150   08 Jun 2027 09:00:31.184   08 Jun 2027 09:00:43.045            11.861          5930.500
       151   08 Jun 2027 09:01:51.616   08 Jun 2027 09:02:01.797            10.181          5090.500
       152   08 Jun 2027 09:02:15.223   08 Jun 2027 09:02:19.364             4.141          2070.500
       153   08 Jun 2027 09:02:43.919   08 Jun 2027 09:02:52.550             8.631          4315.500
       154   08 Jun 2027 09:03:31.598   08 Jun 2027 09:03:41.517             9.919          4959.500
       155   08 Jun 2027 09:03:55.266   08 Jun 2027 09:03:59.734             4.468          2234.000
       156   09 Jun 2027 04:21:01.360   09 Jun 2027 04:26:49.071           347.711        173855.500
       157   09 Jun 2027 04:27:36.312   09 Jun 2027 04:28:00.057            23.745         11872.500
       158   09 Jun 2027 04:28:04.525   09 Jun 2027 04:28:08.669             4.144          2072.000
       159   09 Jun 2027 05:57:20.896   09 Jun 2027 05:59:55.813           154.917         77458.500
       160   09 Jun 2027 06:00:44.786   09 Jun 2027 06:00:56.730            11.944          5972.000
       161   09 Jun 2027 06:01:17.247   09 Jun 2027 06:01:23.604             6.357          3178.500
       162   09 Jun 2027 07:35:36.883   09 Jun 2027 07:37:52.798           135.915         67957.500
       163   09 Jun 2027 07:38:21.777   09 Jun 2027 07:38:32.156            10.379          5189.500
       164   09 Jun 2027 07:38:53.047   09 Jun 2027 07:39:00.720             7.673          3836.500
       165   09 Jun 2027 07:39:17.932   09 Jun 2027 07:39:26.296             8.364          4182.000
       166   09 Jun 2027 09:10:57.477   09 Jun 2027 09:11:59.449            61.972         30986.000
       167   09 Jun 2027 09:14:27.705   09 Jun 2027 09:14:33.043             5.338          2669.000
       168   09 Jun 2027 09:14:51.593   09 Jun 2027 09:14:59.942             8.349          4174.500
       169   09 Jun 2027 09:15:29.117   09 Jun 2027 09:15:43.564            14.447          7223.500
       170   10 Jun 2027 03:00:00.000   10 Jun 2027 03:02:23.863           143.863         71931.500
       171   10 Jun 2027 04:32:34.929   10 Jun 2027 04:35:22.760           167.831         83915.500
       172   10 Jun 2027 04:36:31.728   10 Jun 2027 04:37:20.967            49.239         24619.500
       173   10 Jun 2027 04:37:47.847   10 Jun 2027 04:38:05.138            17.291          8645.500
       174   10 Jun 2027 04:38:39.202   10 Jun 2027 04:38:52.080            12.878          6439.000
       175   10 Jun 2027 04:39:26.118   10 Jun 2027 04:39:33.757             7.639          3819.500
       176   10 Jun 2027 06:09:40.837   10 Jun 2027 06:12:53.860           193.023         96511.500
       177   10 Jun 2027 06:14:17.274   10 Jun 2027 06:14:32.704            15.430          7715.000
       178   10 Jun 2027 06:15:58.667   10 Jun 2027 06:16:03.222             4.555          2277.500
       179   10 Jun 2027 07:47:39.074   10 Jun 2027 07:49:39.464           120.390         60195.000
       180   10 Jun 2027 07:50:20.430   10 Jun 2027 07:50:23.306             2.876          1438.000
       181   10 Jun 2027 07:50:51.046   10 Jun 2027 07:51:02.915            11.869          5934.500
       182   10 Jun 2027 07:51:07.766   10 Jun 2027 07:51:14.017             6.251          3125.500
       183   10 Jun 2027 09:20:47.934   10 Jun 2027 09:21:21.219            33.285         16642.500
       184   10 Jun 2027 09:22:36.100   10 Jun 2027 09:22:55.438            19.338          9669.000
       185   10 Jun 2027 09:24:08.111   10 Jun 2027 09:24:20.816            12.705          6352.500
       186   10 Jun 2027 09:25:16.068   10 Jun 2027 09:25:21.364             5.296          2648.000
       187   10 Jun 2027 09:25:31.429   10 Jun 2027 09:25:39.911             8.482          4241.000
       188   10 Jun 2027 09:26:41.939   10 Jun 2027 09:26:53.608            11.669          5834.500
       189   10 Jun 2027 09:27:08.958   10 Jun 2027 09:27:11.184             2.226          1113.000
       190   10 Jun 2027 09:27:32.725   10 Jun 2027 09:27:39.053             6.328          3164.000
       191   10 Jun 2027 09:27:58.073   10 Jun 2027 09:27:59.984             1.911           955.500
       192   10 Jun 2027 09:28:21.336   10 Jun 2027 09:28:30.868             9.532          4766.000
       193   11 Jun 2027 03:07:29.986   11 Jun 2027 03:09:21.578           111.592         55796.000
       194   11 Jun 2027 03:09:34.069   11 Jun 2027 03:11:14.518           100.449         50224.500
       195   11 Jun 2027 03:11:46.283   11 Jun 2027 03:12:11.570            25.287         12643.500
       196   11 Jun 2027 03:12:49.488   11 Jun 2027 03:12:59.244             9.756          4878.000
       197   11 Jun 2027 03:13:04.888   11 Jun 2027 03:13:06.945             2.057          1028.500
       198   11 Jun 2027 03:14:27.285   11 Jun 2027 03:14:45.979            18.694          9347.000
       199   11 Jun 2027 03:15:25.606   11 Jun 2027 03:15:27.735             2.129          1064.500
       200   11 Jun 2027 04:44:54.525   11 Jun 2027 04:46:34.497            99.972         49986.000
       201   11 Jun 2027 04:46:51.622   11 Jun 2027 04:46:54.238             2.616          1308.000
       202   11 Jun 2027 04:47:20.877   11 Jun 2027 04:47:23.806             2.929          1464.500
       203   11 Jun 2027 04:47:52.519   11 Jun 2027 04:48:03.699            11.180          5590.000
       204   11 Jun 2027 04:49:49.633   11 Jun 2027 04:50:29.625            39.992         19996.000
       205   11 Jun 2027 04:51:30.719   11 Jun 2027 04:51:31.953             1.234           617.000
       206   11 Jun 2027 04:52:13.115   11 Jun 2027 04:52:13.409             0.294           147.000
       207   11 Jun 2027 06:21:42.223   11 Jun 2027 06:24:41.105           178.882         89441.000
       208   11 Jun 2027 06:25:22.329   11 Jun 2027 06:25:34.180            11.851          5925.500
       209   11 Jun 2027 06:26:03.240   11 Jun 2027 06:26:08.514             5.274          2637.000
       210   11 Jun 2027 06:27:51.290   11 Jun 2027 06:28:10.758            19.468          9734.000
       211   11 Jun 2027 07:59:39.316   11 Jun 2027 08:01:09.466            90.150         45075.000
       212   11 Jun 2027 08:01:44.480   11 Jun 2027 08:02:00.627            16.147          8073.500
       213   11 Jun 2027 08:02:39.413   11 Jun 2027 08:02:42.225             2.812          1406.000
       214   11 Jun 2027 08:03:17.467   11 Jun 2027 08:03:28.097            10.630          5315.000
       215   11 Jun 2027 09:33:15.075   11 Jun 2027 09:33:31.785            16.710          8355.000
       216   11 Jun 2027 09:34:45.745   11 Jun 2027 09:35:00.851            15.106          7553.000
       217   11 Jun 2027 09:35:43.160   11 Jun 2027 09:35:49.284             6.124          3062.000
       218   11 Jun 2027 09:37:16.728   11 Jun 2027 09:37:41.371            24.643         12321.500
       219   11 Jun 2027 09:38:17.525   11 Jun 2027 09:38:27.435             9.910          4955.000
       220   11 Jun 2027 09:39:14.957   11 Jun 2027 09:39:21.278             6.321          3160.500
       221   11 Jun 2027 09:39:39.926   11 Jun 2027 09:39:51.826            11.900          5950.000
       222   11 Jun 2027 09:40:30.887   11 Jun 2027 09:40:34.057             3.170          1585.000
       223   12 Jun 2027 03:18:58.544   12 Jun 2027 03:22:46.428           227.884        113942.000
       224   12 Jun 2027 03:23:15.635   12 Jun 2027 03:23:47.699            32.064         16032.000
       225   12 Jun 2027 03:24:32.627   12 Jun 2027 03:24:42.742            10.115          5057.500
       226   12 Jun 2027 03:24:51.551   12 Jun 2027 03:24:56.017             4.466          2233.000
       227   12 Jun 2027 03:26:27.731   12 Jun 2027 03:26:57.171            29.440         14720.000
       228   12 Jun 2027 03:27:50.671   12 Jun 2027 03:28:01.809            11.138          5569.000
       229   12 Jun 2027 04:56:48.341   12 Jun 2027 04:58:11.905            83.564         41782.000
       230   12 Jun 2027 04:59:40.081   12 Jun 2027 05:00:30.365            50.284         25142.000
       231   12 Jun 2027 05:01:05.102   12 Jun 2027 05:01:10.487             5.385          2692.500
       232   12 Jun 2027 05:01:43.715   12 Jun 2027 05:02:08.154            24.439         12219.500
       233   12 Jun 2027 05:02:44.756   12 Jun 2027 05:02:57.157            12.401          6200.500
       234   12 Jun 2027 05:03:16.775   12 Jun 2027 05:03:37.191            20.416         10208.000
       235   12 Jun 2027 05:04:11.960   12 Jun 2027 05:04:13.761             1.801           900.500
       236   12 Jun 2027 06:33:32.817   12 Jun 2027 06:35:56.973           144.156         72078.000
       237   12 Jun 2027 06:36:08.452   12 Jun 2027 06:36:28.844            20.392         10196.000
       238   12 Jun 2027 06:36:46.686   12 Jun 2027 06:36:48.943             2.257          1128.500
       239   12 Jun 2027 06:37:16.600   12 Jun 2027 06:37:19.731             3.131          1565.500
       240   12 Jun 2027 06:37:46.647   12 Jun 2027 06:37:51.611             4.964          2482.000
       241   12 Jun 2027 06:38:48.624   12 Jun 2027 06:39:11.156            22.532         11266.000
       242   12 Jun 2027 06:39:35.416   12 Jun 2027 06:39:44.151             8.735          4367.500
       243   12 Jun 2027 06:40:07.824   12 Jun 2027 06:40:16.181             8.357          4178.500
       244   12 Jun 2027 08:11:41.408   12 Jun 2027 08:12:37.148            55.740         27870.000
       245   12 Jun 2027 08:13:02.555   12 Jun 2027 08:13:02.670             0.115            57.500
       246   12 Jun 2027 08:13:18.791   12 Jun 2027 08:13:26.321             7.530          3765.000
       247   12 Jun 2027 08:14:02.107   12 Jun 2027 08:14:06.488             4.381          2190.500
       248   12 Jun 2027 08:14:23.378   12 Jun 2027 08:14:31.613             8.235          4117.500
       249   12 Jun 2027 08:15:26.990   12 Jun 2027 08:15:39.255            12.265          6132.500
       250   12 Jun 2027 09:45:32.110   12 Jun 2027 09:45:50.602            18.492          9246.000
       251   12 Jun 2027 09:46:29.007   12 Jun 2027 09:46:41.367            12.360          6180.000
       252   12 Jun 2027 09:47:16.445   12 Jun 2027 09:47:35.658            19.213          9606.500
       253   12 Jun 2027 09:49:29.624   12 Jun 2027 09:49:51.710            22.086         11043.000
       254   12 Jun 2027 09:50:54.450   12 Jun 2027 09:50:58.455             4.005          2002.500
       255   12 Jun 2027 09:51:11.919   12 Jun 2027 09:51:20.913             8.994          4497.000
       256   13 Jun 2027 03:31:46.728   13 Jun 2027 03:35:48.762           242.034        121017.000
       257   13 Jun 2027 03:35:55.583   13 Jun 2027 03:36:01.154             5.571          2785.500
       258   13 Jun 2027 03:36:32.130   13 Jun 2027 03:36:51.350            19.220          9610.000
       259   13 Jun 2027 03:38:28.477   13 Jun 2027 03:39:00.251            31.774         15887.000
       260   13 Jun 2027 03:39:31.726   13 Jun 2027 03:39:44.859            13.133          6566.500
       261   13 Jun 2027 05:08:55.187   13 Jun 2027 05:11:04.890           129.703         64851.500
       262   13 Jun 2027 05:11:58.017   13 Jun 2027 05:12:00.993             2.976          1488.000
       263   13 Jun 2027 05:14:53.302   13 Jun 2027 05:16:00.622            67.320         33660.000
       264   13 Jun 2027 06:45:58.095   13 Jun 2027 06:48:34.854           156.759         78379.500
       265   13 Jun 2027 06:49:37.388   13 Jun 2027 06:49:39.058             1.670           835.000
       266   13 Jun 2027 06:50:44.591   13 Jun 2027 06:50:45.003             0.412           206.000
       267   13 Jun 2027 06:51:09.970   13 Jun 2027 06:51:41.751            31.781         15890.500
       268   13 Jun 2027 08:22:54.788   13 Jun 2027 08:23:57.066            62.278         31139.000
       269   13 Jun 2027 08:24:59.329   13 Jun 2027 08:25:18.243            18.914          9457.000
       270   13 Jun 2027 08:25:52.402   13 Jun 2027 08:26:04.708            12.306          6153.000
       271   13 Jun 2027 08:27:13.456   13 Jun 2027 08:27:17.330             3.874          1937.000
       272   13 Jun 2027 09:57:59.211   13 Jun 2027 09:58:23.372            24.161         12080.500
       273   13 Jun 2027 09:59:38.808   13 Jun 2027 09:59:52.808            14.000          7000.000
       274   13 Jun 2027 10:01:13.849   13 Jun 2027 10:01:43.147            29.298         14649.000
       275   13 Jun 2027 10:02:31.734   13 Jun 2027 10:02:46.310            14.576          7288.000
