uniorb/output/strategy_1/Camera/Camera_KinoSat_111604.txt

KinoSat_111604
-------------------------
    Access    *     Start Time (UTCG)     *     Stop Time (UTCG)  *   Duration (s) *   Data (Mbytes)
         1   01 Jun 2027 03:23:58.839   01 Jun 2027 03:24:27.239            28.400         14200.000
         2   01 Jun 2027 03:24:33.606   01 Jun 2027 03:26:23.589           109.983         54991.500
         3   01 Jun 2027 03:29:04.518   01 Jun 2027 03:29:21.104            16.586          8293.000
         4   01 Jun 2027 05:01:59.335   01 Jun 2027 05:03:09.118            69.783         34891.500
         5   01 Jun 2027 05:03:15.516   01 Jun 2027 05:03:32.302            16.786          8393.000
         6   01 Jun 2027 05:05:01.159   01 Jun 2027 05:05:19.188            18.029          9014.500
         7   01 Jun 2027 06:25:39.854   01 Jun 2027 06:26:58.713            78.859         39429.500
         8   01 Jun 2027 08:02:06.389   01 Jun 2027 08:03:43.773            97.384         48692.000
         9   01 Jun 2027 09:34:16.081   01 Jun 2027 09:34:25.357             9.276          4638.000
        10   01 Jun 2027 09:36:11.116   01 Jun 2027 09:37:50.736            99.620         49810.000
        11   01 Jun 2027 09:42:32.701   01 Jun 2027 09:42:32.701             0.000             0.000
        12   01 Jun 2027 09:42:53.739   01 Jun 2027 09:43:01.876             8.137          4068.500
        13   01 Jun 2027 09:43:03.976   01 Jun 2027 09:43:15.036            11.060          5530.000
        14   01 Jun 2027 09:43:35.876   01 Jun 2027 09:43:51.649            15.773          7886.500
        15   01 Jun 2027 09:43:52.257   01 Jun 2027 09:43:55.723             3.466          1733.000
        16   01 Jun 2027 09:44:02.923   01 Jun 2027 09:44:05.634             2.711          1355.500
        17   01 Jun 2027 11:13:10.060   01 Jun 2027 11:15:27.962           137.902         68951.000
        18   01 Jun 2027 11:17:32.630   01 Jun 2027 11:17:37.067             4.437          2218.500
        19   01 Jun 2027 11:18:05.809   01 Jun 2027 11:18:05.906             0.097            48.500
        20   01 Jun 2027 11:18:19.147   01 Jun 2027 11:18:34.726            15.579          7789.500
        21   01 Jun 2027 11:19:35.286   01 Jun 2027 11:19:45.572            10.286          5143.000
        22   02 Jun 2027 03:36:05.241   02 Jun 2027 03:37:08.463            63.222         31611.000
        23   02 Jun 2027 03:37:15.287   02 Jun 2027 03:38:16.322            61.035         30517.500
        24   02 Jun 2027 03:38:31.994   02 Jun 2027 03:38:39.034             7.040          3520.000
        25   02 Jun 2027 03:39:13.344   02 Jun 2027 03:39:27.627            14.283          7141.500
        26   02 Jun 2027 05:15:12.950   02 Jun 2027 05:16:27.727            74.777         37388.500
        27   02 Jun 2027 05:16:49.922   02 Jun 2027 05:16:57.507             7.585          3792.500
        28   02 Jun 2027 06:37:45.328   02 Jun 2027 06:38:59.706            74.378         37189.000
        29   02 Jun 2027 08:14:14.334   02 Jun 2027 08:16:41.585           147.251         73625.500
        30   02 Jun 2027 09:49:21.923   02 Jun 2027 09:49:51.318            29.395         14697.500
        31   02 Jun 2027 09:54:36.864   02 Jun 2027 09:55:25.209            48.345         24172.500
        32   02 Jun 2027 09:55:57.404   02 Jun 2027 09:56:06.597             9.193          4596.500
        33   02 Jun 2027 11:25:43.628   02 Jun 2027 11:27:37.535           113.907         56953.500
        34   02 Jun 2027 11:28:56.988   02 Jun 2027 11:29:14.501            17.513          8756.500
        35   02 Jun 2027 11:29:35.608   02 Jun 2027 11:29:44.111             8.503          4251.500
        36   02 Jun 2027 11:31:15.577   02 Jun 2027 11:31:18.845             3.268          1634.000
        37   02 Jun 2027 11:31:34.399   02 Jun 2027 11:31:52.419            18.020          9010.000
        38   03 Jun 2027 03:48:08.232   03 Jun 2027 03:48:49.041            40.809         20404.500
        39   03 Jun 2027 03:49:12.824   03 Jun 2027 03:50:23.563            70.739         35369.500
        40   03 Jun 2027 05:26:20.437   03 Jun 2027 05:26:58.311            37.874         18937.000
        41   03 Jun 2027 05:27:11.960   03 Jun 2027 05:27:54.269            42.309         21154.500
        42   03 Jun 2027 05:28:38.506   03 Jun 2027 05:28:41.147             2.641          1320.500
        43   03 Jun 2027 05:29:51.191   03 Jun 2027 05:29:54.152             2.961          1480.500
        44   03 Jun 2027 06:49:48.735   03 Jun 2027 06:51:22.109            93.374         46687.000
        45   03 Jun 2027 06:52:42.031   03 Jun 2027 06:52:42.031             0.000             0.000
        46   03 Jun 2027 08:26:17.597   03 Jun 2027 08:27:45.752            88.155         44077.500
        47   03 Jun 2027 08:28:21.674   03 Jun 2027 08:28:53.589            31.915         15957.500
        48   03 Jun 2027 10:01:29.205   03 Jun 2027 10:02:41.124            71.919         35959.500
        49   03 Jun 2027 10:07:49.921   03 Jun 2027 10:08:05.393            15.472          7736.000
        50   03 Jun 2027 11:37:24.810   03 Jun 2027 11:37:50.096            25.286         12636.002
        51   03 Jun 2027 11:38:17.765   03 Jun 2027 11:38:19.571             1.806           818.438
        52   03 Jun 2027 11:39:20.925   03 Jun 2027 11:39:25.514             4.589          1811.500
        53   03 Jun 2027 11:40:01.429   03 Jun 2027 11:40:02.708             1.279           639.500
        54   03 Jun 2027 11:41:16.643   03 Jun 2027 11:41:24.123             7.480          2660.781
        55   03 Jun 2027 11:41:39.490   03 Jun 2027 11:41:41.444             1.954           480.219
        56   04 Jun 2027 04:01:12.955   04 Jun 2027 04:02:38.418            85.463         42731.500
        57   04 Jun 2027 04:03:32.977   04 Jun 2027 04:03:35.394             2.417          1208.500
        58   04 Jun 2027 04:03:54.458   04 Jun 2027 04:04:35.019            40.561         20280.500
        59   04 Jun 2027 04:08:08.354   04 Jun 2027 04:08:13.266             4.912          2456.000
        60   04 Jun 2027 05:27:26.416   04 Jun 2027 05:27:47.514            21.098         10549.000
        61   04 Jun 2027 05:38:17.711   04 Jun 2027 05:39:36.743            79.032         39516.000
        62   04 Jun 2027 05:40:27.018   04 Jun 2027 05:40:33.385             6.367          3183.500
        63   04 Jun 2027 07:02:15.608   04 Jun 2027 07:04:01.113           105.505         52752.500
        64   04 Jun 2027 08:38:01.737   04 Jun 2027 08:38:27.637            25.900         12950.000
        65   04 Jun 2027 08:39:23.147   04 Jun 2027 08:39:29.466             6.319          2716.281
        66   04 Jun 2027 08:39:35.052   04 Jun 2027 08:39:35.322             0.270           135.000
        67   04 Jun 2027 08:40:28.904   04 Jun 2027 08:40:33.772             4.868          1708.062
        68   04 Jun 2027 10:12:44.502   04 Jun 2027 10:12:59.365            14.863          6522.188
        69   04 Jun 2027 10:13:47.228   04 Jun 2027 10:13:51.678             4.450          1495.719
        70   04 Jun 2027 10:15:31.568   04 Jun 2027 10:15:35.730             4.162          1545.562
        71   04 Jun 2027 10:18:32.994   04 Jun 2027 10:18:44.640            11.646          5509.656
        72   04 Jun 2027 10:18:44.697   04 Jun 2027 10:18:46.880             2.183             1.781
        73   04 Jun 2027 10:19:25.944   04 Jun 2027 10:19:26.566             0.622           232.188
        74   04 Jun 2027 10:19:43.745   04 Jun 2027 10:19:45.292             1.547           297.219
        75   04 Jun 2027 11:49:31.043   04 Jun 2027 11:49:46.201            15.158          6985.406
        76   04 Jun 2027 11:51:06.728   04 Jun 2027 11:51:20.339            13.611          2159.969
        77   04 Jun 2027 11:53:17.331   04 Jun 2027 11:53:29.153            11.822          3647.500
        78   04 Jun 2027 11:53:53.999   04 Jun 2027 11:53:55.862             1.863           776.437
        79   04 Jun 2027 11:54:19.704   04 Jun 2027 11:54:19.704             0.000             0.000
        80   04 Jun 2027 11:55:12.498   04 Jun 2027 11:55:22.146             9.648          2154.375
        81   04 Jun 2027 11:55:30.407   04 Jun 2027 11:55:33.729             3.322           258.156
        82   04 Jun 2027 11:55:38.385   04 Jun 2027 11:55:40.746             2.361           134.781
        83   05 Jun 2027 04:13:34.032   05 Jun 2027 04:15:06.598            92.566         46283.000
        84   05 Jun 2027 04:17:58.479   05 Jun 2027 04:18:19.416            20.937         10468.500
        85   05 Jun 2027 04:19:28.443   05 Jun 2027 04:19:29.970             1.527           763.500
        86   05 Jun 2027 04:20:24.308   05 Jun 2027 04:20:52.837            28.529         14264.500
        87   05 Jun 2027 05:38:41.479   05 Jun 2027 05:39:31.763            50.284         25142.000
        88   05 Jun 2027 05:39:41.220   05 Jun 2027 05:40:03.379            22.159         11079.500
        89   05 Jun 2027 05:50:18.401   05 Jun 2027 05:51:14.238            55.837         27918.500
        90   05 Jun 2027 07:12:52.754   05 Jun 2027 07:13:51.968            59.214         29607.000
        91   05 Jun 2027 07:14:31.443   05 Jun 2027 07:15:00.655            29.212         14606.000
        92   05 Jun 2027 07:15:46.233   05 Jun 2027 07:15:50.998             4.765          2382.500
        93   05 Jun 2027 07:16:00.566   05 Jun 2027 07:16:03.863             3.297           976.938
        94   05 Jun 2027 08:47:56.884   05 Jun 2027 08:48:12.179            15.295          6475.938
        95   05 Jun 2027 08:49:00.099   05 Jun 2027 08:49:08.775             8.676          1296.969
        96   05 Jun 2027 08:50:05.127   05 Jun 2027 08:50:05.127             0.000             0.000
        97   05 Jun 2027 08:51:46.460   05 Jun 2027 08:51:57.477            11.017          4882.125
        98   05 Jun 2027 08:52:10.586   05 Jun 2027 08:52:14.625             4.039           406.344
        99   05 Jun 2027 08:52:28.685   05 Jun 2027 08:52:38.771            10.086           278.281
       100   05 Jun 2027 10:24:51.135   05 Jun 2027 10:25:05.547            14.412          6781.688
       101   05 Jun 2027 10:25:25.682   05 Jun 2027 10:25:27.745             2.063             6.688
       102   05 Jun 2027 10:26:28.173   05 Jun 2027 10:26:31.067             2.894           594.094
       103   05 Jun 2027 10:28:06.296   05 Jun 2027 10:28:06.296             0.000             0.000
       104   05 Jun 2027 10:30:31.732   05 Jun 2027 10:30:46.690            14.958          7160.469
       105   05 Jun 2027 10:30:58.854   05 Jun 2027 10:31:00.197             1.343           181.656
       106   05 Jun 2027 10:31:34.027   05 Jun 2027 10:31:34.027             0.000             0.000
       107   05 Jun 2027 10:31:54.137   05 Jun 2027 10:31:57.392             3.255          1199.281
       108   06 Jun 2027 04:25:50.293   06 Jun 2027 04:27:16.935            86.642         43321.000
       109   06 Jun 2027 04:28:56.666   06 Jun 2027 04:29:04.155             7.489          3744.500
       110   06 Jun 2027 04:29:46.228   06 Jun 2027 04:30:30.639            44.411         22205.500
       111   06 Jun 2027 04:32:38.268   06 Jun 2027 04:32:51.774            13.506          6753.000
       112   06 Jun 2027 05:50:02.342   06 Jun 2027 05:51:49.623           107.281         53640.500
       113   06 Jun 2027 06:02:15.905   06 Jun 2027 06:02:36.625            20.720         10360.000
       114   06 Jun 2027 07:24:28.025   06 Jun 2027 07:25:37.948            69.923         34961.500
       115   06 Jun 2027 07:26:25.748   06 Jun 2027 07:26:48.563            22.815         11407.500
       116   06 Jun 2027 08:59:21.571   06 Jun 2027 08:59:39.683            18.112          8900.531
       117   06 Jun 2027 08:59:56.076   06 Jun 2027 08:59:59.608             3.532           415.656
       118   06 Jun 2027 09:00:31.176   06 Jun 2027 09:00:32.367             1.191           346.531
       119   06 Jun 2027 09:01:01.675   06 Jun 2027 09:01:06.110             4.435           915.875
       120   06 Jun 2027 09:03:07.366   06 Jun 2027 09:03:23.409            16.043          3712.156
       121   06 Jun 2027 09:05:26.530   06 Jun 2027 09:05:38.436            11.906          3746.063
       122   06 Jun 2027 09:06:03.278   06 Jun 2027 09:06:06.224             2.946           603.688
       123   06 Jun 2027 09:06:44.664   06 Jun 2027 09:06:46.019             1.355           677.500
       124   06 Jun 2027 09:07:27.415   06 Jun 2027 09:07:30.950             3.535          1376.844
       125   06 Jun 2027 10:38:42.504   06 Jun 2027 10:39:00.492            17.988          8728.125
       126   06 Jun 2027 10:39:50.043   06 Jun 2027 10:39:54.448             4.405          1548.469
       127   06 Jun 2027 10:40:27.396   06 Jun 2027 10:40:31.069             3.673           950.750
       128   06 Jun 2027 10:40:46.720   06 Jun 2027 10:40:50.374             3.654           298.594
       129   06 Jun 2027 10:41:22.486   06 Jun 2027 10:41:27.274             4.788          1003.500
       130   06 Jun 2027 10:41:28.816   06 Jun 2027 10:41:31.338             2.522            48.188
       131   06 Jun 2027 10:41:43.969   06 Jun 2027 10:41:44.856             0.887           279.094
       132   06 Jun 2027 10:42:19.583   06 Jun 2027 10:42:24.263             4.680          1079.281
       133   06 Jun 2027 10:42:40.317   06 Jun 2027 10:42:43.406             3.089           482.281
       134   06 Jun 2027 10:43:05.598   06 Jun 2027 10:43:06.662             1.064           532.000
       135   06 Jun 2027 10:43:25.094   06 Jun 2027 10:43:28.052             2.958           589.469
       136   06 Jun 2027 10:43:50.611   06 Jun 2027 10:43:53.234             2.623           704.969
       137   07 Jun 2027 03:00:00.000   07 Jun 2027 03:00:22.162            22.162         11081.000
       138   07 Jun 2027 03:00:29.175   07 Jun 2027 03:00:36.743             7.568          3784.000
       139   07 Jun 2027 03:01:35.238   07 Jun 2027 03:01:35.684             0.446           223.000
       140   07 Jun 2027 03:01:52.021   07 Jun 2027 03:02:15.789            23.768         11884.000
       141   07 Jun 2027 03:04:34.147   07 Jun 2027 03:04:36.219             2.072          1036.000
       142   07 Jun 2027 03:04:36.793   07 Jun 2027 03:04:49.978            13.185          6592.500
       143   07 Jun 2027 04:37:56.894   07 Jun 2027 04:39:09.715            72.821         36410.500
       144   07 Jun 2027 04:39:56.751   07 Jun 2027 04:39:59.658             2.907          1453.500
       145   07 Jun 2027 04:40:16.716   07 Jun 2027 04:40:20.809             4.093          2046.500
       146   07 Jun 2027 04:40:51.947   07 Jun 2027 04:40:53.965             2.018          1009.000
       147   07 Jun 2027 04:41:51.614   07 Jun 2027 04:41:52.462             0.848           424.000
       148   07 Jun 2027 04:42:21.631   07 Jun 2027 04:42:51.747            30.116         15058.000
       149   07 Jun 2027 06:02:07.892   07 Jun 2027 06:03:01.933            54.041         27020.500
       150   07 Jun 2027 06:04:00.256   07 Jun 2027 06:04:02.503             2.247          1123.500
       151   07 Jun 2027 06:14:40.337   07 Jun 2027 06:14:42.954             2.617          1308.500
       152   07 Jun 2027 07:35:58.047   07 Jun 2027 07:37:49.703           111.656         55828.000
       153   07 Jun 2027 07:38:13.457   07 Jun 2027 07:38:20.311             6.854          1999.124
       154   07 Jun 2027 07:39:24.660   07 Jun 2027 07:39:28.628             3.968          1957.344
       155   07 Jun 2027 07:40:34.304   07 Jun 2027 07:40:37.318             3.014          1507.000
       156   07 Jun 2027 09:10:52.446   07 Jun 2027 09:11:05.048            12.602          6301.000
       157   07 Jun 2027 09:12:23.093   07 Jun 2027 09:12:29.070             5.977          2870.594
       158   07 Jun 2027 09:13:18.299   07 Jun 2027 09:13:21.010             2.711           482.562
       159   07 Jun 2027 09:16:37.476   07 Jun 2027 09:16:47.610            10.134          5067.000
       160   07 Jun 2027 09:17:54.118   07 Jun 2027 09:18:02.503             8.385          2837.937
       161   07 Jun 2027 09:18:47.872   07 Jun 2027 09:18:47.872             0.000             0.000
       162   07 Jun 2027 09:19:30.106   07 Jun 2027 09:19:40.801            10.695          2737.594
       163   07 Jun 2027 09:19:45.157   07 Jun 2027 09:19:45.377             0.220            80.781
       164   07 Jun 2027 10:48:54.138   07 Jun 2027 10:49:14.738            20.600          6469.781
       165   07 Jun 2027 10:53:02.686   07 Jun 2027 10:53:16.892            14.206          7012.375
       166   07 Jun 2027 10:54:36.587   07 Jun 2027 10:54:44.061             7.474          1945.688
       167   07 Jun 2027 10:55:34.553   07 Jun 2027 10:55:37.228             2.675          1200.625
       168   08 Jun 2027 03:11:48.329   08 Jun 2027 03:11:56.711             8.382          4191.000
       169   08 Jun 2027 03:12:20.068   08 Jun 2027 03:13:11.367            51.299         25649.500
       170   08 Jun 2027 03:13:16.246   08 Jun 2027 03:13:25.956             9.710          4855.000
       171   08 Jun 2027 03:14:34.578   08 Jun 2027 03:14:51.771            17.193          8596.500
       172   08 Jun 2027 04:50:34.651   08 Jun 2027 04:51:55.109            80.458         40229.000
       173   08 Jun 2027 04:52:13.677   08 Jun 2027 04:52:25.005            11.328          5664.000
       174   08 Jun 2027 04:52:46.458   08 Jun 2027 04:52:51.841             5.383          2691.500
       175   08 Jun 2027 04:53:01.012   08 Jun 2027 04:53:23.351            22.339         11169.500
       176   08 Jun 2027 06:14:05.023   08 Jun 2027 06:14:42.825            37.802         18901.000
       177   08 Jun 2027 06:14:50.583   08 Jun 2027 06:15:14.139            23.556         11778.000
       178   08 Jun 2027 07:50:16.628   08 Jun 2027 07:51:46.381            89.753         44599.531
       179   08 Jun 2027 07:52:04.241   08 Jun 2027 07:52:06.307             2.066            93.687
       180   08 Jun 2027 07:52:42.317   08 Jun 2027 07:52:44.610             2.293           815.219
       181   08 Jun 2027 09:23:50.031   08 Jun 2027 09:23:59.821             9.790          4818.344
       182   08 Jun 2027 09:24:53.331   08 Jun 2027 09:24:55.761             2.430           613.406
       183   08 Jun 2027 09:25:35.224   08 Jun 2027 09:25:40.820             5.596           988.375
       184   08 Jun 2027 09:28:46.892   08 Jun 2027 09:28:57.487            10.595          5297.500
       185   08 Jun 2027 09:30:04.896   08 Jun 2027 09:30:10.932             6.036          2585.719
       186   08 Jun 2027 09:30:57.292   08 Jun 2027 09:31:00.310             3.018           588.937
       187   08 Jun 2027 09:32:01.456   08 Jun 2027 09:32:08.028             6.572          1875.938
       188   08 Jun 2027 11:01:16.456   08 Jun 2027 11:01:33.716            17.260          7470.906
       189   08 Jun 2027 11:01:58.787   08 Jun 2027 11:02:00.400             1.613           353.562
       190   08 Jun 2027 11:02:11.847   08 Jun 2027 11:02:13.110             1.263           357.719
       191   08 Jun 2027 11:02:54.010   08 Jun 2027 11:02:55.689             1.679           839.500
       192   08 Jun 2027 11:03:32.500   08 Jun 2027 11:03:32.500             0.000             0.000
       193   08 Jun 2027 11:05:32.383   08 Jun 2027 11:05:44.278            11.895          5335.312
       194   08 Jun 2027 11:05:50.272   08 Jun 2027 11:05:51.059             0.787           160.094
       195   08 Jun 2027 11:05:53.556   08 Jun 2027 11:05:53.832             0.276            48.813
       196   08 Jun 2027 11:06:17.302   08 Jun 2027 11:06:18.288             0.986           144.281
       197   08 Jun 2027 11:06:36.985   08 Jun 2027 11:06:46.476             9.491           546.906
       198   08 Jun 2027 11:07:35.220   08 Jun 2027 11:07:38.971             3.751          1494.531
       199   08 Jun 2027 11:07:50.615   08 Jun 2027 11:07:51.067             0.452           226.000
       200   09 Jun 2027 03:24:15.251   09 Jun 2027 03:24:43.194            27.943         13971.500
       201   09 Jun 2027 03:24:46.932   09 Jun 2027 03:26:15.066            88.134         44067.000
       202   09 Jun 2027 03:26:42.931   09 Jun 2027 03:26:58.397            15.466          7733.000
       203   09 Jun 2027 03:29:35.794   09 Jun 2027 03:29:44.800             9.006          4503.000
       204   09 Jun 2027 05:02:15.970   09 Jun 2027 05:03:11.662            55.692         27846.000
       205   09 Jun 2027 05:03:23.366   09 Jun 2027 05:03:47.521            24.155         12077.500
       206   09 Jun 2027 05:04:39.415   09 Jun 2027 05:04:50.057            10.642          5321.000
       207   09 Jun 2027 06:25:55.808   09 Jun 2027 06:26:53.459            57.651         28825.500
       208   09 Jun 2027 06:28:01.148   09 Jun 2027 06:28:19.611            18.463          9231.500
       209   09 Jun 2027 08:02:23.525   09 Jun 2027 08:03:12.986            49.461         24487.500
       210   09 Jun 2027 08:04:13.578   09 Jun 2027 08:04:17.810             4.232          1798.063
       211   09 Jun 2027 08:04:54.356   09 Jun 2027 08:04:58.428             4.072          1142.063
       212   09 Jun 2027 09:34:33.367   09 Jun 2027 09:34:41.553             8.186          4093.000
       213   09 Jun 2027 09:36:29.043   09 Jun 2027 09:36:34.019             4.976          2257.219
       214   09 Jun 2027 09:38:09.553   09 Jun 2027 09:38:15.004             5.451          2054.313
       215   09 Jun 2027 09:39:39.067   09 Jun 2027 09:39:48.785             9.718          2588.156
       216   09 Jun 2027 09:40:06.277   09 Jun 2027 09:40:11.570             5.293           312.719
       217   09 Jun 2027 09:42:44.606   09 Jun 2027 09:42:50.463             5.857          2928.500
       218   09 Jun 2027 09:43:12.618   09 Jun 2027 09:43:18.353             5.735          2416.437
       219   09 Jun 2027 09:43:38.678   09 Jun 2027 09:43:41.505             2.827           413.125
       220   09 Jun 2027 09:44:07.785   09 Jun 2027 09:44:09.562             1.777           821.250
       221   09 Jun 2027 09:44:19.452   09 Jun 2027 09:44:21.224             1.772           309.063
       222   09 Jun 2027 11:13:26.867   09 Jun 2027 11:13:40.123            13.256          6438.562
       223   09 Jun 2027 11:13:51.284   09 Jun 2027 11:13:53.310             2.026           289.313
       224   09 Jun 2027 11:14:36.174   09 Jun 2027 11:14:42.593             6.419          1055.313
       225   09 Jun 2027 11:15:07.219   09 Jun 2027 11:15:12.694             5.475           659.219
       226   09 Jun 2027 11:15:32.464   09 Jun 2027 11:15:34.125             1.661           617.813
       227   09 Jun 2027 11:16:40.069   09 Jun 2027 11:16:50.021             9.952          2020.781
       228   09 Jun 2027 11:18:10.015   09 Jun 2027 11:18:15.184             5.169          1900.875
       229   09 Jun 2027 11:18:29.393   09 Jun 2027 11:18:30.108             0.715           268.344
       230   09 Jun 2027 11:19:11.874   09 Jun 2027 11:19:17.572             5.698          1305.187
       231   09 Jun 2027 11:19:28.390   09 Jun 2027 11:19:28.999             0.609           257.625
       232   10 Jun 2027 03:36:21.258   10 Jun 2027 03:37:24.583            63.325         31662.500
       233   10 Jun 2027 03:37:32.058   10 Jun 2027 03:37:50.160            18.102          9051.000
       234   10 Jun 2027 03:38:45.038   10 Jun 2027 03:39:44.491            59.453         29726.500
       235   10 Jun 2027 03:39:52.132   10 Jun 2027 03:39:53.941             1.809           904.500
       236   10 Jun 2027 03:40:21.178   10 Jun 2027 03:40:35.607            14.429          7214.500
       237   10 Jun 2027 05:15:29.565   10 Jun 2027 05:16:42.614            73.049         36524.500
       238   10 Jun 2027 05:17:06.047   10 Jun 2027 05:17:15.411             9.364          4682.000
       239   10 Jun 2027 05:18:55.265   10 Jun 2027 05:19:02.866             7.601          3800.500
       240   10 Jun 2027 06:38:03.284   10 Jun 2027 06:38:56.201            52.917         26458.500
       241   10 Jun 2027 06:39:05.008   10 Jun 2027 06:39:05.008             0.000             0.000
       242   10 Jun 2027 06:40:04.626   10 Jun 2027 06:40:16.566            11.940          5970.000
       243   10 Jun 2027 08:14:31.408   10 Jun 2027 08:15:13.607            42.199         20256.563
       244   10 Jun 2027 08:15:27.467   10 Jun 2027 08:15:27.467             0.000             0.000
       245   10 Jun 2027 08:15:38.991   10 Jun 2027 08:15:41.668             2.677           578.688
       246   10 Jun 2027 08:16:10.569   10 Jun 2027 08:16:12.305             1.736           597.938
       247   10 Jun 2027 08:16:19.423   10 Jun 2027 08:16:19.976             0.553             6.656
       248   10 Jun 2027 08:17:11.890   10 Jun 2027 08:17:11.890             0.000             0.000
       249   10 Jun 2027 08:18:10.082   10 Jun 2027 08:18:10.362             0.280           140.000
       250   10 Jun 2027 09:50:07.233   10 Jun 2027 09:50:21.525            14.292          6325.438
       251   10 Jun 2027 09:52:42.953   10 Jun 2027 09:52:51.506             8.553          3545.000
       252   10 Jun 2027 09:53:30.671   10 Jun 2027 09:53:32.172             1.501           600.969
       253   10 Jun 2027 09:54:18.227   10 Jun 2027 09:54:23.262             5.035          1000.406
       254   10 Jun 2027 09:54:30.697   10 Jun 2027 09:54:32.997             2.300           232.344
       255   10 Jun 2027 09:55:37.633   10 Jun 2027 09:55:41.537             3.904          1928.531
       256   10 Jun 2027 09:55:43.950   10 Jun 2027 09:55:44.410             0.460            75.406
       257   10 Jun 2027 09:56:11.362   10 Jun 2027 09:56:11.362             0.000             0.000
       258   10 Jun 2027 09:56:13.810   10 Jun 2027 09:56:16.358             2.548           918.750
       259   10 Jun 2027 11:26:01.283   10 Jun 2027 11:26:18.572            17.289          6680.844
       260   10 Jun 2027 11:26:32.634   10 Jun 2027 11:26:33.715             1.081           329.438
       261   10 Jun 2027 11:27:54.963   10 Jun 2027 11:27:58.486             3.523          1148.437
       262   10 Jun 2027 11:28:42.729   10 Jun 2027 11:28:50.225             7.496          1382.594
       263   10 Jun 2027 11:30:00.474   10 Jun 2027 11:30:05.257             4.783          1442.281
       264   10 Jun 2027 11:30:21.127   10 Jun 2027 11:30:22.798             1.671           482.719
       265   10 Jun 2027 11:30:31.035   10 Jun 2027 11:30:32.218             1.183           255.594
       266   10 Jun 2027 11:31:29.356   10 Jun 2027 11:31:32.693             3.337          1426.125
       267   10 Jun 2027 11:31:37.207   10 Jun 2027 11:31:38.209             1.002           141.062
       268   10 Jun 2027 11:32:09.107   10 Jun 2027 11:32:13.333             4.226           639.969
       269   11 Jun 2027 03:48:25.495   11 Jun 2027 03:49:06.963            41.468         20734.000
       270   11 Jun 2027 03:49:29.331   11 Jun 2027 03:50:41.080            71.749         35874.500
       271   11 Jun 2027 03:51:56.142   11 Jun 2027 03:52:06.171            10.029          5014.500
       272   11 Jun 2027 03:52:28.310   11 Jun 2027 03:53:00.210            31.900         15950.000
       273   11 Jun 2027 05:26:38.608   11 Jun 2027 05:27:15.034            36.426         18213.000
       274   11 Jun 2027 05:27:33.321   11 Jun 2027 05:28:08.705            35.384         17692.000
       275   11 Jun 2027 05:28:46.624   11 Jun 2027 05:28:46.624             0.000             0.000
       276   11 Jun 2027 06:50:05.294   11 Jun 2027 06:51:36.269            90.975         45487.500
       277   11 Jun 2027 08:26:33.575   11 Jun 2027 08:27:14.928            41.353         20517.062
       278   11 Jun 2027 08:27:36.153   11 Jun 2027 08:27:37.519             1.366           549.906
       279   11 Jun 2027 08:28:00.639   11 Jun 2027 08:28:04.529             3.890           222.031
       280   11 Jun 2027 08:28:08.704   11 Jun 2027 08:28:09.390             0.686           115.969
       281   11 Jun 2027 08:29:02.129   11 Jun 2027 08:29:07.401             5.272          1648.094
       282   11 Jun 2027 10:01:46.009   11 Jun 2027 10:01:55.014             9.005          4502.500
       283   11 Jun 2027 10:03:36.544   11 Jun 2027 10:03:44.560             8.016          3925.750
       284   11 Jun 2027 10:04:39.373   11 Jun 2027 10:04:39.373             0.000             0.000
       285   11 Jun 2027 10:06:51.166   11 Jun 2027 10:06:51.166             0.000             0.000
       286   11 Jun 2027 10:08:06.167   11 Jun 2027 10:08:22.233            16.066          7664.937
       287   11 Jun 2027 11:37:40.894   11 Jun 2027 11:37:52.814            11.920          5680.375
       288   11 Jun 2027 11:38:40.149   11 Jun 2027 11:38:43.789             3.640          1092.469
       289   11 Jun 2027 11:39:30.903   11 Jun 2027 11:39:34.407             3.504          1056.625
       290   11 Jun 2027 11:39:51.520   11 Jun 2027 11:39:52.791             1.271           472.375
       291   11 Jun 2027 11:40:36.901   11 Jun 2027 11:40:40.389             3.488           836.031
       292   11 Jun 2027 11:42:00.035   11 Jun 2027 11:42:06.864             6.829          2358.156
       293   11 Jun 2027 11:42:25.779   11 Jun 2027 11:42:29.724             3.945           572.187
       294   11 Jun 2027 11:42:59.192   11 Jun 2027 11:43:00.220             1.028           514.000
       295   11 Jun 2027 11:43:30.286   11 Jun 2027 11:43:34.038             3.752          1346.438
       296   11 Jun 2027 11:43:48.294   11 Jun 2027 11:43:50.573             2.279           361.406
       297   12 Jun 2027 04:01:30.104   12 Jun 2027 04:03:17.599           107.495         53747.500
       298   12 Jun 2027 04:04:12.058   12 Jun 2027 04:04:14.152             2.094          1047.000
       299   12 Jun 2027 04:04:49.583   12 Jun 2027 04:04:53.314             3.731          1865.500
       300   12 Jun 2027 04:07:00.644   12 Jun 2027 04:07:03.058             2.414          1207.000
       301   12 Jun 2027 04:08:26.263   12 Jun 2027 04:09:07.051            40.788         20394.000
       302   12 Jun 2027 05:27:40.538   12 Jun 2027 05:28:05.841            25.303         12651.500
       303   12 Jun 2027 05:38:34.315   12 Jun 2027 05:39:51.320            77.005         38502.500
       304   12 Jun 2027 05:40:19.555   12 Jun 2027 05:40:27.380             7.825          3912.500
       305   12 Jun 2027 07:02:32.087   12 Jun 2027 07:04:02.306            90.219         45109.500
       306   12 Jun 2027 08:38:16.842   12 Jun 2027 08:38:33.441            16.599          8299.500
       307   12 Jun 2027 08:39:23.418   12 Jun 2027 08:39:23.418             0.000             0.000
       308   12 Jun 2027 08:40:34.311   12 Jun 2027 08:40:43.233             8.922          4082.562
       309   12 Jun 2027 10:13:00.628   12 Jun 2027 10:13:13.856            13.228          6536.500
       310   12 Jun 2027 10:14:02.959   12 Jun 2027 10:14:09.313             6.354          1394.906
       311   12 Jun 2027 10:15:10.973   12 Jun 2027 10:15:12.949             1.976           876.187
       312   12 Jun 2027 10:18:50.593   12 Jun 2027 10:19:02.264            11.671          5693.125
       313   12 Jun 2027 10:19:25.095   12 Jun 2027 10:19:32.030             6.935            85.000
       314   12 Jun 2027 10:19:42.571   12 Jun 2027 10:19:48.900             6.329           275.406
       315   12 Jun 2027 10:20:28.516   12 Jun 2027 10:20:32.973             4.457          1003.813
       316   12 Jun 2027 11:49:48.829   12 Jun 2027 11:50:02.349            13.520          6738.687
       317   12 Jun 2027 11:50:37.843   12 Jun 2027 11:50:45.652             7.809          1001.031
       318   12 Jun 2027 11:51:20.772   12 Jun 2027 11:51:26.923             6.151           822.531
       319   12 Jun 2027 11:52:45.539   12 Jun 2027 11:52:51.221             5.682          2121.844
       320   12 Jun 2027 11:53:21.282   12 Jun 2027 11:53:24.562             3.280           401.938
       321   12 Jun 2027 11:53:30.540   12 Jun 2027 11:53:34.018             3.478           116.875
       322   12 Jun 2027 11:53:49.847   12 Jun 2027 11:53:51.588             1.741           469.125
       323   12 Jun 2027 11:55:15.981   12 Jun 2027 11:55:21.924             5.943          2623.031
       324   13 Jun 2027 04:13:52.035   13 Jun 2027 04:15:08.602            76.567         38283.500
       325   13 Jun 2027 04:15:35.372   13 Jun 2027 04:15:42.509             7.137          3568.500
       326   13 Jun 2027 04:16:51.759   13 Jun 2027 04:17:06.508            14.749          7374.500
       327   13 Jun 2027 04:18:03.750   13 Jun 2027 04:18:05.452             1.702           851.000
       328   13 Jun 2027 04:18:11.346   13 Jun 2027 04:18:35.150            23.804         11902.000
       329   13 Jun 2027 04:19:43.244   13 Jun 2027 04:19:46.032             2.788          1394.000
       330   13 Jun 2027 04:20:42.177   13 Jun 2027 04:21:06.630            24.453         12226.500
       331   13 Jun 2027 05:38:55.719   13 Jun 2027 05:39:26.263            30.544         15272.000
       332   13 Jun 2027 05:39:38.209   13 Jun 2027 05:40:20.907            42.698         21349.000
       333   13 Jun 2027 05:50:35.445   13 Jun 2027 05:51:29.044            53.599         26799.500
       334   13 Jun 2027 07:13:07.627   13 Jun 2027 07:14:08.282            60.655         30327.500
       335   13 Jun 2027 07:14:48.805   13 Jun 2027 07:15:17.187            28.382         14191.000
       336   13 Jun 2027 07:16:26.320   13 Jun 2027 07:16:39.635            13.315          6657.500
       337   13 Jun 2027 07:17:46.037   13 Jun 2027 07:17:46.037             0.000             0.000
       338   13 Jun 2027 08:48:10.709   13 Jun 2027 08:48:27.522            16.813          8336.062
       339   13 Jun 2027 08:49:17.681   13 Jun 2027 08:49:22.748             5.067          1290.500
       340   13 Jun 2027 08:52:01.024   13 Jun 2027 08:52:12.856            11.832          4796.500
       341   13 Jun 2027 08:52:15.113   13 Jun 2027 08:52:15.501             0.388            62.656
       342   13 Jun 2027 08:53:01.796   13 Jun 2027 08:53:04.395             2.599          1252.219
       343   13 Jun 2027 08:53:13.366   13 Jun 2027 08:53:15.067             1.701           280.344
       344   13 Jun 2027 10:25:09.060   13 Jun 2027 10:25:13.184             4.124          2062.000
       345   13 Jun 2027 10:27:00.512   13 Jun 2027 10:27:17.735            17.223          7367.937
       346   13 Jun 2027 10:28:28.104   13 Jun 2027 10:28:34.874             6.770           845.687
       347   13 Jun 2027 10:31:41.695   13 Jun 2027 10:31:53.730            12.035          5838.156
