uniorb/output/strategy_1/Camera/Camera_KinoSat_110502.txt

KinoSat_110502
-------------------------
    Access    *     Start Time (UTCG)     *     Stop Time (UTCG)  *   Duration (s) *   Data (Mbytes)
         1   01 Jun 2027 04:14:47.485   01 Jun 2027 04:16:34.983           107.498         53749.000
         2   01 Jun 2027 04:17:48.430   01 Jun 2027 04:17:56.904             8.474          4237.000
         3   01 Jun 2027 04:19:03.383   01 Jun 2027 04:19:12.594             9.211          4605.500
         4   01 Jun 2027 04:19:39.658   01 Jun 2027 04:20:03.572            23.914         11957.000
         5   01 Jun 2027 04:20:18.386   01 Jun 2027 04:20:29.085            10.699          5349.500
         6   01 Jun 2027 04:22:07.181   01 Jun 2027 04:22:16.414             9.233          4616.500
         7   01 Jun 2027 04:22:20.927   01 Jun 2027 04:22:37.746            16.819          8409.500
         8   01 Jun 2027 04:23:19.896   01 Jun 2027 04:23:21.128             1.232           616.000
         9   01 Jun 2027 05:52:14.673   01 Jun 2027 05:54:16.232           121.559         60779.500
        10   01 Jun 2027 05:55:34.015   01 Jun 2027 05:56:38.359            64.344         32172.000
        11   01 Jun 2027 05:57:54.489   01 Jun 2027 05:58:11.129            16.640          8320.000
        12   01 Jun 2027 05:58:43.930   01 Jun 2027 05:58:51.345             7.415          3707.500
        13   01 Jun 2027 07:29:14.704   01 Jun 2027 07:30:25.988            71.284         35642.000
        14   01 Jun 2027 07:30:30.801   01 Jun 2027 07:32:00.126            89.325         44662.500
        15   01 Jun 2027 07:32:11.264   01 Jun 2027 07:32:19.958             8.694          4347.000
        16   01 Jun 2027 07:33:09.772   01 Jun 2027 07:33:20.169            10.397          5198.500
        17   01 Jun 2027 07:33:50.454   01 Jun 2027 07:34:14.224            23.770         11885.000
        18   01 Jun 2027 09:06:08.690   01 Jun 2027 09:08:26.778           138.088         69044.000
        19   01 Jun 2027 09:08:48.215   01 Jun 2027 09:08:48.887             0.672           336.000
        20   01 Jun 2027 09:09:27.393   01 Jun 2027 09:09:41.228            13.835          6917.500
        21   01 Jun 2027 09:10:09.623   01 Jun 2027 09:10:39.583            29.960         14980.000
        22   01 Jun 2027 10:43:17.957   01 Jun 2027 10:45:35.932           137.975         68987.500
        23   02 Jun 2027 04:25:30.331   02 Jun 2027 04:25:38.790             8.459          4229.500
        24   02 Jun 2027 04:27:26.329   02 Jun 2027 04:33:35.476           369.147        184573.500
        25   02 Jun 2027 04:34:36.719   02 Jun 2027 04:35:03.967            27.248         13624.000
        26   02 Jun 2027 04:35:08.055   02 Jun 2027 04:35:12.168             4.113          2056.500
        27   02 Jun 2027 06:04:24.255   02 Jun 2027 06:07:03.317           159.062         79531.000
        28   02 Jun 2027 06:07:43.907   02 Jun 2027 06:07:50.399             6.492          3246.000
        29   02 Jun 2027 06:08:41.405   02 Jun 2027 06:08:59.427            18.022          9011.000
        30   02 Jun 2027 06:10:36.709   02 Jun 2027 06:10:57.149            20.440         10220.000
        31   02 Jun 2027 06:10:57.819   02 Jun 2027 06:11:05.758             7.939          3969.500
        32   02 Jun 2027 07:41:40.995   02 Jun 2027 07:44:02.183           141.188         70594.000
        33   02 Jun 2027 07:45:09.401   02 Jun 2027 07:45:40.141            30.740         15370.000
        34   02 Jun 2027 09:18:09.652   02 Jun 2027 09:20:40.238           150.586         75293.000
        35   02 Jun 2027 09:22:03.044   02 Jun 2027 09:22:17.491            14.447          7223.500
        36   02 Jun 2027 09:22:50.823   02 Jun 2027 09:23:04.015            13.192          6596.000
        37   02 Jun 2027 10:56:26.110   02 Jun 2027 10:57:10.075            43.965         21982.500
        38   03 Jun 2027 03:05:28.590   03 Jun 2027 03:09:07.365           218.775        109387.500
        39   03 Jun 2027 04:40:39.161   03 Jun 2027 04:44:20.710           221.549        110774.500
        40   03 Jun 2027 04:45:23.515   03 Jun 2027 04:46:05.089            41.574         20787.000
        41   03 Jun 2027 04:47:10.837   03 Jun 2027 04:47:17.439             6.602          3301.000
        42   03 Jun 2027 06:16:58.306   03 Jun 2027 06:18:27.338            89.032         44516.000
        43   03 Jun 2027 06:18:37.541   03 Jun 2027 06:18:46.497             8.956          4478.000
        44   03 Jun 2027 06:19:35.237   03 Jun 2027 06:20:00.313            25.076         12538.000
        45   03 Jun 2027 06:20:11.154   03 Jun 2027 06:20:16.943             5.789          2894.500
        46   03 Jun 2027 06:20:26.577   03 Jun 2027 06:20:26.577             0.000             0.000
        47   03 Jun 2027 06:20:46.520   03 Jun 2027 06:20:52.416             5.896          2948.000
        48   03 Jun 2027 06:21:16.392   03 Jun 2027 06:21:25.549             9.157          4578.500
        49   03 Jun 2027 06:21:55.291   03 Jun 2027 06:21:56.997             1.706           853.000
        50   03 Jun 2027 07:54:22.020   03 Jun 2027 07:56:45.634           143.614         71807.000
        51   03 Jun 2027 07:57:01.441   03 Jun 2027 07:57:16.306            14.865          7432.500
        52   03 Jun 2027 07:57:52.330   03 Jun 2027 07:58:02.042             9.712          4856.000
        53   03 Jun 2027 07:58:33.963   03 Jun 2027 07:58:41.632             7.669          3834.500
        54   03 Jun 2027 09:30:34.406   03 Jun 2027 09:32:46.631           132.225         66112.500
        55   03 Jun 2027 09:33:23.548   03 Jun 2027 09:33:29.764             6.216          3108.000
        56   03 Jun 2027 09:34:27.974   03 Jun 2027 09:34:46.584            18.610          9305.000
        57   04 Jun 2027 03:17:29.622   04 Jun 2027 03:20:58.531           208.909        104454.500
        58   04 Jun 2027 04:52:42.390   04 Jun 2027 04:55:00.643           138.253         69126.500
        59   04 Jun 2027 04:56:21.310   04 Jun 2027 04:56:51.905            30.595         15297.500
        60   04 Jun 2027 04:57:45.920   04 Jun 2027 04:57:48.030             2.110          1055.000
        61   04 Jun 2027 04:57:50.883   04 Jun 2027 04:57:53.169             2.286          1143.000
        62   04 Jun 2027 04:58:33.463   04 Jun 2027 04:59:05.021            31.558         15779.000
        63   04 Jun 2027 04:59:20.464   04 Jun 2027 04:59:21.697             1.233           616.500
        64   04 Jun 2027 06:28:37.476   04 Jun 2027 06:30:52.158           134.682         67341.000
        65   04 Jun 2027 06:30:59.390   04 Jun 2027 06:31:11.130            11.740          5870.000
        66   04 Jun 2027 06:33:16.356   04 Jun 2027 06:33:43.253            26.897         13448.500
        67   04 Jun 2027 06:34:41.853   04 Jun 2027 06:34:56.382            14.529          7264.500
        68   04 Jun 2027 08:06:35.136   04 Jun 2027 08:08:09.580            94.444         47222.000
        69   04 Jun 2027 08:08:23.479   04 Jun 2027 08:08:39.731            16.252          8126.000
        70   04 Jun 2027 08:09:26.855   04 Jun 2027 08:09:33.767             6.912          3456.000
        71   04 Jun 2027 08:09:39.799   04 Jun 2027 08:09:44.339             4.540          2270.000
        72   04 Jun 2027 08:09:57.340   04 Jun 2027 08:10:00.740             3.400          1700.000
        73   04 Jun 2027 08:10:42.885   04 Jun 2027 08:10:55.810            12.925          6462.500
        74   04 Jun 2027 09:42:27.960   04 Jun 2027 09:42:49.707            21.747         10873.500
        75   04 Jun 2027 09:43:06.880   04 Jun 2027 09:43:11.168             4.288          2144.000
        76   04 Jun 2027 09:44:00.098   04 Jun 2027 09:44:20.636            20.538         10269.000
        77   04 Jun 2027 09:45:15.688   04 Jun 2027 09:45:23.388             7.700          3850.000
        78   04 Jun 2027 09:45:35.921   04 Jun 2027 09:45:37.367             1.446           723.000
        79   04 Jun 2027 09:46:33.780   04 Jun 2027 09:46:41.118             7.338          3669.000
        80   04 Jun 2027 09:46:46.856   04 Jun 2027 09:46:57.309            10.453          5226.500
        81   04 Jun 2027 09:47:31.068   04 Jun 2027 09:47:38.050             6.982          3491.000
        82   05 Jun 2027 03:29:13.101   05 Jun 2027 03:32:25.423           192.322         96161.000
        83   05 Jun 2027 03:32:45.785   05 Jun 2027 03:32:59.222            13.437          6718.500
        84   05 Jun 2027 05:03:56.990   05 Jun 2027 05:06:15.289           138.299         69149.500
        85   05 Jun 2027 05:06:47.883   05 Jun 2027 05:06:56.483             8.600          4300.000
        86   05 Jun 2027 05:07:51.514   05 Jun 2027 05:08:09.698            18.184          9092.000
        87   05 Jun 2027 05:10:14.334   05 Jun 2027 05:10:18.899             4.565          2282.500
        88   05 Jun 2027 05:11:04.965   05 Jun 2027 05:11:30.033            25.068         12534.000
        89   05 Jun 2027 06:40:45.100   05 Jun 2027 06:43:26.534           161.434         80717.000
        90   05 Jun 2027 06:44:26.966   05 Jun 2027 06:44:31.087             4.121          2060.500
        91   05 Jun 2027 06:44:50.519   05 Jun 2027 06:44:53.856             3.337          1668.500
        92   05 Jun 2027 06:45:18.227   05 Jun 2027 06:45:26.615             8.388          4194.000
        93   05 Jun 2027 06:45:34.331   05 Jun 2027 06:45:34.331             0.000             0.000
        94   05 Jun 2027 06:46:02.770   05 Jun 2027 06:46:10.818             8.048          4024.000
        95   05 Jun 2027 08:19:00.074   05 Jun 2027 08:20:05.006            64.932         32466.000
        96   05 Jun 2027 08:20:14.626   05 Jun 2027 08:20:30.809            16.183          8091.500
        97   05 Jun 2027 08:22:17.550   05 Jun 2027 08:22:31.443            13.893          6946.500
        98   05 Jun 2027 08:22:53.807   05 Jun 2027 08:22:54.981             1.174           587.000
        99   05 Jun 2027 09:52:17.113   05 Jun 2027 09:52:55.095            37.982         18991.000
       100   05 Jun 2027 09:54:10.126   05 Jun 2027 09:54:21.654            11.528          5764.000
       101   05 Jun 2027 09:55:29.513   05 Jun 2027 09:55:38.733             9.220          4610.000
       102   05 Jun 2027 09:55:56.604   05 Jun 2027 09:55:59.154             2.550          1275.000
       103   05 Jun 2027 09:56:55.252   05 Jun 2027 09:57:12.185            16.933          8466.500
       104   05 Jun 2027 09:57:40.053   05 Jun 2027 09:58:01.020            20.967         10483.500
       105   05 Jun 2027 09:59:14.182   05 Jun 2027 09:59:20.013             5.831          2915.500
       106   06 Jun 2027 03:39:07.252   06 Jun 2027 03:40:25.335            78.083         39041.500
       107   06 Jun 2027 03:40:57.373   06 Jun 2027 03:42:55.022           117.649         58824.500
       108   06 Jun 2027 03:44:14.868   06 Jun 2027 03:44:45.177            30.309         15154.500
       109   06 Jun 2027 05:16:05.167   06 Jun 2027 05:18:50.877           165.710         82855.000
       110   06 Jun 2027 05:19:46.799   06 Jun 2027 05:19:54.407             7.608          3804.000
       111   06 Jun 2027 05:20:21.060   06 Jun 2027 05:20:33.712            12.652          6326.000
       112   06 Jun 2027 05:22:03.283   06 Jun 2027 05:22:29.284            26.001         13000.500
       113   06 Jun 2027 05:22:35.856   06 Jun 2027 05:23:03.914            28.058         14029.000
       114   06 Jun 2027 06:53:03.378   06 Jun 2027 06:55:28.124           144.746         72373.000
       115   06 Jun 2027 06:55:44.698   06 Jun 2027 06:55:48.748             4.050          2025.000
       116   06 Jun 2027 06:56:20.312   06 Jun 2027 06:56:31.044            10.732          5366.000
       117   06 Jun 2027 06:57:46.439   06 Jun 2027 06:58:05.079            18.640          9320.000
       118   06 Jun 2027 06:58:32.372   06 Jun 2027 06:58:52.673            20.301         10150.500
       119   06 Jun 2027 08:30:58.169   06 Jun 2027 08:31:36.751            38.582         19291.000
       120   06 Jun 2027 08:32:05.490   06 Jun 2027 08:32:22.266            16.776          8388.000
       121   06 Jun 2027 08:33:04.217   06 Jun 2027 08:33:08.650             4.433          2216.500
       122   06 Jun 2027 08:33:24.331   06 Jun 2027 08:33:32.286             7.955          3977.500
       123   06 Jun 2027 08:33:48.992   06 Jun 2027 08:33:48.992             0.000             0.000
       124   06 Jun 2027 08:33:56.573   06 Jun 2027 08:33:56.913             0.340           170.000
       125   06 Jun 2027 10:04:17.181   06 Jun 2027 10:04:42.578            25.397         12698.500
       126   06 Jun 2027 10:04:57.588   06 Jun 2027 10:05:05.613             8.025          4012.500
       127   06 Jun 2027 10:05:51.500   06 Jun 2027 10:06:14.443            22.943         11471.500
       128   06 Jun 2027 10:07:47.651   06 Jun 2027 10:07:49.623             1.972           986.000
       129   06 Jun 2027 10:08:09.538   06 Jun 2027 10:08:19.459             9.921          4960.500
       130   06 Jun 2027 10:09:19.217   06 Jun 2027 10:09:29.050             9.833          4916.500
       131   06 Jun 2027 10:10:04.727   06 Jun 2027 10:10:21.462            16.735          8367.500
       132   06 Jun 2027 10:11:08.390   06 Jun 2027 10:11:16.818             8.428          4214.000
       133   06 Jun 2027 10:11:50.517   06 Jun 2027 10:11:56.047             5.530          2765.000
       134   07 Jun 2027 03:50:32.220   07 Jun 2027 03:55:06.988           274.768        137384.000
       135   07 Jun 2027 03:55:21.073   07 Jun 2027 03:55:22.228             1.155           577.500
       136   07 Jun 2027 03:55:31.778   07 Jun 2027 03:55:44.030            12.252          6126.000
       137   07 Jun 2027 03:56:17.993   07 Jun 2027 03:56:45.219            27.226         13613.000
       138   07 Jun 2027 03:58:38.381   07 Jun 2027 03:59:01.865            23.484         11742.000
       139   07 Jun 2027 05:28:08.483   07 Jun 2027 05:30:46.572           158.089         79044.500
       140   07 Jun 2027 05:31:57.212   07 Jun 2027 05:32:05.272             8.060          4030.000
       141   07 Jun 2027 05:32:20.036   07 Jun 2027 05:32:20.036             0.000             0.000
       142   07 Jun 2027 05:32:38.103   07 Jun 2027 05:32:44.549             6.446          3223.000
       143   07 Jun 2027 05:33:44.287   07 Jun 2027 05:33:57.959            13.672          6836.000
       144   07 Jun 2027 05:34:15.378   07 Jun 2027 05:34:21.198             5.820          2910.000
       145   07 Jun 2027 07:04:52.851   07 Jun 2027 07:07:03.315           130.464         65232.000
       146   07 Jun 2027 07:07:58.642   07 Jun 2027 07:08:24.293            25.651         12825.500
       147   07 Jun 2027 07:09:16.231   07 Jun 2027 07:09:22.334             6.103          3051.500
       148   07 Jun 2027 07:10:08.853   07 Jun 2027 07:10:26.343            17.490          8745.000
       149   07 Jun 2027 07:11:12.792   07 Jun 2027 07:11:31.537            18.745          9372.500
       150   07 Jun 2027 08:42:57.541   07 Jun 2027 08:43:35.866            38.325         19162.500
       151   07 Jun 2027 08:43:57.090   07 Jun 2027 08:44:07.194            10.104          5052.000
       152   07 Jun 2027 08:44:37.158   07 Jun 2027 08:44:49.473            12.315          6157.500
       153   07 Jun 2027 08:45:33.133   07 Jun 2027 08:45:33.133             0.000             0.000
       154   07 Jun 2027 08:45:37.374   07 Jun 2027 08:45:41.172             3.798          1899.000
       155   07 Jun 2027 08:45:46.546   07 Jun 2027 08:45:51.963             5.417          2708.500
       156   07 Jun 2027 08:46:59.977   07 Jun 2027 08:47:06.634             6.657          3328.500
       157   07 Jun 2027 10:16:43.194   07 Jun 2027 10:16:59.564            16.370          8185.000
       158   07 Jun 2027 10:17:42.720   07 Jun 2027 10:18:12.847            30.127         15063.500
       159   07 Jun 2027 10:20:21.748   07 Jun 2027 10:20:28.554             6.806          3403.000
       160   07 Jun 2027 10:21:13.671   07 Jun 2027 10:21:27.729            14.058          7029.000
       161   07 Jun 2027 10:22:35.715   07 Jun 2027 10:22:51.396            15.681          7840.500
       162   07 Jun 2027 10:22:56.314   07 Jun 2027 10:22:59.157             2.843          1421.500
       163   07 Jun 2027 10:23:16.349   07 Jun 2027 10:23:21.390             5.041          2520.500
       164   08 Jun 2027 04:02:02.731   08 Jun 2027 04:06:45.327           282.596        141298.000
       165   08 Jun 2027 04:07:14.922   08 Jun 2027 04:07:30.126            15.204          7602.000
       166   08 Jun 2027 04:07:50.220   08 Jun 2027 04:08:25.372            35.152         17576.000
       167   08 Jun 2027 04:10:35.699   08 Jun 2027 04:10:52.566            16.867          8433.500
       168   08 Jun 2027 04:10:59.575   08 Jun 2027 04:11:00.150             0.575           287.500
       169   08 Jun 2027 05:40:07.577   08 Jun 2027 05:43:03.796           176.219         88109.500
       170   08 Jun 2027 05:43:50.203   08 Jun 2027 05:43:52.453             2.250          1125.000
       171   08 Jun 2027 05:45:28.452   08 Jun 2027 05:46:04.655            36.203         18101.500
       172   08 Jun 2027 05:46:16.406   08 Jun 2027 05:46:27.774            11.368          5684.000
       173   08 Jun 2027 07:17:00.860   08 Jun 2027 07:19:01.749           120.889         60444.500
       174   08 Jun 2027 07:19:37.662   08 Jun 2027 07:20:08.473            30.811         15405.500
       175   08 Jun 2027 07:21:01.370   08 Jun 2027 07:21:24.758            23.388         11694.000
       176   08 Jun 2027 07:21:40.892   08 Jun 2027 07:21:40.892             0.000             0.000
       177   08 Jun 2027 07:22:36.042   08 Jun 2027 07:22:52.261            16.219          8109.500
       178   08 Jun 2027 07:23:07.258   08 Jun 2027 07:23:17.379            10.121          5060.500
       179   08 Jun 2027 08:54:10.633   08 Jun 2027 08:54:44.908            34.275         17137.500
       180   08 Jun 2027 08:55:27.331   08 Jun 2027 08:55:30.380             3.049          1524.500
       181   08 Jun 2027 08:55:49.445   08 Jun 2027 08:55:57.788             8.343          4171.500
       182   08 Jun 2027 08:56:35.464   08 Jun 2027 08:56:47.637            12.173          6086.500
       183   08 Jun 2027 08:57:10.895   08 Jun 2027 08:57:23.284            12.389          6194.500
       184   08 Jun 2027 08:58:57.445   08 Jun 2027 08:59:04.871             7.426          3713.000
       185   08 Jun 2027 10:28:57.813   08 Jun 2027 10:29:10.929            13.116          6558.000
       186   08 Jun 2027 10:29:15.978   08 Jun 2027 10:29:37.417            21.439         10719.500
       187   08 Jun 2027 10:30:58.553   08 Jun 2027 10:30:58.553             0.000             0.000
       188   08 Jun 2027 10:31:54.207   08 Jun 2027 10:32:07.620            13.413          6706.500
       189   08 Jun 2027 10:32:11.024   08 Jun 2027 10:32:18.556             7.532          3766.000
       190   08 Jun 2027 10:33:08.836   08 Jun 2027 10:33:20.957            12.121          6060.500
       191   08 Jun 2027 10:34:10.698   08 Jun 2027 10:34:14.753             4.055          2027.500
       192   09 Jun 2027 04:15:02.069   09 Jun 2027 04:19:33.627           271.558        135779.000
       193   09 Jun 2027 04:20:05.405   09 Jun 2027 04:20:53.596            48.191         24095.500
       194   09 Jun 2027 04:21:31.312   09 Jun 2027 04:22:13.079            41.767         20883.500
       195   09 Jun 2027 04:22:56.553   09 Jun 2027 04:23:03.573             7.020          3510.000
       196   09 Jun 2027 04:23:34.466   09 Jun 2027 04:23:35.729             1.263           631.500
       197   09 Jun 2027 05:52:29.854   09 Jun 2027 05:55:07.016           157.162         78581.000
       198   09 Jun 2027 05:56:19.522   09 Jun 2027 05:56:35.130            15.608          7804.000
       199   09 Jun 2027 05:56:40.845   09 Jun 2027 05:56:50.623             9.778          4889.000
       200   09 Jun 2027 05:57:04.357   09 Jun 2027 05:57:17.276            12.919          6459.500
       201   09 Jun 2027 05:58:26.803   09 Jun 2027 05:58:28.167             1.364           682.000
       202   09 Jun 2027 05:58:56.757   09 Jun 2027 05:59:19.420            22.663         11331.500
       203   09 Jun 2027 07:29:29.238   09 Jun 2027 07:30:58.983            89.745         44872.500
       204   09 Jun 2027 07:31:19.843   09 Jun 2027 07:32:35.037            75.194         37597.000
       205   09 Jun 2027 07:33:09.457   09 Jun 2027 07:33:14.122             4.665          2332.500
       206   09 Jun 2027 07:34:41.949   09 Jun 2027 07:35:01.883            19.934          9967.000
       207   09 Jun 2027 09:06:23.225   09 Jun 2027 09:06:54.535            31.310         15655.000
       208   09 Jun 2027 09:07:19.299   09 Jun 2027 09:07:25.917             6.618          3309.000
       209   09 Jun 2027 09:09:04.433   09 Jun 2027 09:09:22.690            18.257          9128.500
       210   09 Jun 2027 09:09:35.243   09 Jun 2027 09:09:37.894             2.651          1325.500
       211   09 Jun 2027 09:09:47.321   09 Jun 2027 09:09:52.528             5.207          2603.500
       212   09 Jun 2027 09:10:13.527   09 Jun 2027 09:10:19.017             5.490          2745.000
       213   09 Jun 2027 09:10:45.907   09 Jun 2027 09:10:54.478             8.571          4285.500
       214   09 Jun 2027 10:43:32.684   09 Jun 2027 10:44:01.949            29.265         14632.500
       215   09 Jun 2027 10:45:24.842   09 Jun 2027 10:45:51.670            26.828         13414.000
       216   10 Jun 2027 04:25:44.419   10 Jun 2027 04:25:53.382             8.963          4481.500
       217   10 Jun 2027 04:27:40.979   10 Jun 2027 04:33:13.876           332.897        166448.500
       218   10 Jun 2027 04:33:39.962   10 Jun 2027 04:33:49.832             9.870          4935.000
       219   10 Jun 2027 04:34:50.994   10 Jun 2027 04:35:17.214            26.220         13110.000
       220   10 Jun 2027 04:35:22.760   10 Jun 2027 04:35:24.140             1.380           690.000
       221   10 Jun 2027 06:04:39.076   10 Jun 2027 06:07:11.803           152.727         76363.500
       222   10 Jun 2027 06:08:21.053   10 Jun 2027 06:08:40.379            19.326          9663.000
       223   10 Jun 2027 06:09:53.234   10 Jun 2027 06:10:19.333            26.099         13049.500
       224   10 Jun 2027 06:10:45.847   10 Jun 2027 06:10:46.343             0.496           248.000
       225   10 Jun 2027 07:41:57.110   10 Jun 2027 07:44:05.773           128.663         64331.500
       226   10 Jun 2027 07:44:53.089   10 Jun 2027 07:44:58.265             5.176          2588.000
       227   10 Jun 2027 07:45:22.786   10 Jun 2027 07:45:39.579            16.793          8396.500
       228   10 Jun 2027 09:18:24.328   10 Jun 2027 09:18:50.999            26.671         13335.500
       229   10 Jun 2027 09:20:23.785   10 Jun 2027 09:20:55.104            31.319         15659.500
       230   10 Jun 2027 09:22:04.185   10 Jun 2027 09:22:21.620            17.435          8717.500
       231   10 Jun 2027 09:23:20.930   10 Jun 2027 09:23:27.180             6.250          3125.000
       232   10 Jun 2027 10:56:40.856   10 Jun 2027 10:57:01.175            20.319         10159.500
       233   11 Jun 2027 03:05:43.337   11 Jun 2027 03:09:21.945           218.608        109304.000
       234   11 Jun 2027 04:40:54.047   11 Jun 2027 04:42:24.458            90.411         45205.500
       235   11 Jun 2027 04:42:27.444   11 Jun 2027 04:42:35.403             7.959          3979.500
       236   11 Jun 2027 04:42:43.271   11 Jun 2027 04:42:43.756             0.485           242.500
       237   11 Jun 2027 04:42:59.961   11 Jun 2027 04:43:18.242            18.281          9140.500
       238   11 Jun 2027 04:44:35.559   11 Jun 2027 04:45:22.646            47.087         23543.500
       239   11 Jun 2027 04:46:54.238   11 Jun 2027 04:46:56.255             2.017          1008.500
       240   11 Jun 2027 04:47:23.806   11 Jun 2027 04:47:31.919             8.113          4056.500
       241   11 Jun 2027 06:17:13.031   11 Jun 2027 06:19:32.797           139.766         69883.000
       242   11 Jun 2027 06:19:50.031   11 Jun 2027 06:19:59.104             9.073          4536.500
       243   11 Jun 2027 06:20:17.348   11 Jun 2027 06:20:25.849             8.501          4250.500
       244   11 Jun 2027 06:21:40.574   11 Jun 2027 06:21:50.288             9.714          4857.000
       245   11 Jun 2027 06:22:37.134   11 Jun 2027 06:23:02.980            25.846         12923.000
       246   11 Jun 2027 07:54:36.490   11 Jun 2027 07:56:18.223           101.733         50866.500
       247   11 Jun 2027 07:56:23.756   11 Jun 2027 07:56:27.612             3.856          1928.000
       248   11 Jun 2027 07:57:01.498   11 Jun 2027 07:57:11.196             9.698          4849.000
       249   11 Jun 2027 07:57:32.735   11 Jun 2027 07:57:37.562             4.827          2413.500
       250   11 Jun 2027 07:57:45.323   11 Jun 2027 07:57:46.480             1.157           578.500
       251   11 Jun 2027 07:58:16.692   11 Jun 2027 07:58:28.286            11.594          5797.000
       252   11 Jun 2027 07:58:58.631   11 Jun 2027 07:59:07.232             8.601          4300.500
       253   11 Jun 2027 09:30:48.107   11 Jun 2027 09:31:18.862            30.755         15377.500
       254   11 Jun 2027 09:31:50.982   11 Jun 2027 09:32:12.727            21.745         10872.500
       255   11 Jun 2027 09:33:44.588   11 Jun 2027 09:33:55.744            11.156          5578.000
       256   11 Jun 2027 09:34:48.835   11 Jun 2027 09:34:59.286            10.451          5225.500
       257   12 Jun 2027 03:17:43.906   12 Jun 2027 03:21:13.309           209.403        104701.500
       258   12 Jun 2027 04:52:56.755   12 Jun 2027 04:55:12.761           136.006         68003.000
       259   12 Jun 2027 04:55:40.309   12 Jun 2027 04:56:00.974            20.665         10332.500
       260   12 Jun 2027 04:56:42.409   12 Jun 2027 04:56:51.310             8.901          4450.500
       261   12 Jun 2027 04:57:24.382   12 Jun 2027 04:57:30.458             6.076          3038.000
       262   12 Jun 2027 04:58:22.514   12 Jun 2027 04:58:25.947             3.433          1716.500
       263   12 Jun 2027 04:58:45.385   12 Jun 2027 04:59:19.736            34.351         17175.500
       264   12 Jun 2027 04:59:35.147   12 Jun 2027 04:59:37.737             2.590          1295.000
       265   12 Jun 2027 06:28:51.974   12 Jun 2027 06:31:47.331           175.357         87678.500
       266   12 Jun 2027 06:34:08.548   12 Jun 2027 06:34:16.493             7.945          3972.500
       267   12 Jun 2027 08:06:50.916   12 Jun 2027 08:07:52.662            61.746         30873.000
       268   12 Jun 2027 08:08:29.750   12 Jun 2027 08:08:37.544             7.794          3897.000
       269   12 Jun 2027 08:09:39.592   12 Jun 2027 08:09:54.799            15.207          7603.500
       270   12 Jun 2027 08:10:11.660   12 Jun 2027 08:10:11.689             0.029            14.500
       271   12 Jun 2027 08:10:23.372   12 Jun 2027 08:10:30.299             6.927          3463.500
       272   12 Jun 2027 08:10:58.325   12 Jun 2027 08:11:03.414             5.089          2544.500
       273   12 Jun 2027 09:42:42.589   12 Jun 2027 09:43:10.217            27.628         13814.000
       274   12 Jun 2027 09:43:58.690   12 Jun 2027 09:44:03.251             4.561          2280.500
       275   12 Jun 2027 09:45:08.662   12 Jun 2027 09:45:31.569            22.907         11453.500
       276   12 Jun 2027 09:46:48.893   12 Jun 2027 09:46:55.680             6.787          3393.500
       277   12 Jun 2027 09:47:01.473   12 Jun 2027 09:47:12.263            10.790          5395.000
       278   12 Jun 2027 09:47:47.981   12 Jun 2027 09:47:52.904             4.923          2461.500
       279   13 Jun 2027 03:29:27.723   13 Jun 2027 03:32:01.465           153.742         76871.000
       280   13 Jun 2027 03:32:22.501   13 Jun 2027 03:32:32.539            10.038          5019.000
       281   13 Jun 2027 03:33:29.007   13 Jun 2027 03:33:37.149             8.142          4071.000
       282   13 Jun 2027 05:04:11.616   13 Jun 2027 05:06:36.774           145.158         72579.000
       283   13 Jun 2027 05:07:59.172   13 Jun 2027 05:08:03.390             4.218          2109.000
       284   13 Jun 2027 05:08:58.696   13 Jun 2027 05:09:18.153            19.457          9728.500
       285   13 Jun 2027 05:09:54.402   13 Jun 2027 05:10:07.843            13.441          6720.500
       286   13 Jun 2027 05:10:52.003   13 Jun 2027 05:11:00.954             8.951          4475.500
       287   13 Jun 2027 05:11:04.890   13 Jun 2027 05:11:19.668            14.778          7389.000
       288   13 Jun 2027 05:11:40.074   13 Jun 2027 05:11:44.676             4.602          2301.000
       289   13 Jun 2027 06:41:00.323   13 Jun 2027 06:42:42.517           102.194         51097.000
       290   13 Jun 2027 06:43:18.048   13 Jun 2027 06:44:05.751            47.703         23851.500
       291   13 Jun 2027 06:44:25.716   13 Jun 2027 06:44:36.578            10.862          5431.000
       292   13 Jun 2027 06:44:51.753   13 Jun 2027 06:44:54.011             2.258          1129.000
       293   13 Jun 2027 06:45:15.541   13 Jun 2027 06:45:20.292             4.751          2375.500
       294   13 Jun 2027 06:45:24.384   13 Jun 2027 06:45:32.781             8.397          4198.500
       295   13 Jun 2027 06:45:51.352   13 Jun 2027 06:46:08.380            17.028          8514.000
       296   13 Jun 2027 08:19:13.740   13 Jun 2027 08:20:16.340            62.600         31300.000
       297   13 Jun 2027 08:20:51.585   13 Jun 2027 08:21:13.264            21.679         10839.500
       298   13 Jun 2027 08:22:25.246   13 Jun 2027 08:22:32.381             7.135          3567.500
       299   13 Jun 2027 08:22:46.156   13 Jun 2027 08:22:46.356             0.200           100.000
       300   13 Jun 2027 09:52:31.486   13 Jun 2027 09:53:09.745            38.259         19129.500
       301   13 Jun 2027 09:54:36.913   13 Jun 2027 09:54:42.785             5.872          2936.000
       302   13 Jun 2027 09:55:22.219   13 Jun 2027 09:55:34.259            12.040          6020.000
       303   13 Jun 2027 09:56:13.360   13 Jun 2027 09:56:16.517             3.157          1578.500
       304   13 Jun 2027 09:56:25.381   13 Jun 2027 09:56:40.498            15.117          7558.500
       305   13 Jun 2027 09:57:37.801   13 Jun 2027 09:57:40.965             3.164          1582.000
       306   13 Jun 2027 09:57:54.754   13 Jun 2027 09:58:15.717            20.963         10481.500
       307   13 Jun 2027 09:59:52.808   13 Jun 2027 10:00:02.246             9.438          4719.000
