uniorb/output/strategy_1/Camera/Camera_KinoSat_110606.txt

KinoSat_110606
-------------------------
    Access    *     Start Time (UTCG)     *     Stop Time (UTCG)  *   Duration (s) *   Data (Mbytes)
         1   01 Jun 2027 03:34:28.878   01 Jun 2027 03:35:32.054            63.176         31588.000
         2   01 Jun 2027 03:35:49.668   01 Jun 2027 03:36:00.449            10.781          5390.500
         3   01 Jun 2027 03:36:31.453   01 Jun 2027 03:36:34.744             3.291          1645.500
         4   01 Jun 2027 03:36:44.515   01 Jun 2027 03:36:44.515             0.000             0.000
         5   01 Jun 2027 05:09:35.162   01 Jun 2027 05:11:41.962           126.800         63400.000
         6   01 Jun 2027 05:11:52.678   01 Jun 2027 05:12:04.905            12.227          6113.500
         7   01 Jun 2027 05:14:52.724   01 Jun 2027 05:14:52.724             0.000             0.000
         8   01 Jun 2027 05:15:31.004   01 Jun 2027 05:15:45.480            14.476          7238.000
         9   01 Jun 2027 05:16:03.803   01 Jun 2027 05:16:24.873            21.070         10535.000
        10   01 Jun 2027 06:45:55.882   01 Jun 2027 06:47:46.887           111.005         55502.500
        11   01 Jun 2027 06:48:42.291   01 Jun 2027 06:48:51.539             9.248          4624.000
        12   01 Jun 2027 06:50:06.559   01 Jun 2027 06:50:17.831            11.272          5636.000
        13   01 Jun 2027 08:23:25.799   01 Jun 2027 08:25:47.125           141.326         70663.000
        14   01 Jun 2027 09:59:30.256   01 Jun 2027 10:01:21.504           111.248         55624.000
        15   01 Jun 2027 10:03:04.082   01 Jun 2027 10:03:15.138            11.056          5528.000
        16   02 Jun 2027 03:46:39.191   02 Jun 2027 03:47:01.448            22.257         11128.500
        17   02 Jun 2027 03:49:28.118   02 Jun 2027 03:49:38.376            10.258          5129.000
        18   02 Jun 2027 03:49:48.844   02 Jun 2027 03:49:57.862             9.018          4509.000
        19   02 Jun 2027 05:21:49.159   02 Jun 2027 05:24:15.374           146.215         73107.500
        20   02 Jun 2027 05:26:53.033   02 Jun 2027 05:26:53.033             0.000             0.000
        21   02 Jun 2027 05:27:20.187   02 Jun 2027 05:27:21.127             0.940           470.000
        22   02 Jun 2027 05:27:39.736   02 Jun 2027 05:27:57.824            18.088          9044.000
        23   02 Jun 2027 05:28:24.671   02 Jun 2027 05:28:25.053             0.382           191.000
        24   02 Jun 2027 06:58:10.646   02 Jun 2027 07:00:10.491           119.845         59922.500
        25   02 Jun 2027 07:00:32.835   02 Jun 2027 07:00:36.305             3.470          1735.000
        26   02 Jun 2027 07:01:34.355   02 Jun 2027 07:01:54.260            19.905          9952.500
        27   02 Jun 2027 08:35:29.077   02 Jun 2027 08:37:53.310           144.233         72116.500
        28   02 Jun 2027 08:38:24.012   02 Jun 2027 08:38:40.386            16.374          8187.000
        29   02 Jun 2027 10:11:41.192   02 Jun 2027 10:13:50.811           129.619         64809.500
        30   02 Jun 2027 10:15:08.935   02 Jun 2027 10:15:10.829             1.894           947.000
        31   03 Jun 2027 03:58:29.867   03 Jun 2027 03:59:08.094            38.227         19113.500
        32   03 Jun 2027 04:00:32.644   03 Jun 2027 04:00:34.208             1.564           782.000
        33   03 Jun 2027 05:33:23.747   03 Jun 2027 05:35:25.640           121.893         60946.500
        34   03 Jun 2027 05:36:22.519   03 Jun 2027 05:36:40.996            18.477          9238.500
        35   03 Jun 2027 05:38:02.778   03 Jun 2027 05:38:26.390            23.612         11806.000
        36   03 Jun 2027 05:40:25.502   03 Jun 2027 05:40:28.655             3.153          1576.500
        37   03 Jun 2027 07:09:46.606   03 Jun 2027 07:12:19.375           152.769         76384.500
        38   03 Jun 2027 07:13:10.214   03 Jun 2027 07:13:25.866            15.652          7826.000
        39   03 Jun 2027 07:15:15.667   03 Jun 2027 07:15:32.487            16.820          8410.000
        40   03 Jun 2027 08:48:03.351   03 Jun 2027 08:50:35.444           152.093         76046.500
        41   03 Jun 2027 10:23:25.379   03 Jun 2027 10:24:30.949            65.570         32785.000
        42   03 Jun 2027 10:24:50.554   03 Jun 2027 10:24:53.572             3.018           864.813
        43   03 Jun 2027 10:26:37.318   03 Jun 2027 10:26:43.100             5.782          2891.000
        44   03 Jun 2027 10:27:05.466   03 Jun 2027 10:27:05.466             0.000             0.000
        45   03 Jun 2027 10:27:54.743   03 Jun 2027 10:27:57.122             2.379          1189.500
        46   03 Jun 2027 10:28:48.383   03 Jun 2027 10:28:52.904             4.521          2260.500
        47   04 Jun 2027 04:08:47.310   04 Jun 2027 04:09:27.339            40.029         20014.500
        48   04 Jun 2027 04:10:13.711   04 Jun 2027 04:10:13.876             0.165            82.500
        49   04 Jun 2027 04:10:23.571   04 Jun 2027 04:10:44.551            20.980         10490.000
        50   04 Jun 2027 04:14:36.716   04 Jun 2027 04:14:39.380             2.664          1332.000
        51   04 Jun 2027 05:45:00.000   04 Jun 2027 05:46:55.472           115.471         57735.500
        52   04 Jun 2027 05:47:14.913   04 Jun 2027 05:47:28.293            13.380          6690.000
        53   04 Jun 2027 05:48:21.382   04 Jun 2027 05:48:39.660            18.278          9139.000
        54   04 Jun 2027 05:52:34.543   04 Jun 2027 05:52:34.728             0.185            92.500
        55   04 Jun 2027 07:22:06.368   04 Jun 2027 07:24:17.413           131.045         65522.500
        56   04 Jun 2027 07:25:31.933   04 Jun 2027 07:26:08.721            36.788         18068.937
        57   04 Jun 2027 09:00:04.331   04 Jun 2027 09:00:35.059            30.728         15279.375
        58   04 Jun 2027 09:01:01.297   04 Jun 2027 09:01:03.358             2.061           710.719
        59   04 Jun 2027 09:01:16.414   04 Jun 2027 09:01:17.082             0.668           226.406
        60   04 Jun 2027 09:01:44.903   04 Jun 2027 09:01:50.253             5.350           169.375
        61   04 Jun 2027 09:02:07.856   04 Jun 2027 09:02:10.925             3.069           422.250
        62   04 Jun 2027 09:02:36.486   04 Jun 2027 09:02:37.423             0.937           468.500
        63   04 Jun 2027 09:03:00.191   04 Jun 2027 09:03:03.670             3.479          1041.781
        64   04 Jun 2027 09:03:14.129   04 Jun 2027 09:03:15.369             1.240           292.812
        65   04 Jun 2027 09:03:18.968   04 Jun 2027 09:03:19.413             0.445            58.188
        66   04 Jun 2027 09:03:47.221   04 Jun 2027 09:03:48.088             0.867           433.500
        67   04 Jun 2027 09:03:52.296   04 Jun 2027 09:03:53.345             1.049           411.156
        68   04 Jun 2027 10:33:12.028   04 Jun 2027 10:33:26.543            14.515          6454.562
        69   04 Jun 2027 10:34:42.868   04 Jun 2027 10:34:49.233             6.365           959.563
        70   04 Jun 2027 10:35:00.498   04 Jun 2027 10:35:01.507             1.009           106.969
        71   04 Jun 2027 10:35:22.967   04 Jun 2027 10:35:22.967             0.000             0.000
        72   04 Jun 2027 10:35:32.592   04 Jun 2027 10:35:35.689             3.097           971.406
        73   04 Jun 2027 10:36:38.909   04 Jun 2027 10:36:42.973             4.064          1760.156
        74   04 Jun 2027 10:37:33.430   04 Jun 2027 10:37:37.632             4.202          1551.031
        75   04 Jun 2027 10:37:52.754   04 Jun 2027 10:37:54.080             1.326           389.000
        76   04 Jun 2027 10:38:18.340   04 Jun 2027 10:38:20.210             1.870           758.125
        77   04 Jun 2027 10:39:17.163   04 Jun 2027 10:39:23.665             6.502          1507.844
        78   04 Jun 2027 10:40:10.486   04 Jun 2027 10:40:16.648             6.162          1200.500
        79   05 Jun 2027 04:19:54.022   05 Jun 2027 04:21:23.900            89.878         44939.000
        80   05 Jun 2027 04:25:35.552   05 Jun 2027 04:25:38.363             2.811          1405.500
        81   05 Jun 2027 04:27:56.712   05 Jun 2027 04:27:57.175             0.463           231.500
        82   05 Jun 2027 04:27:57.229   05 Jun 2027 04:28:13.708            16.479          8239.500
        83   05 Jun 2027 05:57:19.845   05 Jun 2027 05:59:22.644           122.799         61399.500
        84   05 Jun 2027 05:59:46.467   05 Jun 2027 05:59:53.778             7.311          3655.500
        85   05 Jun 2027 06:00:51.379   05 Jun 2027 06:00:53.443             2.064          1032.000
        86   05 Jun 2027 06:02:46.072   05 Jun 2027 06:03:13.494            27.422         13711.000
        87   05 Jun 2027 07:34:06.806   05 Jun 2027 07:35:53.450           106.644         53322.000
        88   05 Jun 2027 07:36:17.232   05 Jun 2027 07:36:38.719            21.487         10743.500
        89   05 Jun 2027 07:37:13.499   05 Jun 2027 07:37:28.529            15.030          3129.844
        90   05 Jun 2027 07:38:52.888   05 Jun 2027 07:38:52.888             0.000             0.000
        91   05 Jun 2027 07:39:10.405   05 Jun 2027 07:39:10.405             0.000             0.000
        92   05 Jun 2027 07:40:05.405   05 Jun 2027 07:40:18.401            12.996          4881.500
        93   05 Jun 2027 09:12:04.824   05 Jun 2027 09:12:33.541            28.717         13326.563
        94   05 Jun 2027 09:13:43.339   05 Jun 2027 09:13:49.443             6.104          1944.469
        95   05 Jun 2027 09:14:09.266   05 Jun 2027 09:14:11.290             2.024           619.469
        96   05 Jun 2027 09:14:55.033   05 Jun 2027 09:15:00.890             5.857          1114.406
        97   05 Jun 2027 09:15:13.471   05 Jun 2027 09:15:13.916             0.445           221.437
        98   05 Jun 2027 09:15:38.220   05 Jun 2027 09:15:40.361             2.141           759.500
        99   05 Jun 2027 09:15:44.911   05 Jun 2027 09:15:49.904             4.993           142.188
       100   05 Jun 2027 10:45:42.165   05 Jun 2027 10:45:50.534             8.369          2097.969
       101   05 Jun 2027 10:46:22.889   05 Jun 2027 10:46:22.889             0.000             0.000
       102   05 Jun 2027 10:46:28.140   05 Jun 2027 10:46:33.355             5.215           463.156
       103   05 Jun 2027 10:46:50.287   05 Jun 2027 10:46:53.856             3.569           251.281
       104   05 Jun 2027 10:48:11.367   05 Jun 2027 10:48:16.497             5.130          1705.531
       105   05 Jun 2027 10:48:24.398   05 Jun 2027 10:48:24.796             0.398            67.375
       106   05 Jun 2027 10:49:21.164   05 Jun 2027 10:49:32.333            11.169          1422.938
       107   05 Jun 2027 10:50:08.577   05 Jun 2027 10:50:08.577             0.000             0.000
       108   05 Jun 2027 10:50:43.383   05 Jun 2027 10:50:48.355             4.972          2143.781
       109   05 Jun 2027 10:51:33.809   05 Jun 2027 10:51:35.540             1.731           865.500
       110   05 Jun 2027 10:52:22.599   05 Jun 2027 10:52:23.153             0.554           277.000
       111   06 Jun 2027 03:00:00.000   06 Jun 2027 03:00:12.515            12.515          6257.500
       112   06 Jun 2027 03:00:26.549   06 Jun 2027 03:00:26.676             0.127            63.500
       113   06 Jun 2027 03:01:43.062   06 Jun 2027 03:01:53.191            10.129          5064.500
       114   06 Jun 2027 04:31:22.680   06 Jun 2027 04:32:49.751            87.071         43535.500
       115   06 Jun 2027 04:33:42.655   06 Jun 2027 04:33:50.778             8.123          4061.500
       116   06 Jun 2027 04:35:22.636   06 Jun 2027 04:35:32.058             9.422          4711.000
       117   06 Jun 2027 04:35:55.659   06 Jun 2027 04:36:07.957            12.298          6149.000
       118   06 Jun 2027 04:40:14.977   06 Jun 2027 04:40:31.158            16.181          8090.500
       119   06 Jun 2027 06:09:13.835   06 Jun 2027 06:11:16.356           122.521         61260.500
       120   06 Jun 2027 06:11:24.733   06 Jun 2027 06:11:27.483             2.750          1375.000
       121   06 Jun 2027 06:11:45.378   06 Jun 2027 06:11:45.378             0.000             0.000
       122   06 Jun 2027 06:12:20.303   06 Jun 2027 06:12:26.875             6.572          3286.000
       123   06 Jun 2027 06:13:44.445   06 Jun 2027 06:13:44.445             0.000             0.000
       124   06 Jun 2027 06:13:45.487   06 Jun 2027 06:13:46.867             1.380           690.000
       125   06 Jun 2027 06:13:56.628   06 Jun 2027 06:14:00.011             3.383          1691.500
       126   06 Jun 2027 06:14:35.402   06 Jun 2027 06:14:45.608            10.206          5103.000
       127   06 Jun 2027 06:15:08.213   06 Jun 2027 06:15:09.562             1.349           674.500
       128   06 Jun 2027 06:15:52.892   06 Jun 2027 06:15:54.563             1.671           835.500
       129   06 Jun 2027 07:45:58.392   06 Jun 2027 07:47:35.231            96.839         47868.033
       130   06 Jun 2027 07:47:39.564   06 Jun 2027 07:47:42.073             2.509            52.156
       131   06 Jun 2027 07:48:58.382   06 Jun 2027 07:49:03.318             4.936          2018.187
       132   06 Jun 2027 07:50:15.802   06 Jun 2027 07:50:16.261             0.459           229.500
       133   06 Jun 2027 07:50:25.523   06 Jun 2027 07:50:25.523             0.000             0.000
       134   06 Jun 2027 07:50:58.038   06 Jun 2027 07:51:05.024             6.986          3253.625
       135   06 Jun 2027 07:52:17.551   06 Jun 2027 07:52:22.397             4.846          2212.625
       136   06 Jun 2027 09:24:07.418   06 Jun 2027 09:24:28.030            20.612         10105.500
       137   06 Jun 2027 09:24:50.683   06 Jun 2027 09:24:51.921             1.238           574.000
       138   06 Jun 2027 09:25:00.833   06 Jun 2027 09:25:05.137             4.304           261.656
       139   06 Jun 2027 09:25:34.620   06 Jun 2027 09:25:41.504             6.884           918.469
       140   06 Jun 2027 09:26:29.743   06 Jun 2027 09:26:32.699             2.956          1466.719
       141   06 Jun 2027 09:26:50.774   06 Jun 2027 09:26:51.092             0.318           159.000
       142   06 Jun 2027 09:27:24.364   06 Jun 2027 09:27:27.197             2.833          1395.156
       143   06 Jun 2027 09:27:39.854   06 Jun 2027 09:27:44.528             4.674           343.063
       144   06 Jun 2027 10:57:59.028   06 Jun 2027 10:58:05.199             6.171          2745.875
       145   06 Jun 2027 10:58:45.639   06 Jun 2027 10:58:48.731             3.092          1198.125
       146   06 Jun 2027 11:00:15.025   06 Jun 2027 11:00:18.651             3.626          1736.406
       147   06 Jun 2027 11:01:09.901   06 Jun 2027 11:01:15.100             5.199          1601.563
       148   06 Jun 2027 11:01:35.636   06 Jun 2027 11:01:36.254             0.618           306.438
       149   06 Jun 2027 11:01:41.580   06 Jun 2027 11:01:41.580             0.000             0.000
       150   06 Jun 2027 11:01:59.537   06 Jun 2027 11:02:02.875             3.338           727.594
       151   06 Jun 2027 11:02:47.608   06 Jun 2027 11:02:49.731             2.123           589.813
       152   06 Jun 2027 11:03:55.780   06 Jun 2027 11:04:03.143             7.363          2064.031
       153   07 Jun 2027 03:10:23.209   07 Jun 2027 03:10:38.547            15.338          7669.000
       154   07 Jun 2027 03:11:51.539   07 Jun 2027 03:12:02.888            11.349          5674.500
       155   07 Jun 2027 03:12:42.113   07 Jun 2027 03:12:42.113             0.000             0.000
       156   07 Jun 2027 03:12:53.636   07 Jun 2027 03:12:56.403             2.767          1383.500
       157   07 Jun 2027 04:44:11.285   07 Jun 2027 04:45:57.764           106.479         53239.500
       158   07 Jun 2027 04:46:12.522   07 Jun 2027 04:46:19.366             6.844          3422.000
       159   07 Jun 2027 04:46:40.006   07 Jun 2027 04:46:42.820             2.814          1407.000
       160   07 Jun 2027 04:47:18.264   07 Jun 2027 04:47:23.066             4.802          2401.000
       161   07 Jun 2027 04:47:32.126   07 Jun 2027 04:47:44.608            12.482          6241.000
       162   07 Jun 2027 04:51:55.251   07 Jun 2027 04:52:05.612            10.361          5180.500
       163   07 Jun 2027 04:52:08.459   07 Jun 2027 04:52:11.657             3.198          1599.000
       164   07 Jun 2027 04:52:17.893   07 Jun 2027 04:52:23.627             5.734          2867.000
       165   07 Jun 2027 06:21:20.853   07 Jun 2027 06:23:14.251           113.398         56699.000
       166   07 Jun 2027 06:24:19.748   07 Jun 2027 06:24:20.464             0.716           358.000
       167   07 Jun 2027 06:24:33.900   07 Jun 2027 06:24:39.367             5.467          2733.500
       168   07 Jun 2027 06:28:12.480   07 Jun 2027 06:28:36.319            23.839         11919.500
       169   07 Jun 2027 07:58:24.467   07 Jun 2027 07:59:46.984            82.517         40038.094
       170   07 Jun 2027 08:00:59.914   07 Jun 2027 08:01:00.277             0.363           181.500
       171   07 Jun 2027 08:01:36.786   07 Jun 2027 08:01:41.483             4.697          2348.500
       172   07 Jun 2027 08:02:33.475   07 Jun 2027 08:02:34.900             1.425           712.500
       173   07 Jun 2027 08:03:48.569   07 Jun 2027 08:03:56.130             7.561          3599.938
       174   07 Jun 2027 09:35:18.184   07 Jun 2027 09:35:38.994            20.810          9012.219
       175   07 Jun 2027 09:37:10.226   07 Jun 2027 09:37:17.113             6.887          2851.000
       176   07 Jun 2027 09:37:44.042   07 Jun 2027 09:37:46.853             2.811           841.531
       177   07 Jun 2027 09:38:10.172   07 Jun 2027 09:38:14.547             4.375           728.719
       178   07 Jun 2027 09:38:36.937   07 Jun 2027 09:38:40.152             3.215           699.688
       179   07 Jun 2027 09:39:01.710   07 Jun 2027 09:39:01.710             0.000             0.000
       180   07 Jun 2027 09:39:12.941   07 Jun 2027 09:39:14.861             1.920           765.563
       181   07 Jun 2027 09:39:22.894   07 Jun 2027 09:39:25.513             2.619            13.469
       182   07 Jun 2027 09:39:52.474   07 Jun 2027 09:39:52.474             0.000             0.000
       183   07 Jun 2027 09:39:59.870   07 Jun 2027 09:40:07.670             7.800           874.063
       184   07 Jun 2027 09:40:12.939   07 Jun 2027 09:40:13.145             0.206            12.906
       185   07 Jun 2027 11:10:28.203   07 Jun 2027 11:10:33.750             5.547          2567.969
       186   07 Jun 2027 11:10:42.065   07 Jun 2027 11:10:43.163             1.098           259.844
       187   07 Jun 2027 11:12:03.431   07 Jun 2027 11:12:06.134             2.703           460.656
       188   07 Jun 2027 11:12:25.183   07 Jun 2027 11:12:27.489             2.306           417.094
       189   07 Jun 2027 11:12:43.944   07 Jun 2027 11:12:44.726             0.782           358.344
       190   07 Jun 2027 11:13:16.812   07 Jun 2027 11:13:20.020             3.208           995.375
       191   07 Jun 2027 11:13:47.362   07 Jun 2027 11:13:50.796             3.434           612.188
       192   07 Jun 2027 11:14:27.437   07 Jun 2027 11:14:32.757             5.320          1145.031
       193   08 Jun 2027 03:22:40.139   08 Jun 2027 03:23:08.068            27.929         13964.500
       194   08 Jun 2027 03:24:48.339   08 Jun 2027 03:24:48.339             0.000             0.000
       195   08 Jun 2027 03:24:53.750   08 Jun 2027 03:24:59.621             5.871          2935.500
       196   08 Jun 2027 04:56:32.470   08 Jun 2027 04:59:08.447           155.977         77988.500
       197   08 Jun 2027 05:03:37.642   08 Jun 2027 05:03:40.030             2.388          1194.000
       198   08 Jun 2027 05:03:45.218   08 Jun 2027 05:04:01.284            16.066          8033.000
       199   08 Jun 2027 05:04:19.343   08 Jun 2027 05:04:20.143             0.800           400.000
       200   08 Jun 2027 05:04:39.253   08 Jun 2027 05:04:39.630             0.377           188.500
       201   08 Jun 2027 06:33:47.318   08 Jun 2027 06:35:30.578           103.260         51630.000
       202   08 Jun 2027 06:37:08.815   08 Jun 2027 06:37:38.061            29.246         14623.000
       203   08 Jun 2027 08:10:49.156   08 Jun 2027 08:11:47.531            58.375         27286.656
       204   08 Jun 2027 08:12:57.940   08 Jun 2027 08:13:04.965             7.025          2140.531
       205   08 Jun 2027 08:14:06.188   08 Jun 2027 08:14:11.242             5.054          1889.500
       206   08 Jun 2027 08:15:19.497   08 Jun 2027 08:15:24.942             5.445          2120.719
       207   08 Jun 2027 08:16:00.220   08 Jun 2027 08:16:02.025             1.805           902.500
       208   08 Jun 2027 08:16:04.738   08 Jun 2027 08:16:07.132             2.394           284.719
       209   08 Jun 2027 09:47:32.912   08 Jun 2027 09:47:50.963            18.051          8850.000
       210   08 Jun 2027 09:48:02.565   08 Jun 2027 09:48:04.567             2.002           319.563
       211   08 Jun 2027 09:48:23.673   08 Jun 2027 09:48:25.380             1.707           527.594
       212   08 Jun 2027 09:49:44.385   08 Jun 2027 09:49:49.100             4.715          1577.250
       213   08 Jun 2027 09:50:36.396   08 Jun 2027 09:50:39.307             2.911           839.719
       214   08 Jun 2027 09:51:00.130   08 Jun 2027 09:51:03.311             3.181           634.750
       215   08 Jun 2027 09:51:21.022   08 Jun 2027 09:51:22.628             1.606           509.062
       216   08 Jun 2027 09:51:42.757   08 Jun 2027 09:51:43.519             0.762           162.719
       217   08 Jun 2027 11:25:42.002   08 Jun 2027 11:25:53.235            11.233          2444.375
       218   08 Jun 2027 11:26:40.351   08 Jun 2027 11:26:42.643             2.292          1146.000
       219   08 Jun 2027 11:26:45.775   08 Jun 2027 11:26:45.775             0.000             0.000
       220   09 Jun 2027 03:34:43.394   09 Jun 2027 03:35:09.640            26.246         13123.000
       221   09 Jun 2027 03:35:37.133   09 Jun 2027 03:35:41.501             4.368          2184.000
       222   09 Jun 2027 03:36:05.843   09 Jun 2027 03:36:16.210            10.367          5183.500
       223   09 Jun 2027 03:36:43.793   09 Jun 2027 03:36:43.793             0.000             0.000
       224   09 Jun 2027 05:09:50.192   09 Jun 2027 05:12:20.145           149.953         74976.500
       225   09 Jun 2027 05:13:47.477   09 Jun 2027 05:13:57.435             9.958          4979.000
       226   09 Jun 2027 05:14:01.664   09 Jun 2027 05:14:07.653             5.989          2994.500
       227   09 Jun 2027 05:14:19.398   09 Jun 2027 05:14:37.436            18.038          9019.000
       228   09 Jun 2027 06:46:10.760   09 Jun 2027 06:48:21.473           130.713         65356.500
       229   09 Jun 2027 06:50:33.087   09 Jun 2027 06:50:38.445             5.358          2679.000
       230   09 Jun 2027 08:23:40.951   09 Jun 2027 08:24:30.283            49.332         24346.313
       231   09 Jun 2027 08:24:50.559   09 Jun 2027 08:24:50.559             0.000             0.000
       232   09 Jun 2027 08:25:11.509   09 Jun 2027 08:25:11.728             0.219           109.500
       233   09 Jun 2027 08:25:43.996   09 Jun 2027 08:25:48.030             4.034          1994.625
       234   09 Jun 2027 08:26:02.747   09 Jun 2027 08:26:02.747             0.000             0.000
       235   09 Jun 2027 08:26:04.000   09 Jun 2027 08:26:09.112             5.112           499.062
       236   09 Jun 2027 08:26:55.122   09 Jun 2027 08:26:59.790             4.668          1437.812
       237   09 Jun 2027 09:59:45.416   09 Jun 2027 10:00:04.864            19.448          9293.094
       238   09 Jun 2027 10:00:26.128   09 Jun 2027 10:00:31.946             5.818           655.938
       239   09 Jun 2027 10:01:07.691   09 Jun 2027 10:01:10.746             3.055           805.750
       240   09 Jun 2027 10:01:22.487   09 Jun 2027 10:01:26.346             3.859           366.906
       241   09 Jun 2027 10:01:41.871   09 Jun 2027 10:01:44.998             3.127           483.812
       242   09 Jun 2027 10:02:47.267   09 Jun 2027 10:02:49.933             2.666          1333.000
       243   09 Jun 2027 10:03:10.747   09 Jun 2027 10:03:13.373             2.626          1263.344
       244   10 Jun 2027 03:46:54.256   10 Jun 2027 03:47:42.477            48.221         24110.500
       245   10 Jun 2027 03:49:44.557   10 Jun 2027 03:49:53.117             8.560          4280.000
       246   10 Jun 2027 03:50:03.908   10 Jun 2027 03:50:21.303            17.395          8697.500
       247   10 Jun 2027 05:22:03.765   10 Jun 2027 05:24:15.444           131.679         65839.500
       248   10 Jun 2027 05:24:54.231   10 Jun 2027 05:24:56.736             2.505          1252.500
       249   10 Jun 2027 05:26:14.556   10 Jun 2027 05:26:27.679            13.123          6561.500
       250   10 Jun 2027 05:27:53.616   10 Jun 2027 05:28:12.478            18.862          9431.000
       251   10 Jun 2027 05:28:39.392   10 Jun 2027 05:28:39.669             0.277           138.500
       252   10 Jun 2027 06:58:25.139   10 Jun 2027 07:00:24.510           119.371         59633.468
       253   10 Jun 2027 07:01:33.959   10 Jun 2027 07:01:34.113             0.154            77.000
       254   10 Jun 2027 07:01:41.828   10 Jun 2027 07:01:47.214             5.386          2305.344
       255   10 Jun 2027 07:02:42.529   10 Jun 2027 07:02:46.766             4.237          1667.969
       256   10 Jun 2027 08:35:43.156   10 Jun 2027 08:36:16.387            33.231         14994.438
       257   10 Jun 2027 08:36:55.409   10 Jun 2027 08:36:58.825             3.416           400.125
       258   10 Jun 2027 08:37:11.834   10 Jun 2027 08:37:13.361             1.527           406.531
       259   10 Jun 2027 08:38:18.151   10 Jun 2027 08:38:24.479             6.328          1868.937
       260   10 Jun 2027 08:38:39.079   10 Jun 2027 08:38:43.169             4.090           446.656
       261   10 Jun 2027 08:38:48.621   10 Jun 2027 08:38:55.595             6.974           152.031
       262   10 Jun 2027 08:39:28.400   10 Jun 2027 08:39:28.400             0.000             0.000
       263   10 Jun 2027 08:39:32.555   10 Jun 2027 08:39:37.263             4.708          1155.000
       264   10 Jun 2027 08:40:18.111   10 Jun 2027 08:40:19.933             1.822           911.000
       265   10 Jun 2027 10:11:55.124   10 Jun 2027 10:12:11.418            16.294          7992.094
       266   10 Jun 2027 10:12:56.690   10 Jun 2027 10:12:59.483             2.793          1392.094
       267   10 Jun 2027 10:13:06.822   10 Jun 2027 10:13:06.822             0.000             0.000
       268   10 Jun 2027 10:13:45.833   10 Jun 2027 10:13:50.289             4.456          1400.875
       269   10 Jun 2027 10:14:55.963   10 Jun 2027 10:14:58.280             2.317           619.563
       270   10 Jun 2027 10:15:02.274   10 Jun 2027 10:15:07.561             5.287           124.813
       271   10 Jun 2027 10:15:58.700   10 Jun 2027 10:16:01.982             3.282           963.406
       272   10 Jun 2027 10:16:41.454   10 Jun 2027 10:16:43.415             1.961           980.500
       273   11 Jun 2027 03:58:44.275   11 Jun 2027 03:59:36.435            52.160         26080.000
       274   11 Jun 2027 05:33:38.003   11 Jun 2027 05:35:55.114           137.111         68555.500
       275   11 Jun 2027 05:36:04.994   11 Jun 2027 05:36:19.448            14.454          7227.000
       276   11 Jun 2027 05:37:26.535   11 Jun 2027 05:37:39.980            13.445          6722.500
       277   11 Jun 2027 05:40:44.712   11 Jun 2027 05:40:44.796             0.084            42.000
       278   11 Jun 2027 07:10:01.722   11 Jun 2027 07:12:31.404           149.682         74841.000
       279   11 Jun 2027 07:13:42.335   11 Jun 2027 07:13:43.718             1.383           691.500
       280   11 Jun 2027 07:14:42.559   11 Jun 2027 07:14:42.559             0.000             0.000
       281   11 Jun 2027 07:15:50.914   11 Jun 2027 07:16:01.859            10.945          5472.500
       282   11 Jun 2027 08:48:18.136   11 Jun 2027 08:48:54.780            36.644         16807.813
       283   11 Jun 2027 08:50:12.776   11 Jun 2027 08:50:20.633             7.857          2349.250
       284   11 Jun 2027 08:50:44.948   11 Jun 2027 08:50:48.441             3.493           289.625
       285   11 Jun 2027 08:51:53.055   11 Jun 2027 08:52:01.986             8.931          1959.937
       286   11 Jun 2027 10:23:43.345   11 Jun 2027 10:24:02.951            19.606          8452.000
       287   11 Jun 2027 10:24:57.517   11 Jun 2027 10:25:02.180             4.663          1666.000
       288   11 Jun 2027 10:26:23.415   11 Jun 2027 10:26:27.243             3.828          1914.000
       289   11 Jun 2027 10:26:57.940   11 Jun 2027 10:27:01.457             3.517          1386.844
       290   11 Jun 2027 10:27:24.776   11 Jun 2027 10:27:28.071             3.295           315.875
       291   11 Jun 2027 10:28:11.906   11 Jun 2027 10:28:15.000             3.094          1369.844
       292   11 Jun 2027 10:28:44.170   11 Jun 2027 10:28:49.085             4.915           525.312
       293   12 Jun 2027 04:09:01.925   12 Jun 2027 04:09:48.131            46.206         23103.000
       294   12 Jun 2027 04:10:28.288   12 Jun 2027 04:10:40.227            11.939          5969.500
       295   12 Jun 2027 04:12:49.555   12 Jun 2027 04:12:49.911             0.356           178.000
       296   12 Jun 2027 04:14:33.230   12 Jun 2027 04:14:52.581            19.351          9675.500
       297   12 Jun 2027 04:14:56.899   12 Jun 2027 04:15:03.971             7.072          3536.000
       298   12 Jun 2027 05:45:14.729   12 Jun 2027 05:47:30.085           135.356         67678.000
       299   12 Jun 2027 05:50:47.616   12 Jun 2027 05:50:47.616             0.000             0.000
       300   12 Jun 2027 05:51:31.211   12 Jun 2027 05:51:48.458            17.247          8623.500
       301   12 Jun 2027 05:51:57.457   12 Jun 2027 05:51:57.457             0.000             0.000
       302   12 Jun 2027 05:52:04.934   12 Jun 2027 05:52:12.882             7.948          3974.000
       303   12 Jun 2027 05:52:49.242   12 Jun 2027 05:52:49.411             0.169            84.500
       304   12 Jun 2027 07:22:21.085   12 Jun 2027 07:24:30.033           128.948         64474.000
       305   12 Jun 2027 07:25:12.064   12 Jun 2027 07:25:29.629            17.565          8782.500
       306   12 Jun 2027 07:27:20.251   12 Jun 2027 07:27:27.504             7.253          3626.500
       307   12 Jun 2027 09:00:18.985   12 Jun 2027 09:00:50.646            31.661         13482.969
       308   12 Jun 2027 09:01:58.967   12 Jun 2027 09:02:09.250            10.283          2123.063
       309   12 Jun 2027 09:02:22.589   12 Jun 2027 09:02:24.558             1.969           416.844
       310   12 Jun 2027 09:02:51.349   12 Jun 2027 09:02:53.959             2.610           735.781
       311   12 Jun 2027 09:04:01.441   12 Jun 2027 09:04:07.171             5.730          1920.531
       312   12 Jun 2027 10:33:25.823   12 Jun 2027 10:33:42.464            16.641          6652.875
       313   12 Jun 2027 10:34:50.580   12 Jun 2027 10:34:52.274             1.694           847.000
       314   12 Jun 2027 10:35:17.840   12 Jun 2027 10:35:17.840             0.000             0.000
       315   12 Jun 2027 10:35:38.187   12 Jun 2027 10:35:48.508            10.321          1604.813
       316   12 Jun 2027 10:35:57.306   12 Jun 2027 10:35:58.011             0.705           274.937
       317   12 Jun 2027 10:36:49.256   12 Jun 2027 10:36:51.197             1.941           854.656
       318   12 Jun 2027 10:36:54.267   12 Jun 2027 10:36:54.267             0.000             0.000
       319   12 Jun 2027 10:36:58.643   12 Jun 2027 10:37:05.150             6.507           232.687
       320   12 Jun 2027 10:37:56.580   12 Jun 2027 10:38:01.809             5.229          1533.188
       321   12 Jun 2027 10:38:34.561   12 Jun 2027 10:38:39.495             4.934           746.531
       322   12 Jun 2027 10:39:31.938   12 Jun 2027 10:39:39.007             7.069          1512.594
       323   12 Jun 2027 10:40:25.592   12 Jun 2027 10:40:30.889             5.297          1212.125
       324   12 Jun 2027 10:40:59.622   12 Jun 2027 10:41:01.813             2.191           799.219
       325   13 Jun 2027 04:20:08.491   13 Jun 2027 04:21:38.723            90.232         45116.000
       326   13 Jun 2027 04:22:43.780   13 Jun 2027 04:22:43.780             0.000             0.000
       327   13 Jun 2027 04:24:50.492   13 Jun 2027 04:24:50.492             0.000             0.000
       328   13 Jun 2027 04:25:52.014   13 Jun 2027 04:26:02.321            10.307          5153.500
       329   13 Jun 2027 04:28:04.892   13 Jun 2027 04:28:07.469             2.577          1288.500
       330   13 Jun 2027 04:28:12.039   13 Jun 2027 04:28:12.180             0.141            70.500
       331   13 Jun 2027 05:57:34.608   13 Jun 2027 05:59:37.820           123.212         61606.000
       332   13 Jun 2027 05:59:50.780   13 Jun 2027 05:59:59.371             8.591          4295.500
       333   13 Jun 2027 06:03:47.623   13 Jun 2027 06:03:50.247             2.624          1312.000
       334   13 Jun 2027 06:04:53.014   13 Jun 2027 06:04:53.491             0.477           238.500
       335   13 Jun 2027 07:34:21.317   13 Jun 2027 07:36:11.224           109.907         54953.500
       336   13 Jun 2027 07:36:31.935   13 Jun 2027 07:37:07.195            35.260         17630.000
       337   13 Jun 2027 07:38:31.993   13 Jun 2027 07:38:31.993             0.000             0.000
       338   13 Jun 2027 07:39:08.550   13 Jun 2027 07:39:15.527             6.977          3488.500
       339   13 Jun 2027 07:39:45.169   13 Jun 2027 07:39:50.067             4.898          1631.157
       340   13 Jun 2027 07:40:17.119   13 Jun 2027 07:40:19.702             2.583           833.406
       341   13 Jun 2027 09:12:19.437   13 Jun 2027 09:12:43.174            23.737         11868.500
       342   13 Jun 2027 09:12:49.165   13 Jun 2027 09:12:51.654             2.489           596.719
       343   13 Jun 2027 09:13:12.720   13 Jun 2027 09:13:12.720             0.000             0.000
       344   13 Jun 2027 09:13:14.286   13 Jun 2027 09:13:16.943             2.657           409.625
       345   13 Jun 2027 09:13:24.492   13 Jun 2027 09:13:31.629             7.137           200.719
       346   13 Jun 2027 09:14:34.139   13 Jun 2027 09:14:40.379             6.240          1953.437
       347   13 Jun 2027 09:14:58.611   13 Jun 2027 09:15:00.373             1.762           569.750
       348   13 Jun 2027 09:15:37.308   13 Jun 2027 09:15:46.978             9.670           866.062
       349   13 Jun 2027 09:15:56.613   13 Jun 2027 09:15:59.314             2.701           145.719
       350   13 Jun 2027 09:16:10.806   13 Jun 2027 09:16:12.029             1.223           359.125
       351   13 Jun 2027 10:45:56.993   13 Jun 2027 10:46:05.749             8.756          3506.812
       352   13 Jun 2027 10:47:16.864   13 Jun 2027 10:47:31.490            14.626          1768.750
       353   13 Jun 2027 10:48:26.801   13 Jun 2027 10:48:32.126             5.325          1728.469
       354   13 Jun 2027 10:48:38.982   13 Jun 2027 10:48:39.178             0.196            72.969
       355   13 Jun 2027 10:49:37.563   13 Jun 2027 10:49:45.478             7.915          1461.844
       356   13 Jun 2027 10:49:58.023   13 Jun 2027 10:49:58.023             0.000             0.000
       357   13 Jun 2027 10:50:06.006   13 Jun 2027 10:50:10.007             4.001           517.625
       358   13 Jun 2027 10:50:58.231   13 Jun 2027 10:51:01.027             2.796          1043.313
       359   13 Jun 2027 10:51:48.503   13 Jun 2027 10:51:50.516             2.013          1006.500
       360   13 Jun 2027 10:52:37.780   13 Jun 2027 10:52:40.061             2.281          1140.500
       361   13 Jun 2027 10:52:42.035   13 Jun 2027 10:52:45.692             3.657           811.844
       362   13 Jun 2027 10:53:09.719   13 Jun 2027 10:53:11.272             1.553           235.156
