uniorb/output/strategy_1/Camera/Camera_KinoSat_111110.txt

KinoSat_111110
-------------------------
    Access    *     Start Time (UTCG)     *     Stop Time (UTCG)  *   Duration (s) *   Data (Mbytes)
         1   01 Jun 2027 04:11:11.822   01 Jun 2027 04:12:46.222            94.400         47200.000
         2   01 Jun 2027 04:13:05.682   01 Jun 2027 04:13:07.901             2.219          1109.500
         3   01 Jun 2027 04:13:31.568   01 Jun 2027 04:13:32.692             1.124           562.000
         4   01 Jun 2027 05:47:25.413   01 Jun 2027 05:49:56.971           151.558         75779.000
         5   01 Jun 2027 07:20:58.192   01 Jun 2027 07:23:04.474           126.282         63141.000
         6   01 Jun 2027 07:23:17.047   01 Jun 2027 07:23:17.047             0.000             0.000
         7   01 Jun 2027 07:23:25.167   01 Jun 2027 07:23:37.553            12.386          6193.000
         8   01 Jun 2027 07:24:06.043   01 Jun 2027 07:24:06.969             0.926           463.000
         9   01 Jun 2027 07:25:01.023   01 Jun 2027 07:25:14.175            13.152          6576.000
        10   01 Jun 2027 07:27:28.458   01 Jun 2027 07:27:28.458             0.000             0.000
        11   01 Jun 2027 07:28:29.929   01 Jun 2027 07:28:34.620             4.691          2345.500
        12   01 Jun 2027 08:58:30.649   01 Jun 2027 09:00:23.609           112.960         56480.000
        13   01 Jun 2027 09:00:44.773   01 Jun 2027 09:00:52.042             7.269          3634.500
        14   01 Jun 2027 09:02:28.433   01 Jun 2027 09:02:40.196            11.763          5881.500
        15   01 Jun 2027 10:35:25.877   01 Jun 2027 10:37:16.681           110.804         55402.000
        16   01 Jun 2027 10:37:59.439   01 Jun 2027 10:38:05.004             5.565          2782.500
        17   01 Jun 2027 10:38:48.481   01 Jun 2027 10:38:50.564             2.083          1041.500
        18   01 Jun 2027 10:40:54.094   01 Jun 2027 10:41:06.817            12.723          6361.500
        19   02 Jun 2027 03:00:01.639   02 Jun 2027 03:00:21.663            20.024         10012.000
        20   02 Jun 2027 03:00:39.145   02 Jun 2027 03:00:43.765             4.620          2310.000
        21   02 Jun 2027 03:01:14.879   02 Jun 2027 03:01:14.879             0.000             0.000
        22   02 Jun 2027 03:01:39.095   02 Jun 2027 03:01:46.473             7.378          3689.000
        23   02 Jun 2027 03:02:24.910   02 Jun 2027 03:03:02.802            37.892         18946.000
        24   02 Jun 2027 04:23:02.979   02 Jun 2027 04:23:55.130            52.151         26075.500
        25   02 Jun 2027 04:24:06.044   02 Jun 2027 04:24:13.502             7.458          3729.000
        26   02 Jun 2027 05:59:30.161   02 Jun 2027 06:01:18.932           108.771         54385.500
        27   02 Jun 2027 06:01:31.012   02 Jun 2027 06:01:32.900             1.888           944.000
        28   02 Jun 2027 06:01:41.602   02 Jun 2027 06:01:47.930             6.328          3164.000
        29   02 Jun 2027 07:31:37.852   02 Jun 2027 07:31:48.822            10.970          5485.000
        30   02 Jun 2027 07:33:36.970   02 Jun 2027 07:35:29.840           112.870         56435.000
        31   02 Jun 2027 07:36:09.456   02 Jun 2027 07:36:15.893             6.437          3218.500
        32   02 Jun 2027 07:37:47.973   02 Jun 2027 07:37:47.973             0.000             0.000
        33   02 Jun 2027 07:38:48.299   02 Jun 2027 07:39:16.479            28.180         14090.000
        34   02 Jun 2027 09:10:35.471   02 Jun 2027 09:12:56.223           140.752         70376.000
        35   02 Jun 2027 09:14:17.317   02 Jun 2027 09:14:17.367             0.050            25.000
        36   02 Jun 2027 09:14:57.982   02 Jun 2027 09:14:59.877             1.895           947.500
        37   02 Jun 2027 09:16:35.309   02 Jun 2027 09:16:38.354             3.045          1522.500
        38   02 Jun 2027 09:17:12.319   02 Jun 2027 09:17:20.206             7.887          3943.500
        39   02 Jun 2027 10:48:03.920   02 Jun 2027 10:49:56.944           113.024         56512.000
        40   02 Jun 2027 10:52:36.178   02 Jun 2027 10:52:42.801             6.623          3311.500
        41   03 Jun 2027 03:11:54.518   03 Jun 2027 03:12:52.261            57.743         28871.500
        42   03 Jun 2027 03:13:15.371   03 Jun 2027 03:13:25.384            10.013          5006.500
        43   03 Jun 2027 03:15:06.712   03 Jun 2027 03:15:08.147             1.435           717.500
        44   03 Jun 2027 03:15:23.595   03 Jun 2027 03:15:38.390            14.795          7397.500
        45   03 Jun 2027 03:15:43.851   03 Jun 2027 03:15:45.364             1.513           756.500
        46   03 Jun 2027 04:35:11.172   03 Jun 2027 04:35:38.348            27.176         13588.000
        47   03 Jun 2027 06:11:39.977   03 Jun 2027 06:12:58.830            78.853         39426.500
        48   03 Jun 2027 06:15:13.002   03 Jun 2027 06:15:17.844             4.842          2421.000
        49   03 Jun 2027 07:46:50.983   03 Jun 2027 07:49:20.030           149.047         74523.500
        50   03 Jun 2027 07:50:37.347   03 Jun 2027 07:50:48.633            11.286          5643.000
        51   03 Jun 2027 07:53:19.771   03 Jun 2027 07:53:22.345             2.574          1287.000
        52   03 Jun 2027 09:23:09.975   03 Jun 2027 09:25:06.000           116.025         58012.500
        53   03 Jun 2027 09:25:17.054   03 Jun 2027 09:25:25.716             8.662          4331.000
        54   03 Jun 2027 09:25:41.398   03 Jun 2027 09:25:43.104             1.706           853.000
        55   03 Jun 2027 09:28:25.017   03 Jun 2027 09:28:33.403             8.386          4193.000
        56   03 Jun 2027 09:29:25.156   03 Jun 2027 09:29:26.238             1.082           541.000
        57   03 Jun 2027 11:00:33.343   03 Jun 2027 11:01:35.184            61.841         29681.219
        58   03 Jun 2027 11:01:56.591   03 Jun 2027 11:01:58.843             2.252           668.969
        59   03 Jun 2027 11:02:46.883   03 Jun 2027 11:02:50.042             3.159          1501.250
        60   03 Jun 2027 11:03:02.418   03 Jun 2027 11:03:02.418             0.000             0.000
        61   03 Jun 2027 11:03:17.172   03 Jun 2027 11:03:19.151             1.979           799.750
        62   03 Jun 2027 11:04:52.688   03 Jun 2027 11:04:59.541             6.853          2878.719
        63   04 Jun 2027 03:23:46.313   04 Jun 2027 03:24:22.677            36.364         18182.000
        64   04 Jun 2027 03:24:51.249   04 Jun 2027 03:25:18.166            26.917         13458.500
        65   04 Jun 2027 03:26:26.710   04 Jun 2027 03:26:48.054            21.344         10672.000
        66   04 Jun 2027 03:27:08.435   04 Jun 2027 03:27:11.280             2.845          1422.500
        67   04 Jun 2027 04:47:53.643   04 Jun 2027 04:48:11.502            17.859          8929.500
        68   04 Jun 2027 04:48:20.151   04 Jun 2027 04:48:20.151             0.000             0.000
        69   04 Jun 2027 04:48:33.790   04 Jun 2027 04:48:45.251            11.461          5730.500
        70   04 Jun 2027 04:48:54.637   04 Jun 2027 04:49:10.941            16.304          8152.000
        71   04 Jun 2027 06:23:38.077   04 Jun 2027 06:25:34.592           116.515         58257.500
        72   04 Jun 2027 06:26:46.659   04 Jun 2027 06:26:46.659             0.000             0.000
        73   04 Jun 2027 07:58:42.871   04 Jun 2027 08:00:03.354            80.483         39737.813
        74   04 Jun 2027 08:00:39.648   04 Jun 2027 08:00:41.889             2.241           997.312
        75   04 Jun 2027 08:01:28.383   04 Jun 2027 08:01:32.729             4.346          1421.687
        76   04 Jun 2027 08:02:23.589   04 Jun 2027 08:02:23.589             0.000             0.000
        77   04 Jun 2027 08:04:15.592   04 Jun 2027 08:04:23.294             7.702          3851.000
        78   04 Jun 2027 08:05:01.671   04 Jun 2027 08:05:04.620             2.949          1474.500
        79   04 Jun 2027 08:05:11.604   04 Jun 2027 08:05:15.572             3.968           987.156
        80   04 Jun 2027 08:05:31.604   04 Jun 2027 08:05:32.569             0.965           478.875
        81   04 Jun 2027 09:34:47.966   04 Jun 2027 09:35:10.670            22.704          9748.938
        82   04 Jun 2027 09:37:28.376   04 Jun 2027 09:37:38.153             9.777          1024.781
        83   04 Jun 2027 09:37:55.449   04 Jun 2027 09:37:58.285             2.836           479.531
        84   04 Jun 2027 09:38:10.297   04 Jun 2027 09:38:11.492             1.195           297.625
        85   04 Jun 2027 09:39:10.094   04 Jun 2027 09:39:18.056             7.962          1831.312
        86   04 Jun 2027 09:39:33.758   04 Jun 2027 09:39:37.260             3.502           411.125
        87   04 Jun 2027 09:39:44.283   04 Jun 2027 09:39:44.724             0.441           193.719
        88   04 Jun 2027 09:40:09.357   04 Jun 2027 09:40:11.753             2.396           768.563
        89   04 Jun 2027 09:40:27.289   04 Jun 2027 09:40:29.971             2.682           485.500
        90   04 Jun 2027 09:41:06.235   04 Jun 2027 09:41:07.596             1.361           478.250
        91   04 Jun 2027 11:12:45.987   04 Jun 2027 11:13:00.112            14.125          7019.156
        92   04 Jun 2027 11:13:30.595   04 Jun 2027 11:13:34.074             3.479           952.594
        93   04 Jun 2027 11:13:57.811   04 Jun 2027 11:13:59.728             1.917           487.813
        94   04 Jun 2027 11:14:07.031   04 Jun 2027 11:14:13.588             6.557           228.219
        95   04 Jun 2027 11:14:44.254   04 Jun 2027 11:14:47.720             3.466           467.000
        96   04 Jun 2027 11:15:01.842   04 Jun 2027 11:15:01.842             0.000             0.000
        97   04 Jun 2027 11:15:01.956   04 Jun 2027 11:15:06.236             4.280           372.219
        98   04 Jun 2027 11:15:17.796   04 Jun 2027 11:15:18.650             0.854           361.250
        99   04 Jun 2027 11:15:49.380   04 Jun 2027 11:15:53.892             4.512           960.313
       100   04 Jun 2027 11:16:54.401   04 Jun 2027 11:16:58.433             4.032          1890.906
       101   04 Jun 2027 11:17:03.092   04 Jun 2027 11:17:04.098             1.006           145.594
       102   05 Jun 2027 03:24:41.822   05 Jun 2027 03:25:01.734            19.912          9956.000
       103   05 Jun 2027 03:35:41.869   05 Jun 2027 03:37:20.005            98.136         49068.000
       104   05 Jun 2027 04:59:00.317   05 Jun 2027 04:59:53.884            53.567         26783.500
       105   05 Jun 2027 05:02:28.505   05 Jun 2027 05:02:28.505             0.000             0.000
       106   05 Jun 2027 06:35:22.684   05 Jun 2027 06:36:48.557            85.873         42936.500
       107   05 Jun 2027 06:37:30.447   05 Jun 2027 06:37:36.185             5.738          2869.000
       108   05 Jun 2027 06:38:31.202   05 Jun 2027 06:38:36.255             5.053          2526.500
       109   05 Jun 2027 06:38:58.059   05 Jun 2027 06:39:13.349            15.290          7645.000
       110   05 Jun 2027 06:39:42.633   05 Jun 2027 06:39:46.627             3.994          1997.000
       111   05 Jun 2027 08:10:08.275   05 Jun 2027 08:10:56.055            47.780         23491.906
       112   05 Jun 2027 08:12:52.820   05 Jun 2027 08:13:03.020            10.200          3323.875
       113   05 Jun 2027 08:14:23.073   05 Jun 2027 08:14:27.251             4.178          2089.000
       114   05 Jun 2027 08:14:37.213   05 Jun 2027 08:14:38.466             1.253           423.625
       115   05 Jun 2027 08:14:56.812   05 Jun 2027 08:14:58.060             1.248           573.312
       116   05 Jun 2027 08:15:38.803   05 Jun 2027 08:15:44.245             5.442           974.437
       117   05 Jun 2027 08:16:13.710   05 Jun 2027 08:16:13.710             0.000             0.000
       118   05 Jun 2027 08:16:48.865   05 Jun 2027 08:16:48.865             0.000             0.000
       119   05 Jun 2027 08:16:50.262   05 Jun 2027 08:16:56.589             6.327          1892.656
       120   05 Jun 2027 08:17:24.126   05 Jun 2027 08:17:24.126             0.000             0.000
       121   05 Jun 2027 09:46:57.711   05 Jun 2027 09:47:14.634            16.923          8414.031
       122   05 Jun 2027 09:47:57.262   05 Jun 2027 09:48:00.299             3.037           483.125
       123   05 Jun 2027 09:49:00.600   05 Jun 2027 09:49:02.416             1.816           472.469
       124   05 Jun 2027 09:49:30.520   05 Jun 2027 09:49:32.370             1.850           208.094
       125   05 Jun 2027 09:50:02.223   05 Jun 2027 09:50:07.753             5.530           795.125
       126   05 Jun 2027 09:50:58.519   05 Jun 2027 09:51:03.397             4.878          1559.656
       127   05 Jun 2027 09:51:22.084   05 Jun 2027 09:51:23.908             1.824           306.563
       128   05 Jun 2027 09:51:27.356   05 Jun 2027 09:51:27.940             0.584           107.750
       129   05 Jun 2027 09:52:59.796   05 Jun 2027 09:53:07.543             7.747          2870.500
       130   05 Jun 2027 11:25:08.264   05 Jun 2027 11:25:25.987            17.723          7912.094
       131   05 Jun 2027 11:25:44.516   05 Jun 2027 11:25:44.516             0.000             0.000
       132   05 Jun 2027 11:26:48.968   05 Jun 2027 11:26:56.504             7.536          2593.156
       133   05 Jun 2027 11:27:18.449   05 Jun 2027 11:27:19.994             1.545           685.781
       134   05 Jun 2027 11:27:41.940   05 Jun 2027 11:27:42.550             0.610           305.000
       135   05 Jun 2027 11:27:57.907   05 Jun 2027 11:27:59.741             1.834           860.719
       136   05 Jun 2027 11:28:59.718   05 Jun 2027 11:29:04.059             4.341          1874.281
       137   06 Jun 2027 03:36:01.842   06 Jun 2027 03:36:55.565            53.723         26861.500
       138   06 Jun 2027 03:47:42.726   06 Jun 2027 03:48:56.122            73.396         36698.000
       139   06 Jun 2027 05:09:58.320   06 Jun 2027 05:11:06.610            68.290         34145.000
       140   06 Jun 2027 05:12:00.983   06 Jun 2027 05:12:17.343            16.360          8180.000
       141   06 Jun 2027 05:14:34.233   06 Jun 2027 05:14:35.189             0.956           478.000
       142   06 Jun 2027 06:45:10.663   06 Jun 2027 06:46:35.528            84.865         42432.500
       143   06 Jun 2027 06:47:06.712   06 Jun 2027 06:47:29.914            23.202         11601.000
       144   06 Jun 2027 06:48:42.933   06 Jun 2027 06:48:42.933             0.000             0.000
       145   06 Jun 2027 06:50:50.056   06 Jun 2027 06:50:54.933             4.877          2438.500
       146   06 Jun 2027 06:51:24.870   06 Jun 2027 06:51:29.934             5.064          2532.000
       147   06 Jun 2027 06:51:40.795   06 Jun 2027 06:51:49.767             8.972          4486.000
       148   06 Jun 2027 08:22:15.294   06 Jun 2027 08:22:32.798            17.504          8640.469
       149   06 Jun 2027 08:22:56.257   06 Jun 2027 08:23:03.726             7.469           562.438
       150   06 Jun 2027 08:24:18.755   06 Jun 2027 08:24:22.827             4.072          2036.000
       151   06 Jun 2027 08:25:20.651   06 Jun 2027 08:25:25.707             5.056          1990.844
       152   06 Jun 2027 08:25:44.951   06 Jun 2027 08:25:47.040             2.089           545.875
       153   06 Jun 2027 08:25:52.768   06 Jun 2027 08:25:53.593             0.825           168.562
       154   06 Jun 2027 08:26:24.961   06 Jun 2027 08:26:27.447             2.486           747.969
       155   06 Jun 2027 08:27:02.656   06 Jun 2027 08:27:05.926             3.270          1100.281
       156   06 Jun 2027 08:27:19.019   06 Jun 2027 08:27:25.772             6.753           365.281
       157   06 Jun 2027 08:27:50.123   06 Jun 2027 08:27:50.811             0.688           323.687
       158   06 Jun 2027 08:28:01.932   06 Jun 2027 08:28:02.724             0.792           221.719
       159   06 Jun 2027 08:28:15.737   06 Jun 2027 08:28:17.706             1.969           320.250
       160   06 Jun 2027 08:28:21.721   06 Jun 2027 08:28:21.721             0.000             0.000
       161   06 Jun 2027 08:28:39.416   06 Jun 2027 08:28:40.855             1.439           671.250
       162   06 Jun 2027 08:29:21.639   06 Jun 2027 08:29:26.069             4.430          1087.656
       163   06 Jun 2027 08:29:28.548   06 Jun 2027 08:29:33.378             4.830            77.469
       164   06 Jun 2027 08:29:37.878   06 Jun 2027 08:29:40.678             2.800           140.625
       165   06 Jun 2027 09:59:13.406   06 Jun 2027 09:59:30.175            16.769          7892.906
       166   06 Jun 2027 10:00:35.370   06 Jun 2027 10:00:38.706             3.336          1031.094
       167   06 Jun 2027 10:01:47.755   06 Jun 2027 10:01:54.067             6.312          2121.969
       168   06 Jun 2027 10:02:29.572   06 Jun 2027 10:02:36.431             6.859           639.406
       169   06 Jun 2027 10:03:13.718   06 Jun 2027 10:03:16.020             2.302          1137.906
       170   06 Jun 2027 10:04:03.287   06 Jun 2027 10:04:09.102             5.815          1315.187
       171   06 Jun 2027 10:04:44.945   06 Jun 2027 10:04:49.859             4.914           756.219
       172   06 Jun 2027 10:05:07.838   06 Jun 2027 10:05:08.452             0.614           300.469
       173   06 Jun 2027 11:37:09.717   06 Jun 2027 11:37:22.062            12.345          6172.500
       174   06 Jun 2027 11:37:31.584   06 Jun 2027 11:37:31.584             0.000             0.000
       175   06 Jun 2027 11:37:44.111   06 Jun 2027 11:37:51.897             7.786           992.000
       176   06 Jun 2027 11:38:48.309   06 Jun 2027 11:38:54.624             6.315          1762.875
       177   06 Jun 2027 11:40:16.814   06 Jun 2027 11:40:22.152             5.338          2549.000
       178   06 Jun 2027 11:40:57.259   06 Jun 2027 11:41:02.304             5.045          1097.094
       179   07 Jun 2027 03:47:25.064   07 Jun 2027 03:48:44.909            79.845         39922.500
       180   07 Jun 2027 03:59:39.849   07 Jun 2027 04:00:18.572            38.723         19361.500
       181   07 Jun 2027 05:21:39.913   07 Jun 2027 05:23:00.924            81.011         40505.500
       182   07 Jun 2027 05:23:53.706   07 Jun 2027 05:24:06.877            13.171          6585.500
       183   07 Jun 2027 05:26:30.315   07 Jun 2027 05:26:35.981             5.666          2833.000
       184   07 Jun 2027 06:56:38.477   07 Jun 2027 06:58:21.660           103.183         51591.500
       185   07 Jun 2027 07:00:52.064   07 Jun 2027 07:01:16.336            24.272         11824.844
       186   07 Jun 2027 07:02:48.316   07 Jun 2027 07:02:51.266             2.950          1475.000
       187   07 Jun 2027 07:04:49.340   07 Jun 2027 07:04:53.718             4.378          2189.000
       188   07 Jun 2027 07:05:05.762   07 Jun 2027 07:05:13.249             7.487          3071.375
       189   07 Jun 2027 08:34:17.411   07 Jun 2027 08:34:40.826            23.415          9970.906
       190   07 Jun 2027 08:36:18.127   07 Jun 2027 08:36:25.958             7.831          3040.656
       191   07 Jun 2027 08:37:14.671   07 Jun 2027 08:37:18.024             3.353          1522.281
       192   07 Jun 2027 08:38:07.072   07 Jun 2027 08:38:10.132             3.060          1481.625
       193   07 Jun 2027 08:38:36.287   07 Jun 2027 08:38:39.542             3.255           694.000
       194   07 Jun 2027 08:39:28.776   07 Jun 2027 08:39:33.141             4.365          1538.563
       195   07 Jun 2027 08:40:19.865   07 Jun 2027 08:40:21.820             1.955           924.312
       196   07 Jun 2027 08:41:01.122   07 Jun 2027 08:41:10.815             9.693          1201.969
       197   07 Jun 2027 08:41:30.597   07 Jun 2027 08:41:32.284             1.687           618.188
       198   07 Jun 2027 08:41:37.528   07 Jun 2027 08:41:39.717             2.189           163.875
       199   07 Jun 2027 10:11:04.167   07 Jun 2027 10:11:24.868            20.701          7749.250
       200   07 Jun 2027 10:12:06.703   07 Jun 2027 10:12:09.766             3.063          1224.438
       201   07 Jun 2027 10:12:37.340   07 Jun 2027 10:12:46.477             9.137           744.969
       202   07 Jun 2027 10:13:33.092   07 Jun 2027 10:13:35.364             2.272           431.500
       203   07 Jun 2027 10:13:56.706   07 Jun 2027 10:13:58.300             1.594           666.938
       204   07 Jun 2027 10:14:04.176   07 Jun 2027 10:14:11.843             7.667           183.625
       205   07 Jun 2027 10:14:28.599   07 Jun 2027 10:14:30.377             1.778           252.187
       206   07 Jun 2027 10:14:57.614   07 Jun 2027 10:15:00.425             2.811           851.156
       207   07 Jun 2027 10:15:20.560   07 Jun 2027 10:15:25.217             4.657           629.219
       208   07 Jun 2027 10:16:04.163   07 Jun 2027 10:16:07.763             3.600          1214.813
       209   07 Jun 2027 10:16:13.595   07 Jun 2027 10:16:16.199             2.604           182.250
       210   07 Jun 2027 10:16:48.385   07 Jun 2027 10:16:50.963             2.578           705.594
       211   07 Jun 2027 10:17:19.798   07 Jun 2027 10:17:22.973             3.175           634.188
       212   07 Jun 2027 11:49:06.961   07 Jun 2027 11:49:25.168            18.207          7516.656
       213   07 Jun 2027 11:49:39.682   07 Jun 2027 11:49:42.710             3.028            71.063
       214   07 Jun 2027 11:49:53.140   07 Jun 2027 11:49:53.140             0.000             0.000
       215   07 Jun 2027 11:50:37.304   07 Jun 2027 11:50:41.801             4.497          1629.719
       216   07 Jun 2027 11:50:52.275   07 Jun 2027 11:50:54.828             2.553           132.656
       217   07 Jun 2027 11:51:30.365   07 Jun 2027 11:51:36.111             5.746          1110.531
       218   07 Jun 2027 11:53:15.458   07 Jun 2027 11:53:17.308             1.850           925.000
       219   08 Jun 2027 03:59:31.390   08 Jun 2027 04:00:46.134            74.744         37372.000
       220   08 Jun 2027 05:33:19.696   08 Jun 2027 05:35:33.694           133.998         66999.000
       221   08 Jun 2027 05:37:01.252   08 Jun 2027 05:37:01.252             0.000             0.000
       222   08 Jun 2027 05:38:24.187   08 Jun 2027 05:38:30.796             6.609          3304.500
       223   08 Jun 2027 07:08:12.453   08 Jun 2027 07:10:16.383           123.930         61375.906
       224   08 Jun 2027 07:11:18.075   08 Jun 2027 07:11:18.075             0.000             0.000
       225   08 Jun 2027 07:11:51.794   08 Jun 2027 07:11:52.131             0.337           168.500
       226   08 Jun 2027 07:12:43.332   08 Jun 2027 07:12:43.332             0.000             0.000
       227   08 Jun 2027 07:12:53.963   08 Jun 2027 07:13:01.911             7.948          3974.000
       228   08 Jun 2027 07:14:49.727   08 Jun 2027 07:14:52.926             3.199          1599.500
       229   08 Jun 2027 07:15:27.139   08 Jun 2027 07:15:29.123             1.984           992.000
       230   08 Jun 2027 07:15:59.865   08 Jun 2027 07:16:02.889             3.024          1512.000
       231   08 Jun 2027 07:16:07.120   08 Jun 2027 07:16:12.866             5.746          2004.781
       232   08 Jun 2027 08:46:19.425   08 Jun 2027 08:46:42.782            23.357         10712.344
       233   08 Jun 2027 08:47:09.821   08 Jun 2027 08:47:14.077             4.256           485.000
       234   08 Jun 2027 08:48:28.940   08 Jun 2027 08:48:33.855             4.915          2219.812
       235   08 Jun 2027 08:49:32.262   08 Jun 2027 08:49:34.213             1.951           975.500
       236   08 Jun 2027 08:49:41.915   08 Jun 2027 08:49:44.732             2.817           923.406
       237   08 Jun 2027 08:49:53.395   08 Jun 2027 08:49:53.824             0.429           141.094
       238   08 Jun 2027 08:50:15.195   08 Jun 2027 08:50:23.234             8.039           350.625
       239   08 Jun 2027 08:51:12.317   08 Jun 2027 08:51:16.902             4.585          1364.625
       240   08 Jun 2027 08:51:30.719   08 Jun 2027 08:51:32.722             2.003           370.938
       241   08 Jun 2027 08:51:49.267   08 Jun 2027 08:51:50.369             1.102           517.031
       242   08 Jun 2027 08:51:51.652   08 Jun 2027 08:51:52.494             0.842            40.094
       243   08 Jun 2027 08:52:21.586   08 Jun 2027 08:52:26.567             4.981           667.312
       244   08 Jun 2027 08:53:03.117   08 Jun 2027 08:53:07.008             3.891           218.969
       245   08 Jun 2027 08:53:24.279   08 Jun 2027 08:53:26.120             1.841           539.719
       246   08 Jun 2027 08:53:32.785   08 Jun 2027 08:53:33.674             0.889           138.250
       247   08 Jun 2027 10:23:14.450   08 Jun 2027 10:23:29.809            15.359          7231.969
       248   08 Jun 2027 10:24:14.213   08 Jun 2027 10:24:16.685             2.472           249.156
       249   08 Jun 2027 10:25:25.615   08 Jun 2027 10:25:33.403             7.788          2078.937
       250   08 Jun 2027 10:25:44.640   08 Jun 2027 10:25:45.642             1.002           208.781
       251   08 Jun 2027 10:26:16.025   08 Jun 2027 10:26:17.166             1.141           540.031
       252   08 Jun 2027 10:27:05.389   08 Jun 2027 10:27:07.637             2.248          1124.000
       253   08 Jun 2027 10:27:38.087   08 Jun 2027 10:27:40.634             2.547          1263.532
       254   08 Jun 2027 10:27:56.146   08 Jun 2027 10:27:57.273             1.127           333.875
       255   08 Jun 2027 10:28:03.098   08 Jun 2027 10:28:05.243             2.145           182.031
       256   08 Jun 2027 10:28:38.229   08 Jun 2027 10:28:38.229             0.000             0.000
       257   08 Jun 2027 10:28:43.036   08 Jun 2027 10:28:50.981             7.945          1181.031
       258   08 Jun 2027 10:29:10.929   08 Jun 2027 10:29:11.778             0.849           330.687
       259   08 Jun 2027 10:29:37.648   08 Jun 2027 10:29:38.673             1.025           512.500
       260   09 Jun 2027 04:11:26.544   09 Jun 2027 04:12:25.086            58.542         29271.000
       261   09 Jun 2027 05:47:41.526   09 Jun 2027 05:50:13.565           152.039         76019.500
       262   09 Jun 2027 07:21:13.963   09 Jun 2027 07:22:42.180            88.217         44108.500
       263   09 Jun 2027 07:23:20.571   09 Jun 2027 07:23:52.553            31.982         15972.125
       264   09 Jun 2027 07:24:30.877   09 Jun 2027 07:24:34.157             3.280          1197.625
       265   09 Jun 2027 07:25:45.323   09 Jun 2027 07:25:45.828             0.505           252.500
       266   09 Jun 2027 07:28:05.836   09 Jun 2027 07:28:14.868             9.032          4516.000
       267   09 Jun 2027 07:29:45.707   09 Jun 2027 07:29:47.111             1.404           702.000
       268   09 Jun 2027 08:58:46.574   09 Jun 2027 08:59:07.387            20.813          9965.719
       269   09 Jun 2027 09:00:08.731   09 Jun 2027 09:00:11.182             2.451          1203.063
       270   09 Jun 2027 09:01:11.378   09 Jun 2027 09:01:13.974             2.596          1094.219
       271   09 Jun 2027 09:01:50.565   09 Jun 2027 09:01:52.640             2.075          1019.562
       272   09 Jun 2027 09:01:55.991   09 Jun 2027 09:01:56.450             0.459            57.594
       273   09 Jun 2027 09:02:12.491   09 Jun 2027 09:02:19.929             7.438           378.719
       274   09 Jun 2027 09:03:12.137   09 Jun 2027 09:03:15.983             3.846          1305.063
       275   09 Jun 2027 09:03:46.709   09 Jun 2027 09:03:49.441             2.732           817.875
       276   09 Jun 2027 09:04:10.894   09 Jun 2027 09:04:13.537             2.643           670.406
       277   09 Jun 2027 09:05:04.533   09 Jun 2027 09:05:09.116             4.583          1593.625
       278   09 Jun 2027 10:35:41.167   09 Jun 2027 10:36:02.963            21.796          8083.437
       279   09 Jun 2027 10:36:37.271   09 Jun 2027 10:36:41.945             4.674           757.156
       280   09 Jun 2027 10:37:40.131   09 Jun 2027 10:37:45.056             4.925          1818.313
       281   09 Jun 2027 10:38:57.192   09 Jun 2027 10:39:04.544             7.352          1495.500
       282   09 Jun 2027 10:39:33.661   09 Jun 2027 10:39:37.434             3.773           909.906
       283   09 Jun 2027 10:39:48.782   09 Jun 2027 10:39:52.291             3.509           252.219
       284   09 Jun 2027 10:40:15.994   09 Jun 2027 10:40:18.873             2.879           595.688
       285   09 Jun 2027 10:41:04.174   09 Jun 2027 10:41:07.017             2.843          1396.937
       286   10 Jun 2027 03:00:00.000   10 Jun 2027 03:00:16.105            16.105          8052.500
       287   10 Jun 2027 03:00:53.059   10 Jun 2027 03:00:59.078             6.019          3009.500
       288   10 Jun 2027 03:01:26.243   10 Jun 2027 03:01:26.243             0.000             0.000
       289   10 Jun 2027 03:01:39.182   10 Jun 2027 03:02:01.049            21.867         10933.500
       290   10 Jun 2027 03:02:40.001   10 Jun 2027 03:03:17.432            37.431         18715.500
       291   10 Jun 2027 04:23:18.444   10 Jun 2027 04:23:58.308            39.864         19932.000
       292   10 Jun 2027 04:24:09.430   10 Jun 2027 04:24:22.818            13.388          6694.000
       293   10 Jun 2027 05:59:45.623   10 Jun 2027 06:01:34.632           109.009         54504.500
       294   10 Jun 2027 06:01:46.375   10 Jun 2027 06:01:46.375             0.000             0.000
       295   10 Jun 2027 06:01:51.273   10 Jun 2027 06:01:56.257             4.984          2492.000
       296   10 Jun 2027 06:02:37.508   10 Jun 2027 06:02:44.406             6.898          3449.000
       297   10 Jun 2027 07:31:54.108   10 Jun 2027 07:32:03.911             9.803          4901.500
       298   10 Jun 2027 07:33:52.771   10 Jun 2027 07:35:30.872            98.101         47745.031
       299   10 Jun 2027 07:38:36.086   10 Jun 2027 07:38:47.698            11.612          5699.688
       300   10 Jun 2027 07:40:09.622   10 Jun 2027 07:40:14.638             5.016          2491.344
       301   10 Jun 2027 07:41:37.845   10 Jun 2027 07:41:40.942             3.097          1548.500
       302   10 Jun 2027 09:10:51.188   10 Jun 2027 09:11:13.497            22.309          8403.313
       303   10 Jun 2027 09:12:09.813   10 Jun 2027 09:12:12.595             2.782           860.000
       304   10 Jun 2027 09:13:45.124   10 Jun 2027 09:13:47.156             2.032          1016.000
       305   10 Jun 2027 09:14:24.418   10 Jun 2027 09:14:27.383             2.965          1192.844
       306   10 Jun 2027 09:15:12.305   10 Jun 2027 09:15:15.534             3.229          1260.344
       307   10 Jun 2027 09:15:28.083   10 Jun 2027 09:15:32.652             4.569           372.219
       308   10 Jun 2027 09:16:02.843   10 Jun 2027 09:16:05.664             2.821           943.469
       309   10 Jun 2027 09:17:06.106   10 Jun 2027 09:17:09.693             3.587          1788.250
       310   10 Jun 2027 09:17:32.967   10 Jun 2027 09:17:35.742             2.775           536.750
       311   10 Jun 2027 10:48:23.102   10 Jun 2027 10:48:38.522            15.420          7232.313
       312   10 Jun 2027 10:49:34.606   10 Jun 2027 10:49:49.904            15.298          1416.406
       313   10 Jun 2027 10:51:08.990   10 Jun 2027 10:51:13.819             4.829          1338.437
       314   10 Jun 2027 10:51:30.258   10 Jun 2027 10:51:31.418             1.160           406.094
       315   10 Jun 2027 10:51:34.941   10 Jun 2027 10:51:38.721             3.780             7.656
       316   10 Jun 2027 10:52:13.968   10 Jun 2027 10:52:16.999             3.031           786.031
       317   10 Jun 2027 10:52:40.477   10 Jun 2027 10:52:44.303             3.826           575.281
       318   11 Jun 2027 03:12:09.733   11 Jun 2027 03:13:14.723            64.990         32495.000
       319   11 Jun 2027 03:14:33.842   11 Jun 2027 03:14:33.842             0.000             0.000
       320   11 Jun 2027 03:15:10.558   11 Jun 2027 03:15:19.443             8.885          4442.500
       321   11 Jun 2027 04:35:26.527   11 Jun 2027 04:35:51.331            24.804         12402.000
       322   11 Jun 2027 04:36:45.884   11 Jun 2027 04:36:48.689             2.805          1402.500
       323   11 Jun 2027 04:37:00.408   11 Jun 2027 04:37:23.767            23.359         11679.500
       324   11 Jun 2027 06:11:55.777   11 Jun 2027 06:13:49.644           113.867         56933.500
       325   11 Jun 2027 07:47:06.851   11 Jun 2027 07:48:38.769            91.918         45752.437
       326   11 Jun 2027 07:50:36.882   11 Jun 2027 07:50:38.614             1.732           866.000
       327   11 Jun 2027 07:52:30.438   11 Jun 2027 07:52:44.271            13.833          6319.531
       328   11 Jun 2027 07:53:28.647   11 Jun 2027 07:53:28.647             0.000             0.000
       329   11 Jun 2027 09:23:25.897   11 Jun 2027 09:23:48.687            22.790         10554.187
       330   11 Jun 2027 09:24:08.260   11 Jun 2027 09:24:10.246             1.986           210.219
       331   11 Jun 2027 09:24:49.527   11 Jun 2027 09:24:50.962             1.435           646.469
       332   11 Jun 2027 09:25:36.945   11 Jun 2027 09:25:41.000             4.055          1068.906
       333   11 Jun 2027 09:25:48.896   11 Jun 2027 09:25:49.228             0.332            81.750
       334   11 Jun 2027 09:26:01.470   11 Jun 2027 09:26:01.723             0.253            12.750
       335   11 Jun 2027 09:26:44.486   11 Jun 2027 09:26:57.178            12.692          1336.344
       336   11 Jun 2027 09:27:16.522   11 Jun 2027 09:27:18.155             1.633           406.594
       337   11 Jun 2027 09:27:21.162   11 Jun 2027 09:27:22.952             1.790            76.406
       338   11 Jun 2027 09:27:33.880   11 Jun 2027 09:27:38.438             4.558           310.875
       339   11 Jun 2027 09:27:39.734   11 Jun 2027 09:27:40.604             0.870            40.500
       340   11 Jun 2027 09:27:56.535   11 Jun 2027 09:28:00.374             3.839           261.344
       341   11 Jun 2027 09:28:40.720   11 Jun 2027 09:28:42.968             2.248          1100.281
       342   11 Jun 2027 11:00:48.327   11 Jun 2027 11:01:00.403            12.076          6027.969
       343   11 Jun 2027 11:01:29.321   11 Jun 2027 11:01:33.944             4.623           525.844
       344   11 Jun 2027 11:02:00.173   11 Jun 2027 11:02:02.559             2.386           819.656
       345   11 Jun 2027 11:02:53.980   11 Jun 2027 11:03:02.580             8.600          1555.063
       346   11 Jun 2027 11:03:17.251   11 Jun 2027 11:03:17.251             0.000             0.000
       347   11 Jun 2027 11:03:29.921   11 Jun 2027 11:03:31.463             1.542           717.094
       348   11 Jun 2027 11:03:55.816   11 Jun 2027 11:03:56.393             0.577           288.500
       349   11 Jun 2027 11:04:11.900   11 Jun 2027 11:04:16.982             5.082           957.125
       350   11 Jun 2027 11:04:59.438   11 Jun 2027 11:05:01.306             1.868           934.000
       351   12 Jun 2027 03:24:01.589   12 Jun 2027 03:24:37.953            36.364         18182.000
       352   12 Jun 2027 03:25:06.542   12 Jun 2027 03:26:06.605            60.063         30031.500
       353   12 Jun 2027 03:26:42.713   12 Jun 2027 03:27:02.654            19.941          9970.500
       354   12 Jun 2027 04:48:09.150   12 Jun 2027 04:48:28.164            19.014          9507.000
       355   12 Jun 2027 04:48:32.292   12 Jun 2027 04:48:36.483             4.191          2095.500
       356   12 Jun 2027 04:48:48.981   12 Jun 2027 04:48:48.981             0.000             0.000
       357   12 Jun 2027 04:49:10.140   12 Jun 2027 04:49:21.653            11.513          5756.500
       358   12 Jun 2027 06:23:52.833   12 Jun 2027 06:25:51.460           118.627         59313.500
       359   12 Jun 2027 06:27:23.652   12 Jun 2027 06:27:25.006             1.354           677.000
       360   12 Jun 2027 07:58:56.776   12 Jun 2027 07:59:44.616            47.840         21265.750
       361   12 Jun 2027 08:00:11.661   12 Jun 2027 08:00:12.079             0.418           171.375
       362   12 Jun 2027 08:00:31.680   12 Jun 2027 08:00:34.500             2.820           378.938
       363   12 Jun 2027 08:00:39.755   12 Jun 2027 08:00:39.755             0.000             0.000
       364   12 Jun 2027 08:01:27.887   12 Jun 2027 08:01:33.672             5.785          1668.344
       365   12 Jun 2027 08:01:55.431   12 Jun 2027 08:01:56.010             0.579           289.500
       366   12 Jun 2027 08:02:40.922   12 Jun 2027 08:02:43.733             2.811          1405.500
       367   12 Jun 2027 08:02:57.631   12 Jun 2027 08:03:02.266             4.635           487.438
       368   12 Jun 2027 08:04:15.609   12 Jun 2027 08:04:26.605            10.996          2117.781
       369   12 Jun 2027 08:05:47.223   12 Jun 2027 08:05:50.161             2.938          1469.000
       370   12 Jun 2027 09:35:02.547   12 Jun 2027 09:35:20.209            17.662          8247.031
       371   12 Jun 2027 09:35:34.058   12 Jun 2027 09:35:34.317             0.259           110.344
       372   12 Jun 2027 09:36:23.916   12 Jun 2027 09:36:25.473             1.557           772.031
       373   12 Jun 2027 09:37:09.939   12 Jun 2027 09:37:12.795             2.856          1256.312
       374   12 Jun 2027 09:37:29.660   12 Jun 2027 09:37:31.859             2.199           471.031
       375   12 Jun 2027 09:37:55.116   12 Jun 2027 09:37:56.599             1.483           358.500
       376   12 Jun 2027 09:38:15.142   12 Jun 2027 09:38:20.084             4.942           160.469
       377   12 Jun 2027 09:39:25.984   12 Jun 2027 09:39:30.898             4.914          1894.219
       378   12 Jun 2027 09:39:49.017   12 Jun 2027 09:39:52.096             3.079           429.937
       379   12 Jun 2027 09:40:24.713   12 Jun 2027 09:40:26.893             2.180           732.281
       380   12 Jun 2027 09:40:42.159   12 Jun 2027 09:40:46.502             4.343           477.062
       381   12 Jun 2027 09:41:23.128   12 Jun 2027 09:41:24.451             1.323           542.969
       382   12 Jun 2027 11:13:01.551   12 Jun 2027 11:13:18.688            17.137          8363.906
       383   12 Jun 2027 11:13:56.771   12 Jun 2027 11:13:59.461             2.690           404.094
       384   12 Jun 2027 11:15:05.453   12 Jun 2027 11:15:10.462             5.009          2010.750
       385   12 Jun 2027 11:15:43.458   12 Jun 2027 11:15:45.738             2.280           959.594
       386   12 Jun 2027 11:16:04.365   12 Jun 2027 11:16:06.195             1.830           497.938
       387   12 Jun 2027 11:16:20.706   12 Jun 2027 11:16:23.161             2.455           453.469
       388   12 Jun 2027 11:17:17.856   12 Jun 2027 11:17:22.137             4.281          1698.500
       389   13 Jun 2027 03:24:55.890   13 Jun 2027 03:25:16.720            20.830         10415.000
       390   13 Jun 2027 03:35:57.173   13 Jun 2027 03:37:02.346            65.173         32586.500
       391   13 Jun 2027 03:38:05.525   13 Jun 2027 03:38:41.265            35.740         17870.000
       392   13 Jun 2027 04:59:14.844   13 Jun 2027 04:59:37.247            22.403         11201.500
       393   13 Jun 2027 05:00:10.163   13 Jun 2027 05:00:46.890            36.727         18363.500
       394   13 Jun 2027 05:01:39.229   13 Jun 2027 05:01:39.229             0.000             0.000
       395   13 Jun 2027 05:02:06.259   13 Jun 2027 05:02:21.444            15.185          7592.500
       396   13 Jun 2027 06:34:30.113   13 Jun 2027 06:34:33.074             2.961          1480.500
       397   13 Jun 2027 06:35:37.668   13 Jun 2027 06:37:06.627            88.959         44479.500
       398   13 Jun 2027 06:38:50.449   13 Jun 2027 06:39:05.695            15.246          7623.000
       399   13 Jun 2027 08:10:23.731   13 Jun 2027 08:11:17.631            53.900         24709.782
       400   13 Jun 2027 08:13:09.776   13 Jun 2027 08:13:17.727             7.951          3317.094
       401   13 Jun 2027 08:13:40.645   13 Jun 2027 08:13:41.748             1.103           347.313
       402   13 Jun 2027 08:14:41.891   13 Jun 2027 08:14:46.181             4.290          1879.469
       403   13 Jun 2027 08:15:09.098   13 Jun 2027 08:15:12.204             3.106           515.031
       404   13 Jun 2027 08:16:14.662   13 Jun 2027 08:16:14.662             0.000             0.000
       405   13 Jun 2027 08:16:36.552   13 Jun 2027 08:16:42.318             5.766          2621.875
       406   13 Jun 2027 08:16:47.870   13 Jun 2027 08:16:49.933             2.063           173.500
       407   13 Jun 2027 09:47:13.735   13 Jun 2027 09:47:31.542            17.807          8616.281
       408   13 Jun 2027 09:48:08.833   13 Jun 2027 09:48:12.056             3.223          1045.781
       409   13 Jun 2027 09:49:16.256   13 Jun 2027 09:49:19.938             3.682          1769.031
       410   13 Jun 2027 09:49:44.032   13 Jun 2027 09:49:45.316             1.284            88.156
       411   13 Jun 2027 09:50:17.297   13 Jun 2027 09:50:23.337             6.040           820.625
       412   13 Jun 2027 09:50:35.503   13 Jun 2027 09:50:37.985             2.482           334.250
       413   13 Jun 2027 09:50:55.105   13 Jun 2027 09:50:57.878             2.773           535.000
       414   13 Jun 2027 09:51:04.384   13 Jun 2027 09:51:11.858             7.474           151.406
       415   13 Jun 2027 09:51:39.654   13 Jun 2027 09:51:41.512             1.858           784.469
       416   13 Jun 2027 09:51:43.221   13 Jun 2027 09:51:43.221             0.000             0.000
       417   13 Jun 2027 09:52:17.278   13 Jun 2027 09:52:25.030             7.752          1105.656
       418   13 Jun 2027 09:53:11.515   13 Jun 2027 09:53:14.643             3.128          1253.125
       419   13 Jun 2027 11:25:23.742   13 Jun 2027 11:25:42.060            18.318          7100.250
       420   13 Jun 2027 11:25:59.331   13 Jun 2027 11:25:59.331             0.000             0.000
       421   13 Jun 2027 11:27:04.388   13 Jun 2027 11:27:12.574             8.186          2572.750
       422   13 Jun 2027 11:27:34.648   13 Jun 2027 11:27:34.648             0.000             0.000
       423   13 Jun 2027 11:27:36.825   13 Jun 2027 11:27:38.487             1.662           670.656
       424   13 Jun 2027 11:28:04.210   13 Jun 2027 11:28:06.803             2.593           648.500
       425   13 Jun 2027 11:28:16.169   13 Jun 2027 11:28:16.755             0.586           112.531
       426   13 Jun 2027 11:28:23.351   13 Jun 2027 11:28:27.410             4.059           206.125
       427   13 Jun 2027 11:28:57.333   13 Jun 2027 11:28:58.751             1.418           419.531
       428   13 Jun 2027 11:29:05.463   13 Jun 2027 11:29:11.159             5.696           152.781
       429   13 Jun 2027 11:29:16.992   13 Jun 2027 11:29:18.913             1.921           182.281
