uniorb/output/strategy_1/Camera/Camera_KinoSat_111805.txt

KinoSat_111805
-------------------------
    Access    *     Start Time (UTCG)     *     Stop Time (UTCG)  *   Duration (s) *   Data (Mbytes)
         1   01 Jun 2027 03:04:36.342   01 Jun 2027 03:05:49.161            72.819         36409.500
         2   01 Jun 2027 03:08:17.626   01 Jun 2027 03:08:24.522             6.896          3448.000
         3   01 Jun 2027 03:09:22.474   01 Jun 2027 03:09:35.336            12.862          6431.000
         4   01 Jun 2027 03:10:14.907   01 Jun 2027 03:10:15.053             0.146            73.000
         5   01 Jun 2027 03:10:42.698   01 Jun 2027 03:10:50.603             7.905          3952.500
         6   01 Jun 2027 03:10:55.043   01 Jun 2027 03:11:04.398             9.355          4677.500
         7   01 Jun 2027 04:42:52.642   01 Jun 2027 04:43:00.187             7.545          3772.500
         8   01 Jun 2027 04:43:53.749   01 Jun 2027 04:45:16.659            82.910         41455.000
         9   01 Jun 2027 04:45:38.035   01 Jun 2027 04:45:58.626            20.591         10295.500
        10   01 Jun 2027 04:47:08.617   01 Jun 2027 04:47:09.719             1.102           551.000
        11   01 Jun 2027 04:48:04.355   01 Jun 2027 04:48:04.631             0.276           138.000
        12   01 Jun 2027 04:48:27.453   01 Jun 2027 04:48:32.847             5.394          2697.000
        13   01 Jun 2027 04:50:55.729   01 Jun 2027 04:51:27.631            31.902         15951.000
        14   01 Jun 2027 06:21:02.404   01 Jun 2027 06:21:41.399            38.995         19497.500
        15   01 Jun 2027 06:22:05.053   01 Jun 2027 06:23:02.882            57.829         28914.500
        16   01 Jun 2027 07:45:08.670   01 Jun 2027 07:45:46.584            37.914         18957.000
        17   01 Jun 2027 07:47:05.865   01 Jun 2027 07:47:31.040            25.175         12587.500
        18   01 Jun 2027 09:20:53.818   01 Jun 2027 09:22:29.747            95.929         47964.500
        19   01 Jun 2027 09:22:55.620   01 Jun 2027 09:23:30.517            34.897         17448.500
        20   01 Jun 2027 09:24:19.271   01 Jun 2027 09:24:19.271             0.000             0.000
        21   01 Jun 2027 10:55:51.280   01 Jun 2027 10:57:45.829           114.549         57274.500
        22   01 Jun 2027 11:02:29.235   01 Jun 2027 11:02:53.088            23.853         11926.500
        23   02 Jun 2027 03:17:13.863   02 Jun 2027 03:18:49.245            95.382         47691.000
        24   02 Jun 2027 03:18:57.273   02 Jun 2027 03:18:57.861             0.588           294.000
        25   02 Jun 2027 03:19:10.404   02 Jun 2027 03:19:25.735            15.331          7665.500
        26   02 Jun 2027 03:23:23.391   02 Jun 2027 03:23:40.997            17.606          8803.000
        27   02 Jun 2027 04:55:57.591   02 Jun 2027 04:57:30.657            93.066         46533.000
        28   02 Jun 2027 04:58:10.190   02 Jun 2027 04:58:10.190             0.000             0.000
        29   02 Jun 2027 05:00:13.890   02 Jun 2027 05:00:21.478             7.588          3794.000
        30   02 Jun 2027 05:02:18.269   02 Jun 2027 05:02:33.350            15.081          7540.500
        31   02 Jun 2027 06:21:54.000   02 Jun 2027 06:22:36.184            42.184         21092.000
        32   02 Jun 2027 06:32:58.927   02 Jun 2027 06:33:45.590            46.663         23331.500
        33   02 Jun 2027 07:55:56.493   02 Jun 2027 07:57:46.854           110.361         55180.500
        34   02 Jun 2027 09:31:16.025   02 Jun 2027 09:31:41.324            25.299         12649.500
        35   02 Jun 2027 09:32:59.008   02 Jun 2027 09:32:59.008             0.000             0.000
        36   02 Jun 2027 11:07:24.387   02 Jun 2027 11:07:59.391            35.004         17502.000
        37   02 Jun 2027 11:10:17.014   02 Jun 2027 11:10:53.573            36.559         18279.500
        38   02 Jun 2027 11:11:29.144   02 Jun 2027 11:14:36.915           187.771         93885.500
        39   03 Jun 2027 03:29:20.970   03 Jun 2027 03:30:54.534            93.564         46782.000
        40   03 Jun 2027 03:32:18.959   03 Jun 2027 03:32:23.301             4.342          2171.000
        41   03 Jun 2027 03:34:42.814   03 Jun 2027 03:34:54.582            11.768          5884.000
        42   03 Jun 2027 03:35:25.649   03 Jun 2027 03:35:32.919             7.270          3635.000
        43   03 Jun 2027 05:08:27.356   03 Jun 2027 05:09:42.738            75.382         37691.000
        44   03 Jun 2027 05:10:32.902   03 Jun 2027 05:10:36.960             4.058          2029.000
        45   03 Jun 2027 05:10:50.805   03 Jun 2027 05:10:54.885             4.080          2040.000
        46   03 Jun 2027 05:12:37.033   03 Jun 2027 05:12:47.515            10.482          5241.000
        47   03 Jun 2027 06:33:18.892   03 Jun 2027 06:34:32.368            73.476         36738.000
        48   03 Jun 2027 06:45:01.692   03 Jun 2027 06:46:00.586            58.894         29447.000
        49   03 Jun 2027 08:07:14.496   03 Jun 2027 08:08:27.258            72.762         36381.000
        50   03 Jun 2027 08:09:16.409   03 Jun 2027 08:09:33.403            16.994          8497.000
        51   03 Jun 2027 08:11:07.673   03 Jun 2027 08:11:07.673             0.000             0.000
        52   03 Jun 2027 08:12:09.971   03 Jun 2027 08:12:24.145            14.174          7087.000
        53   03 Jun 2027 09:42:20.611   03 Jun 2027 09:42:53.252            32.641         16320.500
        54   03 Jun 2027 11:19:36.657   03 Jun 2027 11:20:57.455            80.798         40399.000
        55   03 Jun 2027 11:26:02.451   03 Jun 2027 11:26:58.125            55.674         27798.531
        56   03 Jun 2027 11:26:59.897   03 Jun 2027 11:27:00.428             0.531            55.375
        57   04 Jun 2027 03:41:40.143   04 Jun 2027 03:43:37.312           117.169         58584.500
        58   04 Jun 2027 03:46:35.252   04 Jun 2027 03:46:36.535             1.283           641.500
        59   04 Jun 2027 05:20:27.971   04 Jun 2027 05:21:52.955            84.984         42492.000
        60   04 Jun 2027 05:22:33.845   04 Jun 2027 05:22:41.195             7.350          3675.000
        61   04 Jun 2027 05:23:48.663   04 Jun 2027 05:24:06.127            17.464          8732.000
        62   04 Jun 2027 05:24:27.312   04 Jun 2027 05:24:33.523             6.211          3105.500
        63   04 Jun 2027 05:27:24.282   04 Jun 2027 05:27:24.282             0.000             0.000
        64   04 Jun 2027 05:27:25.877   04 Jun 2027 05:27:34.095             8.218          4109.000
        65   04 Jun 2027 06:44:47.664   04 Jun 2027 06:45:57.955            70.291         35145.500
        66   04 Jun 2027 06:46:41.961   04 Jun 2027 06:46:59.106            17.145          8572.500
        67   04 Jun 2027 06:57:03.230   04 Jun 2027 06:57:34.860            31.630         15815.000
        68   04 Jun 2027 08:19:00.134   04 Jun 2027 08:19:40.053            39.919         19805.250
        69   04 Jun 2027 08:21:04.419   04 Jun 2027 08:21:04.419             0.000             0.000
        70   04 Jun 2027 08:21:45.824   04 Jun 2027 08:21:53.026             7.202          3473.219
        71   04 Jun 2027 08:22:08.026   04 Jun 2027 08:22:08.908             0.882             2.688
        72   04 Jun 2027 09:53:49.654   04 Jun 2027 09:54:00.162            10.508          5057.563
        73   04 Jun 2027 09:54:47.385   04 Jun 2027 09:54:48.790             1.405           663.031
        74   04 Jun 2027 09:56:26.130   04 Jun 2027 09:56:26.130             0.000             0.000
        75   04 Jun 2027 09:57:16.163   04 Jun 2027 09:57:22.891             6.728          3257.063
        76   04 Jun 2027 09:59:25.035   04 Jun 2027 09:59:33.080             8.045          3356.219
        77   04 Jun 2027 10:00:06.387   04 Jun 2027 10:00:10.363             3.976           102.156
        78   04 Jun 2027 11:33:42.928   04 Jun 2027 11:34:02.100            19.172          9441.344
        79   04 Jun 2027 11:34:29.070   04 Jun 2027 11:34:29.778             0.708            49.812
        80   04 Jun 2027 11:37:39.932   04 Jun 2027 11:37:53.781            13.849          5722.281
        81   04 Jun 2027 11:38:14.591   04 Jun 2027 11:38:26.011            11.420           600.156
        82   04 Jun 2027 11:38:27.771   04 Jun 2027 11:38:29.787             2.016             5.844
        83   05 Jun 2027 03:54:24.665   05 Jun 2027 03:55:49.548            84.883         42441.500
        84   05 Jun 2027 03:57:25.127   05 Jun 2027 03:57:50.783            25.656         12828.000
        85   05 Jun 2027 03:58:21.346   05 Jun 2027 03:58:22.696             1.350           675.000
        86   05 Jun 2027 05:32:47.787   05 Jun 2027 05:34:25.352            97.565         48782.500
        87   05 Jun 2027 05:36:35.658   05 Jun 2027 05:36:46.221            10.563          5281.500
        88   05 Jun 2027 05:37:10.065   05 Jun 2027 05:37:34.943            24.878         12439.000
        89   05 Jun 2027 06:56:49.738   05 Jun 2027 06:58:30.222           100.484         50242.000
        90   05 Jun 2027 08:32:47.578   05 Jun 2027 08:33:16.163            28.585         12064.344
        91   05 Jun 2027 08:33:22.537   05 Jun 2027 08:33:22.537             0.000             0.000
        92   05 Jun 2027 08:33:44.267   05 Jun 2027 08:33:45.819             1.552           756.844
        93   05 Jun 2027 08:34:22.008   05 Jun 2027 08:34:23.037             1.029           438.344
        94   05 Jun 2027 10:06:36.633   05 Jun 2027 10:06:48.311            11.678          5161.719
        95   05 Jun 2027 10:09:03.016   05 Jun 2027 10:09:03.016             0.000             0.000
        96   05 Jun 2027 10:09:12.135   05 Jun 2027 10:09:12.135             0.000             0.000
        97   05 Jun 2027 10:11:24.911   05 Jun 2027 10:11:39.900            14.989          7241.813
        98   05 Jun 2027 10:14:27.481   05 Jun 2027 10:14:37.903            10.422          4901.844
        99   05 Jun 2027 11:43:42.495   05 Jun 2027 11:43:59.194            16.699          7070.719
       100   05 Jun 2027 11:44:23.480   05 Jun 2027 11:44:26.671             3.191           336.594
       101   05 Jun 2027 11:44:56.454   05 Jun 2027 11:45:02.619             6.165           930.719
       102   05 Jun 2027 11:46:01.226   05 Jun 2027 11:46:05.447             4.221           465.875
       103   05 Jun 2027 11:46:27.508   05 Jun 2027 11:46:30.798             3.290           587.500
       104   05 Jun 2027 11:47:50.448   05 Jun 2027 11:48:04.511            14.063          2437.531
       105   05 Jun 2027 11:48:08.306   05 Jun 2027 11:48:12.208             3.902            44.844
       106   05 Jun 2027 11:48:21.934   05 Jun 2027 11:48:23.308             1.374           303.937
       107   05 Jun 2027 11:49:03.501   05 Jun 2027 11:49:06.350             2.849          1192.687
       108   05 Jun 2027 11:49:15.497   05 Jun 2027 11:49:19.407             3.910           215.625
       109   05 Jun 2027 11:49:59.729   05 Jun 2027 11:50:02.093             2.364           990.156
       110   05 Jun 2027 11:50:21.917   05 Jun 2027 11:50:22.776             0.859           362.219
       111   06 Jun 2027 04:07:02.369   06 Jun 2027 04:07:22.054            19.685          9842.500
       112   06 Jun 2027 04:07:50.858   06 Jun 2027 04:08:37.955            47.097         23548.500
       113   06 Jun 2027 04:08:40.033   06 Jun 2027 04:09:05.217            25.184         12592.000
       114   06 Jun 2027 04:10:54.212   06 Jun 2027 04:11:19.880            25.668         12834.000
       115   06 Jun 2027 04:11:54.879   06 Jun 2027 04:12:01.196             6.317          3158.500
       116   06 Jun 2027 05:45:21.696   06 Jun 2027 05:47:32.907           131.211         65605.500
       117   06 Jun 2027 05:49:22.034   06 Jun 2027 05:49:34.368            12.334          6167.000
       118   06 Jun 2027 07:08:44.111   06 Jun 2027 07:10:14.805            90.694         45347.000
       119   06 Jun 2027 07:10:24.644   06 Jun 2027 07:10:37.108            12.464          4828.094
       120   06 Jun 2027 08:45:07.009   06 Jun 2027 08:45:19.354            12.345          6172.500
       121   06 Jun 2027 08:45:38.251   06 Jun 2027 08:45:47.036             8.785          4162.531
       122   06 Jun 2027 10:18:35.116   06 Jun 2027 10:18:47.562            12.446          6093.906
       123   06 Jun 2027 10:21:31.486   06 Jun 2027 10:21:31.486             0.000             0.000
       124   06 Jun 2027 10:23:24.105   06 Jun 2027 10:23:39.209            15.104          7192.063
       125   06 Jun 2027 10:24:29.709   06 Jun 2027 10:24:30.792             1.083           541.500
       126   06 Jun 2027 10:25:59.688   06 Jun 2027 10:26:08.370             8.682          3220.031
       127   06 Jun 2027 10:27:04.057   06 Jun 2027 10:27:06.656             2.599          1299.500
       128   06 Jun 2027 11:56:09.123   06 Jun 2027 11:56:25.865            16.742          7038.594
       129   06 Jun 2027 11:58:19.117   06 Jun 2027 11:58:23.560             4.443          1954.563
       130   06 Jun 2027 11:59:04.944   06 Jun 2027 11:59:11.293             6.349          1293.250
       131   06 Jun 2027 11:59:50.363   06 Jun 2027 11:59:52.628             2.265          1109.594
       132   07 Jun 2027 04:18:55.707   07 Jun 2027 04:18:58.132             2.425          1212.500
       133   07 Jun 2027 04:19:53.999   07 Jun 2027 04:20:48.426            54.427         27213.500
       134   07 Jun 2027 04:22:04.862   07 Jun 2027 04:22:46.000            41.138         20569.000
       135   07 Jun 2027 04:23:22.806   07 Jun 2027 04:23:43.439            20.633         10316.500
       136   07 Jun 2027 05:57:36.755   07 Jun 2027 05:59:23.502           106.747         53373.500
       137   07 Jun 2027 05:59:55.258   07 Jun 2027 06:00:14.126            18.868          9434.000
       138   07 Jun 2027 07:20:33.187   07 Jun 2027 07:22:18.765           105.578         52789.000
       139   07 Jun 2027 07:22:35.146   07 Jun 2027 07:22:35.146             0.000             0.000
       140   07 Jun 2027 08:57:08.715   07 Jun 2027 08:57:24.564            15.849          7856.062
       141   07 Jun 2027 08:57:53.689   07 Jun 2027 08:57:56.157             2.468           486.719
       142   07 Jun 2027 08:58:37.116   07 Jun 2027 08:58:37.116             0.000             0.000
       143   07 Jun 2027 08:58:43.253   07 Jun 2027 08:58:47.535             4.282          1383.781
       144   07 Jun 2027 08:59:24.175   07 Jun 2027 08:59:26.236             2.061           898.781
       145   07 Jun 2027 10:32:02.655   07 Jun 2027 10:32:13.674            11.019          4288.344
       146   07 Jun 2027 10:35:22.475   07 Jun 2027 10:35:32.738            10.263          4483.906
       147   07 Jun 2027 10:36:47.735   07 Jun 2027 10:36:55.461             7.726          2124.844
       148   07 Jun 2027 10:37:12.705   07 Jun 2027 10:37:14.180             1.475           114.594
       149   07 Jun 2027 10:37:39.595   07 Jun 2027 10:37:47.578             7.983           744.937
       150   07 Jun 2027 10:38:06.399   07 Jun 2027 10:38:07.237             0.838           419.000
       151   07 Jun 2027 10:38:26.266   07 Jun 2027 10:38:29.366             3.100           717.625
       152   07 Jun 2027 10:39:00.559   07 Jun 2027 10:39:01.197             0.638           319.000
       153   08 Jun 2027 03:00:00.000   08 Jun 2027 03:00:09.893             9.893          4946.500
       154   08 Jun 2027 04:31:04.545   08 Jun 2027 04:32:06.706            62.161         31080.500
       155   08 Jun 2027 04:32:13.264   08 Jun 2027 04:32:52.825            39.561         19780.500
       156   08 Jun 2027 04:33:11.501   08 Jun 2027 04:33:16.802             5.301          2650.500
       157   08 Jun 2027 04:33:46.368   08 Jun 2027 04:33:50.690             4.322          2161.000
       158   08 Jun 2027 04:36:16.788   08 Jun 2027 04:36:21.193             4.405          2202.500
       159   08 Jun 2027 04:37:13.042   08 Jun 2027 04:37:19.649             6.607          3303.500
       160   08 Jun 2027 06:09:22.985   08 Jun 2027 06:09:54.699            31.714         15857.000
       161   08 Jun 2027 06:10:12.584   08 Jun 2027 06:11:20.667            68.083         34041.500
       162   08 Jun 2027 06:11:43.958   08 Jun 2027 06:11:55.586            11.628          5814.000
       163   08 Jun 2027 07:32:45.752   08 Jun 2027 07:34:03.135            77.383         38691.500
       164   08 Jun 2027 07:35:14.044   08 Jun 2027 07:35:26.084            12.040          6020.000
       165   08 Jun 2027 09:09:17.666   08 Jun 2027 09:09:32.889            15.223          7611.500
       166   08 Jun 2027 09:10:23.005   08 Jun 2027 09:10:30.591             7.586          3677.563
       167   08 Jun 2027 09:11:38.369   08 Jun 2027 09:11:44.133             5.764          2076.781
       168   08 Jun 2027 09:12:16.616   08 Jun 2027 09:12:16.616             0.000             0.000
       169   08 Jun 2027 10:44:27.306   08 Jun 2027 10:44:41.261            13.955          5143.906
       170   08 Jun 2027 10:45:51.128   08 Jun 2027 10:45:56.925             5.797          2124.781
       171   08 Jun 2027 10:50:41.059   08 Jun 2027 10:51:02.002            20.943          8879.188
       172   09 Jun 2027 03:04:54.067   09 Jun 2027 03:05:08.343            14.276          7138.000
       173   09 Jun 2027 03:05:27.805   09 Jun 2027 03:06:02.755            34.950         17475.000
       174   09 Jun 2027 03:06:03.988   09 Jun 2027 03:06:17.654            13.666          6833.000
       175   09 Jun 2027 03:06:46.981   09 Jun 2027 03:06:58.010            11.029          5514.500
       176   09 Jun 2027 03:08:40.819   09 Jun 2027 03:08:40.900             0.081            40.500
       177   09 Jun 2027 03:08:48.935   09 Jun 2027 03:08:58.737             9.802          4901.000
       178   09 Jun 2027 03:10:32.891   09 Jun 2027 03:10:45.291            12.400          6200.000
       179   09 Jun 2027 03:11:30.140   09 Jun 2027 03:11:49.101            18.961          9480.500
       180   09 Jun 2027 04:44:11.266   09 Jun 2027 04:45:06.420            55.154         27577.000
       181   09 Jun 2027 04:45:13.256   09 Jun 2027 04:45:19.825             6.569          3284.500
       182   09 Jun 2027 04:45:34.932   09 Jun 2027 04:45:41.202             6.270          3135.000
       183   09 Jun 2027 04:46:25.919   09 Jun 2027 04:46:44.697            18.778          9389.000
       184   09 Jun 2027 04:48:45.063   09 Jun 2027 04:48:45.063             0.000             0.000
       185   09 Jun 2027 04:49:12.820   09 Jun 2027 04:49:16.019             3.199          1599.500
       186   09 Jun 2027 04:50:43.894   09 Jun 2027 04:50:55.948            12.054          6027.000
       187   09 Jun 2027 06:21:19.849   09 Jun 2027 06:21:59.060            39.211         19605.500
       188   09 Jun 2027 06:22:20.842   09 Jun 2027 06:23:02.569            41.727         20863.500
       189   09 Jun 2027 06:23:32.530   09 Jun 2027 06:24:02.957            30.427         15213.500
       190   09 Jun 2027 07:45:21.939   09 Jun 2027 07:46:13.988            52.049         26024.500
       191   09 Jun 2027 07:47:24.595   09 Jun 2027 07:47:35.630            11.035          5431.312
       192   09 Jun 2027 09:21:10.719   09 Jun 2027 09:21:25.554            14.835          7417.500
       193   09 Jun 2027 09:23:16.332   09 Jun 2027 09:23:22.427             6.095          3047.500
       194   09 Jun 2027 09:23:40.081   09 Jun 2027 09:23:48.019             7.938          1564.594
       195   09 Jun 2027 10:58:48.224   09 Jun 2027 10:59:09.804            21.580         10790.000
       196   09 Jun 2027 11:02:45.842   09 Jun 2027 11:03:06.391            20.549          9759.969
       197   09 Jun 2027 11:03:07.028   09 Jun 2027 11:03:08.038             1.010            19.906
       198   10 Jun 2027 03:17:32.964   10 Jun 2027 03:19:53.786           140.822         70411.000
       199   10 Jun 2027 04:56:15.095   10 Jun 2027 04:57:20.522            65.427         32713.500
       200   10 Jun 2027 04:58:14.866   10 Jun 2027 04:58:15.158             0.292           146.000
       201   10 Jun 2027 04:59:17.341   10 Jun 2027 04:59:25.702             8.361          4180.500
       202   10 Jun 2027 05:00:06.270   10 Jun 2027 05:00:23.232            16.962          8481.000
       203   10 Jun 2027 05:01:02.850   10 Jun 2027 05:01:25.287            22.437         11218.500
       204   10 Jun 2027 05:03:16.126   10 Jun 2027 05:03:48.234            32.108         16054.000
       205   10 Jun 2027 06:22:07.770   10 Jun 2027 06:22:42.286            34.516         17258.000
       206   10 Jun 2027 06:33:16.006   10 Jun 2027 06:34:00.474            44.468         22234.000
       207   10 Jun 2027 07:56:00.681   10 Jun 2027 07:56:58.970            58.289         26761.875
       208   10 Jun 2027 08:00:04.296   10 Jun 2027 08:00:04.296             0.000             0.000
       209   10 Jun 2027 08:00:29.140   10 Jun 2027 08:00:29.327             0.187            93.500
       210   10 Jun 2027 09:31:29.801   10 Jun 2027 09:31:46.442            16.641          6474.313
       211   10 Jun 2027 09:33:37.799   10 Jun 2027 09:33:41.271             3.472          1736.000
       212   10 Jun 2027 09:35:20.316   10 Jun 2027 09:35:37.165            16.849          4839.062
       213   10 Jun 2027 09:35:47.443   10 Jun 2027 09:35:47.907             0.464           188.406
       214   10 Jun 2027 09:36:37.684   10 Jun 2027 09:36:40.382             2.698          1331.187
       215   10 Jun 2027 09:37:07.278   10 Jun 2027 09:37:08.942             1.664           207.219
       216   10 Jun 2027 11:10:37.692   10 Jun 2027 11:10:58.181            20.489         10096.531
       217   10 Jun 2027 11:11:10.691   10 Jun 2027 11:11:10.691             0.000             0.000
       218   10 Jun 2027 11:11:51.728   10 Jun 2027 11:12:09.607            17.879          1580.063
       219   10 Jun 2027 11:12:29.405   10 Jun 2027 11:12:37.139             7.734           403.188
       220   10 Jun 2027 11:12:48.072   10 Jun 2027 11:12:49.118             1.046           201.313
       221   10 Jun 2027 11:13:41.403   10 Jun 2027 11:13:44.723             3.320          1603.688
       222   10 Jun 2027 11:13:52.295   10 Jun 2027 11:13:52.851             0.556           199.562
       223   10 Jun 2027 11:14:03.259   10 Jun 2027 11:14:07.023             3.764           239.031
       224   10 Jun 2027 11:14:29.296   10 Jun 2027 11:14:34.309             5.013           696.031
       225   10 Jun 2027 11:15:13.253   10 Jun 2027 11:15:17.204             3.951          1215.031
       226   11 Jun 2027 03:29:39.084   11 Jun 2027 03:31:22.356           103.272         51636.000
       227   11 Jun 2027 03:31:23.808   11 Jun 2027 03:31:39.518            15.710          7855.000
       228   11 Jun 2027 03:35:49.452   11 Jun 2027 03:35:52.024             2.572          1286.000
       229   11 Jun 2027 05:08:44.538   11 Jun 2027 05:10:04.056            79.518         39759.000
       230   11 Jun 2027 05:10:23.199   11 Jun 2027 05:10:25.162             1.963           981.500
       231   11 Jun 2027 05:11:09.918   11 Jun 2027 05:11:14.137             4.219          2109.500
       232   11 Jun 2027 05:11:53.618   11 Jun 2027 05:12:04.185            10.567          5283.500
       233   11 Jun 2027 05:13:28.306   11 Jun 2027 05:13:49.241            20.935         10467.500
       234   11 Jun 2027 05:14:12.730   11 Jun 2027 05:14:14.552             1.822           911.000
       235   11 Jun 2027 06:33:36.730   11 Jun 2027 06:34:49.827            73.097         36548.500
       236   11 Jun 2027 06:45:18.816   11 Jun 2027 06:45:56.258            37.442         18721.000
       237   11 Jun 2027 06:46:15.444   11 Jun 2027 06:46:18.564             3.120          1560.000
       238   11 Jun 2027 08:07:32.461   11 Jun 2027 08:08:05.848            33.387         16693.500
       239   11 Jun 2027 08:09:33.294   11 Jun 2027 08:09:36.922             3.628          1614.845
       240   11 Jun 2027 08:11:43.780   11 Jun 2027 08:11:52.615             8.835          3532.906
       241   11 Jun 2027 09:42:36.469   11 Jun 2027 09:42:50.444            13.975          4837.938
       242   11 Jun 2027 09:43:16.592   11 Jun 2027 09:43:18.424             1.832           388.563
       243   11 Jun 2027 09:43:48.382   11 Jun 2027 09:43:51.453             3.071           484.156
       244   11 Jun 2027 09:47:54.458   11 Jun 2027 09:48:09.403            14.945          7429.781
       245   11 Jun 2027 09:48:38.648   11 Jun 2027 09:48:41.434             2.786           689.969
       246   11 Jun 2027 09:48:52.656   11 Jun 2027 09:48:54.289             1.633           118.688
       247   11 Jun 2027 11:21:13.494   11 Jun 2027 11:21:13.494             0.000             0.000
       248   11 Jun 2027 11:21:18.148   11 Jun 2027 11:21:35.692            17.544          7368.406
       249   11 Jun 2027 11:22:59.764   11 Jun 2027 11:23:03.386             3.622          1796.406
       250   11 Jun 2027 11:26:18.306   11 Jun 2027 11:26:36.049            17.743          6091.250
       251   11 Jun 2027 11:26:54.197   11 Jun 2027 11:26:56.408             2.211           240.281
       252   12 Jun 2027 03:41:58.752   12 Jun 2027 03:43:07.302            68.550         34275.000
       253   12 Jun 2027 03:43:10.046   12 Jun 2027 03:44:07.667            57.621         28810.500
       254   12 Jun 2027 03:47:06.340   12 Jun 2027 03:47:19.828            13.488          6744.000
       255   12 Jun 2027 05:20:46.282   12 Jun 2027 05:22:10.805            84.523         42261.500
       256   12 Jun 2027 05:22:50.856   12 Jun 2027 05:23:03.163            12.307          6153.500
       257   12 Jun 2027 05:23:31.238   12 Jun 2027 05:23:33.127             1.889           944.500
       258   12 Jun 2027 05:23:55.944   12 Jun 2027 05:24:04.110             8.166          4083.000
       259   12 Jun 2027 05:24:28.699   12 Jun 2027 05:24:31.792             3.093          1546.500
       260   12 Jun 2027 05:25:38.609   12 Jun 2027 05:25:59.353            20.744         10372.000
       261   12 Jun 2027 05:27:44.303   12 Jun 2027 05:27:48.256             3.953          1976.500
       262   12 Jun 2027 06:45:07.007   12 Jun 2027 06:46:15.234            68.227         34113.500
       263   12 Jun 2027 06:57:20.993   12 Jun 2027 06:57:36.672            15.679          7839.500
       264   12 Jun 2027 08:19:16.765   12 Jun 2027 08:19:37.701            20.936         10468.000
       265   12 Jun 2027 08:20:12.732   12 Jun 2027 08:20:20.774             8.042          2924.718
       266   12 Jun 2027 08:22:02.875   12 Jun 2027 08:22:09.121             6.246          2741.313
       267   12 Jun 2027 08:23:22.488   12 Jun 2027 08:23:26.084             3.596          1786.094
       268   12 Jun 2027 08:24:16.198   12 Jun 2027 08:24:18.537             2.339           922.188
       269   12 Jun 2027 09:54:53.957   12 Jun 2027 09:55:12.113            18.156          6425.250
       270   12 Jun 2027 09:55:56.643   12 Jun 2027 09:55:56.643             0.000             0.000
       271   12 Jun 2027 09:57:52.424   12 Jun 2027 09:58:02.597            10.173          3826.500
       272   12 Jun 2027 09:58:31.692   12 Jun 2027 09:58:35.508             3.816           237.063
       273   12 Jun 2027 09:58:52.331   12 Jun 2027 09:58:53.435             1.104            87.156
       274   12 Jun 2027 09:59:11.829   12 Jun 2027 09:59:12.757             0.928           254.781
       275   12 Jun 2027 11:33:58.801   12 Jun 2027 11:33:58.801             0.000             0.000
       276   12 Jun 2027 11:37:55.001   12 Jun 2027 11:38:31.976            36.975         18440.875
       277   12 Jun 2027 11:38:43.342   12 Jun 2027 11:38:44.896             1.554            35.906
       278   13 Jun 2027 03:54:42.730   13 Jun 2027 03:56:05.058            82.328         41164.000
       279   13 Jun 2027 03:57:39.497   13 Jun 2027 03:58:33.490            53.993         26996.500
       280   13 Jun 2027 05:33:08.863   13 Jun 2027 05:34:40.340            91.477         45738.500
       281   13 Jun 2027 05:35:14.585   13 Jun 2027 05:35:25.044            10.459          5229.500
       282   13 Jun 2027 05:35:56.301   13 Jun 2027 05:36:02.618             6.317          3158.500
       283   13 Jun 2027 05:36:21.966   13 Jun 2027 05:36:21.966             0.000             0.000
       284   13 Jun 2027 06:57:06.370   13 Jun 2027 06:58:46.214            99.844         49922.000
       285   13 Jun 2027 06:59:09.758   13 Jun 2027 06:59:11.599             1.841           920.500
       286   13 Jun 2027 08:33:03.121   13 Jun 2027 08:33:31.031            27.910         12331.875
       287   13 Jun 2027 08:36:07.457   13 Jun 2027 08:36:18.356            10.899          4717.063
       288   13 Jun 2027 10:06:53.700   13 Jun 2027 10:07:02.385             8.685          4192.000
       289   13 Jun 2027 10:08:24.363   13 Jun 2027 10:08:26.680             2.317          1037.344
       290   13 Jun 2027 10:08:52.078   13 Jun 2027 10:08:54.354             2.276           387.156
       291   13 Jun 2027 10:13:16.548   13 Jun 2027 10:13:29.714            13.166          6583.000
       292   13 Jun 2027 10:14:24.620   13 Jun 2027 10:14:33.057             8.437          3058.625
       293   13 Jun 2027 10:14:43.081   13 Jun 2027 10:14:44.216             1.135           172.219
       294   13 Jun 2027 10:14:52.559   13 Jun 2027 10:14:54.070             1.511           233.125
       295   13 Jun 2027 11:44:00.843   13 Jun 2027 11:44:13.949            13.106          5303.375
       296   13 Jun 2027 11:44:37.679   13 Jun 2027 11:44:43.671             5.992           296.906
       297   13 Jun 2027 11:49:16.687   13 Jun 2027 11:49:31.742            15.055          7527.500
       298   13 Jun 2027 11:50:14.975   13 Jun 2027 11:50:21.313             6.338          1944.281
