uniorb/output/strategy_1/Camera/Camera_KinoSat_111908.txt

KinoSat_111908
-------------------------
    Access    *     Start Time (UTCG)     *     Stop Time (UTCG)  *   Duration (s) *   Data (Mbytes)
         1   01 Jun 2027 04:08:54.222   01 Jun 2027 04:10:02.285            68.063         34031.500
         2   01 Jun 2027 04:10:05.237   01 Jun 2027 04:11:03.912            58.675         29337.500
         3   01 Jun 2027 04:11:05.081   01 Jun 2027 04:11:13.908             8.827          4413.500
         4   01 Jun 2027 04:11:49.777   01 Jun 2027 04:11:50.063             0.286           143.000
         5   01 Jun 2027 04:11:53.549   01 Jun 2027 04:12:01.657             8.108          4054.000
         6   01 Jun 2027 04:12:17.293   01 Jun 2027 04:12:37.150            19.857          9928.500
         7   01 Jun 2027 04:14:36.799   01 Jun 2027 04:14:37.540             0.741           370.500
         8   01 Jun 2027 04:14:50.966   01 Jun 2027 04:14:51.979             1.013           506.500
         9   01 Jun 2027 05:47:41.463   01 Jun 2027 05:49:22.554           101.091         50545.500
        10   01 Jun 2027 05:49:56.336   01 Jun 2027 05:50:03.881             7.545          3772.500
        11   01 Jun 2027 05:50:43.853   01 Jun 2027 05:50:53.210             9.357          4678.500
        12   01 Jun 2027 05:51:26.831   01 Jun 2027 05:51:29.643             2.812          1406.000
        13   01 Jun 2027 05:51:46.143   01 Jun 2027 05:52:08.355            22.212         11106.000
        14   01 Jun 2027 05:54:39.370   01 Jun 2027 05:54:45.673             6.303          3151.500
        15   01 Jun 2027 07:12:01.796   01 Jun 2027 07:13:58.880           117.084         58542.000
        16   01 Jun 2027 07:24:16.118   01 Jun 2027 07:24:47.459            31.341         15670.500
        17   01 Jun 2027 08:46:12.137   01 Jun 2027 08:46:39.739            27.602         13801.000
        18   01 Jun 2027 08:48:14.972   01 Jun 2027 08:49:57.296           102.324         51162.000
        19   01 Jun 2027 10:21:00.162   01 Jun 2027 10:21:54.994            54.832         27416.000
        20   01 Jun 2027 10:22:57.023   01 Jun 2027 10:23:09.762            12.739          6369.500
        21   01 Jun 2027 10:26:33.636   01 Jun 2027 10:26:35.046             1.410           705.000
        22   02 Jun 2027 04:21:37.982   02 Jun 2027 04:23:15.992            98.010         49005.000
        23   02 Jun 2027 04:23:42.139   02 Jun 2027 04:23:51.791             9.652          4826.000
        24   02 Jun 2027 04:24:00.495   02 Jun 2027 04:24:07.226             6.731          3365.500
        25   02 Jun 2027 04:24:30.787   02 Jun 2027 04:24:52.335            21.548         10774.000
        26   02 Jun 2027 04:25:03.570   02 Jun 2027 04:25:08.416             4.846          2423.000
        27   02 Jun 2027 06:00:04.187   02 Jun 2027 06:01:41.602            97.415         48707.500
        28   02 Jun 2027 06:02:22.858   02 Jun 2027 06:02:26.964             4.106          2053.000
        29   02 Jun 2027 06:03:05.470   02 Jun 2027 06:03:10.433             4.963          2481.500
        30   02 Jun 2027 06:03:56.196   02 Jun 2027 06:04:12.820            16.624          8312.000
        31   02 Jun 2027 07:24:01.607   02 Jun 2027 07:25:45.291           103.684         51842.000
        32   02 Jun 2027 07:25:46.104   02 Jun 2027 07:25:49.017             2.913          1456.500
        33   02 Jun 2027 07:26:01.677   02 Jun 2027 07:26:07.432             5.755          2877.500
        34   02 Jun 2027 08:59:58.570   02 Jun 2027 09:01:36.985            98.415         49207.500
        35   02 Jun 2027 10:33:49.048   02 Jun 2027 10:35:25.097            96.049         48024.500
        36   02 Jun 2027 10:35:47.625   02 Jun 2027 10:35:52.351             4.726          2363.000
        37   02 Jun 2027 10:41:39.088   02 Jun 2027 10:42:19.690            40.602         20301.000
        38   03 Jun 2027 03:00:00.000   03 Jun 2027 03:00:18.443            18.443          9221.500
        39   03 Jun 2027 03:00:35.610   03 Jun 2027 03:00:36.664             1.054           527.000
        40   03 Jun 2027 03:00:46.375   03 Jun 2027 03:01:02.149            15.774          7887.000
        41   03 Jun 2027 04:34:23.609   03 Jun 2027 04:34:52.111            28.502         14251.000
        42   03 Jun 2027 04:35:00.886   03 Jun 2027 04:35:50.778            49.892         24946.000
        43   03 Jun 2027 04:35:52.951   03 Jun 2027 04:35:56.643             3.692          1846.000
        44   03 Jun 2027 04:37:28.351   03 Jun 2027 04:37:38.859            10.508          5254.000
        45   03 Jun 2027 04:38:23.033   03 Jun 2027 04:38:27.268             4.235          2117.500
        46   03 Jun 2027 04:38:41.212   03 Jun 2027 04:38:47.828             6.616          3308.000
        47   03 Jun 2027 04:39:02.207   03 Jun 2027 04:39:03.006             0.799           399.500
        48   03 Jun 2027 04:39:39.323   03 Jun 2027 04:39:49.274             9.951          4975.500
        49   03 Jun 2027 04:40:07.143   03 Jun 2027 04:40:13.550             6.407          3203.500
        50   03 Jun 2027 06:12:32.603   03 Jun 2027 06:13:56.103            83.500         41750.000
        51   03 Jun 2027 06:15:25.979   03 Jun 2027 06:15:32.941             6.962          3481.000
        52   03 Jun 2027 06:16:25.425   03 Jun 2027 06:16:33.062             7.637          3818.500
        53   03 Jun 2027 07:35:56.243   03 Jun 2027 07:37:53.510           117.267         58633.500
        54   03 Jun 2027 07:38:05.205   03 Jun 2027 07:38:22.545            17.340          8670.000
        55   03 Jun 2027 09:12:20.408   03 Jun 2027 09:14:19.704           119.296         59648.000
        56   03 Jun 2027 09:14:42.546   03 Jun 2027 09:14:53.865            11.319          5659.500
        57   03 Jun 2027 10:46:01.909   03 Jun 2027 10:47:25.489            83.580         41045.905
        58   03 Jun 2027 10:47:29.011   03 Jun 2027 10:47:29.865             0.854           110.062
        59   03 Jun 2027 10:48:18.757   03 Jun 2027 10:48:20.499             1.742           793.687
        60   03 Jun 2027 10:52:52.632   03 Jun 2027 10:52:52.632             0.000             0.000
        61   03 Jun 2027 10:54:17.603   03 Jun 2027 10:54:19.301             1.698           849.000
        62   04 Jun 2027 03:08:07.767   04 Jun 2027 03:08:13.317             5.550          2775.000
        63   04 Jun 2027 03:08:18.827   04 Jun 2027 03:08:23.025             4.198          2099.000
        64   04 Jun 2027 03:09:38.688   04 Jun 2027 03:10:25.322            46.634         23317.000
        65   04 Jun 2027 03:11:02.613   04 Jun 2027 03:11:18.958            16.345          8172.500
        66   04 Jun 2027 03:11:54.052   04 Jun 2027 03:11:57.886             3.834          1917.000
        67   04 Jun 2027 03:12:15.285   04 Jun 2027 03:12:16.017             0.732           366.000
        68   04 Jun 2027 03:13:34.692   04 Jun 2027 03:13:50.614            15.922          7961.000
        69   04 Jun 2027 04:46:09.675   04 Jun 2027 04:46:12.007             2.332          1166.000
        70   04 Jun 2027 04:46:37.480   04 Jun 2027 04:47:24.605            47.125         23562.500
        71   04 Jun 2027 04:47:27.621   04 Jun 2027 04:47:37.199             9.578          4789.000
        72   04 Jun 2027 04:49:03.321   04 Jun 2027 04:49:20.609            17.288          8644.000
        73   04 Jun 2027 04:49:29.877   04 Jun 2027 04:49:43.478            13.601          6800.500
        74   04 Jun 2027 04:52:16.088   04 Jun 2027 04:52:22.891             6.803          3401.500
        75   04 Jun 2027 06:24:49.416   04 Jun 2027 06:26:34.253           104.837         52418.500
        76   04 Jun 2027 06:28:26.459   04 Jun 2027 06:28:49.963            23.504         11752.000
        77   04 Jun 2027 07:47:43.765   04 Jun 2027 07:49:16.124            92.359         44939.530
        78   04 Jun 2027 09:24:22.379   04 Jun 2027 09:24:48.097            25.718         11979.062
        79   04 Jun 2027 09:26:07.382   04 Jun 2027 09:26:14.077             6.695          2306.656
        80   04 Jun 2027 09:27:12.431   04 Jun 2027 09:27:16.109             3.678          1823.562
        81   04 Jun 2027 10:59:22.516   04 Jun 2027 10:59:36.749            14.233          5442.281
        82   04 Jun 2027 11:03:24.706   04 Jun 2027 11:03:24.706             0.000             0.000
        83   04 Jun 2027 11:05:22.129   04 Jun 2027 11:05:33.029            10.900          5450.000
        84   04 Jun 2027 11:06:13.009   04 Jun 2027 11:06:14.236             1.227           613.500
        85   05 Jun 2027 03:20:09.114   05 Jun 2027 03:21:38.600            89.486         44743.000
        86   05 Jun 2027 03:23:47.450   05 Jun 2027 03:23:58.416            10.966          5483.000
        87   05 Jun 2027 03:24:16.076   05 Jun 2027 03:24:16.814             0.738           369.000
        88   05 Jun 2027 03:24:39.953   05 Jun 2027 03:24:46.441             6.488          3244.000
        89   05 Jun 2027 03:25:43.032   05 Jun 2027 03:25:44.339             1.307           653.500
        90   05 Jun 2027 03:25:46.776   05 Jun 2027 03:25:49.196             2.420          1210.000
        91   05 Jun 2027 04:58:17.294   05 Jun 2027 04:59:18.938            61.644         30822.000
        92   05 Jun 2027 04:59:25.736   05 Jun 2027 04:59:57.047            31.311         15655.500
        93   05 Jun 2027 05:01:04.117   05 Jun 2027 05:01:13.606             9.489          4744.500
        94   05 Jun 2027 05:01:32.408   05 Jun 2027 05:01:38.347             5.939          2969.500
        95   05 Jun 2027 05:03:39.910   05 Jun 2027 05:03:42.839             2.929          1464.500
        96   05 Jun 2027 06:36:35.168   05 Jun 2027 06:37:55.411            80.243         40121.500
        97   05 Jun 2027 06:38:50.392   05 Jun 2027 06:39:04.062            13.670          6835.000
        98   05 Jun 2027 06:39:24.120   05 Jun 2027 06:39:27.690             3.570          1785.000
        99   05 Jun 2027 07:59:58.399   05 Jun 2027 08:00:52.052            53.653         26773.593
       100   05 Jun 2027 08:01:27.695   05 Jun 2027 08:01:27.695             0.000             0.000
       101   05 Jun 2027 08:02:42.757   05 Jun 2027 08:02:45.201             2.444          1222.000
       102   05 Jun 2027 09:36:30.184   05 Jun 2027 09:36:45.242            15.058          6331.719
       103   05 Jun 2027 11:11:40.470   05 Jun 2027 11:12:03.088            22.618         11309.000
       104   05 Jun 2027 11:17:52.515   05 Jun 2027 11:18:16.542            24.027         12013.500
       105   06 Jun 2027 03:32:06.420   06 Jun 2027 03:33:56.496           110.076         55038.000
       106   06 Jun 2027 03:34:22.332   06 Jun 2027 03:34:22.332             0.000             0.000
       107   06 Jun 2027 03:34:38.513   06 Jun 2027 03:34:59.397            20.884         10442.000
       108   06 Jun 2027 03:37:34.782   06 Jun 2027 03:37:41.442             6.660          3330.000
       109   06 Jun 2027 03:38:23.513   06 Jun 2027 03:38:25.339             1.826           913.000
       110   06 Jun 2027 03:38:47.357   06 Jun 2027 03:39:01.676            14.319          7159.500
       111   06 Jun 2027 05:11:24.033   06 Jun 2027 05:12:53.173            89.140         44570.000
       112   06 Jun 2027 05:15:14.067   06 Jun 2027 05:15:20.470             6.403          3201.500
       113   06 Jun 2027 05:18:13.209   06 Jun 2027 05:19:03.821            50.612         25306.000
       114   06 Jun 2027 06:48:32.066   06 Jun 2027 06:49:12.021            39.955         19977.500
       115   06 Jun 2027 06:49:31.232   06 Jun 2027 06:49:55.116            23.884         11942.000
       116   06 Jun 2027 06:50:08.365   06 Jun 2027 06:50:17.849             9.484          4742.000
       117   06 Jun 2027 06:50:44.214   06 Jun 2027 06:50:45.866             1.652           826.000
       118   06 Jun 2027 06:51:12.730   06 Jun 2027 06:51:12.730             0.000             0.000
       119   06 Jun 2027 06:51:47.307   06 Jun 2027 06:51:54.687             7.380          3690.000
       120   06 Jun 2027 08:12:28.520   06 Jun 2027 08:13:01.745            33.225         16374.406
       121   06 Jun 2027 08:13:32.232   06 Jun 2027 08:13:39.414             7.182           932.375
       122   06 Jun 2027 09:49:57.900   06 Jun 2027 09:50:19.692            21.792         10826.969
       123   06 Jun 2027 09:50:45.404   06 Jun 2027 09:50:45.404             0.000             0.000
       124   06 Jun 2027 09:50:48.746   06 Jun 2027 09:50:49.512             0.766           275.844
       125   06 Jun 2027 11:23:48.389   06 Jun 2027 11:24:13.149            24.760         11050.813
       126   06 Jun 2027 11:25:17.107   06 Jun 2027 11:25:22.911             5.804          1091.469
       127   06 Jun 2027 11:26:36.938   06 Jun 2027 11:26:37.328             0.390           195.000
       128   06 Jun 2027 11:29:58.072   06 Jun 2027 11:30:15.147            17.075          7363.656
       129   06 Jun 2027 11:30:23.705   06 Jun 2027 11:30:24.432             0.727           267.437
       130   07 Jun 2027 03:44:47.568   07 Jun 2027 03:46:58.113           130.545         65272.500
       131   07 Jun 2027 03:47:03.021   07 Jun 2027 03:47:06.338             3.317          1658.500
       132   07 Jun 2027 03:48:53.841   07 Jun 2027 03:48:53.841             0.000             0.000
       133   07 Jun 2027 03:49:06.898   07 Jun 2027 03:49:08.691             1.793           896.500
       134   07 Jun 2027 05:23:28.129   07 Jun 2027 05:25:23.495           115.366         57683.000
       135   07 Jun 2027 05:29:54.012   07 Jun 2027 05:29:58.579             4.567          2283.500
       136   07 Jun 2027 05:30:30.186   07 Jun 2027 05:31:06.197            36.011         18005.500
       137   07 Jun 2027 06:49:17.674   07 Jun 2027 06:50:08.178            50.504         25252.000
       138   07 Jun 2027 07:00:28.504   07 Jun 2027 07:01:13.132            44.628         20316.657
       139   07 Jun 2027 08:23:05.815   07 Jun 2027 08:23:36.682            30.867         12378.375
       140   07 Jun 2027 08:24:18.419   07 Jun 2027 08:24:24.202             5.783           761.125
       141   07 Jun 2027 08:24:34.023   07 Jun 2027 08:24:34.023             0.000             0.000
       142   07 Jun 2027 08:25:04.823   07 Jun 2027 08:25:20.087            15.264          1269.406
       143   07 Jun 2027 08:26:34.338   07 Jun 2027 08:26:40.161             5.823          2320.344
       144   07 Jun 2027 09:58:40.960   07 Jun 2027 09:59:02.430            21.470          9094.250
       145   07 Jun 2027 10:00:53.642   07 Jun 2027 10:00:53.642             0.000             0.000
       146   07 Jun 2027 10:01:47.177   07 Jun 2027 10:01:59.776            12.599          5053.563
       147   07 Jun 2027 10:03:31.097   07 Jun 2027 10:03:36.543             5.446          1965.250
       148   07 Jun 2027 11:37:45.570   07 Jun 2027 11:38:18.851            33.281         14518.312
       149   07 Jun 2027 11:41:46.331   07 Jun 2027 11:41:59.945            13.614          6456.406
       150   07 Jun 2027 11:42:25.375   07 Jun 2027 11:42:29.844             4.469           794.687
       151   08 Jun 2027 03:56:53.491   08 Jun 2027 03:58:36.139           102.648         51324.000
       152   08 Jun 2027 04:01:23.658   08 Jun 2027 04:01:46.189            22.531         11265.500
       153   08 Jun 2027 04:02:08.028   08 Jun 2027 04:02:20.147            12.119          6059.500
       154   08 Jun 2027 05:35:57.820   08 Jun 2027 05:37:43.913           106.093         53046.500
       155   08 Jun 2027 05:37:53.478   08 Jun 2027 05:37:54.678             1.200           600.000
       156   08 Jun 2027 05:40:40.657   08 Jun 2027 05:40:40.657             0.000             0.000
       157   08 Jun 2027 05:41:18.441   08 Jun 2027 05:41:22.898             4.457          2228.500
       158   08 Jun 2027 05:42:24.198   08 Jun 2027 05:43:05.873            41.675         20837.500
       159   08 Jun 2027 07:00:49.224   08 Jun 2027 07:02:22.024            92.800         46400.000
       160   08 Jun 2027 07:12:32.164   08 Jun 2027 07:12:47.879            15.715          7626.031
       161   08 Jun 2027 08:34:46.140   08 Jun 2027 08:35:12.606            26.466         12770.781
       162   08 Jun 2027 08:35:28.380   08 Jun 2027 08:35:30.907             2.527           155.125
       163   08 Jun 2027 08:37:19.800   08 Jun 2027 08:37:19.800             0.000             0.000
       164   08 Jun 2027 08:38:25.499   08 Jun 2027 08:38:37.883            12.384          5294.562
       165   08 Jun 2027 08:38:51.854   08 Jun 2027 08:38:52.384             0.530           265.000
       166   08 Jun 2027 08:39:39.478   08 Jun 2027 08:39:42.426             2.948          1474.000
       167   08 Jun 2027 10:10:45.550   08 Jun 2027 10:11:07.956            22.406          7280.625
       168   08 Jun 2027 10:12:51.688   08 Jun 2027 10:12:56.898             5.210          2154.281
       169   08 Jun 2027 10:13:11.359   08 Jun 2027 10:13:13.190             1.831           451.906
       170   08 Jun 2027 10:15:41.370   08 Jun 2027 10:15:45.438             4.068          2034.000
       171   08 Jun 2027 11:53:29.985   08 Jun 2027 11:54:11.829            41.844         20922.000
       172   08 Jun 2027 11:54:27.035   08 Jun 2027 11:54:30.710             3.675           673.531
       173   09 Jun 2027 04:09:13.675   09 Jun 2027 04:09:40.292            26.617         13308.500
       174   09 Jun 2027 04:09:45.331   09 Jun 2027 04:10:19.782            34.451         17225.500
       175   09 Jun 2027 04:10:23.553   09 Jun 2027 04:11:14.980            51.427         25713.500
       176   09 Jun 2027 04:11:54.135   09 Jun 2027 04:12:04.927            10.792          5396.000
       177   09 Jun 2027 05:48:00.202   09 Jun 2027 05:49:54.789           114.587         57293.500
       178   09 Jun 2027 05:50:13.565   09 Jun 2027 05:50:14.957             1.392           696.000
       179   09 Jun 2027 05:50:58.771   09 Jun 2027 05:51:20.291            21.520         10760.000
       180   09 Jun 2027 05:52:48.285   09 Jun 2027 05:53:05.858            17.573          8786.500
       181   09 Jun 2027 05:54:58.119   09 Jun 2027 05:55:01.196             3.077          1538.500
       182   09 Jun 2027 07:12:20.771   09 Jun 2027 07:14:00.161            99.390         49609.532
       183   09 Jun 2027 07:24:37.507   09 Jun 2027 07:24:52.016            14.509          7227.063
       184   09 Jun 2027 08:46:28.128   09 Jun 2027 08:46:56.131            28.003         14001.500
       185   09 Jun 2027 08:48:31.654   09 Jun 2027 08:48:37.312             5.658          2359.719
       186   09 Jun 2027 08:49:36.961   09 Jun 2027 08:49:39.440             2.479           877.094
       187   09 Jun 2027 08:51:53.739   09 Jun 2027 08:52:02.936             9.197          4078.031
       188   09 Jun 2027 08:52:07.507   09 Jun 2027 08:52:08.243             0.736            59.562
       189   09 Jun 2027 10:22:10.977   09 Jun 2027 10:22:10.977             0.000             0.000
       190   09 Jun 2027 10:23:16.613   09 Jun 2027 10:23:18.683             2.070          1035.000
       191   10 Jun 2027 04:21:56.523   10 Jun 2027 04:22:12.194            15.671          7835.500
       192   10 Jun 2027 04:22:20.595   10 Jun 2027 04:23:06.296            45.701         22850.500
       193   10 Jun 2027 04:24:33.600   10 Jun 2027 04:25:24.554            50.954         25477.000
       194   10 Jun 2027 04:25:51.434   10 Jun 2027 04:25:53.004             1.570           785.000
       195   10 Jun 2027 04:26:40.518   10 Jun 2027 04:26:45.966             5.448          2724.000
       196   10 Jun 2027 04:26:59.400   10 Jun 2027 04:27:01.621             2.221          1110.500
       197   10 Jun 2027 06:00:24.808   10 Jun 2027 06:02:37.508           132.700         66350.000
       198   10 Jun 2027 06:03:45.515   10 Jun 2027 06:03:48.765             3.250          1625.000
       199   10 Jun 2027 07:24:19.163   10 Jun 2027 07:25:52.970            93.807         46903.500
       200   10 Jun 2027 07:26:01.112   10 Jun 2027 07:26:10.851             9.739          3936.595
       201   10 Jun 2027 09:00:16.278   10 Jun 2027 09:00:47.649            31.371         14005.438
       202   10 Jun 2027 10:34:04.983   10 Jun 2027 10:34:23.522            18.539          7642.656
       203   10 Jun 2027 10:36:06.938   10 Jun 2027 10:36:06.938             0.000             0.000
       204   10 Jun 2027 10:36:22.899   10 Jun 2027 10:36:24.693             1.794           897.000
       205   10 Jun 2027 10:38:51.432   10 Jun 2027 10:38:51.432             0.000             0.000
       206   10 Jun 2027 10:40:10.122   10 Jun 2027 10:40:27.419            17.297          7330.844
       207   10 Jun 2027 10:41:21.570   10 Jun 2027 10:41:24.569             2.999          1418.125
       208   10 Jun 2027 10:42:09.682   10 Jun 2027 10:42:12.933             3.251          1365.406
       209   11 Jun 2027 03:00:00.000   11 Jun 2027 03:00:14.487            14.487          7243.500
       210   11 Jun 2027 03:00:44.759   11 Jun 2027 03:01:02.637            17.878          8939.000
       211   11 Jun 2027 03:01:12.642   11 Jun 2027 03:01:16.979             4.337          2168.500
       212   11 Jun 2027 04:34:40.900   11 Jun 2027 04:35:00.109            19.209          9604.500
       213   11 Jun 2027 04:35:14.263   11 Jun 2027 04:36:08.973            54.710         27355.000
       214   11 Jun 2027 04:36:10.453   11 Jun 2027 04:36:23.423            12.970          6485.000
       215   11 Jun 2027 04:37:24.117   11 Jun 2027 04:37:43.087            18.970          9485.000
       216   11 Jun 2027 04:38:53.626   11 Jun 2027 04:38:55.594             1.968           984.000
       217   11 Jun 2027 04:39:20.079   11 Jun 2027 04:39:20.079             0.000             0.000
       218   11 Jun 2027 04:39:55.701   11 Jun 2027 04:40:04.221             8.520          4260.000
       219   11 Jun 2027 04:40:24.899   11 Jun 2027 04:40:28.066             3.167          1583.500
       220   11 Jun 2027 06:12:48.570   11 Jun 2027 06:14:49.137           120.567         60283.500
       221   11 Jun 2027 06:15:28.719   11 Jun 2027 06:15:36.901             8.182          4091.000
       222   11 Jun 2027 06:17:03.969   11 Jun 2027 06:17:24.843            20.874         10437.000
       223   11 Jun 2027 07:36:12.284   11 Jun 2027 07:37:34.572            82.288         41144.000
       224   11 Jun 2027 09:12:34.708   11 Jun 2027 09:13:00.074            25.366         12683.000
       225   11 Jun 2027 10:46:26.504   11 Jun 2027 10:46:52.023            25.519          8691.063
       226   11 Jun 2027 10:47:22.734   11 Jun 2027 10:47:24.654             1.920           872.906
       227   11 Jun 2027 10:47:44.781   11 Jun 2027 10:47:45.537             0.756            75.438
       228   11 Jun 2027 10:49:29.335   11 Jun 2027 10:49:45.613            16.278          2228.437
       229   11 Jun 2027 10:49:50.473   11 Jun 2027 10:49:50.628             0.155            77.500
       230   11 Jun 2027 10:50:01.840   11 Jun 2027 10:50:03.735             1.895           369.344
       231   11 Jun 2027 10:50:35.681   11 Jun 2027 10:50:40.563             4.882           930.094
       232   11 Jun 2027 10:51:14.287   11 Jun 2027 10:51:16.464             2.177          1040.844
       233   11 Jun 2027 10:52:41.158   11 Jun 2027 10:52:57.046            15.888          2634.750
       234   11 Jun 2027 10:54:18.646   11 Jun 2027 10:54:26.802             8.156          2418.969
       235   12 Jun 2027 03:08:26.245   12 Jun 2027 03:09:02.395            36.150         18075.000
       236   12 Jun 2027 03:09:14.391   12 Jun 2027 03:09:14.391             0.000             0.000
       237   12 Jun 2027 03:09:53.657   12 Jun 2027 03:10:33.628            39.971         19985.500
       238   12 Jun 2027 03:11:37.361   12 Jun 2027 03:11:53.304            15.943          7971.500
       239   12 Jun 2027 03:12:14.563   12 Jun 2027 03:12:17.414             2.851          1425.500
       240   12 Jun 2027 03:13:32.744   12 Jun 2027 03:13:38.691             5.947          2973.500
       241   12 Jun 2027 03:14:29.284   12 Jun 2027 03:14:59.408            30.124         15062.000
       242   12 Jun 2027 04:46:45.804   12 Jun 2027 04:47:40.807            55.003         27501.500
       243   12 Jun 2027 04:47:46.601   12 Jun 2027 04:48:03.799            17.198          8599.000
       244   12 Jun 2027 04:48:12.527   12 Jun 2027 04:48:12.527             0.000             0.000
       245   12 Jun 2027 04:48:18.466   12 Jun 2027 04:48:23.522             5.056          2528.000
       246   12 Jun 2027 04:49:42.365   12 Jun 2027 04:49:51.507             9.142          4571.000
       247   12 Jun 2027 04:50:56.627   12 Jun 2027 04:51:01.444             4.817          2408.500
       248   12 Jun 2027 04:52:33.921   12 Jun 2027 04:52:42.669             8.748          4374.000
       249   12 Jun 2027 06:25:07.927   12 Jun 2027 06:26:37.131            89.204         44602.000
       250   12 Jun 2027 06:27:39.649   12 Jun 2027 06:27:54.222            14.573          7286.500
       251   12 Jun 2027 07:48:01.072   12 Jun 2027 07:49:02.418            61.346         30139.125
       252   12 Jun 2027 07:50:44.464   12 Jun 2027 07:50:48.242             3.778          1889.000
       253   12 Jun 2027 09:24:38.289   12 Jun 2027 09:24:55.948            17.659          8061.875
       254   12 Jun 2027 09:25:27.216   12 Jun 2027 09:25:27.216             0.000             0.000
       255   12 Jun 2027 09:27:16.693   12 Jun 2027 09:27:20.480             3.787          1893.500
       256   12 Jun 2027 10:59:44.542   12 Jun 2027 11:00:01.896            17.354          7840.500
       257   12 Jun 2027 11:03:10.515   12 Jun 2027 11:03:10.515             0.000             0.000
       258   12 Jun 2027 11:05:42.643   12 Jun 2027 11:06:03.476            20.833          9757.469
       259   12 Jun 2027 11:06:26.477   12 Jun 2027 11:06:27.312             0.835           178.563
       260   13 Jun 2027 03:20:26.763   13 Jun 2027 03:21:13.022            46.259         23129.500
       261   13 Jun 2027 03:21:22.321   13 Jun 2027 03:22:10.674            48.353         24176.500
       262   13 Jun 2027 03:23:05.521   13 Jun 2027 03:23:32.387            26.866         13433.000
       263   13 Jun 2027 03:26:33.186   13 Jun 2027 03:26:35.455             2.269          1134.500
       264   13 Jun 2027 03:26:43.430   13 Jun 2027 03:26:54.662            11.232          5616.000
       265   13 Jun 2027 04:58:35.263   13 Jun 2027 04:59:35.017            59.754         29877.000
       266   13 Jun 2027 04:59:42.700   13 Jun 2027 04:59:55.912            13.212          6606.000
       267   13 Jun 2027 05:00:11.683   13 Jun 2027 05:00:14.486             2.803          1401.500
       268   13 Jun 2027 05:00:19.305   13 Jun 2027 05:00:31.661            12.356          6178.000
       269   13 Jun 2027 05:02:06.990   13 Jun 2027 05:02:18.437            11.447          5723.500
       270   13 Jun 2027 06:36:52.272   13 Jun 2027 06:38:11.867            79.595         39797.500
       271   13 Jun 2027 06:39:29.732   13 Jun 2027 06:39:38.933             9.201          4600.500
       272   13 Jun 2027 06:39:42.957   13 Jun 2027 06:39:49.156             6.199          3099.500
       273   13 Jun 2027 08:00:15.216   13 Jun 2027 08:01:13.588            58.372         27867.874
       274   13 Jun 2027 08:01:49.941   13 Jun 2027 08:01:59.392             9.451          1016.063
       275   13 Jun 2027 09:37:05.003   13 Jun 2027 09:37:05.003             0.000             0.000
       276   13 Jun 2027 09:37:51.292   13 Jun 2027 09:38:15.264            23.972         11986.000
       277   13 Jun 2027 11:11:58.640   13 Jun 2027 11:12:19.452            20.812         10406.000
       278   13 Jun 2027 11:14:46.320   13 Jun 2027 11:14:46.320             0.000             0.000
       279   13 Jun 2027 11:15:14.528   13 Jun 2027 11:15:27.258            12.730          5735.500
       280   13 Jun 2027 11:16:21.704   13 Jun 2027 11:16:26.124             4.420          1301.406
       281   13 Jun 2027 11:17:36.487   13 Jun 2027 11:17:41.147             4.660          2033.656
       282   13 Jun 2027 11:17:50.997   13 Jun 2027 11:17:51.689             0.692           282.719
       283   13 Jun 2027 11:18:01.119   13 Jun 2027 11:18:04.825             3.706           294.688
       284   13 Jun 2027 11:18:23.679   13 Jun 2027 11:18:28.300             4.621           516.719
