uniorb/output/strategy_1/Camera/Camera_KinoSat_111307.txt

KinoSat_111307
-------------------------
    Access    *     Start Time (UTCG)     *     Stop Time (UTCG)  *   Duration (s) *   Data (Mbytes)
         1   01 Jun 2027 03:08:05.659   01 Jun 2027 03:09:22.474            76.815         38407.500
         2   01 Jun 2027 03:09:35.336   01 Jun 2027 03:09:45.218             9.882          4941.000
         3   01 Jun 2027 03:10:50.603   01 Jun 2027 03:10:55.043             4.440          2220.000
         4   01 Jun 2027 03:11:04.398   01 Jun 2027 03:11:08.389             3.991          1995.500
         5   01 Jun 2027 03:12:07.537   01 Jun 2027 03:12:10.684             3.147          1573.500
         6   01 Jun 2027 03:13:55.010   01 Jun 2027 03:14:10.127            15.117          7558.500
         7   01 Jun 2027 03:14:53.540   01 Jun 2027 03:15:14.164            20.624         10312.000
         8   01 Jun 2027 04:32:56.349   01 Jun 2027 04:33:58.580            62.231         31115.500
         9   01 Jun 2027 04:44:40.048   01 Jun 2027 04:45:16.659            36.611         18305.500
        10   01 Jun 2027 04:45:38.035   01 Jun 2027 04:45:38.035             0.000             0.000
        11   01 Jun 2027 06:06:55.569   01 Jun 2027 06:08:01.593            66.024         33012.000
        12   01 Jun 2027 06:08:52.393   01 Jun 2027 06:09:11.582            19.189          9594.500
        13   01 Jun 2027 07:41:53.899   01 Jun 2027 07:43:47.720           113.821         56910.500
        14   01 Jun 2027 07:43:57.332   01 Jun 2027 07:44:25.118            27.786         13893.000
        15   01 Jun 2027 07:46:40.625   01 Jun 2027 07:47:05.440            24.815         12407.500
        16   01 Jun 2027 07:49:57.850   01 Jun 2027 07:50:05.024             7.174          3587.000
        17   01 Jun 2027 09:19:21.890   01 Jun 2027 09:21:21.723           119.833         59916.500
        18   01 Jun 2027 09:25:34.290   01 Jun 2027 09:25:41.871             7.581          3790.500
        19   01 Jun 2027 09:26:39.292   01 Jun 2027 09:26:39.786             0.494           247.000
        20   01 Jun 2027 10:56:07.613   01 Jun 2027 10:58:19.457           131.844         65922.000
        21   01 Jun 2027 10:59:05.807   01 Jun 2027 10:59:10.438             4.631          2315.500
        22   01 Jun 2027 11:00:21.822   01 Jun 2027 11:00:22.254             0.432           216.000
        23   01 Jun 2027 11:02:24.070   01 Jun 2027 11:02:38.309            14.239          7119.500
        24   02 Jun 2027 03:20:07.609   02 Jun 2027 03:21:32.139            84.530         42265.000
        25   02 Jun 2027 03:22:00.407   02 Jun 2027 03:22:10.738            10.331          5165.500
        26   02 Jun 2027 03:22:41.778   02 Jun 2027 03:22:51.423             9.645          4822.500
        27   02 Jun 2027 03:24:12.541   02 Jun 2027 03:24:20.637             8.096          4048.000
        28   02 Jun 2027 03:24:56.182   02 Jun 2027 03:25:06.457            10.275          5137.500
        29   02 Jun 2027 03:27:06.213   02 Jun 2027 03:27:08.880             2.667          1333.500
        30   02 Jun 2027 04:44:29.507   02 Jun 2027 04:45:10.541            41.034         20517.000
        31   02 Jun 2027 04:56:45.847   02 Jun 2027 04:57:13.221            27.374         13687.000
        32   02 Jun 2027 06:18:32.378   02 Jun 2027 06:19:48.766            76.388         38194.000
        33   02 Jun 2027 06:21:52.646   02 Jun 2027 06:22:20.047            27.401         13700.500
        34   02 Jun 2027 06:23:57.423   02 Jun 2027 06:24:04.726             7.303          3651.500
        35   02 Jun 2027 07:53:21.760   02 Jun 2027 07:55:03.628           101.868         50934.000
        36   02 Jun 2027 07:55:52.683   02 Jun 2027 07:55:59.780             7.097          3548.500
        37   02 Jun 2027 07:56:52.023   02 Jun 2027 07:57:02.111            10.088          5044.000
        38   02 Jun 2027 07:59:03.084   02 Jun 2027 07:59:08.030             4.946          2473.000
        39   02 Jun 2027 08:00:13.418   02 Jun 2027 08:00:15.857             2.439          1219.500
        40   02 Jun 2027 08:01:17.953   02 Jun 2027 08:01:24.003             6.050          3025.000
        41   02 Jun 2027 08:02:16.885   02 Jun 2027 08:02:26.106             9.221          4610.500
        42   02 Jun 2027 09:31:15.076   02 Jun 2027 09:32:08.098            53.022         26511.000
        43   02 Jun 2027 09:35:23.629   02 Jun 2027 09:36:19.152            55.523         27761.500
        44   02 Jun 2027 09:37:08.898   02 Jun 2027 09:37:21.003            12.105          6052.500
        45   02 Jun 2027 09:37:48.436   02 Jun 2027 09:37:50.856             2.420          1210.000
        46   02 Jun 2027 09:38:04.696   02 Jun 2027 09:38:21.959            17.263          8631.500
        47   02 Jun 2027 11:07:58.934   02 Jun 2027 11:10:07.104           128.170         64085.000
        48   02 Jun 2027 11:12:02.684   02 Jun 2027 11:12:09.631             6.947          3473.500
        49   02 Jun 2027 11:14:18.703   02 Jun 2027 11:14:34.555            15.852          7926.000
        50   02 Jun 2027 11:14:36.915   02 Jun 2027 11:14:38.523             1.608           804.000
        51   03 Jun 2027 03:32:30.942   03 Jun 2027 03:33:54.363            83.421         41710.500
        52   03 Jun 2027 03:34:07.823   03 Jun 2027 03:34:18.330            10.507          5253.500
        53   03 Jun 2027 03:35:06.774   03 Jun 2027 03:35:15.973             9.199          4599.500
        54   03 Jun 2027 03:36:18.563   03 Jun 2027 03:36:28.278             9.715          4857.500
        55   03 Jun 2027 04:56:25.718   03 Jun 2027 04:57:22.124            56.406         28203.000
        56   03 Jun 2027 06:32:25.857   03 Jun 2027 06:33:34.507            68.650         34325.000
        57   03 Jun 2027 06:34:02.255   03 Jun 2027 06:34:32.368            30.113         15056.500
        58   03 Jun 2027 08:06:13.709   03 Jun 2027 08:07:48.213            94.504         47252.000
        59   03 Jun 2027 08:08:28.331   03 Jun 2027 08:08:29.172             0.841           420.500
        60   03 Jun 2027 08:10:51.949   03 Jun 2027 08:11:22.290            30.341         15170.500
        61   03 Jun 2027 08:11:29.605   03 Jun 2027 08:11:35.484             5.879          2939.500
        62   03 Jun 2027 08:12:08.771   03 Jun 2027 08:12:09.971             1.200           600.000
        63   03 Jun 2027 08:12:56.271   03 Jun 2027 08:12:56.271             0.000             0.000
        64   03 Jun 2027 08:13:06.682   03 Jun 2027 08:13:15.379             8.697          4348.500
        65   03 Jun 2027 08:13:57.387   03 Jun 2027 08:13:57.789             0.402           201.000
        66   03 Jun 2027 08:14:25.681   03 Jun 2027 08:14:37.898            12.217          6108.500
        67   03 Jun 2027 09:43:22.495   03 Jun 2027 09:44:32.825            70.330         35165.000
        68   03 Jun 2027 09:47:24.580   03 Jun 2027 09:47:24.580             0.000             0.000
        69   03 Jun 2027 09:47:57.565   03 Jun 2027 09:48:27.515            29.950         14975.000
        70   03 Jun 2027 09:48:48.335   03 Jun 2027 09:49:04.155            15.820          7910.000
        71   03 Jun 2027 09:49:11.883   03 Jun 2027 09:49:11.884             0.001             0.500
        72   03 Jun 2027 11:20:36.705   03 Jun 2027 11:21:13.381            36.676         17426.781
        73   03 Jun 2027 11:21:45.082   03 Jun 2027 11:21:56.718            11.636           929.781
        74   03 Jun 2027 11:22:53.789   03 Jun 2027 11:22:53.789             0.000             0.000
        75   03 Jun 2027 11:23:06.314   03 Jun 2027 11:23:10.358             4.044          1632.563
        76   03 Jun 2027 11:24:04.304   03 Jun 2027 11:24:08.203             3.899          1685.812
        77   03 Jun 2027 11:24:42.534   03 Jun 2027 11:24:45.815             3.281          1025.375
        78   03 Jun 2027 11:26:07.384   03 Jun 2027 11:26:13.197             5.813          2246.500
        79   04 Jun 2027 03:44:56.912   04 Jun 2027 03:45:43.695            46.783         23391.500
        80   04 Jun 2027 03:46:22.626   04 Jun 2027 03:47:11.080            48.454         24227.000
        81   04 Jun 2027 03:47:18.606   04 Jun 2027 03:47:20.063             1.457           728.500
        82   04 Jun 2027 05:08:18.947   04 Jun 2027 05:09:16.092            57.145         28572.500
        83   04 Jun 2027 05:09:24.428   04 Jun 2027 05:09:24.428             0.000             0.000
        84   04 Jun 2027 05:09:50.900   04 Jun 2027 05:10:01.655            10.755          5377.500
        85   04 Jun 2027 06:44:41.032   04 Jun 2027 06:46:40.472           119.440         59720.000
        86   04 Jun 2027 06:47:39.181   04 Jun 2027 06:47:44.750             5.569          2784.500
        87   04 Jun 2027 08:18:37.191   04 Jun 2027 08:19:25.936            48.745         24329.281
        88   04 Jun 2027 08:20:32.284   04 Jun 2027 08:20:35.120             2.836          1418.000
        89   04 Jun 2027 08:20:54.100   04 Jun 2027 08:21:00.235             6.135          1199.125
        90   04 Jun 2027 08:22:23.300   04 Jun 2027 08:22:28.542             5.242          1565.969
        91   04 Jun 2027 08:25:12.889   04 Jun 2027 08:25:20.366             7.477          3738.500
        92   04 Jun 2027 08:25:54.870   04 Jun 2027 08:25:59.529             4.659          2100.031
        93   04 Jun 2027 08:26:33.292   04 Jun 2027 08:26:40.113             6.821           607.219
        94   04 Jun 2027 09:55:48.158   04 Jun 2027 09:56:01.043            12.885          6281.625
        95   04 Jun 2027 09:56:17.831   04 Jun 2027 09:56:19.631             1.800            77.594
        96   04 Jun 2027 09:58:01.685   04 Jun 2027 09:58:08.027             6.342          2026.750
        97   04 Jun 2027 09:58:33.766   04 Jun 2027 09:58:37.291             3.525           804.344
        98   04 Jun 2027 09:58:48.552   04 Jun 2027 09:58:49.494             0.942           346.187
        99   04 Jun 2027 10:00:14.779   04 Jun 2027 10:00:20.412             5.633          2423.938
       100   04 Jun 2027 10:00:40.484   04 Jun 2027 10:00:42.964             2.480            82.781
       101   04 Jun 2027 10:00:59.074   04 Jun 2027 10:01:03.507             4.433           452.969
       102   04 Jun 2027 10:01:33.077   04 Jun 2027 10:01:36.356             3.279           924.063
       103   04 Jun 2027 10:01:55.411   04 Jun 2027 10:01:55.808             0.397           194.906
       104   04 Jun 2027 10:02:27.497   04 Jun 2027 10:02:28.790             1.293           646.500
       105   04 Jun 2027 11:32:48.943   04 Jun 2027 11:33:06.007            17.064          8032.594
       106   04 Jun 2027 11:34:18.993   04 Jun 2027 11:34:21.359             2.366           862.563
       107   04 Jun 2027 11:34:29.778   04 Jun 2027 11:34:29.778             0.000             0.000
       108   04 Jun 2027 11:34:46.986   04 Jun 2027 11:34:50.357             3.371           780.094
       109   04 Jun 2027 11:35:24.644   04 Jun 2027 11:35:30.506             5.862           924.531
       110   04 Jun 2027 11:35:49.800   04 Jun 2027 11:35:51.066             1.266           602.937
       111   04 Jun 2027 11:36:13.756   04 Jun 2027 11:36:15.724             1.968           709.062
       112   04 Jun 2027 11:36:46.957   04 Jun 2027 11:36:51.970             5.013           775.562
       113   04 Jun 2027 11:36:55.543   04 Jun 2027 11:36:55.686             0.143            71.500
       114   04 Jun 2027 11:37:43.854   04 Jun 2027 11:37:47.879             4.025          1545.406
       115   05 Jun 2027 03:57:14.603   05 Jun 2027 03:59:03.515           108.912         54456.000
       116   05 Jun 2027 03:59:31.299   05 Jun 2027 03:59:31.638             0.339           169.500
       117   05 Jun 2027 05:20:11.517   05 Jun 2027 05:21:16.629            65.112         32556.000
       118   05 Jun 2027 05:21:38.889   05 Jun 2027 05:21:38.889             0.000             0.000
       119   05 Jun 2027 05:21:49.766   05 Jun 2027 05:21:57.852             8.086          4043.000
       120   05 Jun 2027 06:56:45.198   05 Jun 2027 06:58:53.830           128.632         64316.000
       121   05 Jun 2027 08:31:54.092   05 Jun 2027 08:32:17.630            23.538         11117.343
       122   05 Jun 2027 08:32:59.495   05 Jun 2027 08:33:06.291             6.796          1066.969
       123   05 Jun 2027 08:33:36.899   05 Jun 2027 08:33:44.267             7.368           956.500
       124   05 Jun 2027 08:34:33.682   05 Jun 2027 08:34:38.960             5.278          1433.344
       125   05 Jun 2027 08:35:06.063   05 Jun 2027 08:35:09.937             3.874           838.187
       126   05 Jun 2027 08:35:39.127   05 Jun 2027 08:35:40.357             1.230           425.406
       127   05 Jun 2027 08:37:20.921   05 Jun 2027 08:37:30.644             9.723          3057.906
       128   05 Jun 2027 08:38:09.427   05 Jun 2027 08:38:12.597             3.170          1211.969
       129   05 Jun 2027 08:38:20.838   05 Jun 2027 08:38:21.774             0.936           200.375
       130   05 Jun 2027 08:38:29.520   05 Jun 2027 08:38:31.626             2.106           220.875
       131   05 Jun 2027 10:08:14.089   05 Jun 2027 10:08:27.723            13.634          6337.250
       132   05 Jun 2027 10:09:08.756   05 Jun 2027 10:09:12.135             3.379          1048.687
       133   05 Jun 2027 10:10:09.376   05 Jun 2027 10:10:17.063             7.687          1054.875
       134   05 Jun 2027 10:10:30.884   05 Jun 2027 10:10:33.698             2.814           302.562
       135   05 Jun 2027 10:10:39.205   05 Jun 2027 10:10:42.663             3.458            81.875
       136   05 Jun 2027 10:11:04.970   05 Jun 2027 10:11:06.194             1.224           574.625
       137   05 Jun 2027 10:12:20.489   05 Jun 2027 10:12:24.554             4.065          2032.500
       138   05 Jun 2027 10:12:25.495   05 Jun 2027 10:12:26.759             1.264           318.625
       139   05 Jun 2027 10:12:55.891   05 Jun 2027 10:12:59.556             3.665           910.375
       140   05 Jun 2027 10:13:47.292   05 Jun 2027 10:13:51.588             4.296          1491.750
       141   05 Jun 2027 10:13:57.113   05 Jun 2027 10:13:59.928             2.815           172.656
       142   05 Jun 2027 11:45:48.702   05 Jun 2027 11:46:01.226            12.524          6262.000
       143   05 Jun 2027 11:46:32.447   05 Jun 2027 11:46:35.225             2.778          1138.219
       144   05 Jun 2027 11:46:58.209   05 Jun 2027 11:47:09.643            11.434           528.531
       145   05 Jun 2027 11:47:51.797   05 Jun 2027 11:48:04.511            12.714          1317.313
       146   05 Jun 2027 11:48:15.123   05 Jun 2027 11:48:21.514             6.391           324.156
       147   05 Jun 2027 11:49:08.597   05 Jun 2027 11:49:09.570             0.973           486.500
       148   05 Jun 2027 11:49:34.732   05 Jun 2027 11:49:48.188            13.456          1771.156
       149   06 Jun 2027 04:08:59.802   06 Jun 2027 04:09:33.917            34.115         17057.500
       150   06 Jun 2027 04:09:48.360   06 Jun 2027 04:10:55.006            66.646         33323.000
       151   06 Jun 2027 05:32:20.733   06 Jun 2027 05:34:04.704           103.971         51985.500
       152   06 Jun 2027 05:35:26.209   06 Jun 2027 05:35:29.481             3.272          1636.000
       153   06 Jun 2027 07:08:55.853   06 Jun 2027 07:09:58.314            62.461         31230.500
       154   06 Jun 2027 07:10:31.815   06 Jun 2027 07:11:12.273            40.458         20229.000
       155   06 Jun 2027 07:11:27.616   06 Jun 2027 07:11:31.010             3.394          1697.000
       156   06 Jun 2027 07:11:57.402   06 Jun 2027 07:12:04.501             7.099          3522.656
       157   06 Jun 2027 07:12:13.776   06 Jun 2027 07:12:16.078             2.302           179.156
       158   06 Jun 2027 08:44:05.942   06 Jun 2027 08:44:19.530            13.588          6724.781
       159   06 Jun 2027 08:44:21.437   06 Jun 2027 08:44:23.247             1.810            22.656
       160   06 Jun 2027 08:44:31.738   06 Jun 2027 08:44:34.647             2.909           265.344
       161   06 Jun 2027 08:45:47.036   06 Jun 2027 08:45:52.138             5.102          2179.906
       162   06 Jun 2027 08:47:00.827   06 Jun 2027 08:47:06.401             5.574          1008.813
       163   06 Jun 2027 08:48:06.450   06 Jun 2027 08:48:10.527             4.077          1575.500
       164   06 Jun 2027 08:48:27.808   06 Jun 2027 08:48:31.877             4.069           540.031
       165   06 Jun 2027 08:48:55.070   06 Jun 2027 08:48:56.092             1.022           368.375
       166   06 Jun 2027 08:49:39.086   06 Jun 2027 08:49:45.998             6.912           720.094
       167   06 Jun 2027 08:50:41.220   06 Jun 2027 08:50:41.618             0.398           199.000
       168   06 Jun 2027 10:20:26.811   06 Jun 2027 10:20:38.135            11.324          5617.375
       169   06 Jun 2027 10:21:51.345   06 Jun 2027 10:22:04.103            12.758          2157.031
       170   06 Jun 2027 10:22:40.795   06 Jun 2027 10:22:43.545             2.750           933.750
       171   06 Jun 2027 10:23:58.236   06 Jun 2027 10:24:06.630             8.394          2334.094
       172   06 Jun 2027 10:24:17.613   06 Jun 2027 10:24:18.436             0.823           226.656
       173   06 Jun 2027 10:24:25.074   06 Jun 2027 10:24:25.653             0.579           207.437
       174   06 Jun 2027 10:24:35.534   06 Jun 2027 10:24:40.169             4.635           308.781
       175   06 Jun 2027 10:24:49.035   06 Jun 2027 10:24:50.886             1.851           269.094
       176   06 Jun 2027 10:25:34.630   06 Jun 2027 10:25:36.794             2.164           935.563
       177   06 Jun 2027 11:57:43.617   06 Jun 2027 11:57:56.940            13.323          5661.750
       178   06 Jun 2027 11:58:00.995   06 Jun 2027 11:58:01.103             0.108            54.000
       179   06 Jun 2027 11:58:31.534   06 Jun 2027 11:58:36.793             5.259          1023.688
       180   06 Jun 2027 11:58:45.528   06 Jun 2027 11:58:45.528             0.000             0.000
       181   06 Jun 2027 11:58:52.787   06 Jun 2027 11:58:54.862             2.075           499.813
       182   06 Jun 2027 11:59:39.236   06 Jun 2027 11:59:41.716             2.480          1100.656
       183   07 Jun 2027 04:20:56.679   07 Jun 2027 04:21:36.755            40.076         20038.000
       184   07 Jun 2027 04:21:54.785   07 Jun 2027 04:22:27.314            32.529         16264.500
       185   07 Jun 2027 04:22:46.000   07 Jun 2027 04:23:26.572            40.572         20286.000
       186   07 Jun 2027 04:24:21.883   07 Jun 2027 04:24:21.883             0.000             0.000
       187   07 Jun 2027 05:44:53.653   07 Jun 2027 05:46:06.406            72.753         36376.500
       188   07 Jun 2027 07:20:43.797   07 Jun 2027 07:23:00.276           136.479         68239.500
       189   07 Jun 2027 07:23:53.335   07 Jun 2027 07:23:56.346             3.011          1505.500
       190   07 Jun 2027 08:55:36.691   07 Jun 2027 08:55:54.998            18.307          7716.750
       191   07 Jun 2027 08:56:20.774   07 Jun 2027 08:56:24.901             4.127           569.094
       192   07 Jun 2027 08:57:00.236   07 Jun 2027 08:57:01.174             0.938           281.031
       193   07 Jun 2027 08:57:38.763   07 Jun 2027 08:57:38.883             0.120            60.000
       194   07 Jun 2027 08:57:58.972   07 Jun 2027 08:58:04.716             5.744          1742.438
       195   07 Jun 2027 08:58:16.168   07 Jun 2027 08:58:18.296             2.128           287.719
       196   07 Jun 2027 08:58:42.867   07 Jun 2027 08:58:43.253             0.386           193.000
       197   07 Jun 2027 08:59:36.338   07 Jun 2027 08:59:46.685            10.347          2150.156
       198   07 Jun 2027 09:00:12.868   07 Jun 2027 09:00:20.296             7.428           248.656
       199   07 Jun 2027 09:00:57.213   07 Jun 2027 09:00:59.754             2.541          1005.500
       200   07 Jun 2027 09:01:09.276   07 Jun 2027 09:01:10.156             0.880           297.563
       201   07 Jun 2027 09:01:39.075   07 Jun 2027 09:01:42.590             3.515           616.469
       202   07 Jun 2027 09:02:35.252   07 Jun 2027 09:02:41.993             6.741          1460.625
       203   07 Jun 2027 10:32:05.562   07 Jun 2027 10:32:20.726            15.164          7369.375
       204   07 Jun 2027 10:33:02.004   07 Jun 2027 10:33:08.204             6.200           821.313
       205   07 Jun 2027 10:33:15.533   07 Jun 2027 10:33:16.438             0.905           229.031
       206   07 Jun 2027 10:34:21.522   07 Jun 2027 10:34:25.592             4.070           421.062
       207   07 Jun 2027 10:34:34.905   07 Jun 2027 10:34:37.025             2.120           222.813
       208   07 Jun 2027 10:34:44.124   07 Jun 2027 10:34:46.064             1.940            60.219
       209   07 Jun 2027 10:35:05.467   07 Jun 2027 10:35:07.905             2.438           606.344
       210   07 Jun 2027 10:35:13.099   07 Jun 2027 10:35:15.039             1.940           162.313
       211   07 Jun 2027 10:35:39.263   07 Jun 2027 10:35:43.966             4.703           598.406
       212   07 Jun 2027 10:36:02.857   07 Jun 2027 10:36:10.032             7.175           543.406
       213   07 Jun 2027 10:36:18.646   07 Jun 2027 10:36:19.291             0.645           197.000
       214   07 Jun 2027 10:37:09.038   07 Jun 2027 10:37:12.396             3.358          1471.156
       215   07 Jun 2027 10:37:15.757   07 Jun 2027 10:37:17.714             1.957            95.375
       216   07 Jun 2027 10:37:20.082   07 Jun 2027 10:37:30.103            10.021            74.000
       217   07 Jun 2027 10:38:14.501   07 Jun 2027 10:38:20.281             5.780          1387.437
       218   07 Jun 2027 10:38:25.652   07 Jun 2027 10:38:26.266             0.614           125.906
       219   08 Jun 2027 03:00:00.000   08 Jun 2027 03:00:09.016             9.016          4508.000
       220   08 Jun 2027 03:00:24.985   08 Jun 2027 03:00:25.914             0.929           464.500
       221   08 Jun 2027 03:00:51.765   08 Jun 2027 03:01:02.195            10.430          5215.000
       222   08 Jun 2027 03:01:38.757   08 Jun 2027 03:01:41.094             2.337          1168.500
       223   08 Jun 2027 03:02:16.394   08 Jun 2027 03:02:44.606            28.212         14106.000
       224   08 Jun 2027 04:21:32.909   08 Jun 2027 04:22:15.352            42.443         21221.500
       225   08 Jun 2027 04:32:52.961   08 Jun 2027 04:33:46.368            53.407         26703.500
       226   08 Jun 2027 05:55:28.216   08 Jun 2027 05:56:32.430            64.214         32107.000
       227   08 Jun 2027 05:57:03.389   08 Jun 2027 05:57:16.887            13.498          6749.000
       228   08 Jun 2027 05:58:33.476   08 Jun 2027 05:58:33.476             0.000             0.000
       229   08 Jun 2027 05:59:46.977   08 Jun 2027 06:00:00.774            13.797          6898.500
       230   08 Jun 2027 07:30:59.860   08 Jun 2027 07:31:50.669            50.809         25404.500
       231   08 Jun 2027 07:32:28.829   08 Jun 2027 07:33:13.272            44.443         22221.500
       232   08 Jun 2027 07:33:38.059   08 Jun 2027 07:33:52.159            14.100          7050.000
       233   08 Jun 2027 07:35:10.133   08 Jun 2027 07:35:14.044             3.911          1955.500
       234   08 Jun 2027 07:36:50.772   08 Jun 2027 07:36:50.772             0.000             0.000
       235   08 Jun 2027 09:07:19.287   08 Jun 2027 09:07:41.724            22.437          8253.563
       236   08 Jun 2027 09:09:39.155   08 Jun 2027 09:09:47.385             8.230          3669.719
       237   08 Jun 2027 09:10:50.008   08 Jun 2027 09:10:51.738             1.730           565.500
       238   08 Jun 2027 09:11:04.520   08 Jun 2027 09:11:05.808             1.288           228.500
       239   08 Jun 2027 09:12:01.017   08 Jun 2027 09:12:04.957             3.940          1679.250
       240   08 Jun 2027 09:12:26.800   08 Jun 2027 09:12:31.582             4.782           387.000
       241   08 Jun 2027 09:13:00.342   08 Jun 2027 09:13:00.779             0.437           218.500
       242   08 Jun 2027 09:13:42.266   08 Jun 2027 09:13:47.191             4.925          1884.844
       243   08 Jun 2027 09:13:49.146   08 Jun 2027 09:13:52.684             3.538            22.688
       244   08 Jun 2027 09:14:22.065   08 Jun 2027 09:14:24.377             2.312           787.906
       245   08 Jun 2027 09:14:34.598   08 Jun 2027 09:14:38.342             3.744           196.281
       246   08 Jun 2027 09:14:51.485   08 Jun 2027 09:14:51.660             0.175            87.500
       247   08 Jun 2027 10:44:25.973   08 Jun 2027 10:44:45.946            19.973          8824.406
       248   08 Jun 2027 10:46:02.450   08 Jun 2027 10:46:07.485             5.035           106.625
       249   08 Jun 2027 10:46:23.498   08 Jun 2027 10:46:24.866             1.368           400.531
       250   08 Jun 2027 10:46:29.788   08 Jun 2027 10:46:31.148             1.360            36.469
       251   08 Jun 2027 10:47:13.184   08 Jun 2027 10:47:16.364             3.180          1132.031
       252   08 Jun 2027 10:47:26.578   08 Jun 2027 10:47:27.453             0.875           319.187
       253   08 Jun 2027 10:47:52.975   08 Jun 2027 10:47:56.439             3.464           560.344
       254   08 Jun 2027 10:48:34.465   08 Jun 2027 10:48:37.567             3.102           948.906
       255   08 Jun 2027 10:49:13.741   08 Jun 2027 10:49:16.002             2.261          1130.437
       256   08 Jun 2027 10:50:04.917   08 Jun 2027 10:50:05.149             0.232           116.000
       257   08 Jun 2027 10:50:05.820   08 Jun 2027 10:50:10.389             4.569          1433.562
       258   08 Jun 2027 10:50:43.464   08 Jun 2027 10:50:45.251             1.787           717.594
       259   09 Jun 2027 03:08:22.049   09 Jun 2027 03:09:38.574            76.525         38262.500
       260   09 Jun 2027 03:09:59.828   09 Jun 2027 03:10:01.146             1.318           659.000
       261   09 Jun 2027 03:10:33.351   09 Jun 2027 03:10:38.253             4.902          2451.000
       262   09 Jun 2027 03:10:45.291   09 Jun 2027 03:10:48.896             3.605          1802.500
       263   09 Jun 2027 03:12:08.971   09 Jun 2027 03:12:17.712             8.741          4370.500
       264   09 Jun 2027 03:12:23.100   09 Jun 2027 03:12:26.764             3.664          1832.000
       265   09 Jun 2027 03:12:52.483   09 Jun 2027 03:13:32.497            40.014         20007.000
       266   09 Jun 2027 03:13:45.025   09 Jun 2027 03:13:45.761             0.736           368.000
       267   09 Jun 2027 03:15:10.131   09 Jun 2027 03:15:30.343            20.212         10106.000
       268   09 Jun 2027 04:33:12.174   09 Jun 2027 04:33:23.487            11.313          5656.500
       269   09 Jun 2027 04:44:56.336   09 Jun 2027 04:45:53.660            57.324         28662.000
       270   09 Jun 2027 06:07:11.172   09 Jun 2027 06:07:57.435            46.263         23131.500
       271   09 Jun 2027 06:09:08.883   09 Jun 2027 06:09:27.349            18.466          9233.000
       272   09 Jun 2027 06:09:34.605   09 Jun 2027 06:09:38.971             4.366          2183.000
       273   09 Jun 2027 07:42:08.363   09 Jun 2027 07:43:29.826            81.463         40731.500
       274   09 Jun 2027 07:44:19.756   09 Jun 2027 07:44:24.417             4.661          1931.344
       275   09 Jun 2027 07:45:55.372   09 Jun 2027 07:45:57.733             2.361          1180.500
       276   09 Jun 2027 07:47:37.565   09 Jun 2027 07:47:49.315            11.750          4781.594
       277   09 Jun 2027 07:49:02.845   09 Jun 2027 07:49:09.606             6.761          2297.812
       278   09 Jun 2027 07:50:28.471   09 Jun 2027 07:50:30.775             2.304          1152.000
       279   09 Jun 2027 09:19:37.502   09 Jun 2027 09:19:51.106            13.604          5675.532
       280   09 Jun 2027 09:22:41.623   09 Jun 2027 09:22:55.950            14.327          4389.344
       281   09 Jun 2027 09:23:52.228   09 Jun 2027 09:24:03.699            11.471          1535.156
       282   09 Jun 2027 09:24:16.066   09 Jun 2027 09:24:18.761             2.695           278.406
       283   09 Jun 2027 09:25:16.726   09 Jun 2027 09:25:23.345             6.619          1593.875
       284   09 Jun 2027 09:26:12.123   09 Jun 2027 09:26:16.541             4.418          1332.375
       285   09 Jun 2027 09:26:35.248   09 Jun 2027 09:26:37.008             1.760           313.875
       286   09 Jun 2027 10:56:22.101   09 Jun 2027 10:56:37.457            15.356          6961.656
       287   09 Jun 2027 10:57:35.559   09 Jun 2027 10:57:41.192             5.633           308.594
       288   09 Jun 2027 10:58:38.438   09 Jun 2027 10:58:40.281             1.843            39.219
       289   09 Jun 2027 10:58:44.197   09 Jun 2027 10:58:44.650             0.453            24.750
       290   09 Jun 2027 10:59:21.567   09 Jun 2027 10:59:24.611             3.044           878.719
       291   09 Jun 2027 11:00:25.756   09 Jun 2027 11:00:32.438             6.682          1886.437
       292   09 Jun 2027 11:01:33.555   09 Jun 2027 11:01:44.689            11.134          1895.219
       293   09 Jun 2027 11:02:39.826   09 Jun 2027 11:02:44.737             4.911          1723.031
       294   09 Jun 2027 11:02:54.232   09 Jun 2027 11:02:54.673             0.441           107.375
       295   10 Jun 2027 03:20:24.127   10 Jun 2027 03:22:09.898           105.771         52885.500
       296   10 Jun 2027 03:23:31.101   10 Jun 2027 03:23:38.521             7.420          3710.000
       297   10 Jun 2027 03:24:16.312   10 Jun 2027 03:24:28.620            12.308          6154.000
       298   10 Jun 2027 03:26:33.593   10 Jun 2027 03:26:39.158             5.565          2782.500
       299   10 Jun 2027 03:27:22.720   10 Jun 2027 03:27:24.035             1.315           657.500
       300   10 Jun 2027 04:44:45.631   10 Jun 2027 04:45:26.368            40.737         20368.500
       301   10 Jun 2027 04:57:01.590   10 Jun 2027 04:57:29.221            27.631         13815.500
       302   10 Jun 2027 06:18:43.335   10 Jun 2027 06:19:33.636            50.301         25150.500
       303   10 Jun 2027 06:21:23.208   10 Jun 2027 06:21:26.155             2.947          1473.500
       304   10 Jun 2027 06:21:42.601   10 Jun 2027 06:21:42.601             0.000             0.000
       305   10 Jun 2027 06:22:08.353   10 Jun 2027 06:22:11.785             3.432          1716.000
       306   10 Jun 2027 06:22:42.286   10 Jun 2027 06:22:44.803             2.517          1258.500
       307   10 Jun 2027 06:23:24.401   10 Jun 2027 06:23:32.483             8.082          4041.000
       308   10 Jun 2027 06:23:59.853   10 Jun 2027 06:24:07.794             7.941          3970.500
       309   10 Jun 2027 07:53:36.857   10 Jun 2027 07:54:54.046            77.189         38239.031
       310   10 Jun 2027 07:55:18.952   10 Jun 2027 07:55:20.347             1.395           307.500
       311   10 Jun 2027 07:55:43.196   10 Jun 2027 07:55:46.695             3.499           174.500
       312   10 Jun 2027 07:56:58.970   10 Jun 2027 07:57:07.548             8.578          2158.531
       313   10 Jun 2027 07:57:23.173   10 Jun 2027 07:57:23.173             0.000             0.000
       314   10 Jun 2027 07:59:40.731   10 Jun 2027 07:59:52.021            11.290          4786.969
       315   10 Jun 2027 08:00:14.075   10 Jun 2027 08:00:15.761             1.686           656.125
       316   10 Jun 2027 08:00:23.569   10 Jun 2027 08:00:24.778             1.209           244.000
       317   10 Jun 2027 08:00:53.876   10 Jun 2027 08:00:57.954             4.078           795.281
       318   10 Jun 2027 08:02:00.751   10 Jun 2027 08:02:08.005             7.254          1907.125
       319   10 Jun 2027 09:31:31.041   10 Jun 2027 09:31:46.442            15.401          7173.719
       320   10 Jun 2027 09:32:26.351   10 Jun 2027 09:32:28.998             2.647          1247.156
       321   10 Jun 2027 09:33:05.718   10 Jun 2027 09:33:06.855             1.137           457.000
       322   10 Jun 2027 09:33:23.417   10 Jun 2027 09:33:25.889             2.472           377.250
       323   10 Jun 2027 09:34:32.937   10 Jun 2027 09:34:43.680            10.743          2001.188
       324   10 Jun 2027 09:34:48.616   10 Jun 2027 09:34:52.936             4.320            18.812
       325   10 Jun 2027 09:35:42.784   10 Jun 2027 09:35:45.724             2.940          1081.563
       326   10 Jun 2027 09:36:04.295   10 Jun 2027 09:36:05.981             1.686           555.250
       327   10 Jun 2027 09:36:32.968   10 Jun 2027 09:36:36.461             3.493           472.875
       328   10 Jun 2027 09:36:44.009   10 Jun 2027 09:36:48.211             4.202           233.000
       329   10 Jun 2027 09:37:52.303   10 Jun 2027 09:37:56.347             4.044          1883.750
       330   10 Jun 2027 09:38:18.400   10 Jun 2027 09:38:19.696             1.296           580.781
       331   10 Jun 2027 09:38:48.991   10 Jun 2027 09:38:50.847             1.856           915.469
       332   10 Jun 2027 11:08:15.113   10 Jun 2027 11:08:23.357             8.244          4122.000
       333   10 Jun 2027 11:08:49.755   10 Jun 2027 11:08:57.454             7.699          3634.125
       334   10 Jun 2027 11:09:29.584   10 Jun 2027 11:09:32.948             3.364           443.500
       335   10 Jun 2027 11:10:39.286   10 Jun 2027 11:10:43.612             4.326          2073.062
       336   10 Jun 2027 11:11:23.091   10 Jun 2027 11:11:25.578             2.487          1226.469
       337   10 Jun 2027 11:12:14.174   10 Jun 2027 11:12:17.919             3.745          1280.031
       338   10 Jun 2027 11:12:46.016   10 Jun 2027 11:12:47.829             1.813           609.281
       339   10 Jun 2027 11:12:50.085   10 Jun 2027 11:12:59.406             9.321            62.906
       340   10 Jun 2027 11:13:31.444   10 Jun 2027 11:13:37.440             5.996           686.125
       341   10 Jun 2027 11:14:07.023   10 Jun 2027 11:14:08.927             1.904           800.625
       342   10 Jun 2027 11:14:16.375   10 Jun 2027 11:14:19.176             2.801           232.750
       343   10 Jun 2027 11:14:53.407   10 Jun 2027 11:14:59.193             5.786          1019.219
       344   11 Jun 2027 03:32:48.322   11 Jun 2027 03:34:33.821           105.499         52749.500
       345   11 Jun 2027 03:37:08.864   11 Jun 2027 03:37:48.259            39.395         19697.500
       346   11 Jun 2027 04:56:41.515   11 Jun 2027 04:57:14.052            32.537         16268.500
       347   11 Jun 2027 04:57:39.508   11 Jun 2027 04:57:52.626            13.118          6559.000
       348   11 Jun 2027 06:32:42.099   11 Jun 2027 06:34:13.547            91.448         45724.000
       349   11 Jun 2027 06:34:49.827   11 Jun 2027 06:35:06.094            16.267          8133.500
       350   11 Jun 2027 06:35:57.670   11 Jun 2027 06:35:59.135             1.465           732.500
       351   11 Jun 2027 08:06:30.034   11 Jun 2027 08:07:29.265            59.231         28785.969
       352   11 Jun 2027 08:07:44.857   11 Jun 2027 08:07:45.348             0.491            30.344
       353   11 Jun 2027 08:07:50.883   11 Jun 2027 08:07:51.795             0.912           137.344
       354   11 Jun 2027 08:08:45.448   11 Jun 2027 08:08:48.144             2.696          1348.000
       355   11 Jun 2027 08:10:03.740   11 Jun 2027 08:10:03.740             0.000             0.000
       356   11 Jun 2027 08:11:07.665   11 Jun 2027 08:11:16.015             8.350          4175.000
       357   11 Jun 2027 08:11:24.854   11 Jun 2027 08:11:35.979            11.125           584.219
       358   11 Jun 2027 08:12:29.460   11 Jun 2027 08:12:35.251             5.791          1427.500
       359   11 Jun 2027 08:13:44.226   11 Jun 2027 08:13:48.571             4.345          1384.219
       360   11 Jun 2027 08:14:35.447   11 Jun 2027 08:14:41.854             6.407          1415.500
       361   11 Jun 2027 09:43:39.416   11 Jun 2027 09:43:56.705            17.289          7305.875
       362   11 Jun 2027 09:44:51.984   11 Jun 2027 09:44:53.546             1.562           781.000
       363   11 Jun 2027 09:46:14.759   11 Jun 2027 09:46:22.912             8.153          2616.594
       364   11 Jun 2027 09:46:48.096   11 Jun 2027 09:46:50.505             2.409           787.000
       365   11 Jun 2027 09:47:20.914   11 Jun 2027 09:47:25.913             4.999           264.125
       366   11 Jun 2027 09:47:55.652   11 Jun 2027 09:47:57.211             1.559           615.625
       367   11 Jun 2027 09:48:38.648   11 Jun 2027 09:48:41.434             2.786           689.969
       368   11 Jun 2027 09:48:46.094   11 Jun 2027 09:48:47.775             1.681           117.437
       369   11 Jun 2027 09:49:04.251   11 Jun 2027 09:49:04.407             0.156            78.000
       370   11 Jun 2027 09:49:27.494   11 Jun 2027 09:49:32.956             5.462          1054.625
       371   11 Jun 2027 09:50:32.738   11 Jun 2027 09:50:36.720             3.982          1183.750
       372   11 Jun 2027 09:50:41.188   11 Jun 2027 09:50:43.498             2.310            47.406
       373   11 Jun 2027 11:20:53.897   11 Jun 2027 11:21:11.581            17.684          7910.687
       374   11 Jun 2027 11:21:29.489   11 Jun 2027 11:21:30.754             1.265           552.969
       375   11 Jun 2027 11:22:02.279   11 Jun 2027 11:22:12.090             9.811           924.156
       376   11 Jun 2027 11:22:43.202   11 Jun 2027 11:22:43.202             0.000             0.000
       377   11 Jun 2027 11:22:50.071   11 Jun 2027 11:22:53.109             3.038           643.375
       378   11 Jun 2027 11:23:20.977   11 Jun 2027 11:23:26.582             5.605           870.281
       379   11 Jun 2027 11:24:19.527   11 Jun 2027 11:24:23.730             4.203          1654.531
       380   11 Jun 2027 11:24:43.998   11 Jun 2027 11:24:45.976             1.978           631.312
       381   11 Jun 2027 11:25:09.353   11 Jun 2027 11:25:11.640             2.287           702.906
       382   11 Jun 2027 11:26:22.726   11 Jun 2027 11:26:29.467             6.741          2221.437
       383   12 Jun 2027 03:45:12.235   12 Jun 2027 03:47:07.231           114.996         57498.000
       384   12 Jun 2027 03:47:08.100   12 Jun 2027 03:47:27.482            19.382          9691.000
       385   12 Jun 2027 03:47:58.005   12 Jun 2027 03:48:00.636             2.631          1315.500
       386   12 Jun 2027 05:08:34.407   12 Jun 2027 05:09:31.905            57.498         28749.000
       387   12 Jun 2027 05:10:06.124   12 Jun 2027 05:10:18.934            12.810          6405.000
       388   12 Jun 2027 06:44:55.192   12 Jun 2027 06:46:55.140           119.948         59974.000
       389   12 Jun 2027 06:47:22.938   12 Jun 2027 06:47:27.822             4.884          2134.188
       390   12 Jun 2027 06:47:57.534   12 Jun 2027 06:48:00.460             2.926           859.562
       391   12 Jun 2027 08:18:56.225   12 Jun 2027 08:19:12.558            16.333          8134.781
       392   12 Jun 2027 08:20:49.266   12 Jun 2027 08:20:53.988             4.722          2037.125
       393   12 Jun 2027 08:22:09.121   12 Jun 2027 08:22:15.869             6.748          2330.875
       394   12 Jun 2027 08:22:25.578   12 Jun 2027 08:22:34.342             8.764             7.656
       395   12 Jun 2027 08:22:43.159   12 Jun 2027 08:22:43.457             0.298            92.438
       396   12 Jun 2027 08:24:34.321   12 Jun 2027 08:24:41.195             6.874          3429.312
       397   12 Jun 2027 08:25:01.546   12 Jun 2027 08:25:03.694             2.148             9.344
       398   12 Jun 2027 08:25:22.053   12 Jun 2027 08:25:25.487             3.434           572.875
       399   12 Jun 2027 08:25:46.445   12 Jun 2027 08:25:46.591             0.146            73.000
       400   12 Jun 2027 08:26:09.107   12 Jun 2027 08:26:11.611             2.504          1088.438
       401   12 Jun 2027 08:26:48.292   12 Jun 2027 08:26:50.088             1.796           898.000
       402   12 Jun 2027 08:26:56.791   12 Jun 2027 08:26:59.300             2.509           457.750
       403   12 Jun 2027 09:56:04.591   12 Jun 2027 09:56:21.695            17.104          6990.031
       404   12 Jun 2027 09:56:34.903   12 Jun 2027 09:56:35.766             0.863           147.094
       405   12 Jun 2027 09:56:47.142   12 Jun 2027 09:56:49.709             2.567           336.719
       406   12 Jun 2027 09:58:17.661   12 Jun 2027 09:58:24.067             6.406          2036.000
       407   12 Jun 2027 09:58:49.542   12 Jun 2027 09:58:51.939             2.397           796.094
       408   12 Jun 2027 09:59:05.827   12 Jun 2027 09:59:08.160             2.333           421.750
       409   12 Jun 2027 10:00:31.395   12 Jun 2027 10:00:36.675             5.280          2457.438
       410   12 Jun 2027 10:00:52.320   12 Jun 2027 10:00:54.532             2.212           349.906
       411   12 Jun 2027 10:01:10.926   12 Jun 2027 10:01:12.451             1.525           505.844
       412   12 Jun 2027 10:01:47.694   12 Jun 2027 10:01:51.684             3.990           892.000
       413   12 Jun 2027 10:02:45.929   12 Jun 2027 10:02:45.937             0.008             4.000
       414   12 Jun 2027 11:33:02.778   12 Jun 2027 11:33:18.676            15.898          6826.906
       415   12 Jun 2027 11:34:32.702   12 Jun 2027 11:34:38.765             6.063           746.281
       416   12 Jun 2027 11:34:44.431   12 Jun 2027 11:34:44.999             0.568           177.063
       417   12 Jun 2027 11:35:06.201   12 Jun 2027 11:35:09.175             2.974           662.562
       418   12 Jun 2027 11:35:22.635   12 Jun 2027 11:35:23.978             1.343            56.031
       419   12 Jun 2027 11:37:18.713   12 Jun 2027 11:37:28.547             9.834          3585.469
       420   13 Jun 2027 03:57:31.062   13 Jun 2027 03:59:19.857           108.795         54397.500
       421   13 Jun 2027 03:59:46.782   13 Jun 2027 03:59:48.456             1.674           837.000
       422   13 Jun 2027 05:20:34.504   13 Jun 2027 05:21:34.504            60.000         30000.000
       423   13 Jun 2027 05:21:44.478   13 Jun 2027 05:21:54.604            10.126          5063.000
       424   13 Jun 2027 06:57:01.287   13 Jun 2027 06:59:09.758           128.471         64235.500
       425   13 Jun 2027 07:00:05.111   13 Jun 2027 07:00:13.349             8.238          4119.000
       426   13 Jun 2027 08:32:09.958   13 Jun 2027 08:32:33.085            23.127         11316.625
       427   13 Jun 2027 08:32:48.008   13 Jun 2027 08:32:48.824             0.816           171.063
       428   13 Jun 2027 08:33:41.055   13 Jun 2027 08:33:49.816             8.761           968.094
       429   13 Jun 2027 08:34:34.402   13 Jun 2027 08:34:37.544             3.142          1257.469
       430   13 Jun 2027 08:35:25.838   13 Jun 2027 08:35:29.270             3.432          1104.531
       431   13 Jun 2027 08:36:22.647   13 Jun 2027 08:36:25.632             2.985          1038.594
       432   13 Jun 2027 08:37:00.948   13 Jun 2027 08:37:02.842             1.894           877.656
       433   13 Jun 2027 08:37:45.968   13 Jun 2027 08:37:51.052             5.084          1347.688
       434   13 Jun 2027 08:38:18.710   13 Jun 2027 08:38:20.522             1.812           449.937
       435   13 Jun 2027 08:38:23.019   13 Jun 2027 08:38:24.735             1.716            78.031
       436   13 Jun 2027 08:38:41.439   13 Jun 2027 08:38:42.867             1.428           522.000
       437   13 Jun 2027 10:08:30.435   13 Jun 2027 10:08:42.695            12.260          6097.188
       438   13 Jun 2027 10:09:01.865   13 Jun 2027 10:09:04.452             2.587           153.500
       439   13 Jun 2027 10:09:45.483   13 Jun 2027 10:09:48.270             2.787          1057.969
       440   13 Jun 2027 10:10:25.423   13 Jun 2027 10:10:31.571             6.148          1086.219
       441   13 Jun 2027 10:10:46.803   13 Jun 2027 10:10:48.357             1.554           322.594
       442   13 Jun 2027 10:11:21.564   13 Jun 2027 10:11:21.798             0.234           117.000
       443   13 Jun 2027 10:12:01.839   13 Jun 2027 10:12:06.119             4.280          2050.250
       444   13 Jun 2027 10:12:37.070   13 Jun 2027 10:12:40.328             3.258           671.656
       445   13 Jun 2027 10:12:41.649   13 Jun 2027 10:12:42.400             0.751            30.125
       446   13 Jun 2027 10:12:50.667   13 Jun 2027 10:12:52.093             1.426           258.344
       447   13 Jun 2027 10:13:12.206   13 Jun 2027 10:13:16.548             4.342           433.594
       448   13 Jun 2027 10:14:03.454   13 Jun 2027 10:14:06.681             3.227          1457.406
       449   13 Jun 2027 10:14:12.875   13 Jun 2027 10:14:14.355             1.480           193.562
       450   13 Jun 2027 11:46:04.489   13 Jun 2027 11:46:18.896            14.407          6655.719
       451   13 Jun 2027 11:46:48.293   13 Jun 2027 11:46:50.346             2.053           918.656
       452   13 Jun 2027 11:47:14.719   13 Jun 2027 11:47:24.302             9.583           573.781
       453   13 Jun 2027 11:48:07.301   13 Jun 2027 11:48:07.756             0.455           227.500
       454   13 Jun 2027 11:50:03.433   13 Jun 2027 11:50:13.132             9.699          4731.125
