uniorb/output/strategy_1/Camera/Camera_KinoSat_112009.txt

KinoSat_112009
-------------------------
    Access    *     Start Time (UTCG)     *     Stop Time (UTCG)  *   Duration (s) *   Data (Mbytes)
         1   01 Jun 2027 03:54:21.614   01 Jun 2027 03:56:42.660           141.046         70523.000
         2   01 Jun 2027 03:57:34.342   01 Jun 2027 03:57:34.532             0.190            95.000
         3   01 Jun 2027 03:59:12.608   01 Jun 2027 03:59:14.867             2.259          1129.500
         4   01 Jun 2027 03:59:23.560   01 Jun 2027 03:59:33.022             9.462          4731.000
         5   01 Jun 2027 04:00:30.832   01 Jun 2027 04:00:38.103             7.271          3635.500
         6   01 Jun 2027 05:32:38.562   01 Jun 2027 05:32:57.992            19.430          9715.000
         7   01 Jun 2027 05:33:41.429   01 Jun 2027 05:35:38.367           116.938         58469.000
         8   01 Jun 2027 05:36:00.175   01 Jun 2027 05:36:00.175             0.000             0.000
         9   01 Jun 2027 05:36:26.877   01 Jun 2027 05:36:28.235             1.358           679.000
        10   01 Jun 2027 05:38:07.247   01 Jun 2027 05:38:12.457             5.210          2605.000
        11   01 Jun 2027 05:40:59.181   01 Jun 2027 05:41:18.197            19.016          9508.000
        12   01 Jun 2027 07:10:50.547   01 Jun 2027 07:11:27.168            36.621         18310.500
        13   01 Jun 2027 07:11:55.758   01 Jun 2027 07:12:49.018            53.260         26630.000
        14   01 Jun 2027 07:13:15.034   01 Jun 2027 07:13:32.171            17.137          8568.500
        15   01 Jun 2027 07:13:54.153   01 Jun 2027 07:14:00.887             6.734          3367.000
        16   01 Jun 2027 07:14:13.144   01 Jun 2027 07:14:13.144             0.000             0.000
        17   01 Jun 2027 08:34:17.908   01 Jun 2027 08:35:35.722            77.814         38907.000
        18   01 Jun 2027 08:37:12.476   01 Jun 2027 08:37:26.512            14.036          7018.000
        19   01 Jun 2027 10:11:04.851   01 Jun 2027 10:11:04.851             0.000             0.000
        20   01 Jun 2027 11:46:01.903   01 Jun 2027 11:46:15.438            13.535          6767.500
        21   01 Jun 2027 11:48:14.073   01 Jun 2027 11:48:56.811            42.738         21369.000
        22   01 Jun 2027 11:52:19.450   01 Jun 2027 11:52:35.003            15.553          7776.500
        23   02 Jun 2027 04:06:27.926   02 Jun 2027 04:08:58.011           150.085         75042.500
        24   02 Jun 2027 04:10:46.777   02 Jun 2027 04:11:24.161            37.384         18692.000
        25   02 Jun 2027 05:45:43.446   02 Jun 2027 05:47:14.290            90.844         45422.000
        26   02 Jun 2027 05:47:56.585   02 Jun 2027 05:47:58.037             1.452           726.000
        27   02 Jun 2027 05:48:36.035   02 Jun 2027 05:48:44.198             8.163          4081.500
        28   02 Jun 2027 05:48:52.977   02 Jun 2027 05:49:07.772            14.795          7397.500
        29   02 Jun 2027 05:50:35.599   02 Jun 2027 05:50:42.968             7.369          3684.500
        30   02 Jun 2027 05:52:18.354   02 Jun 2027 05:52:18.354             0.000             0.000
        31   02 Jun 2027 05:52:40.047   02 Jun 2027 05:53:30.005            49.958         24979.000
        32   02 Jun 2027 07:11:54.084   02 Jun 2027 07:12:18.136            24.052         12026.000
        33   02 Jun 2027 07:22:46.453   02 Jun 2027 07:24:23.363            96.910         48455.000
        34   02 Jun 2027 07:24:54.730   02 Jun 2027 07:25:07.516            12.786          6393.000
        35   02 Jun 2027 08:46:44.845   02 Jun 2027 08:47:41.296            56.451         28225.500
        36   02 Jun 2027 10:22:29.534   02 Jun 2027 10:22:55.356            25.822         12911.000
        37   02 Jun 2027 10:25:33.070   02 Jun 2027 10:25:52.529            19.459          9729.500
        38   03 Jun 2027 04:19:06.147   03 Jun 2027 04:21:47.301           161.154         80577.000
        39   03 Jun 2027 04:22:15.997   03 Jun 2027 04:22:16.228             0.231           115.500
        40   03 Jun 2027 04:22:25.821   03 Jun 2027 04:22:37.878            12.057          6028.500
        41   03 Jun 2027 04:25:10.146   03 Jun 2027 04:25:12.779             2.633          1316.500
        42   03 Jun 2027 04:25:29.079   03 Jun 2027 04:25:30.849             1.770           885.000
        43   03 Jun 2027 05:58:06.960   03 Jun 2027 06:00:10.040           123.080         61540.000
        44   03 Jun 2027 06:00:58.839   03 Jun 2027 06:01:20.823            21.984         10992.000
        45   03 Jun 2027 06:01:38.806   03 Jun 2027 06:01:49.189            10.383          5191.500
        46   03 Jun 2027 07:23:08.676   03 Jun 2027 07:24:33.609            84.933         42466.500
        47   03 Jun 2027 07:34:47.945   03 Jun 2027 07:35:52.739            64.794         32397.000
        48   03 Jun 2027 08:57:20.221   03 Jun 2027 08:58:21.094            60.873         30436.500
        49   03 Jun 2027 08:59:27.396   03 Jun 2027 08:59:41.245            13.849          6924.500
        50   03 Jun 2027 10:32:23.019   03 Jun 2027 10:32:27.868             4.849          2424.500
        51   03 Jun 2027 10:33:22.992   03 Jun 2027 10:33:22.992             0.000             0.000
        52   03 Jun 2027 10:37:58.028   03 Jun 2027 10:39:06.272            68.244         34122.000
        53   04 Jun 2027 03:00:00.000   04 Jun 2027 03:00:19.506            19.506          9753.000
        54   04 Jun 2027 03:01:05.816   04 Jun 2027 03:01:28.099            22.283         11141.500
        55   04 Jun 2027 04:31:24.214   04 Jun 2027 04:31:24.449             0.235           117.500
        56   04 Jun 2027 04:32:27.460   04 Jun 2027 04:33:07.999            40.539         20269.500
        57   04 Jun 2027 04:34:15.646   04 Jun 2027 04:35:01.337            45.691         22845.500
        58   04 Jun 2027 04:36:09.632   04 Jun 2027 04:36:24.792            15.160          7580.000
        59   04 Jun 2027 04:36:34.507   04 Jun 2027 04:36:34.507             0.000             0.000
        60   04 Jun 2027 06:10:25.518   04 Jun 2027 06:12:40.826           135.308         67654.000
        61   04 Jun 2027 06:14:50.758   04 Jun 2027 06:15:11.451            20.693         10346.500
        62   04 Jun 2027 06:15:20.700   04 Jun 2027 06:15:27.027             6.327          3163.500
        63   04 Jun 2027 06:17:09.773   04 Jun 2027 06:17:21.749            11.976          5988.000
        64   04 Jun 2027 07:34:29.889   04 Jun 2027 07:36:09.113            99.224         49612.000
        65   04 Jun 2027 07:46:45.190   04 Jun 2027 07:47:01.763            16.573          7899.845
        66   04 Jun 2027 09:08:44.578   04 Jun 2027 09:09:23.336            38.758         17972.000
        67   04 Jun 2027 09:11:29.444   04 Jun 2027 09:11:40.620            11.176          3283.406
        68   04 Jun 2027 09:12:44.152   04 Jun 2027 09:12:44.152             0.000             0.000
        69   04 Jun 2027 09:14:09.528   04 Jun 2027 09:14:20.216            10.688          4653.375
        70   04 Jun 2027 10:43:46.237   04 Jun 2027 10:43:58.936            12.699          4124.875
        71   04 Jun 2027 10:44:38.213   04 Jun 2027 10:44:40.619             2.406           919.281
        72   04 Jun 2027 10:45:28.929   04 Jun 2027 10:45:37.757             8.828          1509.687
        73   05 Jun 2027 03:06:33.826   05 Jun 2027 03:06:58.397            24.571         12285.500
        74   05 Jun 2027 03:07:50.284   05 Jun 2027 03:08:06.141            15.857          7928.500
        75   05 Jun 2027 03:09:03.835   05 Jun 2027 03:09:30.525            26.690         13345.000
        76   05 Jun 2027 03:09:47.603   05 Jun 2027 03:09:53.199             5.596          2798.000
        77   05 Jun 2027 03:10:26.016   05 Jun 2027 03:10:27.888             1.872           936.000
        78   05 Jun 2027 03:10:46.158   05 Jun 2027 03:10:50.298             4.140          2070.000
        79   05 Jun 2027 03:12:15.929   05 Jun 2027 03:12:22.029             6.100          3050.000
        80   05 Jun 2027 03:12:43.817   05 Jun 2027 03:12:55.905            12.088          6044.000
        81   05 Jun 2027 03:13:08.317   05 Jun 2027 03:13:24.464            16.147          8073.500
        82   05 Jun 2027 04:43:48.831   05 Jun 2027 04:43:50.171             1.340           670.000
        83   05 Jun 2027 04:44:10.094   05 Jun 2027 04:44:59.325            49.231         24615.500
        84   05 Jun 2027 04:45:04.900   05 Jun 2027 04:45:25.798            20.898         10449.000
        85   05 Jun 2027 04:46:10.917   05 Jun 2027 04:46:17.830             6.913          3456.500
        86   05 Jun 2027 04:48:13.357   05 Jun 2027 04:48:14.143             0.786           393.000
        87   05 Jun 2027 04:48:15.590   05 Jun 2027 04:48:26.048            10.458          5229.000
        88   05 Jun 2027 04:49:08.223   05 Jun 2027 04:49:20.620            12.397          6198.500
        89   05 Jun 2027 06:22:30.704   05 Jun 2027 06:24:10.131            99.427         49713.500
        90   05 Jun 2027 06:24:47.101   05 Jun 2027 06:25:00.939            13.838          6919.000
        91   05 Jun 2027 06:25:16.399   05 Jun 2027 06:25:24.471             8.072          4036.000
        92   05 Jun 2027 06:25:46.688   05 Jun 2027 06:25:50.414             3.726          1863.000
        93   05 Jun 2027 06:26:17.183   05 Jun 2027 06:26:19.120             1.937           968.500
        94   05 Jun 2027 06:27:14.331   05 Jun 2027 06:27:16.561             2.230          1115.000
        95   05 Jun 2027 06:28:12.292   05 Jun 2027 06:28:23.936            11.644          5822.000
        96   05 Jun 2027 07:46:37.785   05 Jun 2027 07:47:40.176            62.391         31195.500
        97   05 Jun 2027 09:20:27.268   05 Jun 2027 09:21:14.137            46.869         21494.065
        98   05 Jun 2027 09:25:34.066   05 Jun 2027 09:25:50.935            16.869          8023.438
        99   05 Jun 2027 10:55:19.154   05 Jun 2027 10:55:35.170            16.016          7593.000
       100   05 Jun 2027 10:56:15.539   05 Jun 2027 10:56:23.237             7.698           624.094
       101   05 Jun 2027 10:59:03.110   05 Jun 2027 10:59:03.110             0.000             0.000
       102   05 Jun 2027 11:02:37.540   05 Jun 2027 11:02:37.540             0.000             0.000
       103   05 Jun 2027 11:02:54.019   05 Jun 2027 11:03:21.243            27.224         12102.656
       104   05 Jun 2027 11:04:05.910   05 Jun 2027 11:04:08.301             2.391           543.031
       105   05 Jun 2027 11:04:22.255   05 Jun 2027 11:04:23.827             1.572           436.062
       106   05 Jun 2027 11:04:25.282   05 Jun 2027 11:04:28.264             2.982            45.469
       107   06 Jun 2027 03:18:33.619   06 Jun 2027 03:19:45.575            71.956         35978.000
       108   06 Jun 2027 03:20:56.935   06 Jun 2027 03:21:36.155            39.220         19610.000
       109   06 Jun 2027 03:23:05.685   06 Jun 2027 03:23:22.455            16.770          8385.000
       110   06 Jun 2027 03:23:48.190   06 Jun 2027 03:23:59.361            11.171          5585.500
       111   06 Jun 2027 03:24:43.884   06 Jun 2027 03:24:44.372             0.488           244.000
       112   06 Jun 2027 04:56:42.326   06 Jun 2027 04:57:36.144            53.818         26909.000
       113   06 Jun 2027 04:57:45.457   06 Jun 2027 04:58:27.173            41.716         20858.000
       114   06 Jun 2027 04:58:27.670   06 Jun 2027 04:58:38.258            10.588          5294.000
       115   06 Jun 2027 04:58:41.752   06 Jun 2027 04:58:41.752             0.000             0.000
       116   06 Jun 2027 05:01:17.669   06 Jun 2027 05:01:22.135             4.466          2233.000
       117   06 Jun 2027 06:35:07.531   06 Jun 2027 06:36:34.234            86.703         43351.500
       118   06 Jun 2027 06:36:58.904   06 Jun 2027 06:37:14.016            15.112          7556.000
       119   06 Jun 2027 06:37:47.527   06 Jun 2027 06:37:47.527             0.000             0.000
       120   06 Jun 2027 06:38:12.664   06 Jun 2027 06:38:24.596            11.932          5966.000
       121   06 Jun 2027 07:58:34.366   06 Jun 2027 07:59:25.180            50.814         23973.468
       122   06 Jun 2027 08:00:24.294   06 Jun 2027 08:00:27.919             3.625          1642.219
       123   06 Jun 2027 08:00:42.871   06 Jun 2027 08:00:43.718             0.847           349.094
       124   06 Jun 2027 09:34:46.878   06 Jun 2027 09:35:30.084            43.206         16976.437
       125   06 Jun 2027 09:35:38.088   06 Jun 2027 09:35:38.634             0.546           173.937
       126   06 Jun 2027 09:36:28.420   06 Jun 2027 09:36:32.876             4.456          1336.656
       127   06 Jun 2027 11:08:20.241   06 Jun 2027 11:08:38.099            17.858          7357.406
       128   06 Jun 2027 11:10:33.142   06 Jun 2027 11:10:34.471             1.329           567.844
       129   06 Jun 2027 11:10:37.234   06 Jun 2027 11:10:39.180             1.946            73.750
       130   06 Jun 2027 11:11:40.424   06 Jun 2027 11:12:02.309            21.885          1454.156
       131   06 Jun 2027 11:12:09.102   06 Jun 2027 11:12:10.305             1.203           132.813
       132   06 Jun 2027 11:12:14.729   06 Jun 2027 11:12:17.038             2.309           138.250
       133   06 Jun 2027 11:12:37.017   06 Jun 2027 11:12:38.434             1.417           597.313
       134   06 Jun 2027 11:12:41.809   06 Jun 2027 11:12:51.633             9.824            24.563
       135   06 Jun 2027 11:13:24.130   06 Jun 2027 11:13:30.132             6.002           707.719
       136   06 Jun 2027 11:13:59.140   06 Jun 2027 11:14:01.576             2.436           820.344
       137   06 Jun 2027 11:15:57.847   06 Jun 2027 11:16:06.928             9.081          3397.938
       138   06 Jun 2027 11:16:21.788   06 Jun 2027 11:16:29.555             7.767           384.031
       139   07 Jun 2027 03:30:39.788   07 Jun 2027 03:31:36.309            56.521         28260.500
       140   07 Jun 2027 03:31:54.367   07 Jun 2027 03:32:29.141            34.774         17387.000
       141   07 Jun 2027 03:34:21.825   07 Jun 2027 03:34:50.192            28.367         14183.500
       142   07 Jun 2027 03:36:47.183   07 Jun 2027 03:37:24.122            36.939         18469.500
       143   07 Jun 2027 05:08:43.222   07 Jun 2027 05:09:11.382            28.160         14080.000
       144   07 Jun 2027 05:09:13.694   07 Jun 2027 05:10:15.443            61.749         30874.500
       145   07 Jun 2027 05:11:02.402   07 Jun 2027 05:11:06.756             4.354          2177.000
       146   07 Jun 2027 05:11:46.372   07 Jun 2027 05:11:48.584             2.212          1106.000
       147   07 Jun 2027 05:12:14.834   07 Jun 2027 05:12:30.838            16.004          8002.000
       148   07 Jun 2027 05:12:37.514   07 Jun 2027 05:12:40.219             2.705          1352.500
       149   07 Jun 2027 05:13:54.553   07 Jun 2027 05:13:55.560             1.007           503.500
       150   07 Jun 2027 05:14:19.380   07 Jun 2027 05:14:23.301             3.921          1960.500
       151   07 Jun 2027 05:14:30.842   07 Jun 2027 05:14:41.344            10.502          5251.000
       152   07 Jun 2027 06:46:46.247   07 Jun 2027 06:48:01.439            75.192         37596.000
       153   07 Jun 2027 06:49:23.895   07 Jun 2027 06:49:43.361            19.466          9733.000
       154   07 Jun 2027 06:50:17.996   07 Jun 2027 06:50:17.996             0.000             0.000
       155   07 Jun 2027 06:50:26.860   07 Jun 2027 06:50:41.048            14.188          7076.312
       156   07 Jun 2027 08:10:25.414   07 Jun 2027 08:10:59.604            34.190         14103.719
       157   07 Jun 2027 08:11:56.733   07 Jun 2027 08:11:56.733             0.000             0.000
       158   07 Jun 2027 09:46:52.344   07 Jun 2027 09:47:17.986            25.642         10906.719
       159   07 Jun 2027 09:48:32.169   07 Jun 2027 09:48:36.202             4.033          1834.875
       160   07 Jun 2027 09:48:43.262   07 Jun 2027 09:48:43.262             0.000             0.000
       161   07 Jun 2027 11:21:05.476   07 Jun 2027 11:21:37.038            31.562         11427.813
       162   07 Jun 2027 11:22:12.477   07 Jun 2027 11:22:17.189             4.712           558.031
       163   07 Jun 2027 11:22:37.181   07 Jun 2027 11:22:37.539             0.358            50.437
       164   07 Jun 2027 11:26:10.384   07 Jun 2027 11:26:10.384             0.000             0.000
       165   07 Jun 2027 11:28:49.807   07 Jun 2027 11:28:52.430             2.623          1311.500
       166   08 Jun 2027 03:42:42.311   08 Jun 2027 03:45:02.159           139.848         69924.000
       167   08 Jun 2027 03:47:27.301   08 Jun 2027 03:47:28.617             1.316           658.000
       168   08 Jun 2027 03:47:53.186   08 Jun 2027 03:48:13.825            20.639         10319.500
       169   08 Jun 2027 03:48:21.885   08 Jun 2027 03:48:23.369             1.484           742.000
       170   08 Jun 2027 05:20:51.519   08 Jun 2027 05:21:50.623            59.104         29552.000
       171   08 Jun 2027 05:22:43.308   08 Jun 2027 05:23:25.611            42.303         21151.500
       172   08 Jun 2027 05:23:48.634   08 Jun 2027 05:24:11.433            22.799         11399.500
       173   08 Jun 2027 05:26:55.863   08 Jun 2027 05:27:06.109            10.246          5123.000
       174   08 Jun 2027 06:59:59.756   08 Jun 2027 07:01:31.493            91.737         45868.500
       175   08 Jun 2027 07:01:34.393   08 Jun 2027 07:01:36.766             2.373          1186.500
       176   08 Jun 2027 07:02:49.125   08 Jun 2027 07:02:54.660             5.535          2676.157
       177   08 Jun 2027 08:22:34.038   08 Jun 2027 08:23:00.346            26.308         11699.969
       178   08 Jun 2027 08:23:37.717   08 Jun 2027 08:23:39.753             2.036           728.406
       179   08 Jun 2027 08:25:22.481   08 Jun 2027 08:25:28.828             6.347          2645.500
       180   08 Jun 2027 09:59:16.914   08 Jun 2027 09:59:28.714            11.800          5900.000
       181   08 Jun 2027 10:00:22.279   08 Jun 2027 10:00:40.067            17.788          8256.000
       182   08 Jun 2027 10:01:46.584   08 Jun 2027 10:01:51.813             5.229          2058.500
       183   08 Jun 2027 11:34:13.696   08 Jun 2027 11:34:25.605            11.909          5954.500
       184   08 Jun 2027 11:40:44.189   08 Jun 2027 11:40:53.922             9.733          4866.500
       185   09 Jun 2027 03:54:39.892   09 Jun 2027 03:57:01.001           141.109         70554.500
       186   09 Jun 2027 03:57:39.677   09 Jun 2027 03:57:49.244             9.567          4783.500
       187   09 Jun 2027 03:59:27.629   09 Jun 2027 03:59:27.716             0.087            43.500
       188   09 Jun 2027 05:32:56.370   09 Jun 2027 05:33:11.424            15.054          7527.000
       189   09 Jun 2027 05:33:58.926   09 Jun 2027 05:35:48.989           110.063         55031.500
       190   09 Jun 2027 05:39:00.876   09 Jun 2027 05:39:01.503             0.627           313.500
       191   09 Jun 2027 05:41:13.046   09 Jun 2027 05:41:25.178            12.132          6066.000
       192   09 Jun 2027 07:11:07.706   09 Jun 2027 07:11:45.366            37.660         18830.000
       193   09 Jun 2027 07:12:15.404   09 Jun 2027 07:13:09.775            54.371         27185.500
       194   09 Jun 2027 07:13:31.449   09 Jun 2027 07:13:31.449             0.000             0.000
       195   09 Jun 2027 07:13:57.570   09 Jun 2027 07:13:59.885             2.315          1157.500
       196   09 Jun 2027 07:14:23.169   09 Jun 2027 07:14:31.256             8.087          4043.500
       197   09 Jun 2027 08:35:16.719   09 Jun 2027 08:35:49.751            33.032         16405.500
       198   09 Jun 2027 08:36:13.924   09 Jun 2027 08:36:13.924             0.000             0.000
       199   09 Jun 2027 08:37:29.365   09 Jun 2027 08:37:38.258             8.893          3092.312
       200   09 Jun 2027 11:52:36.506   09 Jun 2027 11:52:52.878            16.372          8186.000
       201   10 Jun 2027 04:07:14.783   10 Jun 2027 04:07:57.860            43.077         21538.500
       202   10 Jun 2027 04:09:12.421   10 Jun 2027 04:10:04.131            51.710         25855.000
       203   10 Jun 2027 04:11:14.736   10 Jun 2027 04:11:39.924            25.188         12594.000
       204   10 Jun 2027 05:46:01.942   10 Jun 2027 05:48:12.832           130.890         65445.000
       205   10 Jun 2027 05:50:18.269   10 Jun 2027 05:50:28.155             9.886          4943.000
       206   10 Jun 2027 05:50:52.725   10 Jun 2027 05:50:57.479             4.754          2377.000
       207   10 Jun 2027 05:52:35.676   10 Jun 2027 05:52:52.387            16.711          8355.500
       208   10 Jun 2027 07:12:08.124   10 Jun 2027 07:12:37.370            29.246         14623.000
       209   10 Jun 2027 07:23:04.062   10 Jun 2027 07:24:09.910            65.848         32924.000
       210   10 Jun 2027 07:25:01.691   10 Jun 2027 07:25:05.300             3.609          1804.500
       211   10 Jun 2027 07:26:10.851   10 Jun 2027 07:26:10.851             0.000             0.000
       212   10 Jun 2027 08:46:23.779   10 Jun 2027 08:46:56.106            32.327         14454.875
       213   10 Jun 2027 08:47:23.172   10 Jun 2027 08:47:24.749             1.577           447.563
       214   10 Jun 2027 08:49:29.366   10 Jun 2027 08:49:37.176             7.810          3324.438
       215   11 Jun 2027 04:19:25.228   11 Jun 2027 04:21:33.117           127.889         63944.500
       216   11 Jun 2027 04:21:59.129   11 Jun 2027 04:21:59.314             0.185            92.500
       217   11 Jun 2027 04:23:28.603   11 Jun 2027 04:23:33.990             5.387          2693.500
       218   11 Jun 2027 05:58:28.037   11 Jun 2027 06:00:28.335           120.298         60149.000
       219   11 Jun 2027 06:00:54.177   11 Jun 2027 06:01:13.696            19.519          9759.500
       220   11 Jun 2027 06:03:28.553   11 Jun 2027 06:03:40.903            12.350          6175.000
       221   11 Jun 2027 06:04:08.735   11 Jun 2027 06:04:37.643            28.908         14454.000
       222   11 Jun 2027 06:05:15.182   11 Jun 2027 06:05:38.869            23.687         11843.500
       223   11 Jun 2027 07:23:26.211   11 Jun 2027 07:24:50.063            83.852         41926.000
       224   11 Jun 2027 07:35:06.488   11 Jun 2027 07:35:25.651            19.163          9559.812
       225   11 Jun 2027 08:57:22.012   11 Jun 2027 08:57:58.048            36.036         17114.344
       226   11 Jun 2027 08:59:58.883   11 Jun 2027 09:00:09.432            10.549          3601.063
       227   11 Jun 2027 09:02:16.124   11 Jun 2027 09:02:25.023             8.899          3655.375
       228   11 Jun 2027 10:33:07.223   11 Jun 2027 10:33:07.223             0.000             0.000
       229   11 Jun 2027 10:33:23.840   11 Jun 2027 10:33:38.419            14.579          7289.500
       230   11 Jun 2027 10:36:34.457   11 Jun 2027 10:36:34.457             0.000             0.000
       231   11 Jun 2027 10:38:12.210   11 Jun 2027 10:38:17.248             5.038          2519.000
       232   11 Jun 2027 10:38:35.958   11 Jun 2027 10:38:51.546            15.588          7295.500
       233   12 Jun 2027 03:00:00.000   12 Jun 2027 03:00:17.564            17.564          8782.000
       234   12 Jun 2027 03:00:57.536   12 Jun 2027 03:01:00.773             3.237          1618.500
       235   12 Jun 2027 03:01:21.696   12 Jun 2027 03:01:46.184            24.488         12244.000
       236   12 Jun 2027 04:31:42.816   12 Jun 2027 04:31:43.746             0.930           465.000
       237   12 Jun 2027 04:32:27.930   12 Jun 2027 04:34:02.955            95.025         47512.500
       238   12 Jun 2027 04:34:05.889   12 Jun 2027 04:34:32.169            26.280         13140.000
       239   12 Jun 2027 06:10:43.132   12 Jun 2027 06:12:22.254            99.122         49561.000
       240   12 Jun 2027 06:12:50.983   12 Jun 2027 06:13:03.773            12.790          6395.000
       241   12 Jun 2027 06:13:34.003   12 Jun 2027 06:13:49.475            15.472          7736.000
       242   12 Jun 2027 06:14:34.236   12 Jun 2027 06:14:38.207             3.971          1985.500
       243   12 Jun 2027 06:17:28.871   12 Jun 2027 06:17:43.374            14.503          7251.500
       244   12 Jun 2027 07:34:48.233   12 Jun 2027 07:35:53.390            65.157         32578.500
       245   12 Jun 2027 07:36:04.629   12 Jun 2027 07:36:25.727            21.098          9284.375
       246   12 Jun 2027 07:36:57.215   12 Jun 2027 07:36:59.113             1.898           949.000
       247   12 Jun 2027 07:36:59.708   12 Jun 2027 07:36:59.708             0.000             0.000
       248   12 Jun 2027 07:47:03.664   12 Jun 2027 07:47:18.340            14.676          6716.187
       249   12 Jun 2027 09:09:04.281   12 Jun 2027 09:09:38.384            34.103         15005.938
       250   12 Jun 2027 09:11:10.236   12 Jun 2027 09:11:19.886             9.650          2578.344
       251   12 Jun 2027 09:11:53.516   12 Jun 2027 09:11:57.009             3.493           194.438
       252   12 Jun 2027 10:44:01.255   12 Jun 2027 10:44:20.733            19.478          9447.688
       253   12 Jun 2027 10:45:48.843   12 Jun 2027 10:45:48.843             0.000             0.000
       254   12 Jun 2027 10:47:28.553   12 Jun 2027 10:47:39.553            11.000          4740.781
       255   12 Jun 2027 10:50:51.277   12 Jun 2027 10:51:02.719            11.442          5521.188
       256   12 Jun 2027 10:52:14.231   12 Jun 2027 10:52:18.949             4.718          2148.875
       257   12 Jun 2027 10:52:41.857   12 Jun 2027 10:52:44.587             2.730           715.875
       258   13 Jun 2027 03:06:51.519   13 Jun 2027 03:07:02.174            10.655          5327.500
       259   13 Jun 2027 03:07:13.021   13 Jun 2027 03:07:16.535             3.514          1757.000
       260   13 Jun 2027 03:07:20.072   13 Jun 2027 03:07:29.681             9.609          4804.500
       261   13 Jun 2027 03:08:21.988   13 Jun 2027 03:08:21.988             0.000             0.000
       262   13 Jun 2027 03:08:28.938   13 Jun 2027 03:08:57.981            29.043         14521.500
       263   13 Jun 2027 03:09:44.544   13 Jun 2027 03:09:55.419            10.875          5437.500
       264   13 Jun 2027 03:11:41.230   13 Jun 2027 03:11:54.534            13.304          6652.000
       265   13 Jun 2027 03:14:08.162   13 Jun 2027 03:14:08.450             0.288           144.000
       266   13 Jun 2027 03:14:34.429   13 Jun 2027 03:14:40.779             6.350          3175.000
       267   13 Jun 2027 04:44:28.814   13 Jun 2027 04:44:53.367            24.553         12276.500
       268   13 Jun 2027 04:44:56.100   13 Jun 2027 04:45:49.797            53.697         26848.500
       269   13 Jun 2027 04:46:34.006   13 Jun 2027 04:46:53.208            19.202          9601.000
       270   13 Jun 2027 04:48:38.873   13 Jun 2027 04:48:40.767             1.894           947.000
       271   13 Jun 2027 04:48:50.255   13 Jun 2027 04:48:52.180             1.925           962.500
       272   13 Jun 2027 06:22:51.412   13 Jun 2027 06:24:51.337           119.925         59962.500
       273   13 Jun 2027 06:26:07.139   13 Jun 2027 06:26:33.659            26.520         13260.000
       274   13 Jun 2027 07:46:55.737   13 Jun 2027 07:47:58.456            62.719         31359.500
       275   13 Jun 2027 07:48:11.667   13 Jun 2027 07:48:15.662             3.995          1997.500
       276   13 Jun 2027 07:48:41.141   13 Jun 2027 07:48:49.035             7.894          3947.000
       277   13 Jun 2027 09:20:43.422   13 Jun 2027 09:21:29.883            46.461         22492.063
       278   13 Jun 2027 09:23:00.069   13 Jun 2027 09:23:07.069             7.000          2696.500
       279   13 Jun 2027 09:23:31.652   13 Jun 2027 09:23:33.196             1.544           381.562
       280   13 Jun 2027 10:55:35.235   13 Jun 2027 10:55:41.613             6.378          3189.000
       281   13 Jun 2027 10:58:16.236   13 Jun 2027 10:58:29.332            13.096          6548.000
       282   13 Jun 2027 11:04:37.407   13 Jun 2027 11:04:48.769            11.362          5681.000
       283   13 Jun 2027 11:04:48.931   13 Jun 2027 11:05:07.657            18.726          8850.812
