uniorb/output/strategy_1/Camera/Camera_KinoSat_110107.txt

KinoSat_110107
-------------------------
    Access    *     Start Time (UTCG)     *     Stop Time (UTCG)  *   Duration (s) *   Data (Mbytes)
         1   01 Jun 2027 03:47:48.833   01 Jun 2027 03:49:58.094           129.261         64630.500
         2   01 Jun 2027 03:50:30.260   01 Jun 2027 03:50:57.056            26.796         13398.000
         3   01 Jun 2027 03:51:21.780   01 Jun 2027 03:51:21.780             0.000             0.000
         4   01 Jun 2027 03:51:59.529   01 Jun 2027 03:52:19.985            20.456         10228.000
         5   01 Jun 2027 05:25:20.519   01 Jun 2027 05:28:20.883           180.364         90182.000
         6   01 Jun 2027 05:28:37.598   01 Jun 2027 05:29:15.250            37.652         18826.000
         7   01 Jun 2027 07:01:21.322   01 Jun 2027 07:03:34.756           133.434         66717.000
         8   01 Jun 2027 07:04:11.887   01 Jun 2027 07:04:19.346             7.459          3729.500
         9   01 Jun 2027 07:04:43.844   01 Jun 2027 07:04:54.269            10.425          5212.500
        10   01 Jun 2027 07:05:07.933   01 Jun 2027 07:05:18.531            10.598          5299.000
        11   01 Jun 2027 07:06:13.428   01 Jun 2027 07:06:17.855             4.427          2213.500
        12   02 Jun 2027 03:59:32.258   02 Jun 2027 04:05:55.382           383.124        191562.000
        13   02 Jun 2027 05:37:49.475   02 Jun 2027 05:41:22.413           212.938        106469.000
        14   02 Jun 2027 07:13:10.591   02 Jun 2027 07:16:06.275           175.684         87842.000
        15   02 Jun 2027 07:16:48.970   02 Jun 2027 07:16:51.608             2.638          1319.000
        16   02 Jun 2027 07:17:40.899   02 Jun 2027 07:18:03.910            23.011         11505.500
        17   03 Jun 2027 04:11:52.716   03 Jun 2027 04:17:42.224           349.508        174754.000
        18   03 Jun 2027 04:17:43.543   03 Jun 2027 04:18:09.076            25.533         12766.500
        19   03 Jun 2027 05:49:47.301   03 Jun 2027 05:53:45.961           238.660        119330.000
        20   03 Jun 2027 07:22:53.462   03 Jun 2027 07:25:50.581           177.119         88559.500
        21   03 Jun 2027 07:26:04.875   03 Jun 2027 07:26:04.875             0.000             0.000
        22   03 Jun 2027 07:26:21.479   03 Jun 2027 07:26:22.096             0.617           308.500
        23   03 Jun 2027 07:27:19.132   03 Jun 2027 07:27:41.152            22.020         11010.000
        24   03 Jun 2027 07:28:34.326   03 Jun 2027 07:28:43.201             8.875          4437.500
        25   03 Jun 2027 07:28:44.637   03 Jun 2027 07:28:47.460             2.823          1411.500
        26   03 Jun 2027 07:29:55.081   03 Jun 2027 07:30:06.726            11.645          5822.500
        27   04 Jun 2027 04:23:47.597   04 Jun 2027 04:28:59.351           311.754        155877.000
        28   04 Jun 2027 04:29:00.338   04 Jun 2027 04:29:58.722            58.384         29192.000
        29   04 Jun 2027 04:30:02.723   04 Jun 2027 04:30:21.310            18.587          9293.500
        30   04 Jun 2027 06:01:47.343   04 Jun 2027 06:05:23.489           216.146        108073.000
        31   04 Jun 2027 06:05:53.846   04 Jun 2027 06:05:56.694             2.848          1424.000
        32   04 Jun 2027 07:35:23.667   04 Jun 2027 07:37:32.464           128.797         64398.500
        33   04 Jun 2027 07:38:27.153   04 Jun 2027 07:39:17.511            50.358         25179.000
        34   04 Jun 2027 07:42:33.284   04 Jun 2027 07:42:48.017            14.733          7366.500
        35   05 Jun 2027 03:00:00.000   05 Jun 2027 03:04:24.757           264.757        132378.500
        36   05 Jun 2027 03:04:44.184   05 Jun 2027 03:04:47.062             2.878          1439.000
        37   05 Jun 2027 03:04:59.558   05 Jun 2027 03:05:00.407             0.849           424.500
        38   05 Jun 2027 03:05:35.416   05 Jun 2027 03:05:49.201            13.785          6892.500
        39   05 Jun 2027 03:06:11.147   05 Jun 2027 03:06:22.707            11.560          5780.000
        40   05 Jun 2027 04:35:44.341   05 Jun 2027 04:38:06.215           141.874         70937.000
        41   05 Jun 2027 04:38:15.746   05 Jun 2027 04:38:26.350            10.604          5302.000
        42   05 Jun 2027 04:38:54.717   05 Jun 2027 04:39:00.602             5.885          2942.500
        43   05 Jun 2027 04:39:40.640   05 Jun 2027 04:39:50.389             9.749          4874.500
        44   05 Jun 2027 04:40:13.537   05 Jun 2027 04:40:26.699            13.162          6581.000
        45   05 Jun 2027 04:40:29.347   05 Jun 2027 04:40:34.230             4.883          2441.500
        46   05 Jun 2027 04:41:00.202   05 Jun 2027 04:41:00.202             0.000             0.000
        47   05 Jun 2027 04:41:06.648   05 Jun 2027 04:41:19.608            12.960          6480.000
        48   05 Jun 2027 04:41:58.128   05 Jun 2027 04:42:03.003             4.875          2437.500
        49   05 Jun 2027 06:13:34.561   05 Jun 2027 06:16:20.383           165.822         82911.000
        50   05 Jun 2027 06:17:20.609   05 Jun 2027 06:17:34.207            13.598          6799.000
        51   05 Jun 2027 07:49:33.341   05 Jun 2027 07:51:13.256            99.915         49957.500
        52   05 Jun 2027 07:51:55.842   05 Jun 2027 07:51:58.659             2.817          1408.500
        53   05 Jun 2027 07:52:22.041   05 Jun 2027 07:52:33.493            11.452          5726.000
        54   05 Jun 2027 07:53:46.770   05 Jun 2027 07:53:50.623             3.853          1926.500
        55   06 Jun 2027 03:11:08.722   06 Jun 2027 03:14:59.564           230.842        115421.000
        56   06 Jun 2027 03:15:22.604   06 Jun 2027 03:15:22.604             0.000             0.000
        57   06 Jun 2027 03:15:38.476   06 Jun 2027 03:16:43.285            64.809         32404.500
        58   06 Jun 2027 03:16:59.790   06 Jun 2027 03:17:17.592            17.802          8901.000
        59   06 Jun 2027 04:48:20.899   06 Jun 2027 04:51:02.392           161.493         80746.500
        60   06 Jun 2027 04:51:47.970   06 Jun 2027 04:51:51.069             3.099          1549.500
        61   06 Jun 2027 04:52:05.127   06 Jun 2027 04:52:18.595            13.468          6734.000
        62   06 Jun 2027 04:53:00.989   06 Jun 2027 04:53:19.062            18.073          9036.500
        63   06 Jun 2027 04:53:40.053   06 Jun 2027 04:53:40.053             0.000             0.000
        64   06 Jun 2027 04:54:03.586   06 Jun 2027 04:54:10.571             6.985          3492.500
        65   06 Jun 2027 06:25:03.848   06 Jun 2027 06:27:10.845           126.997         63498.500
        66   06 Jun 2027 06:27:36.844   06 Jun 2027 06:27:57.175            20.331         10165.500
        67   06 Jun 2027 06:28:30.316   06 Jun 2027 06:28:33.628             3.312          1656.000
        68   06 Jun 2027 08:00:18.813   06 Jun 2027 08:00:28.821            10.008          5004.000
        69   06 Jun 2027 08:02:00.836   06 Jun 2027 08:03:15.569            74.733         37366.500
        70   06 Jun 2027 08:03:50.611   06 Jun 2027 08:03:56.742             6.131          3065.500
        71   06 Jun 2027 08:04:19.543   06 Jun 2027 08:04:19.543             0.000             0.000
        72   06 Jun 2027 08:04:42.952   06 Jun 2027 08:04:54.072            11.120          5560.000
        73   07 Jun 2027 03:23:29.494   07 Jun 2027 03:28:54.401           324.907        162453.500
        74   07 Jun 2027 03:29:35.708   07 Jun 2027 03:29:38.580             2.872          1436.000
        75   07 Jun 2027 03:30:11.206   07 Jun 2027 03:30:12.119             0.913           456.500
        76   07 Jun 2027 05:00:27.421   07 Jun 2027 05:02:57.854           150.433         75216.500
        77   07 Jun 2027 05:03:04.076   07 Jun 2027 05:03:04.338             0.262           131.000
        78   07 Jun 2027 05:03:41.886   07 Jun 2027 05:03:45.301             3.415          1707.500
        79   07 Jun 2027 05:04:08.256   07 Jun 2027 05:04:23.226            14.970          7485.000
        80   07 Jun 2027 05:04:51.727   07 Jun 2027 05:04:59.336             7.609          3804.500
        81   07 Jun 2027 06:37:13.057   07 Jun 2027 06:39:55.908           162.851         81425.500
        82   07 Jun 2027 06:40:20.089   07 Jun 2027 06:40:22.138             2.049          1024.500
        83   07 Jun 2027 06:40:31.162   07 Jun 2027 06:40:43.477            12.315          6157.500
        84   07 Jun 2027 06:40:50.864   07 Jun 2027 06:40:51.550             0.686           343.000
        85   07 Jun 2027 08:15:24.679   07 Jun 2027 08:16:24.591            59.912         29956.000
        86   08 Jun 2027 03:35:56.878   08 Jun 2027 03:42:18.242           381.364        190682.000
        87   08 Jun 2027 05:13:28.954   08 Jun 2027 05:16:16.225           167.271         83635.500
        88   08 Jun 2027 05:17:26.487   08 Jun 2027 05:17:50.553            24.066         12033.000
        89   08 Jun 2027 06:49:33.179   08 Jun 2027 06:51:52.720           139.541         69770.500
        90   08 Jun 2027 06:52:25.615   08 Jun 2027 06:52:43.659            18.044          9022.000
        91   08 Jun 2027 06:52:46.055   08 Jun 2027 06:52:53.122             7.067          3533.500
        92   08 Jun 2027 06:53:18.159   08 Jun 2027 06:53:18.159             0.000             0.000
        93   09 Jun 2027 03:48:03.877   09 Jun 2027 03:53:50.890           347.013        173506.500
        94   09 Jun 2027 03:53:59.295   09 Jun 2027 03:54:09.146             9.851          4925.500
        95   09 Jun 2027 05:25:34.784   09 Jun 2027 05:28:52.204           197.420         98710.000
        96   09 Jun 2027 05:29:34.444   09 Jun 2027 05:29:56.222            21.778         10889.000
        97   09 Jun 2027 07:01:35.866   09 Jun 2027 07:03:14.613            98.747         49373.500
        98   09 Jun 2027 07:03:49.671   09 Jun 2027 07:04:44.316            54.645         27322.500
        99   09 Jun 2027 07:05:09.382   09 Jun 2027 07:05:24.837            15.455          7727.500
       100   09 Jun 2027 07:05:57.075   09 Jun 2027 07:06:03.755             6.680          3340.000
       101   10 Jun 2027 03:59:47.072   10 Jun 2027 04:06:10.469           383.397        191698.500
       102   10 Jun 2027 05:38:04.635   10 Jun 2027 05:41:06.855           182.220         91110.000
       103   10 Jun 2027 05:41:17.392   10 Jun 2027 05:41:46.706            29.314         14657.000
       104   10 Jun 2027 07:12:05.533   10 Jun 2027 07:12:50.640            45.107         22553.500
       105   10 Jun 2027 07:13:25.096   10 Jun 2027 07:15:11.230           106.134         53067.000
       106   10 Jun 2027 07:15:19.365   10 Jun 2027 07:15:26.739             7.374          3687.000
       107   10 Jun 2027 07:16:22.752   10 Jun 2027 07:16:26.529             3.777          1888.500
       108   10 Jun 2027 07:17:04.972   10 Jun 2027 07:17:14.309             9.337          4668.500
       109   10 Jun 2027 07:17:21.839   10 Jun 2027 07:17:31.804             9.965          4982.500
       110   10 Jun 2027 07:17:54.691   10 Jun 2027 07:17:55.514             0.823           411.500
       111   11 Jun 2027 04:12:08.642   11 Jun 2027 04:17:57.439           348.797        174398.500
       112   11 Jun 2027 04:17:58.805   11 Jun 2027 04:18:21.172            22.367         11183.500
       113   11 Jun 2027 05:50:02.213   11 Jun 2027 05:53:36.174           213.961        106980.500
       114   11 Jun 2027 07:23:08.940   11 Jun 2027 07:25:35.563           146.623         73311.500
       115   11 Jun 2027 07:27:10.337   11 Jun 2027 07:27:34.610            24.273         12136.500
       116   11 Jun 2027 07:28:10.812   11 Jun 2027 07:28:18.661             7.849          3924.500
       117   11 Jun 2027 07:28:33.923   11 Jun 2027 07:28:41.918             7.995          3997.500
       118   11 Jun 2027 07:29:02.227   11 Jun 2027 07:29:02.227             0.000             0.000
       119   11 Jun 2027 07:30:10.751   11 Jun 2027 07:30:20.641             9.890          4945.000
       120   11 Jun 2027 07:30:55.378   11 Jun 2027 07:31:07.033            11.655          5827.500
       121   12 Jun 2027 04:23:59.341   12 Jun 2027 04:29:13.237           313.896        156948.000
       122   12 Jun 2027 04:29:16.056   12 Jun 2027 04:30:12.825            56.769         28384.500
       123   12 Jun 2027 06:02:02.228   12 Jun 2027 06:03:40.416            98.188         49094.000
       124   12 Jun 2027 06:04:08.023   12 Jun 2027 06:05:43.662            95.639         47819.500
       125   12 Jun 2027 06:06:06.556   12 Jun 2027 06:06:08.274             1.718           859.000
       126   12 Jun 2027 07:35:38.664   12 Jun 2027 07:37:29.686           111.022         55511.000
       127   12 Jun 2027 07:38:45.288   12 Jun 2027 07:39:10.707            25.419         12709.500
       128   12 Jun 2027 07:40:21.286   12 Jun 2027 07:40:22.092             0.806           403.000
       129   12 Jun 2027 07:40:59.381   12 Jun 2027 07:41:10.118            10.737          5368.500
       130   12 Jun 2027 07:41:25.536   12 Jun 2027 07:41:41.290            15.754          7877.000
       131   12 Jun 2027 07:42:55.611   12 Jun 2027 07:42:55.611             0.000             0.000
       132   12 Jun 2027 07:42:56.387   12 Jun 2027 07:43:02.944             6.557          3278.500
       133   13 Jun 2027 03:00:00.000   13 Jun 2027 03:04:15.897           255.897        127948.500
       134   13 Jun 2027 03:05:02.166   13 Jun 2027 03:05:32.664            30.498         15249.000
       135   13 Jun 2027 03:06:11.306   13 Jun 2027 03:06:24.934            13.628          6814.000
       136   13 Jun 2027 04:35:59.924   13 Jun 2027 04:38:20.524           140.600         70300.000
       137   13 Jun 2027 04:38:30.297   13 Jun 2027 04:38:30.351             0.054            27.000
       138   13 Jun 2027 04:38:56.255   13 Jun 2027 04:39:02.145             5.890          2945.000
       139   13 Jun 2027 04:39:06.215   13 Jun 2027 04:39:09.928             3.713          1856.500
       140   13 Jun 2027 04:39:13.006   13 Jun 2027 04:39:17.022             4.016          2008.000
       141   13 Jun 2027 04:40:28.632   13 Jun 2027 04:40:49.886            21.254         10627.000
       142   13 Jun 2027 04:41:17.717   13 Jun 2027 04:41:28.414            10.697          5348.500
       143   13 Jun 2027 06:13:49.346   13 Jun 2027 06:16:37.042           167.696         83848.000
       144   13 Jun 2027 06:16:47.329   13 Jun 2027 06:16:57.948            10.619          5309.500
       145   13 Jun 2027 07:49:49.133   13 Jun 2027 07:51:29.467           100.334         50167.000
       146   13 Jun 2027 07:52:10.773   13 Jun 2027 07:52:13.253             2.480          1240.000
       147   13 Jun 2027 07:52:38.463   13 Jun 2027 07:52:46.487             8.024          4012.000
