uniorb/output/strategy_1/Camera/Camera_KinoSat_110109.txt

KinoSat_110109
-------------------------
    Access    *     Start Time (UTCG)     *     Stop Time (UTCG)  *   Duration (s) *   Data (Mbytes)
         1   01 Jun 2027 03:28:05.142   01 Jun 2027 03:30:25.765           140.623         70311.500
         2   01 Jun 2027 03:30:28.821   01 Jun 2027 03:30:32.299             3.478          1739.000
         3   01 Jun 2027 03:31:39.081   01 Jun 2027 03:32:01.655            22.574         11287.000
         4   01 Jun 2027 03:32:26.875   01 Jun 2027 03:32:42.347            15.472          7736.000
         5   01 Jun 2027 03:33:50.972   01 Jun 2027 03:33:57.976             7.004          3502.000
         6   01 Jun 2027 05:05:36.239   01 Jun 2027 05:07:46.528           130.289         65144.500
         7   01 Jun 2027 05:08:03.676   01 Jun 2027 05:08:14.968            11.292          5646.000
         8   01 Jun 2027 05:08:51.497   01 Jun 2027 05:08:56.710             5.213          2606.500
         9   01 Jun 2027 05:09:45.104   01 Jun 2027 05:10:06.426            21.322         10661.000
        10   01 Jun 2027 05:10:11.540   01 Jun 2027 05:10:12.633             1.093           546.500
        11   01 Jun 2027 06:41:54.590   01 Jun 2027 06:44:14.557           139.967         69983.500
        12   01 Jun 2027 06:44:45.557   01 Jun 2027 06:44:56.497            10.940          5470.000
        13   01 Jun 2027 06:45:24.125   01 Jun 2027 06:45:45.287            21.162         10581.000
        14   01 Jun 2027 08:20:08.886   01 Jun 2027 08:20:39.935            31.049         15524.500
        15   02 Jun 2027 03:40:39.707   02 Jun 2027 03:46:56.065           376.358        188179.000
        16   02 Jun 2027 05:18:02.567   02 Jun 2027 05:21:11.516           188.949         94474.500
        17   02 Jun 2027 05:21:30.804   02 Jun 2027 05:22:01.444            30.640         15320.000
        18   02 Jun 2027 06:54:11.957   02 Jun 2027 06:56:19.138           127.181         63590.500
        19   02 Jun 2027 06:56:32.611   02 Jun 2027 06:56:33.841             1.230           615.000
        20   02 Jun 2027 06:57:03.822   02 Jun 2027 06:57:17.240            13.418          6709.000
        21   02 Jun 2027 06:57:27.516   02 Jun 2027 06:57:38.978            11.462          5731.000
        22   03 Jun 2027 03:52:16.757   03 Jun 2027 03:58:38.535           381.778        190889.000
        23   03 Jun 2027 05:30:15.385   03 Jun 2027 05:34:30.569           255.184        127592.000
        24   03 Jun 2027 07:06:06.412   03 Jun 2027 07:09:01.031           174.619         87309.500
        25   03 Jun 2027 07:10:36.683   03 Jun 2027 07:10:56.259            19.576          9788.000
        26   03 Jun 2027 07:11:19.155   03 Jun 2027 07:11:21.280             2.125          1062.500
        27   04 Jun 2027 04:04:27.247   04 Jun 2027 04:10:46.204           378.957        189478.500
        28   04 Jun 2027 05:42:37.596   04 Jun 2027 05:46:35.052           237.456        118728.000
        29   04 Jun 2027 07:15:54.796   04 Jun 2027 07:17:39.622           104.826         52413.000
        30   04 Jun 2027 07:17:41.749   04 Jun 2027 07:18:50.750            69.001         34500.500
        31   04 Jun 2027 07:19:29.625   04 Jun 2027 07:19:39.295             9.670          4835.000
        32   04 Jun 2027 07:19:57.611   04 Jun 2027 07:19:59.939             2.328          1164.000
        33   04 Jun 2027 07:20:53.998   04 Jun 2027 07:21:05.520            11.522          5761.000
        34   04 Jun 2027 07:21:13.238   04 Jun 2027 07:21:17.309             4.071          2035.500
        35   04 Jun 2027 07:21:31.839   04 Jun 2027 07:21:37.960             6.121          3060.500
        36   04 Jun 2027 07:22:11.644   04 Jun 2027 07:22:16.582             4.938          2469.000
        37   04 Jun 2027 07:22:18.730   04 Jun 2027 07:22:20.835             2.105          1052.500
        38   04 Jun 2027 07:22:52.461   04 Jun 2027 07:22:56.954             4.493          2246.500
        39   04 Jun 2027 07:23:29.319   04 Jun 2027 07:23:43.812            14.493          7246.500
        40   05 Jun 2027 04:16:42.603   05 Jun 2027 04:22:51.195           368.592        184296.000
        41   05 Jun 2027 05:54:38.875   05 Jun 2027 05:58:20.446           221.571        110785.500
        42   05 Jun 2027 07:28:00.618   05 Jun 2027 07:30:09.728           129.110         64555.000
        43   05 Jun 2027 07:30:37.361   05 Jun 2027 07:30:37.855             0.494           247.000
        44   05 Jun 2027 07:31:12.739   05 Jun 2027 07:31:33.252            20.513         10256.500
        45   05 Jun 2027 07:32:33.081   05 Jun 2027 07:32:41.482             8.401          4200.500
        46   05 Jun 2027 07:33:16.208   05 Jun 2027 07:33:29.948            13.740          6870.000
        47   05 Jun 2027 07:34:48.305   05 Jun 2027 07:35:06.448            18.143          9071.500
        48   05 Jun 2027 07:35:27.551   05 Jun 2027 07:35:38.098            10.547          5273.500
        49   06 Jun 2027 04:28:33.558   06 Jun 2027 04:34:29.811           356.253        178126.500
        50   06 Jun 2027 04:34:41.817   06 Jun 2027 04:34:53.147            11.330          5665.000
        51   06 Jun 2027 06:06:35.906   06 Jun 2027 06:09:45.767           189.861         94930.500
        52   06 Jun 2027 06:10:11.519   06 Jun 2027 06:10:33.480            21.961         10980.500
        53   06 Jun 2027 07:40:26.919   06 Jun 2027 07:41:59.838            92.919         46459.500
        54   06 Jun 2027 07:42:08.217   06 Jun 2027 07:42:26.620            18.403          9201.500
        55   06 Jun 2027 07:43:58.556   06 Jun 2027 07:44:09.125            10.569          5284.500
        56   06 Jun 2027 07:44:50.971   06 Jun 2027 07:44:53.564             2.593          1296.500
        57   06 Jun 2027 07:45:34.778   06 Jun 2027 07:45:48.861            14.083          7041.500
        58   06 Jun 2027 07:46:04.484   06 Jun 2027 07:46:15.091            10.607          5303.500
        59   07 Jun 2027 03:03:48.832   07 Jun 2027 03:07:25.581           216.749        108374.500
        60   07 Jun 2027 03:07:56.580   07 Jun 2027 03:08:13.710            17.130          8565.000
        61   07 Jun 2027 03:09:19.621   07 Jun 2027 03:10:08.846            49.225         24612.500
        62   07 Jun 2027 03:10:50.803   07 Jun 2027 03:10:53.218             2.415          1207.500
        63   07 Jun 2027 04:40:43.938   07 Jun 2027 04:43:09.668           145.730         72865.000
        64   07 Jun 2027 04:43:25.181   07 Jun 2027 04:43:33.292             8.111          4055.500
        65   07 Jun 2027 04:44:42.123   07 Jun 2027 04:45:14.868            32.745         16372.500
        66   07 Jun 2027 04:46:46.821   07 Jun 2027 04:47:07.222            20.401         10200.500
        67   07 Jun 2027 06:17:50.892   07 Jun 2027 06:20:09.994           139.102         69551.000
        68   07 Jun 2027 06:20:49.459   07 Jun 2027 06:21:08.224            18.765          9382.500
        69   07 Jun 2027 06:22:03.086   07 Jun 2027 06:22:11.714             8.628          4314.000
        70   07 Jun 2027 06:22:21.516   07 Jun 2027 06:22:29.171             7.655          3827.500
        71   07 Jun 2027 07:52:45.898   07 Jun 2027 07:53:43.915            58.017         29008.500
        72   07 Jun 2027 07:54:33.394   07 Jun 2027 07:55:08.093            34.699         17349.500
        73   07 Jun 2027 07:56:10.713   07 Jun 2027 07:56:16.049             5.336          2668.000
        74   07 Jun 2027 07:56:39.608   07 Jun 2027 07:56:48.752             9.144          4572.000
        75   07 Jun 2027 07:57:33.816   07 Jun 2027 07:57:37.451             3.635          1817.500
        76   08 Jun 2027 03:16:15.731   08 Jun 2027 03:21:40.246           324.515        162257.500
        77   08 Jun 2027 03:22:24.719   08 Jun 2027 03:22:44.816            20.097         10048.500
        78   08 Jun 2027 04:53:10.322   08 Jun 2027 04:55:54.681           164.359         82179.500
        79   08 Jun 2027 04:56:36.723   08 Jun 2027 04:57:00.492            23.769         11884.500
        80   08 Jun 2027 04:57:44.290   08 Jun 2027 04:57:45.353             1.063           531.500
        81   08 Jun 2027 04:58:18.984   08 Jun 2027 04:58:38.980            19.996          9998.000
        82   08 Jun 2027 06:30:03.227   08 Jun 2027 06:33:05.843           182.616         91308.000
        83   08 Jun 2027 06:34:21.629   08 Jun 2027 06:34:30.836             9.207          4603.500
        84   08 Jun 2027 08:07:13.904   08 Jun 2027 08:08:03.203            49.299         24649.500
        85   08 Jun 2027 08:08:26.714   08 Jun 2027 08:08:31.297             4.583          2291.500
        86   08 Jun 2027 08:09:21.471   08 Jun 2027 08:09:34.277            12.806          6403.000
        87   08 Jun 2027 08:09:38.977   08 Jun 2027 08:09:38.977             0.000             0.000
        88   09 Jun 2027 03:28:20.445   09 Jun 2027 03:35:04.776           404.331        202165.500
        89   09 Jun 2027 05:05:53.254   09 Jun 2027 05:08:15.680           142.426         71213.000
        90   09 Jun 2027 05:08:51.789   09 Jun 2027 05:09:29.113            37.324         18662.000
        91   09 Jun 2027 05:09:41.989   09 Jun 2027 05:09:57.991            16.002          8001.000
        92   09 Jun 2027 06:42:10.649   09 Jun 2027 06:44:29.237           138.588         69294.000
        93   09 Jun 2027 06:45:02.152   09 Jun 2027 06:45:13.232            11.080          5540.000
        94   09 Jun 2027 06:46:27.437   09 Jun 2027 06:46:55.027            27.590         13795.000
        95   09 Jun 2027 08:20:46.372   09 Jun 2027 08:20:54.448             8.076          4038.000
        96   10 Jun 2027 03:40:55.096   10 Jun 2027 03:47:11.194           376.098        188049.000
        97   10 Jun 2027 05:18:16.751   10 Jun 2027 05:20:40.964           144.213         72106.500
        98   10 Jun 2027 05:20:51.273   10 Jun 2027 05:21:12.070            20.797         10398.500
        99   10 Jun 2027 05:21:25.711   10 Jun 2027 05:21:46.019            20.308         10154.000
       100   10 Jun 2027 06:54:27.327   10 Jun 2027 06:56:38.391           131.064         65532.000
       101   10 Jun 2027 06:57:02.033   10 Jun 2027 06:57:18.727            16.694          8347.000
       102   10 Jun 2027 06:58:15.864   10 Jun 2027 06:58:17.270             1.406           703.000
       103   11 Jun 2027 03:52:31.372   11 Jun 2027 03:58:54.029           382.657        191328.500
       104   11 Jun 2027 05:30:30.553   11 Jun 2027 05:32:25.664           115.111         57555.500
       105   11 Jun 2027 05:32:52.541   11 Jun 2027 05:34:22.140            89.599         44799.500
       106   11 Jun 2027 07:06:21.172   11 Jun 2027 07:08:51.121           149.949         74974.500
       107   11 Jun 2027 07:09:15.600   11 Jun 2027 07:09:23.681             8.081          4040.500
       108   11 Jun 2027 07:09:49.530   11 Jun 2027 07:09:53.008             3.478          1739.000
       109   11 Jun 2027 07:10:10.813   11 Jun 2027 07:10:26.318            15.505          7752.500
       110   11 Jun 2027 07:11:11.637   11 Jun 2027 07:11:16.566             4.929          2464.500
       111   12 Jun 2027 04:04:42.941   12 Jun 2027 04:11:01.016           378.075        189037.500
       112   12 Jun 2027 05:42:52.626   12 Jun 2027 05:46:49.766           237.140        118570.000
       113   12 Jun 2027 07:16:09.370   12 Jun 2027 07:17:55.034           105.664         52832.000
       114   12 Jun 2027 07:17:55.808   12 Jun 2027 07:18:27.838            32.030         16015.000
       115   12 Jun 2027 07:19:05.328   12 Jun 2027 07:19:06.547             1.219           609.500
       116   12 Jun 2027 07:20:05.262   12 Jun 2027 07:20:21.279            16.017          8008.500
       117   12 Jun 2027 07:20:43.923   12 Jun 2027 07:20:58.339            14.416          7208.000
       118   12 Jun 2027 07:21:53.974   12 Jun 2027 07:22:31.614            37.640         18820.000
       119   12 Jun 2027 07:22:32.808   12 Jun 2027 07:22:36.215             3.407          1703.500
       120   13 Jun 2027 04:16:57.543   13 Jun 2027 04:23:06.166           368.623        184311.500
       121   13 Jun 2027 05:54:51.484   13 Jun 2027 05:58:34.638           223.154        111577.000
       122   13 Jun 2027 07:28:15.999   13 Jun 2027 07:30:26.833           130.834         65417.000
       123   13 Jun 2027 07:30:51.983   13 Jun 2027 07:31:01.091             9.108          4554.000
       124   13 Jun 2027 07:32:36.312   13 Jun 2027 07:32:56.911            20.599         10299.500
       125   13 Jun 2027 07:33:20.115   13 Jun 2027 07:33:32.103            11.988          5994.000
       126   13 Jun 2027 07:35:02.428   13 Jun 2027 07:35:34.473            32.045         16022.500
