uniorb/output/strategy_1/Camera/Camera_KinoSat_110509.txt

KinoSat_110509
-------------------------
    Access    *     Start Time (UTCG)     *     Stop Time (UTCG)  *   Duration (s) *   Data (Mbytes)
         1   01 Jun 2027 03:10:15.087   01 Jun 2027 03:11:02.121            47.034         23517.000
         2   01 Jun 2027 03:11:34.269   01 Jun 2027 03:11:50.304            16.035          8017.500
         3   01 Jun 2027 03:12:20.037   01 Jun 2027 03:12:25.598             5.561          2780.500
         4   01 Jun 2027 03:12:47.740   01 Jun 2027 03:13:05.032            17.292          8646.000
         5   01 Jun 2027 03:13:14.215   01 Jun 2027 03:13:27.124            12.909          6454.500
         6   01 Jun 2027 04:45:25.089   01 Jun 2027 04:46:45.440            80.351         40175.500
         7   01 Jun 2027 04:46:52.521   01 Jun 2027 04:47:00.269             7.748          3874.000
         8   01 Jun 2027 04:47:05.873   01 Jun 2027 04:47:27.123            21.250         10625.000
         9   01 Jun 2027 04:48:29.389   01 Jun 2027 04:48:41.811            12.422          6211.000
        10   01 Jun 2027 04:49:51.921   01 Jun 2027 04:50:20.620            28.699         14349.500
        11   01 Jun 2027 04:51:32.817   01 Jun 2027 04:51:55.037            22.220         11110.000
        12   01 Jun 2027 06:21:50.600   01 Jun 2027 06:24:10.521           139.921         69960.500
        13   01 Jun 2027 06:24:23.580   01 Jun 2027 06:24:24.561             0.981           490.500
        14   01 Jun 2027 06:24:27.212   01 Jun 2027 06:24:35.817             8.605          4302.500
        15   01 Jun 2027 06:24:57.590   01 Jun 2027 06:25:02.997             5.407          2703.500
        16   01 Jun 2027 06:25:51.298   01 Jun 2027 06:25:58.655             7.357          3678.500
        17   01 Jun 2027 06:26:05.599   01 Jun 2027 06:26:08.875             3.276          1638.000
        18   01 Jun 2027 06:26:34.990   01 Jun 2027 06:26:58.133            23.143         11571.500
        19   01 Jun 2027 07:59:05.030   01 Jun 2027 08:01:50.563           165.533         82766.500
        20   01 Jun 2027 08:03:37.593   01 Jun 2027 08:03:41.832             4.239          2119.500
        21   01 Jun 2027 09:35:19.551   01 Jun 2027 09:37:13.971           114.420         57210.000
        22   01 Jun 2027 09:37:44.586   01 Jun 2027 09:37:57.215            12.629          6314.500
        23   01 Jun 2027 09:38:07.328   01 Jun 2027 09:38:09.988             2.660          1330.000
        24   01 Jun 2027 09:39:17.715   01 Jun 2027 09:39:36.680            18.965          9482.500
        25   01 Jun 2027 09:39:39.176   01 Jun 2027 09:39:42.582             3.406          1703.000
        26   02 Jun 2027 03:22:08.037   02 Jun 2027 03:26:10.323           242.286        121143.000
        27   02 Jun 2027 04:57:04.235   02 Jun 2027 05:00:22.473           198.238         99119.000
        28   02 Jun 2027 05:02:08.039   02 Jun 2027 05:02:19.455            11.416          5708.000
        29   02 Jun 2027 05:02:45.216   02 Jun 2027 05:02:45.216             0.000             0.000
        30   02 Jun 2027 05:03:18.017   02 Jun 2027 05:03:48.700            30.683         15341.500
        31   02 Jun 2027 05:04:06.127   02 Jun 2027 05:04:09.001             2.874          1437.000
        32   02 Jun 2027 06:33:22.807   02 Jun 2027 06:35:31.609           128.802         64401.000
        33   02 Jun 2027 06:36:18.999   02 Jun 2027 06:36:39.564            20.565         10282.500
        34   02 Jun 2027 06:37:48.691   02 Jun 2027 06:37:57.348             8.657          4328.500
        35   02 Jun 2027 06:38:23.761   02 Jun 2027 06:38:42.055            18.294          9147.000
        36   02 Jun 2027 08:11:38.311   02 Jun 2027 08:14:00.058           141.747         70873.500
        37   02 Jun 2027 08:14:18.470   02 Jun 2027 08:14:38.814            20.344         10172.000
        38   02 Jun 2027 08:15:06.693   02 Jun 2027 08:15:19.808            13.115          6557.500
        39   02 Jun 2027 08:15:26.227   02 Jun 2027 08:15:31.023             4.796          2398.000
        40   02 Jun 2027 09:46:58.432   02 Jun 2027 09:49:00.439           122.007         61003.500
        41   02 Jun 2027 09:49:32.229   02 Jun 2027 09:49:37.690             5.461          2730.500
        42   02 Jun 2027 09:50:11.781   02 Jun 2027 09:50:18.554             6.773          3386.500
        43   02 Jun 2027 09:51:30.844   02 Jun 2027 09:52:03.883            33.039         16519.500
        44   03 Jun 2027 03:32:26.698   03 Jun 2027 03:33:00.271            33.573         16786.500
        45   03 Jun 2027 03:33:51.856   03 Jun 2027 03:38:25.451           273.595        136797.500
        46   03 Jun 2027 05:08:37.543   03 Jun 2027 05:11:11.873           154.330         77165.000
        47   03 Jun 2027 05:13:23.509   03 Jun 2027 05:13:41.948            18.439          9219.500
        48   03 Jun 2027 05:14:35.239   03 Jun 2027 05:14:56.792            21.553         10776.500
        49   03 Jun 2027 05:16:10.756   03 Jun 2027 05:16:12.091             1.335           667.500
        50   03 Jun 2027 06:45:42.041   03 Jun 2027 06:48:10.244           148.203         74101.500
        51   03 Jun 2027 06:48:27.638   03 Jun 2027 06:48:27.868             0.230           115.000
        52   03 Jun 2027 06:49:04.136   03 Jun 2027 06:49:22.707            18.571          9285.500
        53   03 Jun 2027 06:49:51.556   03 Jun 2027 06:49:55.202             3.646          1823.000
        54   03 Jun 2027 06:50:29.244   03 Jun 2027 06:50:41.156            11.912          5956.000
        55   03 Jun 2027 06:51:41.856   03 Jun 2027 06:51:48.945             7.089          3544.500
        56   03 Jun 2027 08:23:41.200   03 Jun 2027 08:26:12.657           151.457         75728.500
        57   03 Jun 2027 08:27:02.041   03 Jun 2027 08:27:26.480            24.439         12219.500
        58   03 Jun 2027 09:56:50.267   03 Jun 2027 09:58:15.407            85.140         42570.000
        59   03 Jun 2027 09:59:30.171   03 Jun 2027 09:59:49.118            18.947          9473.500
        60   03 Jun 2027 10:00:46.031   03 Jun 2027 10:01:09.971            23.940         11970.000
        61   03 Jun 2027 10:02:06.252   03 Jun 2027 10:02:09.540             3.288          1644.000
        62   03 Jun 2027 10:02:45.384   03 Jun 2027 10:03:04.163            18.779          9389.500
        63   03 Jun 2027 10:04:02.075   03 Jun 2027 10:04:13.769            11.694          5847.000
        64   03 Jun 2027 10:04:19.400   03 Jun 2027 10:04:24.101             4.701          2350.500
        65   04 Jun 2027 03:43:33.316   04 Jun 2027 03:45:16.522           103.206         51603.000
        66   04 Jun 2027 03:45:36.330   04 Jun 2027 03:48:05.626           149.296         74648.000
        67   04 Jun 2027 03:48:31.793   04 Jun 2027 03:48:33.635             1.842           921.000
        68   04 Jun 2027 03:48:36.917   04 Jun 2027 03:48:43.860             6.943          3471.500
        69   04 Jun 2027 03:49:24.345   04 Jun 2027 03:49:43.754            19.409          9704.500
        70   04 Jun 2027 03:51:27.868   04 Jun 2027 03:51:49.443            21.575         10787.500
        71   04 Jun 2027 05:20:54.897   04 Jun 2027 05:23:08.473           133.576         66788.000
        72   04 Jun 2027 05:23:31.779   04 Jun 2027 05:23:31.779             0.000             0.000
        73   04 Jun 2027 05:24:17.346   04 Jun 2027 05:24:34.571            17.225          8612.500
        74   04 Jun 2027 05:24:43.773   04 Jun 2027 05:24:46.535             2.762          1381.000
        75   04 Jun 2027 05:26:38.137   04 Jun 2027 05:26:57.271            19.134          9567.000
        76   04 Jun 2027 05:27:33.036   04 Jun 2027 05:27:46.780            13.744          6872.000
        77   04 Jun 2027 05:28:14.617   04 Jun 2027 05:28:15.048             0.431           215.500
        78   04 Jun 2027 06:57:43.677   04 Jun 2027 07:00:28.601           164.924         82462.000
        79   04 Jun 2027 07:01:07.070   04 Jun 2027 07:01:14.408             7.338          3669.000
        80   04 Jun 2027 07:01:54.002   04 Jun 2027 07:02:00.962             6.960          3480.000
        81   04 Jun 2027 07:04:00.226   04 Jun 2027 07:04:11.699            11.473          5736.500
        82   04 Jun 2027 08:35:40.710   04 Jun 2027 08:36:41.453            60.743         30371.500
        83   04 Jun 2027 08:36:55.019   04 Jun 2027 08:37:09.654            14.635          7317.500
        84   04 Jun 2027 08:38:47.856   04 Jun 2027 08:38:53.857             6.001          3000.500
        85   04 Jun 2027 10:09:17.399   04 Jun 2027 10:09:42.054            24.655         12327.500
        86   04 Jun 2027 10:11:00.593   04 Jun 2027 10:11:17.991            17.398          8699.000
        87   04 Jun 2027 10:11:55.806   04 Jun 2027 10:12:03.821             8.015          4007.500
        88   04 Jun 2027 10:12:35.731   04 Jun 2027 10:12:43.967             8.236          4118.000
        89   04 Jun 2027 10:13:28.676   04 Jun 2027 10:13:33.994             5.318          2659.000
        90   04 Jun 2027 10:13:43.236   04 Jun 2027 10:13:57.465            14.229          7114.500
        91   04 Jun 2027 10:15:22.642   04 Jun 2027 10:15:35.730            13.088          6544.000
        92   04 Jun 2027 10:16:11.750   04 Jun 2027 10:16:21.305             9.555          4777.500
        93   05 Jun 2027 03:55:01.513   05 Jun 2027 04:00:02.778           301.265        150632.500
        94   05 Jun 2027 04:03:20.526   05 Jun 2027 04:03:55.658            35.132         17566.000
        95   05 Jun 2027 05:32:50.244   05 Jun 2027 05:35:44.381           174.137         87068.500
        96   05 Jun 2027 05:37:05.488   05 Jun 2027 05:37:25.298            19.810          9905.000
        97   05 Jun 2027 05:38:37.503   05 Jun 2027 05:38:41.456             3.953          1976.500
        98   05 Jun 2027 05:38:48.356   05 Jun 2027 05:39:06.697            18.341          9170.500
        99   05 Jun 2027 05:39:54.617   05 Jun 2027 05:40:00.536             5.919          2959.500
       100   05 Jun 2027 05:40:10.470   05 Jun 2027 05:40:11.619             1.149           574.500
       101   05 Jun 2027 07:09:34.650   05 Jun 2027 07:12:33.476           178.826         89413.000
       102   05 Jun 2027 07:13:37.232   05 Jun 2027 07:13:50.083            12.851          6425.500
       103   05 Jun 2027 07:13:59.142   05 Jun 2027 07:14:01.604             2.462          1231.000
       104   05 Jun 2027 07:14:42.608   05 Jun 2027 07:14:54.649            12.041          6020.500
       105   05 Jun 2027 07:16:13.620   05 Jun 2027 07:16:20.423             6.803          3401.500
       106   05 Jun 2027 08:47:42.236   05 Jun 2027 08:48:18.187            35.951         17975.500
       107   05 Jun 2027 08:48:37.435   05 Jun 2027 08:48:51.289            13.854          6927.000
       108   05 Jun 2027 08:49:30.539   05 Jun 2027 08:49:45.442            14.903          7451.500
       109   05 Jun 2027 08:51:32.713   05 Jun 2027 08:51:48.853            16.140          8070.000
       110   05 Jun 2027 10:21:33.287   05 Jun 2027 10:21:52.286            18.999          9499.500
       111   05 Jun 2027 10:22:24.775   05 Jun 2027 10:22:26.998             2.223          1111.500
       112   05 Jun 2027 10:23:09.211   05 Jun 2027 10:23:25.711            16.500          8250.000
       113   05 Jun 2027 10:24:26.572   05 Jun 2027 10:24:44.772            18.200          9100.000
       114   05 Jun 2027 10:25:54.993   05 Jun 2027 10:26:07.215            12.222          6111.000
       115   05 Jun 2027 10:26:40.308   05 Jun 2027 10:26:52.708            12.400          6200.000
       116   05 Jun 2027 10:27:44.895   05 Jun 2027 10:27:51.273             6.378          3189.000
       117   06 Jun 2027 04:07:49.951   06 Jun 2027 04:13:04.291           314.340        157170.000
       118   06 Jun 2027 04:15:05.313   06 Jun 2027 04:15:08.452             3.139          1569.500
       119   06 Jun 2027 04:15:19.770   06 Jun 2027 04:15:34.405            14.635          7317.500
       120   06 Jun 2027 04:16:00.185   06 Jun 2027 04:16:19.960            19.775          9887.500
       121   06 Jun 2027 05:44:56.648   06 Jun 2027 05:47:49.235           172.587         86293.500
       122   06 Jun 2027 05:49:03.757   06 Jun 2027 05:49:20.326            16.569          8284.500
       123   06 Jun 2027 05:49:47.136   06 Jun 2027 05:50:10.931            23.795         11897.500
       124   06 Jun 2027 05:51:51.339   06 Jun 2027 05:52:04.284            12.945          6472.500
       125   06 Jun 2027 05:52:13.213   06 Jun 2027 05:52:15.988             2.775          1387.500
       126   06 Jun 2027 07:21:59.092   06 Jun 2027 07:22:22.416            23.324         11662.000
       127   06 Jun 2027 07:22:24.153   06 Jun 2027 07:23:44.418            80.265         40132.500
       128   06 Jun 2027 07:24:05.855   06 Jun 2027 07:24:57.685            51.830         25915.000
       129   06 Jun 2027 07:25:44.679   06 Jun 2027 07:25:46.581             1.902           951.000
       130   06 Jun 2027 07:26:03.400   06 Jun 2027 07:26:03.400             0.000             0.000
       131   06 Jun 2027 07:26:08.259   06 Jun 2027 07:26:15.247             6.988          3494.000
       132   06 Jun 2027 07:27:17.057   06 Jun 2027 07:27:31.623            14.566          7283.000
       133   06 Jun 2027 07:27:47.769   06 Jun 2027 07:27:49.265             1.496           748.000
       134   06 Jun 2027 07:28:03.375   06 Jun 2027 07:28:06.529             3.154          1577.000
       135   06 Jun 2027 08:58:56.370   06 Jun 2027 08:59:29.023            32.653         16326.500
       136   06 Jun 2027 08:59:50.648   06 Jun 2027 09:00:05.746            15.098          7549.000
       137   06 Jun 2027 09:00:44.655   06 Jun 2027 09:00:52.679             8.024          4012.000
       138   06 Jun 2027 09:02:26.097   06 Jun 2027 09:02:43.391            17.294          8647.000
       139   06 Jun 2027 09:03:02.824   06 Jun 2027 09:03:14.468            11.644          5822.000
       140   06 Jun 2027 10:34:00.009   06 Jun 2027 10:34:18.521            18.512          9256.000
       141   06 Jun 2027 10:35:41.236   06 Jun 2027 10:36:32.324            51.088         25544.000
       142   07 Jun 2027 04:19:48.678   07 Jun 2027 04:23:53.210           244.532        122266.000
       143   07 Jun 2027 04:24:02.853   07 Jun 2027 04:24:47.069            44.216         22108.000
       144   07 Jun 2027 04:25:28.052   07 Jun 2027 04:26:17.928            49.876         24938.000
       145   07 Jun 2027 04:27:47.088   07 Jun 2027 04:27:57.485            10.397          5198.500
       146   07 Jun 2027 04:28:01.888   07 Jun 2027 04:28:18.917            17.029          8514.500
       147   07 Jun 2027 05:57:22.505   07 Jun 2027 05:59:53.313           150.808         75404.000
       148   07 Jun 2027 06:00:29.126   07 Jun 2027 06:00:31.936             2.810          1405.000
       149   07 Jun 2027 06:00:35.809   07 Jun 2027 06:00:36.012             0.203           101.500
       150   07 Jun 2027 06:01:03.358   07 Jun 2027 06:01:28.352            24.994         12497.000
       151   07 Jun 2027 06:02:17.481   07 Jun 2027 06:02:23.572             6.091          3045.500
       152   07 Jun 2027 06:03:07.243   07 Jun 2027 06:03:12.161             4.918          2459.000
       153   07 Jun 2027 06:03:34.990   07 Jun 2027 06:03:41.875             6.885          3442.500
       154   07 Jun 2027 07:34:16.791   07 Jun 2027 07:35:53.134            96.343         48171.500
       155   07 Jun 2027 07:35:57.148   07 Jun 2027 07:36:59.215            62.067         31033.500
       156   07 Jun 2027 07:37:27.541   07 Jun 2027 07:37:32.332             4.791          2395.500
       157   07 Jun 2027 07:38:20.311   07 Jun 2027 07:38:34.474            14.163          7081.500
       158   07 Jun 2027 07:39:48.277   07 Jun 2027 07:39:51.168             2.891          1445.500
       159   07 Jun 2027 09:11:10.060   07 Jun 2027 09:11:39.130            29.070         14535.000
       160   07 Jun 2027 09:12:09.079   07 Jun 2027 09:12:23.489            14.410          7205.000
       161   07 Jun 2027 09:13:18.449   07 Jun 2027 09:13:21.010             2.561          1280.500
       162   07 Jun 2027 09:14:16.281   07 Jun 2027 09:14:30.737            14.456          7228.000
       163   07 Jun 2027 09:14:40.003   07 Jun 2027 09:14:41.909             1.906           953.000
       164   07 Jun 2027 09:15:13.003   07 Jun 2027 09:15:29.764            16.761          8380.500
       165   07 Jun 2027 10:48:49.826   07 Jun 2027 10:49:15.924            26.098         13049.000
       166   08 Jun 2027 03:00:00.000   08 Jun 2027 03:01:53.934           113.934         56967.000
       167   08 Jun 2027 04:33:17.360   08 Jun 2027 04:36:43.089           205.729        102864.500
       168   08 Jun 2027 04:37:00.358   08 Jun 2027 04:37:13.042            12.684          6342.000
       169   08 Jun 2027 04:37:52.571   08 Jun 2027 04:38:09.768            17.197          8598.500
       170   08 Jun 2027 04:38:13.660   08 Jun 2027 04:38:16.774             3.114          1557.000
       171   08 Jun 2027 04:38:41.577   08 Jun 2027 04:38:48.408             6.831          3415.500
       172   08 Jun 2027 04:39:20.358   08 Jun 2027 04:39:22.419             2.061          1030.500
       173   08 Jun 2027 04:39:37.174   08 Jun 2027 04:40:01.562            24.388         12194.000
       174   08 Jun 2027 04:40:09.123   08 Jun 2027 04:40:14.732             5.609          2804.500
       175   08 Jun 2027 06:09:29.897   08 Jun 2027 06:11:56.636           146.739         73369.500
       176   08 Jun 2027 06:12:43.918   08 Jun 2027 06:13:06.170            22.252         11126.000
       177   08 Jun 2027 06:15:18.118   08 Jun 2027 06:15:47.764            29.646         14823.000
       178   08 Jun 2027 06:16:08.068   08 Jun 2027 06:16:10.186             2.118          1059.000
       179   08 Jun 2027 07:47:13.359   08 Jun 2027 07:49:14.824           121.465         60732.500
       180   08 Jun 2027 07:50:25.185   08 Jun 2027 07:50:36.244            11.059          5529.500
       181   08 Jun 2027 07:50:45.048   08 Jun 2027 07:50:59.557            14.509          7254.500
       182   08 Jun 2027 07:51:25.468   08 Jun 2027 07:51:36.243            10.775          5387.500
       183   08 Jun 2027 09:23:19.622   08 Jun 2027 09:23:59.821            40.199         20099.500
       184   08 Jun 2027 09:24:48.517   08 Jun 2027 09:24:53.524             5.007          2503.500
       185   08 Jun 2027 09:25:11.234   08 Jun 2027 09:25:11.377             0.143            71.500
       186   08 Jun 2027 09:26:03.922   08 Jun 2027 09:26:18.326            14.404          7202.000
       187   08 Jun 2027 09:26:22.955   08 Jun 2027 09:26:28.317             5.362          2681.000
       188   08 Jun 2027 09:27:21.972   08 Jun 2027 09:27:31.156             9.184          4592.000
       189   09 Jun 2027 03:10:29.682   09 Jun 2027 03:14:01.350           211.668        105834.000
       190   09 Jun 2027 04:45:39.765   09 Jun 2027 04:48:00.783           141.018         70509.000
       191   09 Jun 2027 04:49:19.393   09 Jun 2027 04:49:54.106            34.713         17356.500
       192   09 Jun 2027 04:50:48.659   09 Jun 2027 04:50:50.619             1.960           980.000
       193   09 Jun 2027 04:50:59.802   09 Jun 2027 04:50:59.802             0.000             0.000
       194   09 Jun 2027 04:51:31.109   09 Jun 2027 04:51:41.499            10.390          5195.000
       195   09 Jun 2027 04:52:02.919   09 Jun 2027 04:52:11.763             8.844          4422.000
       196   09 Jun 2027 06:22:04.801   09 Jun 2027 06:23:59.198           114.397         57198.500
       197   09 Jun 2027 06:24:26.592   09 Jun 2027 06:24:40.058            13.466          6733.000
       198   09 Jun 2027 06:25:03.284   09 Jun 2027 06:25:17.715            14.431          7215.500
       199   09 Jun 2027 06:25:54.858   09 Jun 2027 06:26:07.869            13.011          6505.500
       200   09 Jun 2027 07:59:19.860   09 Jun 2027 08:01:01.347           101.487         50743.500
       201   09 Jun 2027 08:02:27.475   09 Jun 2027 08:02:52.127            24.652         12326.000
       202   09 Jun 2027 08:02:54.243   09 Jun 2027 08:02:58.214             3.971          1985.500
       203   09 Jun 2027 09:35:34.234   09 Jun 2027 09:36:03.679            29.445         14722.500
       204   09 Jun 2027 09:36:25.701   09 Jun 2027 09:36:35.132             9.431          4715.500
       205   09 Jun 2027 09:37:48.067   09 Jun 2027 09:38:01.007            12.940          6470.000
       206   09 Jun 2027 09:38:24.645   09 Jun 2027 09:38:35.918            11.273          5636.500
       207   09 Jun 2027 09:39:30.134   09 Jun 2027 09:39:36.643             6.509          3254.500
       208   09 Jun 2027 09:39:52.646   09 Jun 2027 09:39:57.533             4.887          2443.500
       209   10 Jun 2027 03:22:22.544   10 Jun 2027 03:26:01.308           218.764        109382.000
       210   10 Jun 2027 03:26:03.644   10 Jun 2027 03:26:07.031             3.387          1693.500
       211   10 Jun 2027 04:57:18.657   10 Jun 2027 04:59:37.792           139.135         69567.500
       212   10 Jun 2027 04:59:54.918   10 Jun 2027 04:59:54.918             0.000             0.000
       213   10 Jun 2027 05:00:49.043   10 Jun 2027 05:01:00.659            11.616          5808.000
       214   10 Jun 2027 05:02:08.723   10 Jun 2027 05:02:34.531            25.808         12904.000
       215   10 Jun 2027 05:02:48.979   10 Jun 2027 05:02:50.267             1.288           644.000
       216   10 Jun 2027 05:03:54.975   10 Jun 2027 05:04:24.726            29.751         14875.500
       217   10 Jun 2027 06:33:37.600   10 Jun 2027 06:35:46.924           129.324         64662.000
       218   10 Jun 2027 06:35:58.692   10 Jun 2027 06:36:00.974             2.282          1141.000
       219   10 Jun 2027 06:36:56.729   10 Jun 2027 06:37:08.844            12.115          6057.500
       220   10 Jun 2027 06:37:55.847   10 Jun 2027 06:38:18.822            22.975         11487.500
       221   10 Jun 2027 06:38:38.299   10 Jun 2027 06:38:40.881             2.582          1291.000
       222   10 Jun 2027 06:39:08.921   10 Jun 2027 06:39:13.033             4.112          2056.000
       223   10 Jun 2027 06:39:40.263   10 Jun 2027 06:39:54.909            14.646          7323.000
       224   10 Jun 2027 08:11:52.860   10 Jun 2027 08:13:00.759            67.899         33949.500
       225   10 Jun 2027 08:14:12.345   10 Jun 2027 08:14:39.751            27.406         13703.000
       226   10 Jun 2027 08:14:55.392   10 Jun 2027 08:15:04.206             8.814          4407.000
       227   10 Jun 2027 08:15:42.673   10 Jun 2027 08:15:44.942             2.269          1134.500
       228   10 Jun 2027 09:47:13.092   10 Jun 2027 09:48:02.738            49.646         24823.000
       229   10 Jun 2027 09:49:56.806   10 Jun 2027 09:50:08.613            11.807          5903.500
       230   10 Jun 2027 09:50:56.862   10 Jun 2027 09:51:07.202            10.340          5170.000
       231   10 Jun 2027 09:51:45.494   10 Jun 2027 09:51:50.768             5.274          2637.000
       232   10 Jun 2027 09:52:03.301   10 Jun 2027 09:52:18.881            15.580          7790.000
       233   11 Jun 2027 03:32:41.218   11 Jun 2027 03:33:19.660            38.442         19221.000
       234   11 Jun 2027 03:34:06.504   11 Jun 2027 03:36:45.510           159.006         79503.000
       235   11 Jun 2027 03:37:04.490   11 Jun 2027 03:37:08.763             4.273          2136.500
       236   11 Jun 2027 03:37:13.839   11 Jun 2027 03:37:20.985             7.146          3573.000
       237   11 Jun 2027 03:37:43.363   11 Jun 2027 03:37:43.363             0.000             0.000
       238   11 Jun 2027 05:08:52.003   11 Jun 2027 05:11:31.185           159.182         79591.000
       239   11 Jun 2027 05:11:55.892   11 Jun 2027 05:12:03.256             7.364          3682.000
       240   11 Jun 2027 05:12:55.538   11 Jun 2027 05:13:04.720             9.182          4591.000
       241   11 Jun 2027 05:13:57.237   11 Jun 2027 05:14:06.046             8.809          4404.500
       242   11 Jun 2027 05:16:02.959   11 Jun 2027 05:16:26.444            23.485         11742.500
       243   11 Jun 2027 06:45:56.917   11 Jun 2027 06:48:44.242           167.325         83662.500
       244   11 Jun 2027 06:48:48.024   11 Jun 2027 06:48:55.617             7.593          3796.500
       245   11 Jun 2027 06:50:09.527   11 Jun 2027 06:50:35.922            26.395         13197.500
       246   11 Jun 2027 06:51:01.465   11 Jun 2027 06:51:02.913             1.448           724.000
       247   11 Jun 2027 06:52:18.500   11 Jun 2027 06:52:19.444             0.944           472.000
       248   11 Jun 2027 08:23:55.910   11 Jun 2027 08:24:52.835            56.925         28462.500
       249   11 Jun 2027 08:25:13.769   11 Jun 2027 08:25:24.200            10.431          5215.500
       250   11 Jun 2027 08:25:57.971   11 Jun 2027 08:26:13.854            15.883          7941.500
       251   11 Jun 2027 08:27:23.352   11 Jun 2027 08:27:29.903             6.551          3275.500
       252   11 Jun 2027 09:57:04.717   11 Jun 2027 09:57:54.403            49.686         24843.000
       253   11 Jun 2027 09:59:09.774   11 Jun 2027 09:59:23.580            13.806          6903.000
       254   11 Jun 2027 10:01:00.766   11 Jun 2027 10:01:12.704            11.938          5969.000
       255   11 Jun 2027 10:01:58.927   11 Jun 2027 10:02:11.764            12.837          6418.500
       256   11 Jun 2027 10:02:40.456   11 Jun 2027 10:03:00.700            20.244         10122.000
       257   11 Jun 2027 10:03:24.230   11 Jun 2027 10:03:29.613             5.383          2691.500
       258   12 Jun 2027 03:43:47.679   12 Jun 2027 03:45:31.011           103.332         51666.000
       259   12 Jun 2027 03:45:50.851   12 Jun 2027 03:48:02.001           131.150         65575.000
       260   12 Jun 2027 03:49:08.939   12 Jun 2027 03:49:14.828             5.889          2944.500
       261   12 Jun 2027 03:51:42.366   12 Jun 2027 03:52:04.138            21.772         10886.000
       262   12 Jun 2027 05:21:09.961   12 Jun 2027 05:23:30.634           140.673         70336.500
       263   12 Jun 2027 05:24:18.658   12 Jun 2027 05:24:32.118            13.460          6730.000
       264   12 Jun 2027 05:24:54.824   12 Jun 2027 05:25:04.212             9.388          4694.000
       265   12 Jun 2027 05:25:47.898   12 Jun 2027 05:26:02.923            15.025          7512.500
       266   12 Jun 2027 05:26:16.352   12 Jun 2027 05:26:35.529            19.177          9588.500
       267   12 Jun 2027 05:27:46.898   12 Jun 2027 05:28:01.462            14.564          7282.000
       268   12 Jun 2027 05:28:29.277   12 Jun 2027 05:28:29.717             0.440           220.000
       269   12 Jun 2027 06:57:58.368   12 Jun 2027 07:00:35.905           157.537         78768.500
       270   12 Jun 2027 07:00:56.394   12 Jun 2027 07:01:06.175             9.781          4890.500
       271   12 Jun 2027 07:01:52.458   12 Jun 2027 07:02:03.948            11.490          5745.000
       272   12 Jun 2027 07:02:16.401   12 Jun 2027 07:02:19.304             2.903          1451.500
       273   12 Jun 2027 07:02:26.171   12 Jun 2027 07:02:38.151            11.980          5990.000
       274   12 Jun 2027 07:03:47.331   12 Jun 2027 07:04:03.009            15.678          7839.000
       275   12 Jun 2027 08:35:55.503   12 Jun 2027 08:36:36.596            41.093         20546.500
       276   12 Jun 2027 08:37:04.773   12 Jun 2027 08:37:07.527             2.754          1377.000
       277   12 Jun 2027 08:37:35.623   12 Jun 2027 08:37:55.487            19.864          9932.000
       278   12 Jun 2027 08:39:32.332   12 Jun 2027 08:39:39.477             7.145          3572.500
       279   12 Jun 2027 10:09:32.185   12 Jun 2027 10:09:56.355            24.170         12085.000
       280   12 Jun 2027 10:11:15.320   12 Jun 2027 10:11:33.198            17.878          8939.000
       281   12 Jun 2027 10:12:24.290   12 Jun 2027 10:12:59.357            35.067         17533.500
       282   12 Jun 2027 10:15:54.120   12 Jun 2027 10:16:14.516            20.396         10198.000
       283   13 Jun 2027 03:55:15.881   13 Jun 2027 04:00:08.686           292.805        146402.500
       284   13 Jun 2027 04:01:23.707   13 Jun 2027 04:01:28.955             5.248          2624.000
       285   13 Jun 2027 04:02:21.045   13 Jun 2027 04:02:43.283            22.238         11119.000
       286   13 Jun 2027 04:03:35.062   13 Jun 2027 04:03:51.204            16.142          8071.000
       287   13 Jun 2027 05:33:04.856   13 Jun 2027 05:35:29.378           144.522         72261.000
       288   13 Jun 2027 05:36:52.484   13 Jun 2027 05:36:54.156             1.672           836.000
       289   13 Jun 2027 05:37:06.974   13 Jun 2027 05:37:10.582             3.608          1804.000
       290   13 Jun 2027 05:38:29.206   13 Jun 2027 05:38:57.041            27.835         13917.500
       291   13 Jun 2027 05:39:02.606   13 Jun 2027 05:39:27.438            24.832         12416.000
       292   13 Jun 2027 07:09:49.246   13 Jun 2027 07:12:18.583           149.337         74668.500
       293   13 Jun 2027 07:13:11.533   13 Jun 2027 07:13:17.926             6.393          3196.500
       294   13 Jun 2027 07:13:34.243   13 Jun 2027 07:13:54.306            20.063         10031.500
       295   13 Jun 2027 07:14:16.500   13 Jun 2027 07:14:24.061             7.561          3780.500
       296   13 Jun 2027 07:14:45.431   13 Jun 2027 07:14:48.509             3.078          1539.000
       297   13 Jun 2027 07:15:27.701   13 Jun 2027 07:15:38.562            10.861          5430.500
       298   13 Jun 2027 07:15:57.778   13 Jun 2027 07:16:04.417             6.639          3319.500
       299   13 Jun 2027 08:47:57.151   13 Jun 2027 08:48:35.500            38.349         19174.500
       300   13 Jun 2027 08:48:52.453   13 Jun 2027 08:49:06.017            13.564          6782.000
       301   13 Jun 2027 08:50:33.926   13 Jun 2027 08:50:47.690            13.764          6882.000
       302   13 Jun 2027 08:50:56.295   13 Jun 2027 08:50:58.947             2.652          1326.000
       303   13 Jun 2027 08:51:45.540   13 Jun 2027 08:51:56.899            11.359          5679.500
       304   13 Jun 2027 10:21:48.048   13 Jun 2027 10:21:58.445            10.397          5198.500
       305   13 Jun 2027 10:22:42.830   13 Jun 2027 10:22:57.618            14.788          7394.000
       306   13 Jun 2027 10:23:23.975   13 Jun 2027 10:23:40.078            16.103          8051.500
       307   13 Jun 2027 10:24:42.582   13 Jun 2027 10:24:48.041             5.459          2729.500
       308   13 Jun 2027 10:25:15.026   13 Jun 2027 10:25:23.329             8.303          4151.500
       309   13 Jun 2027 10:26:10.523   13 Jun 2027 10:26:21.942            11.419          5709.500
       310   13 Jun 2027 10:26:55.060   13 Jun 2027 10:27:07.388            12.328          6164.000
       311   13 Jun 2027 10:27:59.841   13 Jun 2027 10:28:05.473             5.632          2816.000
