uniorb/output/strategy_1/Camera/Camera_KinoSat_111202.txt

KinoSat_111202
-------------------------
    Access    *     Start Time (UTCG)     *     Stop Time (UTCG)  *   Duration (s) *   Data (Mbytes)
         1   01 Jun 2027 03:49:35.183   01 Jun 2027 03:50:02.193            27.010         13505.000
         2   01 Jun 2027 04:00:30.828   01 Jun 2027 04:02:15.920           105.092         52546.000
         3   01 Jun 2027 04:02:40.091   01 Jun 2027 04:02:54.296            14.205          7102.500
         4   01 Jun 2027 04:03:22.862   01 Jun 2027 04:03:28.501             5.639          2819.500
         5   01 Jun 2027 05:24:27.806   01 Jun 2027 05:25:40.504            72.698         36349.000
         6   01 Jun 2027 05:27:07.007   01 Jun 2027 05:27:19.929            12.922          6461.000
         7   01 Jun 2027 07:00:12.696   01 Jun 2027 07:02:14.053           121.357         60678.500
         8   01 Jun 2027 07:03:01.790   01 Jun 2027 07:03:09.745             7.955          3977.500
         9   01 Jun 2027 07:03:59.610   01 Jun 2027 07:04:11.887            12.277          6138.500
        10   01 Jun 2027 08:34:56.531   01 Jun 2027 08:36:32.280            95.749         47874.500
        11   01 Jun 2027 08:36:34.182   01 Jun 2027 08:36:48.075            13.893          6946.500
        12   01 Jun 2027 08:39:43.950   01 Jun 2027 08:39:47.646             3.696          1848.000
        13   01 Jun 2027 08:41:50.861   01 Jun 2027 08:42:03.155            12.294          6147.000
        14   01 Jun 2027 10:11:44.588   01 Jun 2027 10:13:30.661           106.073         53036.500
        15   01 Jun 2027 10:14:42.944   01 Jun 2027 10:14:53.613            10.669          5334.500
        16   01 Jun 2027 10:16:05.598   01 Jun 2027 10:16:16.838            11.240          5620.000
        17   01 Jun 2027 10:16:23.410   01 Jun 2027 10:16:24.959             1.549           774.500
        18   01 Jun 2027 10:16:51.767   01 Jun 2027 10:16:51.767             0.000             0.000
        19   01 Jun 2027 10:17:53.442   01 Jun 2027 10:17:58.374             4.932          2466.000
        20   01 Jun 2027 11:49:59.568   01 Jun 2027 11:51:30.938            91.370         45685.000
        21   01 Jun 2027 11:52:27.163   01 Jun 2027 11:52:51.863            24.700         12350.000
        22   01 Jun 2027 11:53:38.545   01 Jun 2027 11:53:40.710             2.165          1082.500
        23   01 Jun 2027 11:53:54.023   01 Jun 2027 11:53:54.542             0.519           259.500
        24   02 Jun 2027 04:00:51.337   02 Jun 2027 04:01:22.967            31.630         15815.000
        25   02 Jun 2027 04:02:14.651   02 Jun 2027 04:02:16.909             2.258          1129.000
        26   02 Jun 2027 04:12:30.703   02 Jun 2027 04:13:57.226            86.523         43261.500
        27   02 Jun 2027 05:35:03.405   02 Jun 2027 05:36:03.980            60.575         30287.500
        28   02 Jun 2027 05:36:44.612   02 Jun 2027 05:36:51.552             6.940          3470.000
        29   02 Jun 2027 05:39:21.012   02 Jun 2027 05:39:27.706             6.694          3347.000
        30   02 Jun 2027 07:10:06.879   02 Jun 2027 07:11:24.978            78.099         39049.500
        31   02 Jun 2027 07:11:57.146   02 Jun 2027 07:12:38.483            41.337         20668.500
        32   02 Jun 2027 07:14:47.415   02 Jun 2027 07:14:58.383            10.968          5484.000
        33   02 Jun 2027 07:15:22.972   02 Jun 2027 07:15:22.972             0.000             0.000
        34   02 Jun 2027 07:16:02.217   02 Jun 2027 07:16:22.370            20.153         10076.500
        35   02 Jun 2027 08:47:04.839   02 Jun 2027 08:49:12.515           127.676         63838.000
        36   02 Jun 2027 08:53:36.506   02 Jun 2027 08:54:07.561            31.055         15527.500
        37   02 Jun 2027 10:24:03.055   02 Jun 2027 10:26:05.861           122.806         61403.000
        38   02 Jun 2027 10:27:34.301   02 Jun 2027 10:27:42.078             7.777          3888.500
        39   02 Jun 2027 10:28:23.539   02 Jun 2027 10:28:25.440             1.901           950.500
        40   03 Jun 2027 04:12:12.436   03 Jun 2027 04:12:58.691            46.255         23127.500
        41   03 Jun 2027 04:24:28.770   03 Jun 2027 04:25:12.779            44.009         22004.500
        42   03 Jun 2027 05:46:27.746   03 Jun 2027 05:47:51.398            83.652         41826.000
        43   03 Jun 2027 05:48:35.661   03 Jun 2027 05:49:07.131            31.470         15735.000
        44   03 Jun 2027 07:21:31.744   03 Jun 2027 07:23:48.321           136.577         68288.500
        45   03 Jun 2027 07:24:48.447   03 Jun 2027 07:24:55.011             6.564          3282.000
        46   03 Jun 2027 07:25:20.401   03 Jun 2027 07:25:26.048             5.647          2823.500
        47   03 Jun 2027 07:25:35.884   03 Jun 2027 07:25:37.207             1.323           661.500
        48   03 Jun 2027 07:29:38.566   03 Jun 2027 07:29:47.781             9.215          4607.500
        49   03 Jun 2027 07:29:55.050   03 Jun 2027 07:30:02.175             7.125          3562.500
        50   03 Jun 2027 08:59:07.837   03 Jun 2027 09:00:49.463           101.626         50813.000
        51   03 Jun 2027 09:01:02.020   03 Jun 2027 09:01:11.931             9.911          4955.500
        52   03 Jun 2027 09:04:05.025   03 Jun 2027 09:04:05.025             0.000             0.000
        53   03 Jun 2027 09:05:16.251   03 Jun 2027 09:05:51.507            35.256         17628.000
        54   03 Jun 2027 09:06:11.488   03 Jun 2027 09:06:20.448             8.960          4480.000
        55   03 Jun 2027 09:06:22.384   03 Jun 2027 09:06:24.084             1.700           850.000
        56   03 Jun 2027 10:35:52.657   03 Jun 2027 10:36:08.551            15.894          7947.000
        57   03 Jun 2027 10:36:10.931   03 Jun 2027 10:37:02.068            51.137         25491.376
        58   03 Jun 2027 10:37:07.215   03 Jun 2027 10:37:10.725             3.510            74.812
        59   03 Jun 2027 10:37:22.497   03 Jun 2027 10:37:30.428             7.931           367.875
        60   03 Jun 2027 10:38:04.551   03 Jun 2027 10:38:10.194             5.643          1066.344
        61   03 Jun 2027 10:38:17.920   03 Jun 2027 10:38:18.879             0.959           241.438
        62   03 Jun 2027 10:38:44.226   03 Jun 2027 10:38:46.033             1.807           792.094
        63   03 Jun 2027 10:39:57.976   03 Jun 2027 10:40:05.234             7.258          2248.219
        64   03 Jun 2027 10:40:24.370   03 Jun 2027 10:40:26.177             1.807           598.000
        65   03 Jun 2027 10:41:10.505   03 Jun 2027 10:41:10.505             0.000             0.000
        66   03 Jun 2027 10:41:36.611   03 Jun 2027 10:41:41.817             5.206          2201.062
        67   03 Jun 2027 10:41:51.450   03 Jun 2027 10:41:51.450             0.000             0.000
        68   03 Jun 2027 10:42:03.439   03 Jun 2027 10:42:05.126             1.687           675.687
        69   04 Jun 2027 03:00:08.210   04 Jun 2027 03:00:30.916            22.706         11353.000
        70   04 Jun 2027 03:01:07.505   04 Jun 2027 03:01:14.848             7.343          3671.500
        71   04 Jun 2027 03:01:49.270   04 Jun 2027 03:02:09.111            19.841          9920.500
        72   04 Jun 2027 03:02:51.771   04 Jun 2027 03:03:10.915            19.144          9572.000
        73   04 Jun 2027 03:03:48.663   04 Jun 2027 03:03:49.120             0.457           228.500
        74   04 Jun 2027 03:04:05.115   04 Jun 2027 03:04:05.268             0.153            76.500
        75   04 Jun 2027 04:24:20.112   04 Jun 2027 04:25:06.770            46.658         23329.000
        76   04 Jun 2027 04:36:51.513   04 Jun 2027 04:36:55.894             4.381          2190.500
        77   04 Jun 2027 05:58:09.624   04 Jun 2027 05:59:38.814            89.190         44595.000
        78   04 Jun 2027 06:00:38.487   04 Jun 2027 06:00:54.981            16.494          8247.000
        79   04 Jun 2027 06:03:04.636   04 Jun 2027 06:03:09.530             4.894          2447.000
        80   04 Jun 2027 06:03:49.158   04 Jun 2027 06:03:50.353             1.195           597.500
        81   04 Jun 2027 07:33:02.254   04 Jun 2027 07:35:08.974           126.720         63360.000
        82   04 Jun 2027 07:35:09.639   04 Jun 2027 07:35:15.958             6.319          3159.500
        83   04 Jun 2027 07:36:09.113   04 Jun 2027 07:36:12.118             3.005          1502.500
        84   04 Jun 2027 07:36:16.065   04 Jun 2027 07:36:21.041             4.976           822.281
        85   04 Jun 2027 07:40:05.775   04 Jun 2027 07:40:12.021             6.246          3123.000
        86   04 Jun 2027 07:40:16.979   04 Jun 2027 07:40:17.064             0.085            42.500
        87   04 Jun 2027 07:40:35.085   04 Jun 2027 07:40:40.059             4.974          2487.000
        88   04 Jun 2027 07:42:00.966   04 Jun 2027 07:42:04.494             3.528          1764.000
        89   04 Jun 2027 07:42:06.353   04 Jun 2027 07:42:07.868             1.515           757.500
        90   04 Jun 2027 09:11:07.633   04 Jun 2027 09:11:29.444            21.811          9709.812
        91   04 Jun 2027 09:13:54.518   04 Jun 2027 09:14:03.254             8.736          4367.437
        92   04 Jun 2027 09:15:17.557   04 Jun 2027 09:15:21.030             3.473          1736.500
        93   04 Jun 2027 09:16:31.340   04 Jun 2027 09:16:38.699             7.359          2442.063
        94   04 Jun 2027 09:17:02.474   04 Jun 2027 09:17:06.354             3.880           671.938
        95   04 Jun 2027 09:17:18.502   04 Jun 2027 09:17:22.669             4.167           379.625
        96   04 Jun 2027 09:18:00.080   04 Jun 2027 09:18:00.199             0.119            59.500
        97   04 Jun 2027 09:18:22.131   04 Jun 2027 09:18:34.584            12.453          1794.969
        98   04 Jun 2027 10:48:00.994   04 Jun 2027 10:48:17.073            16.079          7551.562
        99   04 Jun 2027 10:48:33.430   04 Jun 2027 10:48:34.470             1.040           452.812
       100   04 Jun 2027 10:50:18.414   04 Jun 2027 10:50:24.471             6.057          2266.031
       101   04 Jun 2027 10:50:59.165   04 Jun 2027 10:51:02.335             3.170           748.469
       102   04 Jun 2027 10:51:34.398   04 Jun 2027 10:51:34.398             0.000             0.000
       103   04 Jun 2027 10:52:03.220   04 Jun 2027 10:52:11.099             7.879          1902.656
       104   04 Jun 2027 10:52:45.804   04 Jun 2027 10:52:47.864             2.060           932.500
       105   04 Jun 2027 10:52:55.278   04 Jun 2027 10:52:57.883             2.605           231.687
       106   04 Jun 2027 10:53:46.886   04 Jun 2027 10:53:50.299             3.413           948.000
       107   05 Jun 2027 03:12:33.504   05 Jun 2027 03:14:02.270            88.766         44383.000
       108   05 Jun 2027 03:15:01.840   05 Jun 2027 03:15:01.840             0.000             0.000
       109   05 Jun 2027 03:15:43.557   05 Jun 2027 03:15:53.361             9.804          4902.000
       110   05 Jun 2027 04:36:16.609   05 Jun 2027 04:36:37.583            20.974         10487.000
       111   05 Jun 2027 04:37:09.492   05 Jun 2027 04:37:13.936             4.444          2222.000
       112   05 Jun 2027 04:38:20.916   05 Jun 2027 04:38:31.748            10.832          5416.000
       113   05 Jun 2027 06:12:28.821   05 Jun 2027 06:14:05.808            96.987         48493.500
       114   05 Jun 2027 06:15:35.314   05 Jun 2027 06:15:48.587            13.273          6636.500
       115   05 Jun 2027 07:46:02.168   05 Jun 2027 07:47:28.570            86.402         43201.000
       116   05 Jun 2027 07:48:24.385   05 Jun 2027 07:48:24.385             0.000             0.000
       117   05 Jun 2027 07:48:32.346   05 Jun 2027 07:48:39.875             7.529          3764.500
       118   05 Jun 2027 07:50:38.566   05 Jun 2027 07:50:52.001            13.435          6176.187
       119   05 Jun 2027 07:50:55.607   05 Jun 2027 07:50:56.860             1.253           112.688
       120   05 Jun 2027 07:51:19.190   05 Jun 2027 07:51:22.910             3.720           697.812
       121   05 Jun 2027 07:52:00.862   05 Jun 2027 07:52:03.000             2.138          1069.000
       122   05 Jun 2027 07:52:34.907   05 Jun 2027 07:52:41.399             6.492          1102.500
       123   05 Jun 2027 07:53:36.928   05 Jun 2027 07:53:40.690             3.762          1735.281
       124   05 Jun 2027 07:54:02.869   05 Jun 2027 07:54:05.798             2.929           693.094
       125   05 Jun 2027 07:54:19.485   05 Jun 2027 07:54:19.552             0.067             9.750
       126   05 Jun 2027 09:23:30.472   05 Jun 2027 09:23:56.934            26.462          8154.813
       127   05 Jun 2027 09:25:29.983   05 Jun 2027 09:25:34.066             4.083          1464.063
       128   05 Jun 2027 09:25:52.691   05 Jun 2027 09:25:53.643             0.952           341.000
       129   05 Jun 2027 09:26:17.435   05 Jun 2027 09:26:21.141             3.706           743.500
       130   05 Jun 2027 09:26:47.626   05 Jun 2027 09:26:47.856             0.230             7.844
       131   05 Jun 2027 09:27:17.089   05 Jun 2027 09:27:18.331             1.242           478.375
       132   05 Jun 2027 09:27:42.260   05 Jun 2027 09:27:43.869             1.609           673.812
       133   05 Jun 2027 09:28:05.392   05 Jun 2027 09:28:08.878             3.486           480.813
       134   05 Jun 2027 09:28:36.610   05 Jun 2027 09:28:38.744             2.134           866.625
       135   05 Jun 2027 09:28:39.064   05 Jun 2027 09:28:39.276             0.212            10.000
       136   05 Jun 2027 09:29:41.152   05 Jun 2027 09:29:49.260             8.108          1712.437
       137   05 Jun 2027 11:00:29.288   05 Jun 2027 11:00:50.227            20.939          7586.813
       138   05 Jun 2027 11:02:19.772   05 Jun 2027 11:02:23.596             3.824           710.000
       139   05 Jun 2027 11:02:52.016   05 Jun 2027 11:02:54.019             2.003           888.125
       140   05 Jun 2027 11:03:11.595   05 Jun 2027 11:03:14.108             2.513           376.156
       141   05 Jun 2027 11:04:10.694   05 Jun 2027 11:04:17.860             7.166          1545.344
       142   05 Jun 2027 11:04:23.827   05 Jun 2027 11:04:24.381             0.554           169.219
       143   05 Jun 2027 11:05:11.175   05 Jun 2027 11:05:14.779             3.604          1340.969
       144   05 Jun 2027 11:06:17.701   05 Jun 2027 11:06:20.836             3.135          1567.500
       145   06 Jun 2027 03:24:28.307   06 Jun 2027 03:26:18.299           109.992         54996.000
       146   06 Jun 2027 03:27:29.757   06 Jun 2027 03:27:32.618             2.861          1430.500
       147   06 Jun 2027 04:48:07.332   06 Jun 2027 04:49:12.112            64.780         32390.000
       148   06 Jun 2027 06:24:34.220   06 Jun 2027 06:26:12.790            98.570         49285.000
       149   06 Jun 2027 06:26:17.651   06 Jun 2027 06:26:17.747             0.096            48.000
       150   06 Jun 2027 06:26:46.056   06 Jun 2027 06:26:49.768             3.712          1856.000
       151   06 Jun 2027 07:56:43.720   06 Jun 2027 07:56:53.515             9.795          4897.500
       152   06 Jun 2027 07:58:41.175   06 Jun 2027 07:59:31.743            50.568         23683.313
       153   06 Jun 2027 08:00:15.962   06 Jun 2027 08:00:17.403             1.441           268.156
       154   06 Jun 2027 08:00:31.700   06 Jun 2027 08:00:31.700             0.000             0.000
       155   06 Jun 2027 08:00:34.230   06 Jun 2027 08:00:35.355             1.125           310.500
       156   06 Jun 2027 08:02:00.044   06 Jun 2027 08:02:05.219             5.175          2411.656
       157   06 Jun 2027 08:02:17.513   06 Jun 2027 08:02:19.095             1.582           329.344
       158   06 Jun 2027 08:03:45.142   06 Jun 2027 08:03:49.553             4.411          2205.500
       159   06 Jun 2027 08:05:09.248   06 Jun 2027 08:05:15.350             6.102          2968.656
       160   06 Jun 2027 09:35:39.613   06 Jun 2027 09:35:56.081            16.468          7632.469
       161   06 Jun 2027 09:37:44.600   06 Jun 2027 09:37:49.037             4.437          1877.719
       162   06 Jun 2027 09:38:12.816   06 Jun 2027 09:38:16.451             3.635            70.938
       163   06 Jun 2027 09:38:40.476   06 Jun 2027 09:38:43.437             2.961           339.594
       164   06 Jun 2027 09:39:09.171   06 Jun 2027 09:39:09.805             0.634           317.000
       165   06 Jun 2027 09:40:07.049   06 Jun 2027 09:40:14.668             7.619          1959.375
       166   06 Jun 2027 09:40:52.192   06 Jun 2027 09:40:53.334             1.142           380.219
       167   06 Jun 2027 09:41:44.280   06 Jun 2027 09:41:47.208             2.928          1464.000
       168   06 Jun 2027 09:42:14.944   06 Jun 2027 09:42:19.057             4.113           903.031
       169   06 Jun 2027 09:42:19.965   06 Jun 2027 09:42:20.353             0.388            28.375
       170   06 Jun 2027 11:12:59.114   06 Jun 2027 11:13:23.538            24.424          8759.625
       171   06 Jun 2027 11:14:26.536   06 Jun 2027 11:14:30.361             3.825          1471.562
       172   06 Jun 2027 11:15:31.781   06 Jun 2027 11:15:37.440             5.659          1919.375
       173   06 Jun 2027 11:15:57.867   06 Jun 2027 11:15:57.867             0.000             0.000
       174   06 Jun 2027 11:16:29.555   06 Jun 2027 11:16:33.310             3.755          1619.781
       175   06 Jun 2027 11:17:37.638   06 Jun 2027 11:17:44.993             7.355          1459.906
       176   07 Jun 2027 03:37:41.784   07 Jun 2027 03:39:25.232           103.448         51724.000
       177   07 Jun 2027 03:40:44.797   07 Jun 2027 03:41:02.169            17.372          8686.000
       178   07 Jun 2027 05:00:15.500   07 Jun 2027 05:01:05.824            50.324         25162.000
       179   07 Jun 2027 06:36:43.775   07 Jun 2027 06:38:18.848            95.073         47536.500
       180   07 Jun 2027 06:38:20.724   07 Jun 2027 06:38:39.198            18.474          9237.000
       181   07 Jun 2027 08:11:54.724   07 Jun 2027 08:12:33.031            38.307         18761.718
       182   07 Jun 2027 08:13:42.621   07 Jun 2027 08:13:45.825             3.204          1569.781
       183   07 Jun 2027 08:14:03.006   07 Jun 2027 08:14:04.778             1.772            81.938
       184   07 Jun 2027 08:14:13.490   07 Jun 2027 08:14:14.734             1.244           261.938
       185   07 Jun 2027 08:17:10.141   07 Jun 2027 08:17:10.141             0.000             0.000
       186   07 Jun 2027 08:17:12.544   07 Jun 2027 08:17:27.191            14.647          4369.906
       187   07 Jun 2027 08:18:08.180   07 Jun 2027 08:18:12.295             4.115          1280.906
       188   07 Jun 2027 08:18:24.684   07 Jun 2027 08:18:26.724             2.040           249.000
       189   07 Jun 2027 09:48:13.540   07 Jun 2027 09:48:32.169            18.629          7292.844
       190   07 Jun 2027 09:49:56.510   07 Jun 2027 09:50:01.729             5.219          2226.375
       191   07 Jun 2027 09:50:33.119   07 Jun 2027 09:50:38.686             5.567           980.938
       192   07 Jun 2027 09:50:55.142   07 Jun 2027 09:50:56.941             1.799           514.250
       193   07 Jun 2027 09:51:55.868   07 Jun 2027 09:52:01.206             5.338          1472.687
       194   07 Jun 2027 09:52:44.295   07 Jun 2027 09:52:44.860             0.565           282.500
       195   07 Jun 2027 09:53:39.806   07 Jun 2027 09:53:42.433             2.627          1313.500
       196   07 Jun 2027 09:54:12.241   07 Jun 2027 09:54:17.844             5.603          2046.781
       197   07 Jun 2027 11:25:36.699   07 Jun 2027 11:25:53.829            17.130          7187.781
       198   07 Jun 2027 11:26:12.466   07 Jun 2027 11:26:12.466             0.000             0.000
       199   07 Jun 2027 11:26:41.082   07 Jun 2027 11:26:45.650             4.568          1427.375
       200   07 Jun 2027 11:26:48.980   07 Jun 2027 11:27:06.080            17.100           104.063
       201   07 Jun 2027 11:27:42.686   07 Jun 2027 11:27:46.057             3.371          1143.937
       202   07 Jun 2027 11:28:30.982   07 Jun 2027 11:28:33.368             2.386          1098.062
       203   07 Jun 2027 11:28:49.712   07 Jun 2027 11:28:49.853             0.141            70.500
       204   07 Jun 2027 11:29:52.780   07 Jun 2027 11:29:59.479             6.699          2193.032
       205   08 Jun 2027 03:48:49.363   08 Jun 2027 03:49:27.079            37.716         18858.000
       206   08 Jun 2027 03:49:55.870   08 Jun 2027 03:51:34.184            98.314         49157.000
       207   08 Jun 2027 05:12:16.613   08 Jun 2027 05:13:15.603            58.990         29495.000
       208   08 Jun 2027 05:13:21.819   08 Jun 2027 05:13:27.388             5.569          2784.500
       209   08 Jun 2027 06:48:44.105   08 Jun 2027 06:50:45.638           121.533         60766.500
       210   08 Jun 2027 08:23:56.932   08 Jun 2027 08:24:26.782            29.850         10874.406
       211   08 Jun 2027 08:24:55.933   08 Jun 2027 08:25:03.036             7.103           910.969
       212   08 Jun 2027 08:25:38.875   08 Jun 2027 08:25:39.236             0.361           180.500
       213   08 Jun 2027 08:26:01.524   08 Jun 2027 08:26:03.454             1.930           965.000
       214   08 Jun 2027 08:26:22.580   08 Jun 2027 08:26:27.109             4.529           907.656
       215   08 Jun 2027 08:27:34.589   08 Jun 2027 08:27:39.625             5.036          1773.750
       216   08 Jun 2027 08:29:15.738   08 Jun 2027 08:29:21.386             5.648          2353.813
       217   08 Jun 2027 08:29:33.025   08 Jun 2027 08:29:39.128             6.103           357.688
       218   08 Jun 2027 08:30:35.439   08 Jun 2027 08:30:37.382             1.943           971.500
       219   08 Jun 2027 09:59:52.310   08 Jun 2027 10:00:07.992            15.682          6935.969
       220   08 Jun 2027 10:00:45.330   08 Jun 2027 10:00:47.082             1.752           695.062
       221   08 Jun 2027 10:01:02.267   08 Jun 2027 10:01:03.798             1.531           474.531
       222   08 Jun 2027 10:01:56.470   08 Jun 2027 10:02:02.120             5.650           671.063
       223   08 Jun 2027 10:02:06.627   08 Jun 2027 10:02:11.636             5.009           118.875
       224   08 Jun 2027 10:02:28.249   08 Jun 2027 10:02:29.482             1.233           465.656
       225   08 Jun 2027 10:02:54.651   08 Jun 2027 10:02:56.526             1.875           575.438
       226   08 Jun 2027 10:03:21.096   08 Jun 2027 10:03:24.600             3.504           767.813
       227   08 Jun 2027 10:04:23.727   08 Jun 2027 10:04:27.945             4.218          1525.625
       228   08 Jun 2027 10:04:38.284   08 Jun 2027 10:04:39.472             1.188           313.594
       229   08 Jun 2027 10:05:38.896   08 Jun 2027 10:05:42.876             3.980          1857.000
       230   08 Jun 2027 10:06:08.737   08 Jun 2027 10:06:10.078             1.341           447.844
       231   08 Jun 2027 11:37:51.315   08 Jun 2027 11:38:09.141            17.826          6519.719
       232   08 Jun 2027 11:38:46.524   08 Jun 2027 11:38:51.205             4.681          1168.219
       233   08 Jun 2027 11:39:17.097   08 Jun 2027 11:39:23.674             6.577           322.969
       234   08 Jun 2027 11:39:54.320   08 Jun 2027 11:39:56.311             1.991           418.406
       235   08 Jun 2027 11:41:14.126   08 Jun 2027 11:41:17.420             3.294          1647.000
       236   08 Jun 2027 11:41:47.271   08 Jun 2027 11:41:50.309             3.038          1519.000
       237   09 Jun 2027 03:49:49.267   09 Jun 2027 03:50:18.285            29.018         14509.000
       238   09 Jun 2027 04:00:46.372   09 Jun 2027 04:02:19.928            93.556         46778.000
       239   09 Jun 2027 04:02:55.363   09 Jun 2027 04:03:05.812            10.449          5224.500
       240   09 Jun 2027 04:03:27.044   09 Jun 2027 04:03:27.044             0.000             0.000
       241   09 Jun 2027 04:04:14.267   09 Jun 2027 04:04:14.829             0.562           281.000
       242   09 Jun 2027 05:24:42.897   09 Jun 2027 05:25:51.335            68.438         34219.000
       243   09 Jun 2027 07:00:28.395   09 Jun 2027 07:02:20.028           111.633         55816.500
       244   09 Jun 2027 07:04:14.471   09 Jun 2027 07:04:32.556            18.085          9042.500
       245   09 Jun 2027 08:35:12.245   09 Jun 2027 08:35:32.419            20.174          9634.031
       246   09 Jun 2027 08:35:46.985   09 Jun 2027 08:35:48.216             1.231           440.812
       247   09 Jun 2027 08:36:13.924   09 Jun 2027 08:36:18.017             4.093           734.781
       248   09 Jun 2027 08:38:17.080   09 Jun 2027 08:38:21.503             4.423          2159.125
       249   09 Jun 2027 08:38:38.334   09 Jun 2027 08:38:39.350             1.016           230.750
       250   09 Jun 2027 08:39:59.175   09 Jun 2027 08:40:05.269             6.094          2381.094
       251   09 Jun 2027 08:42:04.388   09 Jun 2027 08:42:11.913             7.525          3722.469
       252   09 Jun 2027 08:42:39.514   09 Jun 2027 08:42:40.566             1.052           201.781
       253   09 Jun 2027 10:12:02.012   09 Jun 2027 10:12:22.955            20.943          9111.094
       254   09 Jun 2027 10:13:55.370   09 Jun 2027 10:13:59.134             3.764          1474.437
       255   09 Jun 2027 10:14:04.995   09 Jun 2027 10:14:05.561             0.566           183.156
       256   09 Jun 2027 10:14:47.158   09 Jun 2027 10:14:50.542             3.384          1238.125
       257   09 Jun 2027 10:15:29.306   09 Jun 2027 10:15:34.155             4.849          1059.250
       258   09 Jun 2027 10:16:21.787   09 Jun 2027 10:16:25.685             3.898          1363.437
       259   09 Jun 2027 10:16:45.953   09 Jun 2027 10:16:56.815            10.862           457.469
       260   09 Jun 2027 10:16:59.579   09 Jun 2027 10:17:00.000             0.421            86.375
       261   09 Jun 2027 10:17:36.671   09 Jun 2027 10:17:47.801            11.130           942.813
       262   09 Jun 2027 11:50:13.905   09 Jun 2027 11:50:28.267            14.362          7181.000
       263   09 Jun 2027 11:52:06.190   09 Jun 2027 11:52:10.877             4.687          2343.500
       264   09 Jun 2027 11:52:22.866   09 Jun 2027 11:52:24.280             1.414           707.000
       265   09 Jun 2027 11:52:54.607   09 Jun 2027 11:52:59.115             4.508          1941.719
       266   09 Jun 2027 11:53:53.572   09 Jun 2027 11:53:56.177             2.605          1302.500
       267   10 Jun 2027 04:01:06.997   10 Jun 2027 04:01:37.534            30.537         15268.500
       268   10 Jun 2027 04:02:29.349   10 Jun 2027 04:02:32.924             3.575          1787.500
       269   10 Jun 2027 04:12:46.911   10 Jun 2027 04:13:52.471            65.560         32780.000
       270   10 Jun 2027 05:35:17.922   10 Jun 2027 05:36:19.251            61.329         30664.500
       271   10 Jun 2027 05:37:00.098   10 Jun 2027 05:37:08.324             8.226          4113.000
       272   10 Jun 2027 05:37:33.738   10 Jun 2027 05:37:54.164            20.426         10213.000
       273   10 Jun 2027 07:10:21.304   10 Jun 2027 07:11:40.626            79.322         39661.000
       274   10 Jun 2027 07:12:12.203   10 Jun 2027 07:13:06.631            54.428         27214.000
       275   10 Jun 2027 07:14:03.605   10 Jun 2027 07:14:10.370             6.765          1837.219
       276   10 Jun 2027 07:15:14.037   10 Jun 2027 07:15:14.037             0.000             0.000
       277   10 Jun 2027 07:15:52.596   10 Jun 2027 07:15:57.625             5.029          2514.500
       278   10 Jun 2027 08:47:20.273   10 Jun 2027 08:47:38.269            17.996          8556.375
       279   10 Jun 2027 08:48:15.273   10 Jun 2027 08:48:18.591             3.318          1009.031
       280   10 Jun 2027 08:49:02.724   10 Jun 2027 08:49:03.480             0.756             8.906
       281   10 Jun 2027 08:50:22.411   10 Jun 2027 08:50:26.741             4.330          1657.656
       282   10 Jun 2027 08:51:34.990   10 Jun 2027 08:51:43.206             8.216          1867.312
       283   10 Jun 2027 08:51:55.073   10 Jun 2027 08:52:03.194             8.121             1.969
       284   10 Jun 2027 08:52:30.291   10 Jun 2027 08:52:32.388             2.097           469.062
       285   10 Jun 2027 08:53:05.765   10 Jun 2027 08:53:06.562             0.797           398.500
       286   10 Jun 2027 08:53:10.477   10 Jun 2027 08:53:14.657             4.180           627.750
       287   10 Jun 2027 08:53:36.260   10 Jun 2027 08:53:38.410             2.150           675.094
       288   10 Jun 2027 08:54:38.470   10 Jun 2027 08:54:43.498             5.028          1781.719
       289   10 Jun 2027 10:24:18.310   10 Jun 2027 10:24:33.928            15.618          7540.000
       290   10 Jun 2027 10:25:13.295   10 Jun 2027 10:25:17.038             3.743          1124.500
       291   10 Jun 2027 10:26:55.218   10 Jun 2027 10:27:01.988             6.770          2036.406
       292   10 Jun 2027 10:28:09.331   10 Jun 2027 10:28:15.175             5.844          1759.375
       293   10 Jun 2027 10:28:33.335   10 Jun 2027 10:28:35.035             1.700           463.719
       294   10 Jun 2027 10:29:02.814   10 Jun 2027 10:29:10.958             8.144           728.188
       295   10 Jun 2027 10:29:35.823   10 Jun 2027 10:29:38.977             3.154           650.656
       296   11 Jun 2027 04:12:27.982   11 Jun 2027 04:13:19.515            51.533         25766.500
       297   11 Jun 2027 04:13:27.631   11 Jun 2027 04:13:30.988             3.357          1678.500
       298   11 Jun 2027 04:24:44.321   11 Jun 2027 04:25:30.600            46.279         23139.500
       299   11 Jun 2027 05:46:42.839   11 Jun 2027 05:48:07.176            84.337         42168.500
       300   11 Jun 2027 05:48:50.720   11 Jun 2027 05:49:22.617            31.897         15948.500
       301   11 Jun 2027 05:51:52.943   11 Jun 2027 05:51:52.943             0.000             0.000
       302   11 Jun 2027 07:21:44.521   11 Jun 2027 07:23:31.803           107.282         53641.000
       303   11 Jun 2027 07:24:16.502   11 Jun 2027 07:24:31.833            15.331          7665.500
       304   11 Jun 2027 07:25:32.121   11 Jun 2027 07:25:37.446             5.325          2662.500
       305   11 Jun 2027 07:28:22.328   11 Jun 2027 07:28:28.280             5.952          2976.000
       306   11 Jun 2027 07:28:49.799   11 Jun 2027 07:28:55.721             5.922          2919.094
       307   11 Jun 2027 08:59:22.228   11 Jun 2027 08:59:39.966            17.738          7983.156
       308   11 Jun 2027 09:00:19.152   11 Jun 2027 09:00:19.152             0.000             0.000
       309   11 Jun 2027 09:01:28.727   11 Jun 2027 09:01:36.543             7.816          3232.781
       310   11 Jun 2027 09:02:54.865   11 Jun 2027 09:03:00.656             5.791          2127.719
       311   11 Jun 2027 09:03:41.057   11 Jun 2027 09:03:47.180             6.123          1202.969
       312   11 Jun 2027 09:04:03.350   11 Jun 2027 09:04:09.281             5.931           227.688
       313   11 Jun 2027 09:04:26.142   11 Jun 2027 09:04:32.604             6.462           121.063
       314   11 Jun 2027 09:04:58.518   11 Jun 2027 09:05:00.209             1.691           754.094
       315   11 Jun 2027 09:05:34.100   11 Jun 2027 09:05:39.509             5.409          1059.094
       316   11 Jun 2027 09:06:15.766   11 Jun 2027 09:06:19.149             3.383           419.750
       317   11 Jun 2027 10:36:08.321   11 Jun 2027 10:36:19.962            11.641          5820.500
       318   11 Jun 2027 10:36:26.971   11 Jun 2027 10:36:30.152             3.181          1298.156
       319   11 Jun 2027 10:37:24.694   11 Jun 2027 10:37:27.895             3.201          1385.406
       320   11 Jun 2027 10:37:37.711   11 Jun 2027 10:37:44.951             7.240           306.750
       321   11 Jun 2027 10:38:08.758   11 Jun 2027 10:38:10.481             1.723           743.969
       322   11 Jun 2027 10:39:25.951   11 Jun 2027 10:39:29.696             3.745          1642.813
       323   11 Jun 2027 10:39:43.869   11 Jun 2027 10:39:45.747             1.878           430.406
       324   11 Jun 2027 10:40:17.253   11 Jun 2027 10:40:20.103             2.850           984.562
       325   11 Jun 2027 10:40:36.803   11 Jun 2027 10:40:40.909             4.106           517.063
       326   11 Jun 2027 10:40:56.499   11 Jun 2027 10:40:59.339             2.840           454.938
       327   11 Jun 2027 10:42:23.582   11 Jun 2027 10:42:29.234             5.652          2576.031
       328   12 Jun 2027 03:00:24.923   12 Jun 2027 03:00:45.961            21.038         10519.000
       329   12 Jun 2027 03:01:22.416   12 Jun 2027 03:01:29.557             7.141          3570.500
       330   12 Jun 2027 03:02:06.901   12 Jun 2027 03:02:23.758            16.857          8428.500
       331   12 Jun 2027 03:03:07.772   12 Jun 2027 03:03:27.164            19.392          9696.000
       332   12 Jun 2027 03:04:04.898   12 Jun 2027 03:04:13.694             8.796          4398.000
       333   12 Jun 2027 03:06:30.698   12 Jun 2027 03:06:46.396            15.698          7849.000
       334   12 Jun 2027 04:24:35.856   12 Jun 2027 04:25:22.293            46.437         23218.500
       335   12 Jun 2027 04:37:08.291   12 Jun 2027 04:37:11.308             3.017          1508.500
       336   12 Jun 2027 05:58:25.300   12 Jun 2027 06:00:13.481           108.181         54090.500
       337   12 Jun 2027 06:02:02.722   12 Jun 2027 06:02:11.923             9.201          4600.500
       338   12 Jun 2027 06:03:20.730   12 Jun 2027 06:03:26.560             5.830          2915.000
       339   12 Jun 2027 07:33:17.304   12 Jun 2027 07:34:59.610           102.306         51043.532
       340   12 Jun 2027 07:35:48.708   12 Jun 2027 07:35:53.390             4.682           782.250
       341   12 Jun 2027 07:38:29.360   12 Jun 2027 07:38:38.970             9.610          4522.844
       342   12 Jun 2027 07:41:51.496   12 Jun 2027 07:42:00.534             9.038          4519.000
       343   12 Jun 2027 09:11:23.081   12 Jun 2027 09:11:47.294            24.213          8725.906
       344   12 Jun 2027 09:12:44.141   12 Jun 2027 09:12:50.626             6.485          1105.344
       345   12 Jun 2027 09:15:46.195   12 Jun 2027 09:15:57.634            11.439          4339.000
       346   12 Jun 2027 09:16:36.256   12 Jun 2027 09:16:38.359             2.103          1022.844
       347   12 Jun 2027 09:16:56.349   12 Jun 2027 09:16:59.237             2.888           247.906
       348   12 Jun 2027 09:17:47.371   12 Jun 2027 09:17:51.847             4.476          1447.969
       349   12 Jun 2027 09:18:37.511   12 Jun 2027 09:18:40.206             2.695          1068.625
       350   12 Jun 2027 10:48:17.615   12 Jun 2027 10:48:32.663            15.048          7425.281
       351   12 Jun 2027 10:48:49.891   12 Jun 2027 10:48:53.888             3.997           489.500
       352   12 Jun 2027 10:50:33.849   12 Jun 2027 10:50:39.931             6.082          2256.094
       353   12 Jun 2027 10:51:10.992   12 Jun 2027 10:51:12.476             1.484           607.844
       354   12 Jun 2027 10:51:17.295   12 Jun 2027 10:51:21.595             4.300           103.125
       355   12 Jun 2027 10:51:25.197   12 Jun 2027 10:51:25.197             0.000             0.000
       356   12 Jun 2027 10:51:49.033   12 Jun 2027 10:51:52.459             3.426           847.812
       357   12 Jun 2027 10:52:12.922   12 Jun 2027 10:52:14.164             1.242           399.719
       358   12 Jun 2027 10:52:18.949   12 Jun 2027 10:52:20.036             1.087           149.531
       359   12 Jun 2027 10:52:40.689   12 Jun 2027 10:52:40.703             0.014             7.000
       360   12 Jun 2027 10:52:58.852   12 Jun 2027 10:53:01.572             2.720          1148.031
       361   12 Jun 2027 10:53:08.378   12 Jun 2027 10:53:09.570             1.192           212.687
       362   12 Jun 2027 10:54:21.902   12 Jun 2027 10:54:28.549             6.647          2246.844
       363   13 Jun 2027 03:12:49.833   13 Jun 2027 03:13:52.282            62.449         31224.500
       364   13 Jun 2027 03:14:50.324   13 Jun 2027 03:15:18.422            28.098         14049.000
       365   13 Jun 2027 04:36:31.870   13 Jun 2027 04:36:54.168            22.298         11149.000
       366   13 Jun 2027 04:37:10.672   13 Jun 2027 04:37:25.024            14.352          7176.000
       367   13 Jun 2027 04:38:20.319   13 Jun 2027 04:38:22.495             2.176          1088.000
       368   13 Jun 2027 04:38:47.958   13 Jun 2027 04:38:51.771             3.813          1906.500
       369   13 Jun 2027 06:12:44.716   13 Jun 2027 06:14:21.163            96.447         48223.500
       370   13 Jun 2027 06:14:55.946   13 Jun 2027 06:15:14.838            18.892          9446.000
       371   13 Jun 2027 06:16:14.291   13 Jun 2027 06:16:17.204             2.913          1456.500
       372   13 Jun 2027 07:46:17.971   13 Jun 2027 07:47:32.733            74.762         37381.000
       373   13 Jun 2027 07:48:15.662   13 Jun 2027 07:48:31.052            15.390          7695.000
       374   13 Jun 2027 07:48:33.008   13 Jun 2027 07:48:39.119             6.111          2108.344
       375   13 Jun 2027 07:51:12.982   13 Jun 2027 07:51:23.297            10.315          4745.031
       376   13 Jun 2027 07:52:17.748   13 Jun 2027 07:52:17.752             0.004             2.000
       377   13 Jun 2027 07:53:15.134   13 Jun 2027 07:53:22.108             6.974          3392.875
       378   13 Jun 2027 07:54:50.533   13 Jun 2027 07:54:51.662             1.129           564.500
       379   13 Jun 2027 09:23:49.418   13 Jun 2027 09:24:10.460            21.042          7242.437
       380   13 Jun 2027 09:24:37.968   13 Jun 2027 09:24:40.889             2.921           600.062
       381   13 Jun 2027 09:25:15.208   13 Jun 2027 09:25:17.633             2.425           780.344
       382   13 Jun 2027 09:25:42.320   13 Jun 2027 09:25:44.891             2.571           562.438
       383   13 Jun 2027 09:25:50.552   13 Jun 2027 09:25:54.154             3.602            78.469
       384   13 Jun 2027 09:26:10.550   13 Jun 2027 09:26:10.550             0.000             0.000
       385   13 Jun 2027 09:27:38.157   13 Jun 2027 09:27:51.958            13.801          3168.906
       386   13 Jun 2027 09:29:01.182   13 Jun 2027 09:29:05.584             4.402          1370.312
       387   13 Jun 2027 09:29:45.561   13 Jun 2027 09:29:50.569             5.008           853.625
       388   13 Jun 2027 09:30:11.502   13 Jun 2027 09:30:15.686             4.184           409.656
       389   13 Jun 2027 11:00:45.535   13 Jun 2027 11:01:06.487            20.952          7483.656
       390   13 Jun 2027 11:01:53.155   13 Jun 2027 11:01:57.681             4.526           913.500
       391   13 Jun 2027 11:02:12.824   13 Jun 2027 11:02:12.920             0.096            48.000
       392   13 Jun 2027 11:02:18.934   13 Jun 2027 11:02:24.604             5.670           613.156
       393   13 Jun 2027 11:03:36.999   13 Jun 2027 11:03:46.537             9.538          2006.094
       394   13 Jun 2027 11:04:16.043   13 Jun 2027 11:04:22.975             6.932           792.156
       395   13 Jun 2027 11:04:39.900   13 Jun 2027 11:04:40.909             1.009           504.500
       396   13 Jun 2027 11:05:04.913   13 Jun 2027 11:05:07.657             2.744           764.063
       397   13 Jun 2027 11:05:20.332   13 Jun 2027 11:05:22.325             1.993           333.844
       398   13 Jun 2027 11:06:04.393   13 Jun 2027 11:06:08.234             3.841          1170.094
       399   13 Jun 2027 11:06:34.295   13 Jun 2027 11:06:35.920             1.625           472.812
