uniorb/output/strategy_1/Camera/Camera_KinoSat_111207.txt

KinoSat_111207
-------------------------
    Access    *     Start Time (UTCG)     *     Stop Time (UTCG)  *   Duration (s) *   Data (Mbytes)
         1   01 Jun 2027 03:12:25.441   01 Jun 2027 03:13:55.010            89.569         44784.500
         2   01 Jun 2027 03:14:10.127   01 Jun 2027 03:14:18.940             8.813          4406.500
         3   01 Jun 2027 03:15:20.513   01 Jun 2027 03:15:21.896             1.383           691.500
         4   01 Jun 2027 03:15:46.826   01 Jun 2027 03:15:56.727             9.901          4950.500
         5   01 Jun 2027 04:36:09.591   01 Jun 2027 04:37:01.722            52.131         26065.500
         6   01 Jun 2027 04:37:57.811   01 Jun 2027 04:37:58.174             0.363           181.500
         7   01 Jun 2027 06:12:20.867   01 Jun 2027 06:14:16.271           115.404         57702.000
         8   01 Jun 2027 06:15:39.793   01 Jun 2027 06:15:51.937            12.144          6072.000
         9   01 Jun 2027 07:45:54.313   01 Jun 2027 07:47:50.914           116.601         58300.500
        10   01 Jun 2027 07:48:16.008   01 Jun 2027 07:48:24.004             7.996          3998.000
        11   01 Jun 2027 07:51:52.422   01 Jun 2027 07:51:58.036             5.614          2807.000
        12   01 Jun 2027 07:53:24.212   01 Jun 2027 07:53:24.944             0.732           366.000
        13   01 Jun 2027 07:53:27.420   01 Jun 2027 07:53:45.997            18.577          9288.500
        14   01 Jun 2027 07:54:27.233   01 Jun 2027 07:54:28.262             1.029           514.500
        15   01 Jun 2027 09:23:21.693   01 Jun 2027 09:25:05.410           103.717         51858.500
        16   01 Jun 2027 09:25:43.766   01 Jun 2027 09:25:43.766             0.000             0.000
        17   01 Jun 2027 09:27:36.622   01 Jun 2027 09:27:52.892            16.270          8135.000
        18   01 Jun 2027 09:28:38.941   01 Jun 2027 09:28:52.342            13.401          6700.500
        19   01 Jun 2027 11:00:21.542   01 Jun 2027 11:02:28.892           127.350         63675.000
        20   01 Jun 2027 11:03:47.594   01 Jun 2027 11:04:10.368            22.774         11387.000
        21   01 Jun 2027 11:04:41.089   01 Jun 2027 11:04:42.768             1.679           839.500
        22   01 Jun 2027 11:05:51.463   01 Jun 2027 11:05:55.773             4.310          2155.000
        23   02 Jun 2027 03:24:20.637   02 Jun 2027 03:26:11.324           110.687         55343.500
        24   02 Jun 2027 03:27:03.812   02 Jun 2027 03:27:06.213             2.401          1200.500
        25   02 Jun 2027 04:47:59.643   02 Jun 2027 04:48:33.218            33.575         16787.500
        26   02 Jun 2027 04:49:51.558   02 Jun 2027 04:50:11.043            19.485          9742.500
        27   02 Jun 2027 06:24:26.542   02 Jun 2027 06:26:04.779            98.237         49118.500
        28   02 Jun 2027 06:26:48.948   02 Jun 2027 06:26:51.509             2.561          1280.500
        29   02 Jun 2027 06:27:02.578   02 Jun 2027 06:27:09.802             7.224          3612.000
        30   02 Jun 2027 07:56:36.723   02 Jun 2027 07:56:45.735             9.012          4506.000
        31   02 Jun 2027 07:58:33.336   02 Jun 2027 08:00:13.418           100.082         50041.000
        32   02 Jun 2027 08:03:18.593   02 Jun 2027 08:03:36.399            17.806          8903.000
        33   02 Jun 2027 08:04:43.045   02 Jun 2027 08:05:00.129            17.084          8542.000
        34   02 Jun 2027 08:06:22.885   02 Jun 2027 08:06:23.054             0.169            84.500
        35   02 Jun 2027 09:35:31.349   02 Jun 2027 09:37:09.919            98.570         49285.000
        36   02 Jun 2027 09:37:50.856   02 Jun 2027 09:38:04.696            13.840          6920.000
        37   02 Jun 2027 09:38:21.841   02 Jun 2027 09:38:31.947            10.106          5053.000
        38   02 Jun 2027 09:38:58.142   02 Jun 2027 09:39:00.837             2.695          1347.500
        39   02 Jun 2027 09:40:47.607   02 Jun 2027 09:41:17.091            29.484         14742.000
        40   02 Jun 2027 11:12:48.596   02 Jun 2027 11:14:55.407           126.811         63405.500
        41   02 Jun 2027 11:17:29.011   02 Jun 2027 11:17:34.598             5.587          2793.500
        42   03 Jun 2027 03:37:34.012   03 Jun 2027 03:39:17.018           103.006         51503.000
        43   03 Jun 2027 05:00:07.588   03 Jun 2027 05:00:58.762            51.174         25587.000
        44   03 Jun 2027 06:36:35.702   03 Jun 2027 06:38:06.264            90.562         45281.000
        45   03 Jun 2027 06:38:43.521   03 Jun 2027 06:38:49.109             5.588          2794.000
        46   03 Jun 2027 06:39:02.692   03 Jun 2027 06:39:08.371             5.679          2839.500
        47   03 Jun 2027 08:11:46.432   03 Jun 2027 08:13:29.728           103.296         51648.000
        48   03 Jun 2027 08:14:19.027   03 Jun 2027 08:14:44.797            25.770         12885.000
        49   03 Jun 2027 08:17:03.428   03 Jun 2027 08:17:03.428             0.000             0.000
        50   03 Jun 2027 08:17:48.957   03 Jun 2027 08:18:08.247            19.290          9645.000
        51   03 Jun 2027 08:18:16.979   03 Jun 2027 08:18:26.422             9.443          4721.500
        52   03 Jun 2027 09:48:05.514   03 Jun 2027 09:49:45.039            99.525         49762.500
        53   03 Jun 2027 09:50:07.399   03 Jun 2027 09:50:12.234             4.835          2417.500
        54   03 Jun 2027 09:53:19.656   03 Jun 2027 09:53:32.258            12.602          6301.000
        55   03 Jun 2027 11:25:29.082   03 Jun 2027 11:26:00.540            31.458         15729.000
        56   03 Jun 2027 11:27:03.188   03 Jun 2027 11:27:05.646             2.458          1229.000
        57   03 Jun 2027 11:27:32.038   03 Jun 2027 11:27:35.688             3.650          1575.437
        58   03 Jun 2027 11:27:53.718   03 Jun 2027 11:27:57.266             3.548           550.437
        59   03 Jun 2027 11:28:41.617   03 Jun 2027 11:28:51.460             9.843          1210.250
        60   03 Jun 2027 11:29:32.130   03 Jun 2027 11:29:42.004             9.874          1253.406
        61   04 Jun 2027 03:48:41.313   04 Jun 2027 03:49:19.274            37.961         18980.500
        62   04 Jun 2027 03:49:48.202   04 Jun 2027 03:50:41.319            53.117         26558.500
        63   04 Jun 2027 03:51:24.880   04 Jun 2027 03:51:24.880             0.000             0.000
        64   04 Jun 2027 05:12:08.947   04 Jun 2027 05:13:19.123            70.176         35088.000
        65   04 Jun 2027 05:14:13.076   04 Jun 2027 05:14:13.076             0.000             0.000
        66   04 Jun 2027 06:48:36.815   04 Jun 2027 06:50:25.989           109.174         54587.000
        67   04 Jun 2027 06:50:54.144   04 Jun 2027 06:51:04.181            10.037          5018.500
        68   04 Jun 2027 06:51:48.884   04 Jun 2027 06:51:48.884             0.000             0.000
        69   04 Jun 2027 08:23:49.433   04 Jun 2027 08:24:35.896            46.463         23231.500
        70   04 Jun 2027 08:25:28.242   04 Jun 2027 08:25:31.878             3.636          1818.000
        71   04 Jun 2027 08:25:53.944   04 Jun 2027 08:25:59.529             5.585          2000.750
        72   04 Jun 2027 08:26:33.292   04 Jun 2027 08:26:40.113             6.821           607.219
        73   04 Jun 2027 08:26:43.402   04 Jun 2027 08:26:43.402             0.000             0.000
        74   04 Jun 2027 08:27:51.701   04 Jun 2027 08:27:56.752             5.051          2208.219
        75   04 Jun 2027 08:27:59.206   04 Jun 2027 08:28:04.553             5.347            76.687
        76   04 Jun 2027 08:28:18.197   04 Jun 2027 08:28:20.752             2.555           318.438
        77   04 Jun 2027 08:28:46.801   04 Jun 2027 08:28:47.141             0.340           170.000
        78   04 Jun 2027 08:29:14.427   04 Jun 2027 08:29:19.857             5.430          1496.719
        79   04 Jun 2027 08:29:44.739   04 Jun 2027 08:29:44.739             0.000             0.000
        80   04 Jun 2027 08:29:58.906   04 Jun 2027 08:30:00.843             1.937           968.500
        81   04 Jun 2027 08:30:09.067   04 Jun 2027 08:30:10.729             1.662           439.469
        82   04 Jun 2027 09:59:44.600   04 Jun 2027 10:00:03.118            18.518          8305.094
        83   04 Jun 2027 10:00:44.579   04 Jun 2027 10:00:51.765             7.186           881.844
        84   04 Jun 2027 10:01:49.174   04 Jun 2027 10:01:52.836             3.662           678.344
        85   04 Jun 2027 10:01:57.845   04 Jun 2027 10:02:03.445             5.600            82.875
        86   04 Jun 2027 10:02:46.629   04 Jun 2027 10:02:47.903             1.274           557.844
        87   04 Jun 2027 10:03:16.958   04 Jun 2027 10:03:20.892             3.934           868.594
        88   04 Jun 2027 10:04:09.277   04 Jun 2027 10:04:15.870             6.593          1157.750
        89   04 Jun 2027 10:04:47.138   04 Jun 2027 10:04:50.309             3.171           965.594
        90   04 Jun 2027 10:05:49.455   04 Jun 2027 10:05:53.174             3.719          1783.937
        91   04 Jun 2027 11:37:43.354   04 Jun 2027 11:38:00.876            17.522          6962.281
        92   04 Jun 2027 11:39:03.610   04 Jun 2027 11:39:05.789             2.179          1089.500
        93   04 Jun 2027 11:39:33.614   04 Jun 2027 11:39:35.281             1.667           833.500
        94   04 Jun 2027 11:39:47.065   04 Jun 2027 11:39:53.856             6.791          1275.219
        95   04 Jun 2027 11:39:58.162   04 Jun 2027 11:39:59.729             1.567            94.875
        96   04 Jun 2027 11:40:13.323   04 Jun 2027 11:40:14.274             0.951           310.344
        97   04 Jun 2027 11:40:18.628   04 Jun 2027 11:40:19.558             0.930           136.062
        98   04 Jun 2027 11:40:43.447   04 Jun 2027 11:40:45.059             1.612           571.969
        99   04 Jun 2027 11:40:53.061   04 Jun 2027 11:40:55.187             2.126           155.062
       100   04 Jun 2027 11:41:37.086   04 Jun 2027 11:41:39.317             2.231           975.625
       101   04 Jun 2027 11:41:40.856   04 Jun 2027 11:41:45.062             4.206            33.281
       102   04 Jun 2027 11:42:03.836   04 Jun 2027 11:42:03.836             0.000             0.000
       103   05 Jun 2027 03:49:42.228   05 Jun 2027 03:50:10.272            28.044         14022.000
       104   05 Jun 2027 04:00:38.601   05 Jun 2027 04:02:11.348            92.747         46373.500
       105   05 Jun 2027 04:02:47.727   05 Jun 2027 04:02:58.538            10.811          5405.500
       106   05 Jun 2027 05:24:35.369   05 Jun 2027 05:25:55.750            80.381         40190.500
       107   05 Jun 2027 07:00:20.500   05 Jun 2027 07:02:07.870           107.370         53685.000
       108   05 Jun 2027 07:02:23.737   05 Jun 2027 07:02:35.091            11.354          5677.000
       109   05 Jun 2027 07:03:37.532   05 Jun 2027 07:03:37.532             0.000             0.000
       110   05 Jun 2027 07:04:28.623   05 Jun 2027 07:04:38.119             9.496          4748.000
       111   05 Jun 2027 08:35:04.404   05 Jun 2027 08:35:24.929            20.525          8235.094
       112   05 Jun 2027 08:35:43.068   05 Jun 2027 08:35:44.746             1.678           361.906
       113   05 Jun 2027 08:37:20.921   05 Jun 2027 08:37:20.921             0.000             0.000
       114   05 Jun 2027 08:37:51.741   05 Jun 2027 08:37:58.924             7.183          3329.312
       115   05 Jun 2027 08:38:04.818   05 Jun 2027 08:38:05.958             1.140           114.875
       116   05 Jun 2027 08:38:27.663   05 Jun 2027 08:38:29.520             1.857           678.281
       117   05 Jun 2027 08:39:24.361   05 Jun 2027 08:39:36.623            12.262          1713.781
       118   05 Jun 2027 08:40:02.856   05 Jun 2027 08:40:07.349             4.493           796.219
       119   05 Jun 2027 08:40:39.147   05 Jun 2027 08:40:40.992             1.845           901.813
       120   05 Jun 2027 08:41:00.205   05 Jun 2027 08:41:00.736             0.531           265.500
       121   05 Jun 2027 08:41:55.717   05 Jun 2027 08:42:00.069             4.352          2016.375
       122   05 Jun 2027 08:42:10.826   05 Jun 2027 08:42:15.886             5.060           336.156
       123   05 Jun 2027 08:42:32.190   05 Jun 2027 08:42:32.624             0.434           210.188
       124   05 Jun 2027 10:11:53.701   05 Jun 2027 10:12:07.911            14.210          6653.438
       125   05 Jun 2027 10:12:35.402   05 Jun 2027 10:12:35.922             0.520           208.125
       126   05 Jun 2027 10:13:38.328   05 Jun 2027 10:13:45.162             6.834          1364.687
       127   05 Jun 2027 10:13:59.928   05 Jun 2027 10:14:01.120             1.192           394.875
       128   05 Jun 2027 10:14:21.747   05 Jun 2027 10:14:22.773             1.026           469.937
       129   05 Jun 2027 10:14:24.313   05 Jun 2027 10:14:25.585             1.272            48.125
       130   05 Jun 2027 10:15:01.289   05 Jun 2027 10:15:06.123             4.834          1115.750
       131   05 Jun 2027 10:15:59.861   05 Jun 2027 10:16:07.041             7.180          1546.625
       132   05 Jun 2027 10:16:48.946   05 Jun 2027 10:16:51.651             2.705          1309.531
       133   05 Jun 2027 10:17:03.225   05 Jun 2027 10:17:07.115             3.890            68.531
       134   05 Jun 2027 11:50:06.544   05 Jun 2027 11:50:20.985            14.441          7209.000
       135   05 Jun 2027 11:51:06.539   05 Jun 2027 11:51:14.582             8.043          1394.438
       136   05 Jun 2027 11:52:13.834   05 Jun 2027 11:52:16.199             2.365          1182.500
       137   05 Jun 2027 11:52:29.557   05 Jun 2027 11:52:30.451             0.894           445.656
       138   05 Jun 2027 11:52:35.750   05 Jun 2027 11:52:35.843             0.093            13.844
       139   05 Jun 2027 11:53:46.059   05 Jun 2027 11:53:48.444             2.385          1192.500
       140   06 Jun 2027 04:00:59.161   06 Jun 2027 04:01:30.250            31.089         15544.500
       141   06 Jun 2027 04:02:21.999   06 Jun 2027 04:02:24.914             2.915          1457.500
       142   06 Jun 2027 04:12:38.988   06 Jun 2027 04:13:46.314            67.326         33663.000
       143   06 Jun 2027 05:35:10.700   06 Jun 2027 05:36:11.617            60.917         30458.500
       144   06 Jun 2027 05:36:52.451   06 Jun 2027 05:37:46.913            54.462         27231.000
       145   06 Jun 2027 05:39:07.621   06 Jun 2027 05:39:15.295             7.674          3837.000
       146   06 Jun 2027 07:10:13.933   06 Jun 2027 07:11:32.910            78.977         39488.500
       147   06 Jun 2027 07:12:04.683   06 Jun 2027 07:12:33.415            28.732         14144.219
       148   06 Jun 2027 07:16:39.259   06 Jun 2027 07:16:54.512            15.253          7626.500
       149   06 Jun 2027 08:47:12.576   06 Jun 2027 08:47:26.218            13.642          5488.407
       150   06 Jun 2027 08:47:39.624   06 Jun 2027 08:47:47.329             7.705           418.938
       151   06 Jun 2027 08:48:10.527   06 Jun 2027 08:48:11.553             1.026           513.000
       152   06 Jun 2027 08:48:21.121   06 Jun 2027 08:48:25.070             3.949           359.969
       153   06 Jun 2027 08:48:38.081   06 Jun 2027 08:48:41.405             3.324           321.031
       154   06 Jun 2027 08:49:33.202   06 Jun 2027 08:49:36.756             3.554          1195.000
       155   06 Jun 2027 08:49:56.925   06 Jun 2027 08:49:59.267             2.342           607.000
       156   06 Jun 2027 08:50:04.936   06 Jun 2027 08:50:06.292             1.356            73.375
       157   06 Jun 2027 08:50:11.966   06 Jun 2027 08:50:13.765             1.799           125.750
       158   06 Jun 2027 08:50:26.385   06 Jun 2027 08:50:28.887             2.502           393.000
       159   06 Jun 2027 08:50:48.426   06 Jun 2027 08:50:51.057             2.631           610.594
       160   06 Jun 2027 08:52:11.013   06 Jun 2027 08:52:17.309             6.296          2417.594
       161   06 Jun 2027 08:52:50.241   06 Jun 2027 08:52:51.331             1.090           405.000
       162   06 Jun 2027 08:53:49.843   06 Jun 2027 08:53:55.136             5.293          1828.500
       163   06 Jun 2027 10:24:10.675   06 Jun 2027 10:24:25.653            14.978          7246.531
       164   06 Jun 2027 10:25:29.105   06 Jun 2027 10:25:34.630             5.525          1674.094
       165   06 Jun 2027 10:25:41.880   06 Jun 2027 10:25:43.314             1.434           226.563
       166   06 Jun 2027 10:25:54.323   06 Jun 2027 10:25:55.613             1.290           106.719
       167   06 Jun 2027 10:26:14.570   06 Jun 2027 10:26:17.041             2.471           586.625
       168   06 Jun 2027 10:26:49.572   06 Jun 2027 10:26:51.140             1.568           783.094
       169   06 Jun 2027 10:27:04.767   06 Jun 2027 10:27:06.656             1.889           425.844
       170   06 Jun 2027 10:27:12.411   06 Jun 2027 10:27:15.050             2.639           140.719
       171   06 Jun 2027 10:27:23.802   06 Jun 2027 10:27:31.019             7.217           273.500
       172   06 Jun 2027 10:27:38.526   06 Jun 2027 10:27:40.071             1.545           234.594
       173   06 Jun 2027 10:27:54.804   06 Jun 2027 10:27:58.551             3.747            91.250
       174   06 Jun 2027 10:28:31.524   06 Jun 2027 10:28:32.806             1.282           641.000
       175   06 Jun 2027 10:29:07.624   06 Jun 2027 10:29:15.798             8.174          1453.688
       176   06 Jun 2027 10:29:44.375   06 Jun 2027 10:29:46.722             2.347           691.656
       177   06 Jun 2027 10:30:09.918   06 Jun 2027 10:30:10.890             0.972           486.000
       178   06 Jun 2027 10:30:14.910   06 Jun 2027 10:30:16.763             1.853           244.281
       179   07 Jun 2027 04:12:20.138   07 Jun 2027 04:13:11.743            51.605         25802.500
       180   07 Jun 2027 04:13:19.123   07 Jun 2027 04:13:23.716             4.593          2296.500
       181   07 Jun 2027 04:24:36.531   07 Jun 2027 04:25:21.692            45.161         22580.500
       182   07 Jun 2027 05:46:35.120   07 Jun 2027 05:47:45.767            70.647         35323.500
       183   07 Jun 2027 05:48:52.652   07 Jun 2027 05:49:14.875            22.223         11111.500
       184   07 Jun 2027 05:51:25.818   07 Jun 2027 05:51:25.818             0.000             0.000
       185   07 Jun 2027 05:51:45.163   07 Jun 2027 05:51:53.908             8.745          4372.500
       186   07 Jun 2027 07:21:38.568   07 Jun 2027 07:23:40.485           121.917         60958.500
       187   07 Jun 2027 07:25:33.689   07 Jun 2027 07:25:37.104             3.415          1707.500
       188   07 Jun 2027 07:25:42.610   07 Jun 2027 07:25:45.649             3.039          1519.500
       189   07 Jun 2027 07:28:52.229   07 Jun 2027 07:29:04.325            12.096          6048.000
       190   07 Jun 2027 08:59:14.631   07 Jun 2027 08:59:36.338            21.707          8493.749
       191   07 Jun 2027 09:00:10.227   07 Jun 2027 09:00:12.717             2.490          1059.031
       192   07 Jun 2027 09:00:25.037   07 Jun 2027 09:00:27.734             2.697           380.281
       193   07 Jun 2027 09:02:07.417   07 Jun 2027 09:02:07.417             0.000             0.000
       194   07 Jun 2027 09:02:19.525   07 Jun 2027 09:02:24.993             5.468          1849.813
       195   07 Jun 2027 09:02:55.549   07 Jun 2027 09:02:57.580             2.031           634.281
       196   07 Jun 2027 09:03:27.699   07 Jun 2027 09:03:27.699             0.000             0.000
       197   07 Jun 2027 09:04:14.043   07 Jun 2027 09:04:18.067             4.024          1975.750
       198   07 Jun 2027 09:04:42.139   07 Jun 2027 09:04:45.502             3.363           480.594
       199   07 Jun 2027 09:06:08.075   07 Jun 2027 09:06:13.737             5.662          2446.500
       200   07 Jun 2027 10:36:00.443   07 Jun 2027 10:36:16.133            15.690          7845.000
       201   07 Jun 2027 10:36:19.291   07 Jun 2027 10:36:21.961             2.670          1067.656
       202   07 Jun 2027 10:37:17.714   07 Jun 2027 10:37:30.103            12.389          1400.375
       203   07 Jun 2027 10:38:46.034   07 Jun 2027 10:38:50.438             4.404          2076.219
       204   07 Jun 2027 10:38:54.898   07 Jun 2027 10:38:55.068             0.170            85.000
       205   07 Jun 2027 10:39:38.414   07 Jun 2027 10:39:42.041             3.627          1373.250
       206   07 Jun 2027 10:40:12.747   07 Jun 2027 10:40:14.951             2.204           315.781
       207   07 Jun 2027 10:40:17.247   07 Jun 2027 10:40:18.833             1.586            71.750
       208   07 Jun 2027 10:40:20.091   07 Jun 2027 10:40:21.069             0.978            38.625
       209   07 Jun 2027 10:40:53.322   07 Jun 2027 10:40:56.917             3.595           985.406
       210   07 Jun 2027 10:42:03.779   07 Jun 2027 10:42:06.957             3.178          1589.000
       211   07 Jun 2027 10:42:10.889   07 Jun 2027 10:42:11.619             0.730           365.000
       212   08 Jun 2027 03:00:16.576   08 Jun 2027 03:00:24.985             8.409          4204.500
       213   08 Jun 2027 03:00:25.914   08 Jun 2027 03:00:38.685            12.771          6385.500
       214   08 Jun 2027 03:01:22.202   08 Jun 2027 03:01:38.757            16.555          8277.500
       215   08 Jun 2027 03:02:45.697   08 Jun 2027 03:02:59.773            14.076          7038.000
       216   08 Jun 2027 03:03:56.394   08 Jun 2027 03:04:11.549            15.155          7577.500
       217   08 Jun 2027 04:24:27.962   08 Jun 2027 04:25:14.541            46.579         23289.500
       218   08 Jun 2027 04:36:59.901   08 Jun 2027 04:37:03.648             3.747          1873.500
       219   08 Jun 2027 05:58:17.476   08 Jun 2027 06:00:21.387           123.911         61955.500
       220   08 Jun 2027 06:03:18.140   08 Jun 2027 06:03:30.406            12.266          6133.000
       221   08 Jun 2027 07:33:09.721   08 Jun 2027 07:35:10.133           120.412         55160.281
       222   08 Jun 2027 07:36:40.611   08 Jun 2027 07:36:47.279             6.668          2633.906
       223   08 Jun 2027 07:40:14.131   08 Jun 2027 07:40:21.154             7.023          3511.500
       224   08 Jun 2027 07:41:07.634   08 Jun 2027 07:41:16.146             8.512          4256.000
       225   08 Jun 2027 07:41:52.151   08 Jun 2027 07:41:52.609             0.458           229.000
       226   08 Jun 2027 09:11:15.293   08 Jun 2027 09:11:38.369            23.076          9029.125
       227   08 Jun 2027 09:12:16.616   08 Jun 2027 09:12:19.955             3.339          1015.094
       228   08 Jun 2027 09:15:28.793   08 Jun 2027 09:15:37.047             8.254          4056.750
       229   08 Jun 2027 09:15:54.332   08 Jun 2027 09:15:58.635             4.303           540.156
       230   08 Jun 2027 09:16:14.518   08 Jun 2027 09:16:15.632             1.114            27.000
       231   08 Jun 2027 09:16:39.571   08 Jun 2027 09:16:41.237             1.666           748.094
       232   08 Jun 2027 09:16:47.167   08 Jun 2027 09:16:48.774             1.607           160.344
       233   08 Jun 2027 09:17:21.573   08 Jun 2027 09:17:26.020             4.447          1024.969
       234   08 Jun 2027 09:17:36.576   08 Jun 2027 09:17:38.692             2.116           329.875
       235   08 Jun 2027 09:18:08.925   08 Jun 2027 09:18:11.351             2.426           944.781
       236   08 Jun 2027 09:18:27.905   08 Jun 2027 09:18:29.594             1.689           453.469
       237   08 Jun 2027 10:48:09.304   08 Jun 2027 10:48:25.240            15.936          7585.875
       238   08 Jun 2027 10:48:41.661   08 Jun 2027 10:48:42.668             1.007           471.156
       239   08 Jun 2027 10:49:40.498   08 Jun 2027 10:49:53.382            12.884           871.437
       240   08 Jun 2027 10:50:27.991   08 Jun 2027 10:50:32.201             4.210            58.063
       241   08 Jun 2027 10:51:06.581   08 Jun 2027 10:51:07.675             1.094           547.000
       242   08 Jun 2027 10:52:02.330   08 Jun 2027 10:52:09.754             7.424          1883.375
       243   08 Jun 2027 10:52:24.023   08 Jun 2027 10:52:26.757             2.734           445.906
       244   08 Jun 2027 10:52:33.663   08 Jun 2027 10:52:34.491             0.828            55.563
       245   08 Jun 2027 10:53:03.412   08 Jun 2027 10:53:06.594             3.182           903.781
       246   08 Jun 2027 10:53:54.632   08 Jun 2027 10:53:58.475             3.843           926.750
       247   08 Jun 2027 10:54:00.755   08 Jun 2027 10:54:09.118             8.363            69.000
       248   08 Jun 2027 10:54:17.700   08 Jun 2027 10:54:21.089             3.389           192.531
       249   09 Jun 2027 03:12:37.440   09 Jun 2027 03:14:25.741           108.301         54150.500
       250   09 Jun 2027 03:14:42.150   09 Jun 2027 03:14:45.318             3.168          1584.000
       251   09 Jun 2027 03:15:36.493   09 Jun 2027 03:16:00.623            24.130         12065.000
       252   09 Jun 2027 04:36:24.189   09 Jun 2027 04:36:44.930            20.741         10370.500
       253   09 Jun 2027 04:37:03.438   09 Jun 2027 04:37:03.438             0.000             0.000
       254   09 Jun 2027 04:37:22.476   09 Jun 2027 04:37:39.807            17.331          8665.500
       255   09 Jun 2027 06:12:36.767   09 Jun 2027 06:14:07.331            90.564         45282.000
       256   09 Jun 2027 06:15:07.479   09 Jun 2027 06:15:07.497             0.018             9.000
       257   09 Jun 2027 07:46:10.071   09 Jun 2027 07:47:34.745            84.674         42175.406
       258   09 Jun 2027 07:48:32.763   09 Jun 2027 07:48:35.054             2.291          1145.500
       259   09 Jun 2027 07:50:45.783   09 Jun 2027 07:50:59.370            13.587          4664.719
       260   09 Jun 2027 07:51:04.056   09 Jun 2027 07:51:05.032             0.976           146.438
       261   09 Jun 2027 07:51:32.122   09 Jun 2027 07:51:34.678             2.556           846.562
       262   09 Jun 2027 07:52:09.308   09 Jun 2027 07:52:09.308             0.000             0.000
       263   09 Jun 2027 07:52:12.850   09 Jun 2027 07:52:12.850             0.000             0.000
       264   09 Jun 2027 07:53:06.791   09 Jun 2027 07:53:13.279             6.488          2878.531
       265   09 Jun 2027 07:54:42.769   09 Jun 2027 07:54:43.849             1.080           540.000
       266   09 Jun 2027 09:23:40.758   09 Jun 2027 09:24:03.699            22.941          7752.281
       267   09 Jun 2027 09:24:47.452   09 Jun 2027 09:24:50.655             3.203          1232.750
       268   09 Jun 2027 09:26:01.071   09 Jun 2027 09:26:05.342             4.271          1932.844
       269   09 Jun 2027 09:27:09.225   09 Jun 2027 09:27:13.002             3.777          1344.906
       270   09 Jun 2027 09:28:33.998   09 Jun 2027 09:28:41.470             7.472          2079.812
       271   09 Jun 2027 09:28:48.211   09 Jun 2027 09:28:48.851             0.640           209.094
       272   09 Jun 2027 09:29:49.774   09 Jun 2027 09:29:57.003             7.229          1750.156
       273   09 Jun 2027 09:29:58.799   09 Jun 2027 09:29:59.281             0.482            56.125
       274   09 Jun 2027 09:30:22.872   09 Jun 2027 09:30:25.538             2.666           719.250
       275   09 Jun 2027 11:00:37.240   09 Jun 2027 11:00:43.218             5.978          2989.000
       276   09 Jun 2027 11:00:58.359   09 Jun 2027 11:01:09.015            10.656          3918.844
       277   09 Jun 2027 11:01:44.689   09 Jun 2027 11:01:49.204             4.515           915.094
       278   09 Jun 2027 11:02:04.938   09 Jun 2027 11:02:05.587             0.649           324.500
       279   09 Jun 2027 11:02:11.370   09 Jun 2027 11:02:17.401             6.031           347.906
       280   09 Jun 2027 11:03:29.117   09 Jun 2027 11:03:38.074             8.957          1992.844
       281   09 Jun 2027 11:04:35.631   09 Jun 2027 11:04:38.930             3.299          1632.938
       282   09 Jun 2027 11:05:24.441   09 Jun 2027 11:05:26.842             2.401          1200.500
       283   09 Jun 2027 11:05:34.754   09 Jun 2027 11:05:40.995             6.241           468.969
       284   09 Jun 2027 11:05:50.527   09 Jun 2027 11:05:50.527             0.000             0.000
       285   09 Jun 2027 11:05:58.495   09 Jun 2027 11:05:59.401             0.906           451.812
       286   09 Jun 2027 11:06:25.874   09 Jun 2027 11:06:28.814             2.940           445.594
       287   10 Jun 2027 03:24:36.055   10 Jun 2027 03:26:26.917           110.862         55431.000
       288   10 Jun 2027 03:27:37.398   10 Jun 2027 03:27:47.669            10.271          5135.500
       289   10 Jun 2027 04:48:15.045   10 Jun 2027 04:48:47.628            32.583         16291.500
       290   10 Jun 2027 04:50:06.621   10 Jun 2027 04:50:06.621             0.000             0.000
       291   10 Jun 2027 06:24:41.955   10 Jun 2027 06:26:20.800            98.845         49422.500
       292   10 Jun 2027 06:26:26.489   10 Jun 2027 06:26:29.690             3.201          1600.500
       293   10 Jun 2027 06:26:45.016   10 Jun 2027 06:26:50.634             5.618          2809.000
       294   10 Jun 2027 06:27:27.542   10 Jun 2027 06:27:30.294             2.752          1376.000
       295   10 Jun 2027 07:56:50.746   10 Jun 2027 07:57:01.293            10.547          5273.500
       296   10 Jun 2027 07:58:49.009   10 Jun 2027 07:59:40.731            51.722         24484.750
       297   10 Jun 2027 08:00:32.729   10 Jun 2027 08:00:35.255             2.526          1263.000
       298   10 Jun 2027 08:00:41.702   10 Jun 2027 08:00:42.566             0.864           432.000
       299   10 Jun 2027 08:01:34.935   10 Jun 2027 08:01:34.935             0.000             0.000
       300   10 Jun 2027 08:02:08.589   10 Jun 2027 08:02:14.279             5.690          2819.625
       301   10 Jun 2027 08:02:25.757   10 Jun 2027 08:02:28.331             2.574           358.687
       302   10 Jun 2027 08:04:55.480   10 Jun 2027 08:05:07.334            11.854          4558.906
       303   10 Jun 2027 08:06:16.629   10 Jun 2027 08:06:22.851             6.222          1828.219
       304   10 Jun 2027 09:35:47.907   10 Jun 2027 09:36:04.280            16.373          7370.156
       305   10 Jun 2027 09:37:59.815   10 Jun 2027 09:38:05.442             5.627          1905.562
       306   10 Jun 2027 09:38:08.224   10 Jun 2027 09:38:10.553             2.329            86.125
       307   10 Jun 2027 09:38:37.691   10 Jun 2027 09:38:46.961             9.270           602.844
       308   10 Jun 2027 09:39:09.105   10 Jun 2027 09:39:10.415             1.310           326.938
       309   10 Jun 2027 09:39:17.067   10 Jun 2027 09:39:17.505             0.438           119.000
       310   10 Jun 2027 09:40:13.768   10 Jun 2027 09:40:18.324             4.556          1758.219
       311   10 Jun 2027 09:40:41.330   10 Jun 2027 09:40:42.949             1.619           718.938
       312   10 Jun 2027 09:40:51.654   10 Jun 2027 09:40:53.169             1.515           265.656
       313   10 Jun 2027 09:41:48.111   10 Jun 2027 09:41:51.830             3.719          1716.937
       314   10 Jun 2027 09:41:58.595   10 Jun 2027 09:41:59.290             0.695           211.406
       315   10 Jun 2027 09:42:27.984   10 Jun 2027 09:42:31.954             3.970           896.687
       316   10 Jun 2027 11:13:09.610   10 Jun 2027 11:13:22.215            12.605          6302.500
       317   10 Jun 2027 11:13:52.851   10 Jun 2027 11:13:55.610             2.759          1121.688
       318   10 Jun 2027 11:14:03.259   10 Jun 2027 11:14:07.023             3.764           211.219
       319   10 Jun 2027 11:14:49.427   10 Jun 2027 11:14:53.407             3.980          1032.875
       320   10 Jun 2027 11:14:59.709   10 Jun 2027 11:15:02.763             3.054           196.938
       321   10 Jun 2027 11:15:19.826   10 Jun 2027 11:15:28.212             8.386           533.219
       322   10 Jun 2027 11:15:53.062   10 Jun 2027 11:15:54.251             1.189           510.094
       323   10 Jun 2027 11:16:10.247   10 Jun 2027 11:16:14.687             4.440           228.781
       324   10 Jun 2027 11:16:28.341   10 Jun 2027 11:16:29.437             1.096           167.938
       325   10 Jun 2027 11:16:48.297   10 Jun 2027 11:16:54.179             5.882           550.031
       326   10 Jun 2027 11:17:32.075   10 Jun 2027 11:17:36.057             3.982          1179.719
       327   10 Jun 2027 11:17:51.596   10 Jun 2027 11:17:53.968             2.372           485.594
       328   11 Jun 2027 03:37:49.566   11 Jun 2027 03:39:33.442           103.876         51938.000
       329   11 Jun 2027 05:00:23.379   11 Jun 2027 05:01:12.878            49.499         24749.500
       330   11 Jun 2027 06:36:51.785   11 Jun 2027 06:38:47.052           115.267         57633.500
       331   11 Jun 2027 06:39:18.750   11 Jun 2027 06:39:18.750             0.000             0.000
       332   11 Jun 2027 08:12:03.013   11 Jun 2027 08:12:48.280            45.267         21942.468
       333   11 Jun 2027 08:13:16.168   11 Jun 2027 08:13:20.704             4.536           400.937
       334   11 Jun 2027 08:14:18.499   11 Jun 2027 08:14:22.584             4.085          1716.656
       335   11 Jun 2027 08:15:25.998   11 Jun 2027 08:15:29.599             3.601          1579.719
       336   11 Jun 2027 08:15:54.470   11 Jun 2027 08:15:57.888             3.418           777.219
       337   11 Jun 2027 08:16:37.086   11 Jun 2027 08:16:41.082             3.996          1224.938
       338   11 Jun 2027 08:17:05.838   11 Jun 2027 08:17:11.613             5.775           475.250
       339   11 Jun 2027 08:17:42.692   11 Jun 2027 08:17:45.426             2.734           828.375
       340   11 Jun 2027 08:18:25.188   11 Jun 2027 08:18:25.188             0.000             0.000
       341   11 Jun 2027 08:18:32.385   11 Jun 2027 08:18:34.364             1.979           824.781
       342   11 Jun 2027 09:48:21.582   11 Jun 2027 09:48:38.648            17.066          7166.219
       343   11 Jun 2027 09:50:04.855   11 Jun 2027 09:50:09.606             4.751          2252.719
       344   11 Jun 2027 09:50:33.733   11 Jun 2027 09:50:36.720             2.987           329.625
       345   11 Jun 2027 09:51:01.059   11 Jun 2027 09:51:02.505             1.446           620.969
       346   11 Jun 2027 09:51:11.508   11 Jun 2027 09:51:12.587             1.079           136.750
       347   11 Jun 2027 09:52:38.123   11 Jun 2027 09:52:45.193             7.070          2565.031
       348   11 Jun 2027 09:53:47.354   11 Jun 2027 09:53:49.726             2.372          1186.000
       349   11 Jun 2027 09:54:19.721   11 Jun 2027 09:54:24.758             5.037          1639.531
       350   11 Jun 2027 11:25:44.490   11 Jun 2027 11:26:01.628            17.138          6187.406
       351   11 Jun 2027 11:26:20.001   11 Jun 2027 11:26:20.001             0.000             0.000
       352   11 Jun 2027 11:26:48.534   11 Jun 2027 11:26:51.857             3.323          1422.688
       353   11 Jun 2027 11:26:56.408   11 Jun 2027 11:27:14.042            17.634            82.031
       354   11 Jun 2027 11:27:51.258   11 Jun 2027 11:27:56.197             4.939          1163.000
       355   11 Jun 2027 11:28:38.350   11 Jun 2027 11:28:41.604             3.254          1083.875
       356   11 Jun 2027 11:29:32.186   11 Jun 2027 11:29:38.784             6.598          1178.219
       357   11 Jun 2027 11:29:59.294   11 Jun 2027 11:29:59.294             0.000             0.000
       358   12 Jun 2027 03:48:57.549   12 Jun 2027 03:49:34.890            37.341         18670.500
       359   12 Jun 2027 03:50:03.540   12 Jun 2027 03:51:24.264            80.724         40362.000
       360   12 Jun 2027 03:51:39.436   12 Jun 2027 03:51:42.353             2.917          1458.500
       361   12 Jun 2027 05:12:24.279   12 Jun 2027 05:13:41.862            77.583         38791.500
       362   12 Jun 2027 06:48:51.390   12 Jun 2027 06:50:42.901           111.511         55755.500
       363   12 Jun 2027 08:24:04.443   12 Jun 2027 08:24:23.649            19.206          8660.062
       364   12 Jun 2027 08:25:37.287   12 Jun 2027 08:25:42.071             4.784          2301.187
       365   12 Jun 2027 08:25:54.039   12 Jun 2027 08:25:56.374             2.335           350.500
       366   12 Jun 2027 08:26:15.385   12 Jun 2027 08:26:20.740             5.355           594.094
       367   12 Jun 2027 08:26:50.088   12 Jun 2027 08:26:55.544             5.456           587.188
       368   12 Jun 2027 08:27:39.853   12 Jun 2027 08:27:42.880             3.027          1345.687
       369   12 Jun 2027 08:29:18.153   12 Jun 2027 08:29:18.153             0.000             0.000
       370   12 Jun 2027 08:29:24.845   12 Jun 2027 08:29:28.729             3.884          1942.000
       371   12 Jun 2027 08:29:40.580   12 Jun 2027 08:29:47.423             6.843           794.375
       372   12 Jun 2027 08:30:43.401   12 Jun 2027 08:30:45.575             2.174          1087.000
       373   12 Jun 2027 10:00:00.262   12 Jun 2027 10:00:20.367            20.105          8858.781
       374   12 Jun 2027 10:02:10.452   12 Jun 2027 10:02:11.775             1.323           661.500
       375   12 Jun 2027 10:02:43.700   12 Jun 2027 10:02:50.039             6.339          2762.219
       376   12 Jun 2027 10:03:10.374   12 Jun 2027 10:03:12.604             2.230           513.312
       377   12 Jun 2027 10:03:47.477   12 Jun 2027 10:03:49.697             2.220          1089.781
       378   12 Jun 2027 10:04:07.033   12 Jun 2027 10:04:07.033             0.000             0.000
       379   12 Jun 2027 10:04:46.025   12 Jun 2027 10:04:50.356             4.331          1760.250
       380   12 Jun 2027 10:06:02.150   12 Jun 2027 10:06:04.586             2.436          1218.000
       381   12 Jun 2027 10:06:17.568   12 Jun 2027 10:06:19.551             1.983           991.500
       382   12 Jun 2027 11:37:58.663   12 Jun 2027 11:38:16.853            18.190          9086.187
       383   12 Jun 2027 11:38:54.637   12 Jun 2027 11:38:58.713             4.076          1130.094
       384   12 Jun 2027 11:40:30.262   12 Jun 2027 11:40:34.999             4.737          2364.562
       385   12 Jun 2027 11:41:05.904   12 Jun 2027 11:41:08.361             2.457           915.906
       386   12 Jun 2027 11:41:54.746   12 Jun 2027 11:41:55.496             0.750           375.000
       387   12 Jun 2027 11:42:00.084   12 Jun 2027 11:42:06.245             6.161          1178.937
       388   13 Jun 2027 03:49:56.303   13 Jun 2027 03:50:26.249            29.946         14973.000
       389   13 Jun 2027 04:00:54.140   13 Jun 2027 04:02:38.934           104.794         52397.000
       390   13 Jun 2027 05:24:50.428   13 Jun 2027 05:25:41.884            51.456         25728.000
       391   13 Jun 2027 05:25:59.234   13 Jun 2027 05:26:05.995             6.761          3380.500
       392   13 Jun 2027 05:27:28.977   13 Jun 2027 05:27:28.977             0.000             0.000
       393   13 Jun 2027 05:27:43.969   13 Jun 2027 05:27:44.373             0.404           202.000
       394   13 Jun 2027 07:00:36.211   13 Jun 2027 07:01:09.004            32.793         16396.500
       395   13 Jun 2027 07:02:27.344   13 Jun 2027 07:03:32.441            65.097         32548.500
       396   13 Jun 2027 07:04:21.901   13 Jun 2027 07:04:46.509            24.608         12304.000
       397   13 Jun 2027 08:35:20.160   13 Jun 2027 08:35:49.412            29.252         14463.968
       398   13 Jun 2027 08:36:22.647   13 Jun 2027 08:36:25.632             2.985          1038.594
       399   13 Jun 2027 08:38:39.451   13 Jun 2027 08:38:39.451             0.000             0.000
       400   13 Jun 2027 08:38:47.148   13 Jun 2027 08:38:51.133             3.985          1992.500
       401   13 Jun 2027 08:39:11.382   13 Jun 2027 08:39:14.745             3.363           807.250
       402   13 Jun 2027 08:40:53.708   13 Jun 2027 08:41:02.283             8.575          2898.531
       403   13 Jun 2027 08:41:20.537   13 Jun 2027 08:41:21.832             1.295           570.438
       404   13 Jun 2027 08:41:55.839   13 Jun 2027 08:41:58.342             2.503          1062.719
       405   13 Jun 2027 08:42:26.163   13 Jun 2027 08:42:31.401             5.238           859.844
       406   13 Jun 2027 08:42:46.835   13 Jun 2027 08:42:48.513             1.678           193.344
       407   13 Jun 2027 10:12:09.884   13 Jun 2027 10:12:26.828            16.944          7335.125
       408   13 Jun 2027 10:13:53.657   13 Jun 2027 10:13:56.196             2.539          1269.500
       409   13 Jun 2027 10:14:24.183   13 Jun 2027 10:14:26.014             1.831           900.437
       410   13 Jun 2027 10:14:39.142   13 Jun 2027 10:14:40.808             1.666            27.094
       411   13 Jun 2027 10:15:16.639   13 Jun 2027 10:15:21.244             4.605          1119.719
       412   13 Jun 2027 10:16:16.201   13 Jun 2027 10:16:21.939             5.738          1543.000
       413   13 Jun 2027 10:17:04.686   13 Jun 2027 10:17:07.977             3.291          1335.844
       414   13 Jun 2027 10:17:36.624   13 Jun 2027 10:17:40.300             3.676           895.219
       415   13 Jun 2027 10:17:46.505   13 Jun 2027 10:17:52.501             5.996            78.844
       416   13 Jun 2027 10:18:05.283   13 Jun 2027 10:18:06.327             1.044            37.813
       417   13 Jun 2027 11:50:21.313   13 Jun 2027 11:50:31.858            10.545          5272.500
       418   13 Jun 2027 11:50:42.567   13 Jun 2027 11:50:44.114             1.547           773.500
       419   13 Jun 2027 11:51:16.365   13 Jun 2027 11:51:19.544             3.179          1254.187
       420   13 Jun 2027 11:51:56.164   13 Jun 2027 11:51:57.386             1.222           611.000
       421   13 Jun 2027 11:52:50.003   13 Jun 2027 11:53:01.325            11.322          2177.656
       422   13 Jun 2027 11:54:01.084   13 Jun 2027 11:54:03.906             2.822          1381.594
