uniorb/output/strategy_1/Camera/Camera_KinoSat_111809.txt

KinoSat_111809
-------------------------
    Access    *     Start Time (UTCG)     *     Stop Time (UTCG)  *   Duration (s) *   Data (Mbytes)
         1   01 Jun 2027 04:04:20.417   01 Jun 2027 04:05:14.251            53.834         26917.000
         2   01 Jun 2027 04:05:23.607   01 Jun 2027 04:06:05.323            41.716         20858.000
         3   01 Jun 2027 04:06:05.879   01 Jun 2027 04:06:50.988            45.109         22554.500
         4   01 Jun 2027 04:07:16.458   01 Jun 2027 04:07:19.259             2.801          1400.500
         5   01 Jun 2027 04:07:52.285   01 Jun 2027 04:07:54.607             2.322          1161.000
         6   01 Jun 2027 05:42:45.655   01 Jun 2027 05:44:28.535           102.880         51440.000
         7   01 Jun 2027 05:45:41.945   01 Jun 2027 05:46:02.863            20.918         10459.000
         8   01 Jun 2027 05:46:36.279   01 Jun 2027 05:46:36.279             0.000             0.000
         9   01 Jun 2027 07:06:12.172   01 Jun 2027 07:07:45.395            93.223         46611.500
        10   01 Jun 2027 07:07:52.272   01 Jun 2027 07:08:11.282            19.010          9505.000
        11   01 Jun 2027 08:42:25.380   01 Jun 2027 08:44:27.937           122.557         61278.500
        12   01 Jun 2027 10:15:58.575   01 Jun 2027 10:17:37.753            99.178         49589.000
        13   01 Jun 2027 10:23:34.345   01 Jun 2027 10:24:24.652            50.307         25153.500
        14   01 Jun 2027 11:53:31.096   01 Jun 2027 11:55:23.936           112.840         56420.000
        15   01 Jun 2027 11:57:32.669   01 Jun 2027 11:57:34.446             1.777           888.500
        16   02 Jun 2027 04:16:21.356   02 Jun 2027 04:16:49.491            28.135         14067.500
        17   02 Jun 2027 04:16:51.841   02 Jun 2027 04:18:18.872            87.031         43515.500
        18   02 Jun 2027 04:20:10.026   02 Jun 2027 04:20:12.677             2.651          1325.500
        19   02 Jun 2027 04:20:34.056   02 Jun 2027 04:20:37.372             3.316          1658.000
        20   02 Jun 2027 05:54:24.338   02 Jun 2027 05:56:22.433           118.095         59047.500
        21   02 Jun 2027 05:57:23.563   02 Jun 2027 05:57:40.532            16.969          8484.500
        22   02 Jun 2027 07:18:03.450   02 Jun 2027 07:20:02.190           118.740         59370.000
        23   02 Jun 2027 08:54:30.610   02 Jun 2027 08:55:04.867            34.257         17128.500
        24   02 Jun 2027 10:26:39.057   02 Jun 2027 10:26:48.952             9.895          4947.500
        25   02 Jun 2027 10:28:37.626   02 Jun 2027 10:30:26.785           109.159         54579.500
        26   02 Jun 2027 10:32:48.370   02 Jun 2027 10:33:40.365            51.995         25997.500
        27   02 Jun 2027 10:35:25.097   02 Jun 2027 10:35:25.269             0.172            86.000
        28   02 Jun 2027 10:35:28.646   02 Jun 2027 10:35:47.625            18.979          9489.500
        29   02 Jun 2027 10:36:02.049   02 Jun 2027 10:36:11.609             9.560          4780.000
        30   02 Jun 2027 10:36:27.386   02 Jun 2027 10:36:29.426             2.040          1020.000
        31   03 Jun 2027 04:28:29.551   03 Jun 2027 04:29:29.928            60.377         30188.500
        32   03 Jun 2027 04:29:38.595   03 Jun 2027 04:29:50.989            12.394          6197.000
        33   03 Jun 2027 04:30:20.761   03 Jun 2027 04:30:37.821            17.060          8530.000
        34   03 Jun 2027 04:33:07.168   03 Jun 2027 04:33:26.148            18.980          9490.000
        35   03 Jun 2027 04:34:05.981   03 Jun 2027 04:34:10.301             4.320          2160.000
        36   03 Jun 2027 06:07:37.786   03 Jun 2027 06:09:01.897            84.111         42055.500
        37   03 Jun 2027 06:09:12.073   03 Jun 2027 06:09:18.519             6.446          3223.000
        38   03 Jun 2027 07:30:11.907   03 Jun 2027 07:32:32.675           140.768         70384.000
        39   03 Jun 2027 09:06:40.744   03 Jun 2027 09:07:00.067            19.323          9661.500
        40   03 Jun 2027 09:07:42.074   03 Jun 2027 09:08:54.009            71.935         35967.500
        41   03 Jun 2027 09:09:03.270   03 Jun 2027 09:09:15.039            11.769          5884.500
        42   03 Jun 2027 10:41:51.941   03 Jun 2027 10:42:58.022            66.081         33040.500
        43   03 Jun 2027 10:48:21.614   03 Jun 2027 10:48:31.339             9.725          4862.500
        44   04 Jun 2027 03:02:17.770   04 Jun 2027 03:02:34.616            16.846          8423.000
        45   04 Jun 2027 03:03:00.490   04 Jun 2027 03:03:38.637            38.147         19073.500
        46   04 Jun 2027 03:04:05.268   04 Jun 2027 03:04:11.697             6.429          3214.500
        47   04 Jun 2027 03:07:19.963   04 Jun 2027 03:07:30.334            10.371          5185.500
        48   04 Jun 2027 03:08:02.615   04 Jun 2027 03:08:03.341             0.726           363.000
        49   04 Jun 2027 03:08:14.932   04 Jun 2027 03:08:34.056            19.124          9562.000
        50   04 Jun 2027 03:08:51.666   04 Jun 2027 03:08:56.979             5.313          2656.500
        51   04 Jun 2027 04:40:34.332   04 Jun 2027 04:40:49.796            15.464          7732.000
        52   04 Jun 2027 04:41:36.910   04 Jun 2027 04:42:08.712            31.802         15901.000
        53   04 Jun 2027 04:42:34.620   04 Jun 2027 04:42:56.946            22.326         11163.000
        54   04 Jun 2027 04:43:20.685   04 Jun 2027 04:43:40.134            19.449          9724.500
        55   04 Jun 2027 04:45:49.007   04 Jun 2027 04:45:51.176             2.169          1084.500
        56   04 Jun 2027 04:48:50.234   04 Jun 2027 04:49:09.267            19.033          9516.500
        57   04 Jun 2027 06:18:45.686   04 Jun 2027 06:19:23.340            37.654         18827.000
        58   04 Jun 2027 06:19:53.356   04 Jun 2027 06:20:31.730            38.374         19187.000
        59   04 Jun 2027 06:21:00.905   04 Jun 2027 06:21:27.568            26.663         13331.500
        60   04 Jun 2027 07:42:54.636   04 Jun 2027 07:44:34.227            99.591         46260.812
        61   04 Jun 2027 07:44:59.240   04 Jun 2027 07:45:00.811             1.571           401.188
        62   04 Jun 2027 09:18:38.855   04 Jun 2027 09:18:53.314            14.459          6511.969
        63   04 Jun 2027 10:53:42.566   04 Jun 2027 10:54:04.291            21.725         10862.500
        64   04 Jun 2027 10:56:42.535   04 Jun 2027 10:56:46.899             4.364          2182.000
        65   04 Jun 2027 11:00:13.759   04 Jun 2027 11:00:33.682            19.923          9622.969
        66   05 Jun 2027 03:14:47.752   05 Jun 2027 03:16:17.388            89.636         44818.000
        67   05 Jun 2027 03:18:24.771   05 Jun 2027 03:18:28.200             3.429          1714.500
        68   05 Jun 2027 03:19:52.474   05 Jun 2027 03:19:59.727             7.253          3626.500
        69   05 Jun 2027 03:20:13.896   05 Jun 2027 03:20:15.315             1.419           709.500
        70   05 Jun 2027 03:20:30.971   05 Jun 2027 03:20:32.764             1.793           896.500
        71   05 Jun 2027 04:53:39.846   05 Jun 2027 04:54:28.107            48.261         24130.500
        72   05 Jun 2027 04:54:43.806   05 Jun 2027 04:55:03.388            19.582          9791.000
        73   05 Jun 2027 04:55:50.917   05 Jun 2027 04:56:03.070            12.153          6076.500
        74   05 Jun 2027 04:56:45.901   05 Jun 2027 04:56:52.503             6.602          3301.000
        75   05 Jun 2027 04:57:08.741   05 Jun 2027 04:57:12.568             3.827          1913.500
        76   05 Jun 2027 04:57:22.381   05 Jun 2027 04:57:28.484             6.103          3051.500
        77   05 Jun 2027 04:58:12.024   05 Jun 2027 04:58:12.024             0.000             0.000
        78   05 Jun 2027 04:59:49.220   05 Jun 2027 04:59:57.047             7.827          3913.500
        79   05 Jun 2027 05:00:01.274   05 Jun 2027 05:00:03.053             1.779           889.500
        80   05 Jun 2027 05:01:13.606   05 Jun 2027 05:01:24.476            10.870          5435.000
        81   05 Jun 2027 06:19:44.023   05 Jun 2027 06:20:15.431            31.408         15704.000
        82   05 Jun 2027 06:30:42.029   05 Jun 2027 06:31:28.537            46.508         23254.000
        83   05 Jun 2027 06:31:44.456   05 Jun 2027 06:31:48.497             4.041          2020.500
        84   05 Jun 2027 06:32:20.181   05 Jun 2027 06:32:25.272             5.091          2545.500
        85   05 Jun 2027 07:54:01.101   05 Jun 2027 07:54:59.257            58.156         29078.000
        86   05 Jun 2027 07:57:05.318   05 Jun 2027 07:57:19.941            14.623          5901.062
        87   05 Jun 2027 09:29:16.254   05 Jun 2027 09:29:18.774             2.520          1260.000
        88   05 Jun 2027 09:30:23.629   05 Jun 2027 09:30:37.578            13.949          4108.875
        89   05 Jun 2027 09:30:44.565   05 Jun 2027 09:30:47.527             2.962           162.406
        90   05 Jun 2027 09:32:21.548   05 Jun 2027 09:32:28.654             7.106          2851.125
        91   05 Jun 2027 09:33:40.464   05 Jun 2027 09:33:50.492            10.028          1962.188
        92   05 Jun 2027 09:34:40.195   05 Jun 2027 09:34:40.195             0.000             0.000
        93   05 Jun 2027 11:12:03.088   05 Jun 2027 11:12:40.087            36.999         17510.938
        94   06 Jun 2027 03:27:02.581   06 Jun 2027 03:29:05.024           122.443         61221.500
        95   06 Jun 2027 03:32:46.683   06 Jun 2027 03:32:46.683             0.000             0.000
        96   06 Jun 2027 05:06:05.855   06 Jun 2027 05:07:23.681            77.826         38913.000
        97   06 Jun 2027 05:07:52.448   06 Jun 2027 05:08:14.212            21.764         10882.000
        98   06 Jun 2027 05:11:34.171   06 Jun 2027 05:11:34.171             0.000             0.000
        99   06 Jun 2027 05:11:44.777   06 Jun 2027 05:11:59.684            14.907          7453.500
       100   06 Jun 2027 05:12:53.173   06 Jun 2027 05:13:17.617            24.444         12222.000
       101   06 Jun 2027 06:31:03.359   06 Jun 2027 06:32:13.688            70.329         35164.500
       102   06 Jun 2027 06:42:44.302   06 Jun 2027 06:43:16.890            32.588         16294.000
       103   06 Jun 2027 08:04:59.224   06 Jun 2027 08:05:28.165            28.941         14461.188
       104   06 Jun 2027 08:08:36.093   06 Jun 2027 08:08:50.344            14.251          5631.750
       105   06 Jun 2027 08:09:08.406   06 Jun 2027 08:09:10.854             2.448           564.438
       106   06 Jun 2027 08:09:50.758   06 Jun 2027 08:09:53.774             3.016          1132.625
       107   06 Jun 2027 08:09:58.623   06 Jun 2027 08:10:00.986             2.363           151.531
       108   06 Jun 2027 09:40:32.232   06 Jun 2027 09:40:45.194            12.962          6439.344
       109   06 Jun 2027 09:43:02.189   06 Jun 2027 09:43:11.283             9.094          3785.594
       110   06 Jun 2027 09:43:22.638   06 Jun 2027 09:43:25.794             3.156           262.906
       111   06 Jun 2027 09:44:13.079   06 Jun 2027 09:44:17.216             4.137          1441.344
       112   06 Jun 2027 09:44:34.522   06 Jun 2027 09:44:36.405             1.883           540.813
       113   06 Jun 2027 11:17:16.650   06 Jun 2027 11:17:18.741             2.091          1045.500
       114   06 Jun 2027 11:18:29.802   06 Jun 2027 11:18:47.338            17.536          8446.031
       115   06 Jun 2027 11:20:26.887   06 Jun 2027 11:20:29.943             3.056          1528.000
       116   06 Jun 2027 11:22:20.562   06 Jun 2027 11:22:29.124             8.562          3797.594
       117   06 Jun 2027 11:22:44.208   06 Jun 2027 11:22:56.621            12.413           346.562
       118   06 Jun 2027 11:23:29.908   06 Jun 2027 11:23:35.230             5.322           487.312
       119   06 Jun 2027 11:23:55.852   06 Jun 2027 11:23:59.607             3.755           644.438
       120   07 Jun 2027 03:39:20.384   07 Jun 2027 03:41:21.641           121.257         60628.500
       121   07 Jun 2027 03:42:12.042   07 Jun 2027 03:42:18.851             6.809          3404.500
       122   07 Jun 2027 03:43:15.011   07 Jun 2027 03:43:20.616             5.605          2802.500
       123   07 Jun 2027 03:44:39.673   07 Jun 2027 03:44:44.328             4.655          2327.500
       124   07 Jun 2027 05:18:21.122   07 Jun 2027 05:19:49.507            88.385         44192.500
       125   07 Jun 2027 05:21:23.141   07 Jun 2027 05:21:41.630            18.489          9244.500
       126   07 Jun 2027 05:23:12.922   07 Jun 2027 05:23:27.771            14.849          7424.500
       127   07 Jun 2027 05:25:06.762   07 Jun 2027 05:25:21.140            14.378          7189.000
       128   07 Jun 2027 06:42:27.518   07 Jun 2027 06:43:38.682            71.164         35582.000
       129   07 Jun 2027 06:54:41.368   07 Jun 2027 06:55:12.092            30.724         13615.813
       130   07 Jun 2027 08:16:43.125   07 Jun 2027 08:17:05.190            22.065         11032.500
       131   07 Jun 2027 08:17:37.580   07 Jun 2027 08:17:45.858             8.278          2906.750
       132   07 Jun 2027 08:19:28.868   07 Jun 2027 08:19:34.486             5.618          2809.000
       133   07 Jun 2027 08:19:49.432   07 Jun 2027 08:19:54.984             5.552           694.406
       134   07 Jun 2027 08:20:25.027   07 Jun 2027 08:20:25.391             0.364           182.000
       135   07 Jun 2027 09:51:37.104   07 Jun 2027 09:51:54.242            17.138          4997.813
       136   07 Jun 2027 09:52:30.608   07 Jun 2027 09:52:34.879             4.271          1085.625
       137   07 Jun 2027 09:54:59.574   07 Jun 2027 09:55:02.316             2.742          1371.000
       138   07 Jun 2027 09:58:36.800   07 Jun 2027 09:58:36.800             0.000             0.000
       139   07 Jun 2027 09:59:51.609   07 Jun 2027 10:00:11.454            19.845          9922.500
       140   07 Jun 2027 11:31:16.794   07 Jun 2027 11:31:39.739            22.945         11222.375
       141   07 Jun 2027 11:32:11.192   07 Jun 2027 11:32:18.294             7.102           706.813
       142   07 Jun 2027 11:35:27.326   07 Jun 2027 11:35:39.577            12.251          5801.406
       143   07 Jun 2027 11:35:45.826   07 Jun 2027 11:35:47.087             1.261           162.500
       144   07 Jun 2027 11:36:12.792   07 Jun 2027 11:36:15.797             3.005           803.281
       145   08 Jun 2027 03:52:06.425   08 Jun 2027 03:52:31.163            24.738         12369.000
       146   08 Jun 2027 03:52:33.807   08 Jun 2027 03:53:36.853            63.046         31523.000
       147   08 Jun 2027 03:56:11.577   08 Jun 2027 03:56:35.701            24.124         12062.000
       148   08 Jun 2027 05:30:29.008   08 Jun 2027 05:32:13.491           104.483         52241.500
       149   08 Jun 2027 05:32:37.760   08 Jun 2027 05:32:43.259             5.499          2749.500
       150   08 Jun 2027 05:34:36.301   08 Jun 2027 05:34:52.294            15.993          7996.500
       151   08 Jun 2027 06:54:33.348   08 Jun 2027 06:56:09.266            95.918         47959.000
       152   08 Jun 2027 08:28:20.323   08 Jun 2027 08:28:45.827            25.504         10847.062
       153   08 Jun 2027 08:30:26.865   08 Jun 2027 08:30:32.625             5.760          2764.375
       154   08 Jun 2027 08:31:14.007   08 Jun 2027 08:31:16.647             2.640          1253.750
       155   08 Jun 2027 08:31:57.839   08 Jun 2027 08:32:00.821             2.982          1197.469
       156   08 Jun 2027 10:03:12.356   08 Jun 2027 10:03:19.057             6.701          3350.500
       157   08 Jun 2027 10:04:09.822   08 Jun 2027 10:04:17.383             7.561          2726.781
       158   08 Jun 2027 10:05:42.876   08 Jun 2027 10:05:45.584             2.708           834.781
       159   08 Jun 2027 10:09:08.046   08 Jun 2027 10:09:20.391            12.345          5780.312
       160   08 Jun 2027 10:12:13.807   08 Jun 2027 10:12:27.054            13.247          5276.875
       161   08 Jun 2027 11:41:22.238   08 Jun 2027 11:41:40.304            18.066          7112.000
       162   08 Jun 2027 11:41:54.560   08 Jun 2027 11:41:58.909             4.349           235.313
       163   08 Jun 2027 11:45:59.549   08 Jun 2027 11:46:14.091            14.542          7271.000
       164   08 Jun 2027 11:46:54.172   08 Jun 2027 11:47:08.085            13.913          1442.938
       165   08 Jun 2027 11:47:30.245   08 Jun 2027 11:47:30.245             0.000             0.000
       166   08 Jun 2027 11:48:02.689   08 Jun 2027 11:48:07.549             4.860          1359.188
       167   09 Jun 2027 04:04:40.821   09 Jun 2027 04:05:09.945            29.124         14562.000
       168   09 Jun 2027 04:05:40.448   09 Jun 2027 04:06:22.702            42.254         21127.000
       169   09 Jun 2027 04:06:23.329   09 Jun 2027 04:07:13.206            49.877         24938.500
       170   09 Jun 2027 04:09:03.432   09 Jun 2027 04:09:04.368             0.936           468.000
       171   09 Jun 2027 05:43:03.161   09 Jun 2027 05:43:41.556            38.395         19197.500
       172   09 Jun 2027 05:44:03.767   09 Jun 2027 05:45:13.770            70.003         35001.500
       173   09 Jun 2027 05:46:20.491   09 Jun 2027 05:46:20.491             0.000             0.000
       174   09 Jun 2027 05:47:17.135   09 Jun 2027 05:47:35.829            18.694          9347.000
       175   09 Jun 2027 07:06:28.504   09 Jun 2027 07:07:52.777            84.273         42136.500
       176   09 Jun 2027 07:08:48.200   09 Jun 2027 07:08:50.730             2.530          1265.000
       177   09 Jun 2027 08:42:44.204   09 Jun 2027 08:43:08.492            24.288         12144.000
       178   09 Jun 2027 08:43:17.451   09 Jun 2027 08:43:18.146             0.695           347.500
       179   09 Jun 2027 08:43:25.140   09 Jun 2027 08:43:30.792             5.652          1391.750
       180   09 Jun 2027 08:45:33.173   09 Jun 2027 08:45:40.138             6.965          3360.312
       181   09 Jun 2027 10:16:16.560   09 Jun 2027 10:16:25.685             9.125          3714.031
       182   09 Jun 2027 10:18:13.913   09 Jun 2027 10:18:17.867             3.954          1777.719
       183   09 Jun 2027 10:21:07.360   09 Jun 2027 10:21:07.360             0.000             0.000
       184   09 Jun 2027 10:22:10.977   09 Jun 2027 10:22:13.584             2.607          1303.500
       185   09 Jun 2027 10:23:48.505   09 Jun 2027 10:24:06.405            17.900          8379.906
       186   09 Jun 2027 10:24:25.579   09 Jun 2027 10:24:26.532             0.953           472.875
       187   09 Jun 2027 10:24:48.805   09 Jun 2027 10:24:49.751             0.946           473.000
       188   09 Jun 2027 11:53:48.951   09 Jun 2027 11:54:05.567            16.616          7676.000
       189   09 Jun 2027 11:55:52.833   09 Jun 2027 11:55:57.217             4.384          2127.219
       190   09 Jun 2027 11:57:37.617   09 Jun 2027 11:57:45.737             8.120          3137.500
       191   09 Jun 2027 11:57:56.598   09 Jun 2027 11:57:58.223             1.625           217.313
       192   09 Jun 2027 11:58:46.102   09 Jun 2027 11:58:47.440             1.338           669.000
       193   09 Jun 2027 11:59:41.204   09 Jun 2027 11:59:47.627             6.423          2288.594
       194   10 Jun 2027 04:16:38.695   10 Jun 2027 04:16:45.828             7.133          3566.500
       195   10 Jun 2027 04:16:54.548   10 Jun 2027 04:18:33.314            98.766         49383.000
       196   10 Jun 2027 04:20:21.510   10 Jun 2027 04:20:23.034             1.524           762.000
       197   10 Jun 2027 04:22:03.960   10 Jun 2027 04:22:17.085            13.125          6562.500
       198   10 Jun 2027 05:54:42.113   10 Jun 2027 05:56:57.731           135.618         67809.000
       199   10 Jun 2027 05:57:11.221   10 Jun 2027 05:57:15.030             3.809          1904.500
       200   10 Jun 2027 07:18:20.394   10 Jun 2027 07:20:02.368           101.974         50579.438
       201   10 Jun 2027 07:20:19.572   10 Jun 2027 07:20:19.572             0.000             0.000
       202   10 Jun 2027 08:54:48.338   10 Jun 2027 08:55:14.205            25.867         10523.625
       203   10 Jun 2027 08:55:36.101   10 Jun 2027 08:55:38.005             1.904           451.719
       204   10 Jun 2027 08:57:33.180   10 Jun 2027 08:57:42.981             9.801          3580.344
       205   10 Jun 2027 10:29:17.375   10 Jun 2027 10:29:35.823            18.448          7605.094
       206   10 Jun 2027 10:33:05.874   10 Jun 2027 10:33:05.874             0.000             0.000
       207   10 Jun 2027 10:33:56.007   10 Jun 2027 10:34:09.627            13.620          6022.188
       208   10 Jun 2027 10:34:53.883   10 Jun 2027 10:34:59.115             5.232          1383.000
       209   10 Jun 2027 10:35:22.397   10 Jun 2027 10:35:27.489             5.092           727.563
       210   10 Jun 2027 10:35:48.819   10 Jun 2027 10:35:50.180             1.361           486.687
       211   10 Jun 2027 10:36:10.326   10 Jun 2027 10:36:14.482             4.156           614.063
       212   11 Jun 2027 04:28:47.172   11 Jun 2027 04:29:46.835            59.663         29831.500
       213   11 Jun 2027 04:29:56.409   11 Jun 2027 04:30:35.754            39.345         19672.500
       214   11 Jun 2027 04:32:43.851   11 Jun 2027 04:32:59.468            15.617          7808.500
       215   11 Jun 2027 04:34:04.146   11 Jun 2027 04:34:05.654             1.508           754.000
       216   11 Jun 2027 06:07:06.314   11 Jun 2027 06:07:34.849            28.535         14267.500
       217   11 Jun 2027 06:07:54.861   11 Jun 2027 06:09:17.884            83.023         41511.500
       218   11 Jun 2027 06:10:24.802   11 Jun 2027 06:10:35.356            10.554          5277.000
       219   11 Jun 2027 07:30:29.151   11 Jun 2027 07:31:45.853            76.702         38351.000
       220   11 Jun 2027 07:32:50.686   11 Jun 2027 07:33:06.485            15.799          7899.500
       221   11 Jun 2027 09:06:59.278   11 Jun 2027 09:07:16.759            17.481          7136.938
       222   11 Jun 2027 10:42:33.563   11 Jun 2027 10:42:33.563             0.000             0.000
       223   11 Jun 2027 10:43:17.865   11 Jun 2027 10:43:45.528            27.663         12911.656
       224   11 Jun 2027 10:44:37.430   11 Jun 2027 10:44:48.232            10.802          1604.687
       225   11 Jun 2027 10:45:43.702   11 Jun 2027 10:45:47.193             3.491          1733.437
       226   11 Jun 2027 10:48:18.025   11 Jun 2027 10:48:18.025             0.000             0.000
       227   11 Jun 2027 10:48:23.607   11 Jun 2027 10:48:33.453             9.846          4637.656
       228   11 Jun 2027 10:48:40.101   11 Jun 2027 10:48:43.885             3.784           207.750
       229   12 Jun 2027 03:02:35.745   12 Jun 2027 03:02:49.914            14.169          7084.500
       230   12 Jun 2027 03:03:15.660   12 Jun 2027 03:04:00.744            45.084         22542.000
       231   12 Jun 2027 03:05:51.685   12 Jun 2027 03:05:56.380             4.695          2347.500
       232   12 Jun 2027 03:06:48.165   12 Jun 2027 03:06:52.242             4.077          2038.500
       233   12 Jun 2027 03:08:17.284   12 Jun 2027 03:08:49.077            31.793         15896.500
       234   12 Jun 2027 04:40:52.221   12 Jun 2027 04:41:03.976            11.755          5877.500
       235   12 Jun 2027 04:41:54.229   12 Jun 2027 04:42:48.322            54.093         27046.500
       236   12 Jun 2027 04:43:15.240   12 Jun 2027 04:43:25.059             9.819          4909.500
       237   12 Jun 2027 04:44:27.659   12 Jun 2027 04:44:41.989            14.330          7165.000
       238   12 Jun 2027 04:46:14.550   12 Jun 2027 04:46:14.707             0.157            78.500
       239   12 Jun 2027 04:46:24.164   12 Jun 2027 04:46:31.458             7.294          3647.000
       240   12 Jun 2027 04:46:55.549   12 Jun 2027 04:46:56.869             1.320           660.000
       241   12 Jun 2027 04:49:01.165   12 Jun 2027 04:49:25.420            24.255         12127.500
       242   12 Jun 2027 06:19:02.934   12 Jun 2027 06:19:41.274            38.340         19170.000
       243   12 Jun 2027 06:20:09.922   12 Jun 2027 06:20:42.236            32.314         16157.000
       244   12 Jun 2027 06:21:47.674   12 Jun 2027 06:21:55.946             8.272          4136.000
       245   12 Jun 2027 06:22:26.871   12 Jun 2027 06:22:28.335             1.464           732.000
       246   12 Jun 2027 07:43:09.579   12 Jun 2027 07:44:21.778            72.199         35536.595
       247   12 Jun 2027 09:18:55.069   12 Jun 2027 09:19:09.825            14.756          7161.938
       248   12 Jun 2027 09:21:31.370   12 Jun 2027 09:21:41.687            10.317          4423.281
       249   12 Jun 2027 10:54:20.251   12 Jun 2027 10:54:42.708            22.457          6105.688
       250   12 Jun 2027 10:55:22.267   12 Jun 2027 10:55:25.278             3.011           451.688
       251   12 Jun 2027 10:55:33.980   12 Jun 2027 10:55:40.169             6.189           271.938
       252   12 Jun 2027 10:56:46.141   12 Jun 2027 10:56:53.479             7.338          1995.750
       253   12 Jun 2027 11:00:30.404   12 Jun 2027 11:00:43.597            13.193          6580.562
       254   12 Jun 2027 11:00:50.286   12 Jun 2027 11:00:52.293             2.007            19.375
       255   13 Jun 2027 03:15:11.985   13 Jun 2027 03:16:23.212            71.227         35613.500
       256   13 Jun 2027 03:19:00.089   13 Jun 2027 03:19:15.054            14.965          7482.500
       257   13 Jun 2027 03:19:52.453   13 Jun 2027 03:20:03.217            10.764          5382.000
       258   13 Jun 2027 03:20:14.005   13 Jun 2027 03:20:17.809             3.804          1902.000
       259   13 Jun 2027 03:20:22.644   13 Jun 2027 03:20:27.024             4.380          2190.000
       260   13 Jun 2027 03:20:45.238   13 Jun 2027 03:20:48.112             2.874          1437.000
       261   13 Jun 2027 03:21:41.828   13 Jun 2027 03:21:41.828             0.000             0.000
       262   13 Jun 2027 04:53:57.576   13 Jun 2027 04:55:01.658            64.082         32041.000
       263   13 Jun 2027 04:55:18.119   13 Jun 2027 04:55:29.428            11.309          5654.500
       264   13 Jun 2027 04:55:33.745   13 Jun 2027 04:55:54.019            20.274         10137.000
       265   13 Jun 2027 04:58:44.742   13 Jun 2027 04:58:44.742             0.000             0.000
       266   13 Jun 2027 05:00:06.496   13 Jun 2027 05:00:11.683             5.187          2593.500
       267   13 Jun 2027 05:00:14.486   13 Jun 2027 05:00:19.305             4.819          2409.500
       268   13 Jun 2027 05:00:56.376   13 Jun 2027 05:01:29.778            33.402         16701.000
       269   13 Jun 2027 06:19:57.955   13 Jun 2027 06:20:34.698            36.743         18371.500
       270   13 Jun 2027 06:30:59.345   13 Jun 2027 06:31:43.418            44.073         22036.500
       271   13 Jun 2027 07:53:59.087   13 Jun 2027 07:54:54.512            55.425         27712.500
       272   13 Jun 2027 07:55:13.334   13 Jun 2027 07:55:22.398             9.064          3774.844
       273   13 Jun 2027 07:55:57.578   13 Jun 2027 07:56:01.855             4.277           829.406
       274   13 Jun 2027 07:57:47.126   13 Jun 2027 07:57:52.377             5.251          1484.906
       275   13 Jun 2027 09:30:40.939   13 Jun 2027 09:30:55.200            14.261          6747.500
       276   13 Jun 2027 09:33:29.236   13 Jun 2027 09:33:29.236             0.000             0.000
       277   13 Jun 2027 11:05:26.016   13 Jun 2027 11:05:49.165            23.149         11403.969
       278   13 Jun 2027 11:06:12.335   13 Jun 2027 11:06:14.412             2.077           724.062
       279   13 Jun 2027 11:07:01.562   13 Jun 2027 11:07:11.811            10.249          1473.438
       280   13 Jun 2027 11:07:14.702   13 Jun 2027 11:07:17.569             2.867            89.375
       281   13 Jun 2027 11:08:00.433   13 Jun 2027 11:08:06.160             5.727           888.281
       282   13 Jun 2027 11:08:46.963   13 Jun 2027 11:08:53.701             6.738           991.500
       283   13 Jun 2027 11:09:25.254   13 Jun 2027 11:09:45.626            20.372           984.406
       284   13 Jun 2027 11:10:00.034   13 Jun 2027 11:10:02.079             2.045           140.250
       285   13 Jun 2027 11:10:25.008   13 Jun 2027 11:10:27.171             2.163           612.969
       286   13 Jun 2027 11:10:37.051   13 Jun 2027 11:10:42.093             5.042           167.656
       287   13 Jun 2027 11:10:59.852   13 Jun 2027 11:11:05.391             5.539           298.062
       288   13 Jun 2027 11:11:48.912   13 Jun 2027 11:11:53.075             4.163           725.375
       289   13 Jun 2027 11:12:36.472   13 Jun 2027 11:12:39.835             3.363           965.094
       290   13 Jun 2027 11:12:45.719   13 Jun 2027 11:12:55.415             9.696            70.312
