uniorb/output/strategy_1/Camera/Camera_KinoSat_111106.txt

KinoSat_111106
-------------------------
    Access    *     Start Time (UTCG)     *     Stop Time (UTCG)  *   Duration (s) *   Data (Mbytes)
         1   01 Jun 2027 03:26:02.879   01 Jun 2027 03:26:40.486            37.607         18803.500
         2   01 Jun 2027 03:27:10.411   01 Jun 2027 03:28:45.893            95.482         47741.000
         3   01 Jun 2027 03:29:04.518   01 Jun 2027 03:29:04.518             0.000             0.000
         4   01 Jun 2027 04:50:07.544   01 Jun 2027 04:50:35.429            27.885         13942.500
         5   01 Jun 2027 04:51:02.895   01 Jun 2027 04:51:20.420            17.525          8762.500
         6   01 Jun 2027 06:25:53.505   01 Jun 2027 06:27:44.772           111.267         55633.500
         7   01 Jun 2027 08:00:51.213   01 Jun 2027 08:02:35.732           104.519         52259.500
         8   01 Jun 2027 08:07:20.660   01 Jun 2027 08:07:53.757            33.097         16548.500
         9   01 Jun 2027 09:37:04.238   01 Jun 2027 09:39:08.323           124.085         62042.500
        10   01 Jun 2027 09:42:00.782   01 Jun 2027 09:42:03.022             2.240          1120.000
        11   01 Jun 2027 11:15:24.565   01 Jun 2027 11:17:38.363           133.798         66899.000
        12   01 Jun 2027 11:18:34.726   01 Jun 2027 11:18:59.165            24.439         12219.500
        13   02 Jun 2027 03:27:00.357   02 Jun 2027 03:27:12.815            12.458          6229.000
        14   02 Jun 2027 03:37:58.965   02 Jun 2027 03:39:41.878           102.913         51456.500
        15   02 Jun 2027 03:39:54.935   02 Jun 2027 03:40:19.445            24.510         12255.000
        16   02 Jun 2027 05:00:56.049   02 Jun 2027 05:01:22.920            26.871         13435.500
        17   02 Jun 2027 05:01:40.600   02 Jun 2027 05:01:53.516            12.916          6458.000
        18   02 Jun 2027 05:02:19.455   02 Jun 2027 05:02:19.455             0.000             0.000
        19   02 Jun 2027 05:02:41.010   02 Jun 2027 05:02:45.216             4.206          2103.000
        20   02 Jun 2027 05:03:18.017   02 Jun 2027 05:03:19.034             1.017           508.500
        21   02 Jun 2027 05:04:46.432   02 Jun 2027 05:04:58.593            12.161          6080.500
        22   02 Jun 2027 06:36:22.841   02 Jun 2027 06:36:40.767            17.926          8963.000
        23   02 Jun 2027 06:37:38.701   02 Jun 2027 06:38:49.129            70.428         35214.000
        24   02 Jun 2027 06:39:13.002   02 Jun 2027 06:39:22.977             9.975          4987.500
        25   02 Jun 2027 06:40:05.199   02 Jun 2027 06:40:23.772            18.573          9286.500
        26   02 Jun 2027 08:12:24.196   02 Jun 2027 08:14:18.470           114.274         57137.000
        27   02 Jun 2027 08:14:30.730   02 Jun 2027 08:14:36.171             5.441          2720.500
        28   02 Jun 2027 08:15:16.545   02 Jun 2027 08:15:16.545             0.000             0.000
        29   02 Jun 2027 08:18:15.725   02 Jun 2027 08:18:35.997            20.272         10136.000
        30   02 Jun 2027 08:19:16.046   02 Jun 2027 08:19:23.037             6.991          3495.500
        31   02 Jun 2027 08:19:55.299   02 Jun 2027 08:19:58.883             3.584          1792.000
        32   02 Jun 2027 09:49:26.234   02 Jun 2027 09:51:18.920           112.686         56343.000
        33   02 Jun 2027 09:52:03.883   02 Jun 2027 09:52:05.741             1.858           929.000
        34   02 Jun 2027 09:53:04.193   02 Jun 2027 09:53:16.332            12.139          6069.500
        35   02 Jun 2027 11:27:26.029   02 Jun 2027 11:28:56.988            90.959         45479.500
        36   02 Jun 2027 11:29:46.411   02 Jun 2027 11:30:15.776            29.365         14682.500
        37   03 Jun 2027 03:38:18.289   03 Jun 2027 03:38:49.125            30.836         15418.000
        38   03 Jun 2027 03:50:00.760   03 Jun 2027 03:51:06.933            66.173         33086.500
        39   03 Jun 2027 05:12:13.644   03 Jun 2027 05:13:26.565            72.921         36460.500
        40   03 Jun 2027 05:14:15.681   03 Jun 2027 05:14:16.769             1.088           544.000
        41   03 Jun 2027 05:16:33.327   03 Jun 2027 05:16:47.413            14.086          7043.000
        42   03 Jun 2027 06:47:20.371   03 Jun 2027 06:48:46.914            86.543         43271.500
        43   03 Jun 2027 06:49:22.707   03 Jun 2027 06:49:53.035            30.328         15164.000
        44   03 Jun 2027 06:53:57.260   03 Jun 2027 06:54:06.734             9.474          4737.000
        45   03 Jun 2027 08:24:34.976   03 Jun 2027 08:26:36.069           121.093         60546.500
        46   03 Jun 2027 08:26:40.173   03 Jun 2027 08:26:54.699            14.526          7263.000
        47   03 Jun 2027 08:30:19.945   03 Jun 2027 08:30:32.788            12.843          6421.500
        48   03 Jun 2027 08:30:52.057   03 Jun 2027 08:30:55.270             3.213          1606.500
        49   03 Jun 2027 08:31:25.153   03 Jun 2027 08:31:25.153             0.000             0.000
        50   03 Jun 2027 10:01:30.006   03 Jun 2027 10:02:48.556            78.550         39275.000
        51   03 Jun 2027 10:02:56.661   03 Jun 2027 10:03:01.643             4.982          1918.218
        52   03 Jun 2027 10:04:42.866   03 Jun 2027 10:04:45.378             2.512          1256.000
        53   03 Jun 2027 10:05:32.045   03 Jun 2027 10:05:35.066             3.021          1510.500
        54   03 Jun 2027 10:06:04.784   03 Jun 2027 10:06:10.016             5.232          2590.719
        55   03 Jun 2027 10:06:39.027   03 Jun 2027 10:06:43.386             4.359           906.594
        56   03 Jun 2027 10:07:03.753   03 Jun 2027 10:07:13.532             9.779           636.469
        57   03 Jun 2027 10:07:25.284   03 Jun 2027 10:07:26.949             1.665           273.906
        58   03 Jun 2027 11:39:25.514   03 Jun 2027 11:39:42.982            17.468          8676.094
        59   03 Jun 2027 11:40:02.708   03 Jun 2027 11:40:10.290             7.582           616.438
        60   03 Jun 2027 11:40:48.904   03 Jun 2027 11:40:51.989             3.085           885.969
        61   03 Jun 2027 11:40:59.245   03 Jun 2027 11:40:59.796             0.551           106.031
        62   03 Jun 2027 11:41:24.123   03 Jun 2027 11:41:25.930             1.807           564.938
        63   03 Jun 2027 11:41:49.312   03 Jun 2027 11:41:52.418             3.106           564.656
        64   03 Jun 2027 11:42:09.287   03 Jun 2027 11:42:09.287             0.000             0.000
        65   03 Jun 2027 11:42:18.043   03 Jun 2027 11:42:21.151             3.108           800.781
        66   03 Jun 2027 11:42:56.374   03 Jun 2027 11:42:59.937             3.563           738.406
        67   03 Jun 2027 11:43:12.985   03 Jun 2027 11:43:14.385             1.400           215.625
        68   04 Jun 2027 03:49:46.750   04 Jun 2027 03:50:34.991            48.241         24120.500
        69   04 Jun 2027 03:51:01.135   04 Jun 2027 03:51:03.071             1.936           968.000
        70   04 Jun 2027 04:01:57.476   04 Jun 2027 04:02:36.109            38.633         19316.500
        71   04 Jun 2027 05:23:59.233   04 Jun 2027 05:25:19.917            80.684         40342.000
        72   04 Jun 2027 05:26:01.938   04 Jun 2027 05:26:03.816             1.878           939.000
        73   04 Jun 2027 05:26:09.764   04 Jun 2027 05:26:33.575            23.811         11905.500
        74   04 Jun 2027 06:58:49.761   04 Jun 2027 07:00:38.203           108.442         54221.000
        75   04 Jun 2027 07:02:00.982   04 Jun 2027 07:02:03.226             2.244          1122.000
        76   04 Jun 2027 07:02:18.989   04 Jun 2027 07:02:31.068            12.079          6039.500
        77   04 Jun 2027 07:05:31.914   04 Jun 2027 07:05:36.361             4.447          2223.500
        78   04 Jun 2027 07:05:49.842   04 Jun 2027 07:05:49.842             0.000             0.000
        79   04 Jun 2027 07:05:59.194   04 Jun 2027 07:06:10.522            11.328          5664.000
        80   04 Jun 2027 07:06:40.333   04 Jun 2027 07:06:42.198             1.865           932.500
        81   04 Jun 2027 07:07:34.685   04 Jun 2027 07:07:38.223             3.538          1769.000
        82   04 Jun 2027 08:36:36.046   04 Jun 2027 08:36:58.196            22.150         11075.000
        83   04 Jun 2027 08:37:29.538   04 Jun 2027 08:37:42.034            12.496          5784.750
        84   04 Jun 2027 08:38:27.637   04 Jun 2027 08:38:31.280             3.643          1425.094
        85   04 Jun 2027 08:38:44.048   04 Jun 2027 08:38:47.801             3.753           329.375
        86   04 Jun 2027 08:39:29.656   04 Jun 2027 08:39:29.811             0.155            77.500
        87   04 Jun 2027 08:39:44.352   04 Jun 2027 08:39:46.434             2.082           960.562
        88   04 Jun 2027 08:40:06.593   04 Jun 2027 08:40:08.383             1.790           203.125
        89   04 Jun 2027 08:40:45.335   04 Jun 2027 08:40:50.539             5.204           995.094
        90   04 Jun 2027 08:40:53.077   04 Jun 2027 08:40:58.888             5.811            20.219
        91   04 Jun 2027 08:42:35.070   04 Jun 2027 08:42:37.700             2.630          1315.000
        92   04 Jun 2027 08:43:35.979   04 Jun 2027 08:43:43.621             7.642          3003.375
        93   04 Jun 2027 08:43:55.305   04 Jun 2027 08:43:57.232             1.927           365.125
        94   04 Jun 2027 10:13:21.556   04 Jun 2027 10:13:39.213            17.657          8604.594
        95   04 Jun 2027 10:14:06.144   04 Jun 2027 10:14:11.990             5.846           579.531
        96   04 Jun 2027 10:14:54.713   04 Jun 2027 10:15:01.867             7.154           858.375
        97   04 Jun 2027 10:15:27.922   04 Jun 2027 10:15:31.568             3.646            63.750
        98   04 Jun 2027 10:16:14.882   04 Jun 2027 10:16:14.972             0.090            45.000
        99   04 Jun 2027 10:16:24.202   04 Jun 2027 10:16:26.254             2.052           502.406
       100   04 Jun 2027 10:17:33.281   04 Jun 2027 10:17:35.497             2.216          1108.000
       101   04 Jun 2027 10:17:43.756   04 Jun 2027 10:17:46.674             2.918           925.594
       102   04 Jun 2027 10:18:39.854   04 Jun 2027 10:18:42.442             2.588          1294.000
       103   04 Jun 2027 10:18:44.640   04 Jun 2027 10:18:46.880             2.240           407.062
       104   04 Jun 2027 10:19:26.566   04 Jun 2027 10:19:32.336             5.770           649.437
       105   04 Jun 2027 10:19:45.292   04 Jun 2027 10:19:47.274             1.982           404.875
       106   04 Jun 2027 10:20:00.802   04 Jun 2027 10:20:01.694             0.892           335.812
       107   04 Jun 2027 11:51:26.712   04 Jun 2027 11:51:51.187            24.475          7538.844
       108   04 Jun 2027 11:51:55.857   04 Jun 2027 11:51:56.015             0.158            79.000
       109   04 Jun 2027 11:53:29.153   04 Jun 2027 11:53:35.092             5.939          2969.500
       110   04 Jun 2027 11:53:37.841   04 Jun 2027 11:53:39.356             1.515            93.906
       111   04 Jun 2027 11:54:03.558   04 Jun 2027 11:54:04.093             0.535           267.500
       112   04 Jun 2027 11:54:40.096   04 Jun 2027 11:54:50.979            10.883          1582.906
       113   05 Jun 2027 04:01:48.584   05 Jun 2027 04:02:40.856            52.272         26136.000
       114   05 Jun 2027 04:03:55.658   05 Jun 2027 04:03:55.658             0.000             0.000
       115   05 Jun 2027 05:37:46.229   05 Jun 2027 05:40:15.207           148.978         74489.000
       116   05 Jun 2027 07:11:35.685   05 Jun 2027 07:13:32.956           117.271         58635.500
       117   05 Jun 2027 07:14:11.147   05 Jun 2027 07:14:16.225             5.078          2539.000
       118   05 Jun 2027 07:14:38.287   05 Jun 2027 07:14:42.407             4.120          2060.000
       119   05 Jun 2027 07:15:12.436   05 Jun 2027 07:15:19.157             6.721          1421.500
       120   05 Jun 2027 07:15:54.952   05 Jun 2027 07:15:58.086             3.134          1021.062
       121   05 Jun 2027 07:16:10.311   05 Jun 2027 07:16:10.999             0.688           304.531
       122   05 Jun 2027 07:19:06.956   05 Jun 2027 07:19:10.952             3.996          1998.000
       123   05 Jun 2027 07:19:25.055   05 Jun 2027 07:19:29.311             4.256          2128.000
       124   05 Jun 2027 07:19:44.126   05 Jun 2027 07:19:48.511             4.385          2192.500
       125   05 Jun 2027 07:20:02.439   05 Jun 2027 07:20:02.439             0.000             0.000
       126   05 Jun 2027 08:48:39.673   05 Jun 2027 08:49:00.099            20.426          8115.063
       127   05 Jun 2027 08:49:36.393   05 Jun 2027 08:49:39.265             2.872           268.344
       128   05 Jun 2027 08:51:00.930   05 Jun 2027 08:51:03.433             2.503          1148.937
       129   05 Jun 2027 08:52:47.184   05 Jun 2027 08:52:55.554             8.370          2668.906
       130   05 Jun 2027 08:53:23.015   05 Jun 2027 08:53:26.094             3.079           858.156
       131   05 Jun 2027 08:53:37.242   05 Jun 2027 08:53:38.919             1.677           112.313
       132   05 Jun 2027 08:53:55.782   05 Jun 2027 08:53:55.782             0.000             0.000
       133   05 Jun 2027 08:54:07.735   05 Jun 2027 08:54:09.880             2.145           584.969
       134   05 Jun 2027 08:54:30.167   05 Jun 2027 08:54:32.481             2.314           385.156
       135   05 Jun 2027 08:55:16.610   05 Jun 2027 08:55:21.291             4.681          1302.375
       136   05 Jun 2027 08:55:41.321   05 Jun 2027 08:55:45.383             4.062           625.937
       137   05 Jun 2027 08:55:55.477   05 Jun 2027 08:55:59.012             3.535           315.438
       138   05 Jun 2027 10:25:35.297   05 Jun 2027 10:25:54.993            19.696          8782.969
       139   05 Jun 2027 10:27:11.856   05 Jun 2027 10:27:16.727             4.871          1946.063
       140   05 Jun 2027 10:27:44.128   05 Jun 2027 10:27:46.218             2.090           609.688
       141   05 Jun 2027 10:27:57.514   05 Jun 2027 10:27:59.188             1.674           194.281
       142   05 Jun 2027 10:28:28.304   05 Jun 2027 10:28:31.020             2.716           892.156
       143   05 Jun 2027 10:28:42.848   05 Jun 2027 10:28:47.663             4.815           369.625
       144   05 Jun 2027 10:29:33.077   05 Jun 2027 10:29:37.271             4.194          1384.281
       145   05 Jun 2027 10:30:44.262   05 Jun 2027 10:30:50.302             6.040          1840.188
       146   05 Jun 2027 10:31:15.760   05 Jun 2027 10:31:19.348             3.588           709.969
       147   05 Jun 2027 10:31:49.656   05 Jun 2027 10:31:53.631             3.975           911.094
       148   06 Jun 2027 04:13:42.636   06 Jun 2027 04:15:05.313            82.677         41338.500
       149   06 Jun 2027 05:50:05.129   06 Jun 2027 05:52:20.436           135.307         67653.500
       150   06 Jun 2027 05:53:16.007   06 Jun 2027 05:53:32.054            16.047          8023.500
       151   06 Jun 2027 07:23:33.824   06 Jun 2027 07:25:17.023           103.199         51583.625
       152   06 Jun 2027 07:25:41.400   06 Jun 2027 07:25:44.072             2.672            36.563
       153   06 Jun 2027 07:26:25.526   06 Jun 2027 07:26:27.061             1.535           767.500
       154   06 Jun 2027 07:26:39.318   06 Jun 2027 07:26:41.084             1.766           883.000
       155   06 Jun 2027 07:30:36.188   06 Jun 2027 07:30:44.520             8.332          4166.000
       156   06 Jun 2027 07:30:55.429   06 Jun 2027 07:31:02.040             6.611          3305.500
       157   06 Jun 2027 07:31:24.923   06 Jun 2027 07:31:32.811             7.888           940.500
       158   06 Jun 2027 09:01:06.110   06 Jun 2027 09:01:24.868            18.758          8877.000
       159   06 Jun 2027 09:02:29.900   06 Jun 2027 09:02:35.796             5.896          1344.781
       160   06 Jun 2027 09:02:48.406   06 Jun 2027 09:02:49.036             0.630            38.312
       161   06 Jun 2027 09:03:14.468   06 Jun 2027 09:03:23.409             8.941           559.344
       162   06 Jun 2027 09:03:39.087   06 Jun 2027 09:03:40.805             1.718           489.937
       163   06 Jun 2027 09:04:22.815   06 Jun 2027 09:04:25.275             2.460           935.906
       164   06 Jun 2027 09:04:48.829   06 Jun 2027 09:04:55.787             6.958           294.938
       165   06 Jun 2027 09:05:28.748   06 Jun 2027 09:05:29.745             0.997           498.500
       166   06 Jun 2027 09:05:53.030   06 Jun 2027 09:05:55.407             2.377           777.688
       167   06 Jun 2027 09:06:02.411   06 Jun 2027 09:06:03.278             0.867           218.875
       168   06 Jun 2027 09:06:15.045   06 Jun 2027 09:06:16.372             1.327           367.719
       169   06 Jun 2027 09:07:08.020   06 Jun 2027 09:07:13.989             5.969          1277.313
       170   06 Jun 2027 09:07:40.990   06 Jun 2027 09:07:43.741             2.751           834.188
       171   06 Jun 2027 10:38:00.908   06 Jun 2027 10:38:23.307            22.399          7071.500
       172   06 Jun 2027 10:39:56.972   06 Jun 2027 10:40:01.954             4.982           216.531
       173   06 Jun 2027 10:41:28.844   06 Jun 2027 10:41:35.013             6.169          1805.469
       174   06 Jun 2027 10:41:47.088   06 Jun 2027 10:41:50.892             3.804           377.344
       175   06 Jun 2027 10:41:52.255   06 Jun 2027 10:41:53.404             1.149             9.344
       176   06 Jun 2027 10:42:35.600   06 Jun 2027 10:42:40.205             4.605          1118.687
       177   06 Jun 2027 10:43:06.662   06 Jun 2027 10:43:11.182             4.520           826.781
       178   07 Jun 2027 03:01:57.542   07 Jun 2027 03:02:55.853            58.311         29155.500
       179   07 Jun 2027 03:04:27.169   07 Jun 2027 03:04:34.147             6.978          3489.000
       180   07 Jun 2027 03:05:34.294   07 Jun 2027 03:05:38.595             4.301          2150.500
       181   07 Jun 2027 03:05:52.314   07 Jun 2027 03:05:57.316             5.002          2501.000
       182   07 Jun 2027 03:06:28.536   07 Jun 2027 03:06:34.480             5.944          2972.000
       183   07 Jun 2027 04:25:32.721   07 Jun 2027 04:25:48.451            15.730          7865.000
       184   07 Jun 2027 04:27:04.502   07 Jun 2027 04:27:15.898            11.396          5698.000
       185   07 Jun 2027 04:27:49.272   07 Jun 2027 04:28:16.440            27.168         13584.000
       186   07 Jun 2027 06:02:06.914   07 Jun 2027 06:03:50.236           103.322         51661.000
       187   07 Jun 2027 06:04:04.541   07 Jun 2027 06:04:07.618             3.077          1538.500
       188   07 Jun 2027 06:05:08.207   07 Jun 2027 06:05:17.799             9.592          4796.000
       189   07 Jun 2027 07:36:36.664   07 Jun 2027 07:38:20.311           103.647         51823.500
       190   07 Jun 2027 07:38:34.474   07 Jun 2027 07:38:37.450             2.976          1488.000
       191   07 Jun 2027 07:39:29.500   07 Jun 2027 07:39:37.010             7.510          3155.844
       192   07 Jun 2027 07:39:46.088   07 Jun 2027 07:39:47.531             1.443           247.062
       193   07 Jun 2027 07:41:49.308   07 Jun 2027 07:41:55.335             6.027          3013.500
       194   07 Jun 2027 07:42:25.921   07 Jun 2027 07:42:32.512             6.591          1724.531
       195   07 Jun 2027 07:43:03.474   07 Jun 2027 07:43:05.532             2.058           945.969
       196   07 Jun 2027 07:43:34.129   07 Jun 2027 07:43:34.129             0.000             0.000
       197   07 Jun 2027 07:43:39.211   07 Jun 2027 07:43:39.211             0.000             0.000
       198   07 Jun 2027 09:13:13.227   07 Jun 2027 09:13:32.247            19.020          9199.156
       199   07 Jun 2027 09:14:50.392   07 Jun 2027 09:14:53.126             2.734           816.313
       200   07 Jun 2027 09:15:46.452   07 Jun 2027 09:15:49.305             2.853           182.688
       201   07 Jun 2027 09:16:35.696   07 Jun 2027 09:16:41.152             5.456           913.594
       202   07 Jun 2027 09:17:01.037   07 Jun 2027 09:17:02.445             1.408           594.469
       203   07 Jun 2027 09:17:34.555   07 Jun 2027 09:17:37.850             3.295          1003.437
       204   07 Jun 2027 09:17:51.024   07 Jun 2027 09:17:54.118             3.094           324.469
       205   07 Jun 2027 09:17:58.977   07 Jun 2027 09:18:02.503             3.526           125.875
       206   07 Jun 2027 09:18:19.238   07 Jun 2027 09:18:21.813             2.575           443.125
       207   07 Jun 2027 09:19:24.340   07 Jun 2027 09:19:28.079             3.739          1848.625
       208   07 Jun 2027 09:19:51.988   07 Jun 2027 09:19:54.349             2.361           747.156
       209   07 Jun 2027 10:50:55.397   07 Jun 2027 10:51:14.547            19.150          7151.156
       210   07 Jun 2027 10:51:33.102   07 Jun 2027 10:51:34.815             1.713           579.844
       211   07 Jun 2027 10:52:14.275   07 Jun 2027 10:52:19.477             5.202          1157.438
       212   07 Jun 2027 10:52:49.407   07 Jun 2027 10:52:53.419             4.012           740.125
       213   07 Jun 2027 10:54:09.424   07 Jun 2027 10:54:18.637             9.213          2375.156
       214   07 Jun 2027 10:54:56.133   07 Jun 2027 10:54:59.035             2.902           932.563
       215   08 Jun 2027 03:14:22.589   08 Jun 2027 03:14:49.324            26.735         13367.500
       216   08 Jun 2027 03:15:10.598   08 Jun 2027 03:15:50.611            40.013         20006.500
       217   08 Jun 2027 03:16:53.339   08 Jun 2027 03:17:02.015             8.676          4338.000
       218   08 Jun 2027 03:17:21.956   08 Jun 2027 03:17:27.214             5.258          2629.000
       219   08 Jun 2027 03:17:32.655   08 Jun 2027 03:17:32.655             0.000             0.000
       220   08 Jun 2027 03:18:10.456   08 Jun 2027 03:18:17.856             7.400          3700.000
       221   08 Jun 2027 04:37:43.929   08 Jun 2027 04:38:27.737            43.808         21904.000
       222   08 Jun 2027 04:39:20.358   08 Jun 2027 04:39:20.358             0.000             0.000
       223   08 Jun 2027 04:40:11.316   08 Jun 2027 04:40:11.316             0.000             0.000
       224   08 Jun 2027 04:40:34.058   08 Jun 2027 04:40:50.528            16.470          8235.000
       225   08 Jun 2027 06:14:15.656   08 Jun 2027 06:15:26.593            70.937         35468.500
       226   08 Jun 2027 06:17:08.723   08 Jun 2027 06:17:35.228            26.505         13252.500
       227   08 Jun 2027 07:49:24.806   08 Jun 2027 07:50:58.644            93.838         46743.500
       228   08 Jun 2027 07:52:17.934   08 Jun 2027 07:52:17.934             0.000             0.000
       229   08 Jun 2027 07:52:48.427   08 Jun 2027 07:52:50.950             2.523          1261.500
       230   08 Jun 2027 07:53:49.147   08 Jun 2027 07:53:53.447             4.300          2150.000
       231   08 Jun 2027 07:54:15.786   08 Jun 2027 07:54:22.609             6.823          2322.531
       232   08 Jun 2027 07:55:18.414   08 Jun 2027 07:55:21.458             3.044          1477.500
       233   08 Jun 2027 07:56:00.387   08 Jun 2027 07:56:01.306             0.919           459.500
       234   08 Jun 2027 09:25:48.621   08 Jun 2027 09:26:03.922            15.301          6774.813
       235   08 Jun 2027 09:26:21.641   08 Jun 2027 09:26:22.585             0.944            46.469
       236   08 Jun 2027 09:27:31.156   08 Jun 2027 09:27:36.299             5.143           661.688
       237   08 Jun 2027 09:27:54.560   08 Jun 2027 09:27:58.290             3.730           556.406
       238   08 Jun 2027 09:27:59.459   08 Jun 2027 09:28:00.930             1.471            36.531
       239   08 Jun 2027 09:28:07.699   08 Jun 2027 09:28:08.809             1.110            83.937
       240   08 Jun 2027 09:28:21.513   08 Jun 2027 09:28:24.231             2.718            61.687
       241   08 Jun 2027 09:28:41.600   08 Jun 2027 09:28:46.892             5.292           519.875
       242   08 Jun 2027 09:28:55.570   08 Jun 2027 09:28:57.060             1.490           250.813
       243   08 Jun 2027 09:29:18.472   08 Jun 2027 09:29:24.627             6.155           669.125
       244   08 Jun 2027 09:29:56.877   08 Jun 2027 09:30:03.374             6.497           824.063
       245   08 Jun 2027 09:30:14.931   08 Jun 2027 09:30:15.664             0.733           313.594
       246   08 Jun 2027 09:30:52.939   08 Jun 2027 09:30:55.274             2.335           672.563
       247   08 Jun 2027 09:31:01.426   08 Jun 2027 09:31:09.106             7.680           129.187
       248   08 Jun 2027 09:31:26.068   08 Jun 2027 09:31:28.534             2.466           530.063
       249   08 Jun 2027 09:31:49.883   08 Jun 2027 09:31:53.854             3.971           284.125
       250   08 Jun 2027 11:03:02.243   08 Jun 2027 11:03:20.011            17.768          7186.531
       251   08 Jun 2027 11:03:32.983   08 Jun 2027 11:03:35.534             2.551           190.781
       252   08 Jun 2027 11:04:20.732   08 Jun 2027 11:04:30.592             9.860          1174.938
       253   08 Jun 2027 11:04:43.763   08 Jun 2027 11:04:44.784             1.021           411.594
       254   08 Jun 2027 11:04:51.090   08 Jun 2027 11:05:05.395            14.305           179.406
       255   08 Jun 2027 11:06:12.685   08 Jun 2027 11:06:15.389             2.704          1352.000
       256   08 Jun 2027 11:06:27.801   08 Jun 2027 11:06:31.832             4.031          1076.843
       257   08 Jun 2027 11:07:19.242   08 Jun 2027 11:07:22.258             3.016          1481.563
       258   08 Jun 2027 11:07:31.045   08 Jun 2027 11:07:32.802             1.757           151.875
       259   09 Jun 2027 03:26:18.220   09 Jun 2027 03:26:56.080            37.860         18930.000
       260   09 Jun 2027 03:27:25.661   09 Jun 2027 03:29:01.883            96.222         48111.000
       261   09 Jun 2027 04:50:20.314   09 Jun 2027 04:50:46.025            25.711         12855.500
       262   09 Jun 2027 04:50:50.619   09 Jun 2027 04:50:51.778             1.159           579.500
       263   09 Jun 2027 04:51:06.925   09 Jun 2027 04:51:31.109            24.184         12092.000
       264   09 Jun 2027 06:26:08.682   09 Jun 2027 06:27:33.887            85.205         42602.500
       265   09 Jun 2027 06:28:01.148   09 Jun 2027 06:28:01.148             0.000             0.000
       266   09 Jun 2027 06:28:19.611   09 Jun 2027 06:28:38.515            18.904          9452.000
       267   09 Jun 2027 06:28:53.057   09 Jun 2027 06:28:56.960             3.903          1951.500
       268   09 Jun 2027 06:29:59.672   09 Jun 2027 06:30:05.941             6.269          3134.500
       269   09 Jun 2027 08:01:06.125   09 Jun 2027 08:01:52.009            45.884         22874.156
       270   09 Jun 2027 08:02:52.127   09 Jun 2027 08:02:54.243             2.116           724.937
       271   09 Jun 2027 08:03:47.937   09 Jun 2027 08:03:52.686             4.749          1414.281
       272   09 Jun 2027 08:04:11.099   09 Jun 2027 08:04:11.099             0.000             0.000
       273   09 Jun 2027 08:04:58.428   09 Jun 2027 08:05:03.334             4.906          1919.563
       274   09 Jun 2027 08:05:31.221   09 Jun 2027 08:05:35.242             4.021           871.469
       275   09 Jun 2027 08:06:39.447   09 Jun 2027 08:06:45.187             5.740          1933.781
       276   09 Jun 2027 08:07:42.853   09 Jun 2027 08:07:46.331             3.478          1739.000
       277   09 Jun 2027 08:07:53.679   09 Jun 2027 08:07:55.592             1.913           292.687
       278   09 Jun 2027 08:08:06.040   09 Jun 2027 08:08:09.232             3.192           326.500
       279   09 Jun 2027 09:37:20.400   09 Jun 2027 09:37:40.780            20.380          9117.313
       280   09 Jun 2027 09:38:16.286   09 Jun 2027 09:38:18.453             2.167           745.406
       281   09 Jun 2027 09:38:37.946   09 Jun 2027 09:38:40.085             2.139           349.531
       282   09 Jun 2027 09:39:36.643   09 Jun 2027 09:39:39.067             2.424           413.438
       283   09 Jun 2027 09:40:01.986   09 Jun 2027 09:40:05.268             3.282           291.875
       284   09 Jun 2027 09:40:47.561   09 Jun 2027 09:40:50.104             2.543          1071.500
       285   09 Jun 2027 09:41:01.352   09 Jun 2027 09:41:03.618             2.266           351.500
       286   09 Jun 2027 09:41:43.951   09 Jun 2027 09:41:46.362             2.411          1195.438
       287   09 Jun 2027 09:42:01.143   09 Jun 2027 09:42:05.696             4.553           233.062
       288   09 Jun 2027 09:42:38.188   09 Jun 2027 09:42:39.394             1.206           582.813
       289   09 Jun 2027 09:42:43.081   09 Jun 2027 09:42:44.290             1.209           115.219
       290   09 Jun 2027 11:15:40.143   09 Jun 2027 11:15:56.875            16.732          7257.156
       291   09 Jun 2027 11:17:01.571   09 Jun 2027 11:17:09.187             7.616          1843.375
       292   09 Jun 2027 11:17:28.455   09 Jun 2027 11:17:31.222             2.767           412.219
       293   09 Jun 2027 11:17:43.298   09 Jun 2027 11:17:44.413             1.115           273.656
       294   09 Jun 2027 11:17:51.725   09 Jun 2027 11:17:52.402             0.677            91.375
       295   09 Jun 2027 11:18:22.969   09 Jun 2027 11:18:24.186             1.217           608.500
       296   09 Jun 2027 11:18:33.689   09 Jun 2027 11:18:39.422             5.733           602.625
       297   10 Jun 2027 03:27:05.807   10 Jun 2027 03:27:38.430            32.623         16311.500
       298   10 Jun 2027 03:38:14.298   10 Jun 2027 03:39:54.216            99.918         49959.000
       299   10 Jun 2027 03:40:12.209   10 Jun 2027 03:40:20.177             7.968          3984.000
       300   10 Jun 2027 05:01:11.104   10 Jun 2027 05:01:56.666            45.562         22781.000
       301   10 Jun 2027 05:02:41.813   10 Jun 2027 05:02:48.979             7.166          3583.000
       302   10 Jun 2027 05:03:55.406   10 Jun 2027 05:04:03.714             8.308          4154.000
       303   10 Jun 2027 05:04:32.465   10 Jun 2027 05:04:39.663             7.198          3599.000
       304   10 Jun 2027 05:04:49.375   10 Jun 2027 05:04:49.375             0.000             0.000
       305   10 Jun 2027 05:05:23.069   10 Jun 2027 05:05:24.805             1.736           868.000
       306   10 Jun 2027 06:36:28.513   10 Jun 2027 06:36:57.152            28.639         14319.500
       307   10 Jun 2027 06:37:53.368   10 Jun 2027 06:38:40.615            47.247         23623.500
       308   10 Jun 2027 06:38:56.201   10 Jun 2027 06:39:05.008             8.807          4403.500
       309   10 Jun 2027 06:40:56.283   10 Jun 2027 06:40:58.128             1.845           922.500
       310   10 Jun 2027 06:42:03.893   10 Jun 2027 06:42:24.615            20.722         10361.000
       311   10 Jun 2027 08:12:39.157   10 Jun 2027 08:13:10.096            30.939         15469.500
       312   10 Jun 2027 08:13:56.052   10 Jun 2027 08:14:02.411             6.359          1878.187
       313   10 Jun 2027 08:14:33.759   10 Jun 2027 08:14:34.873             1.114           557.000
       314   10 Jun 2027 08:15:05.930   10 Jun 2027 08:15:10.577             4.647           990.219
       315   10 Jun 2027 08:15:51.435   10 Jun 2027 08:15:54.188             2.753          1088.375
       316   10 Jun 2027 08:16:19.210   10 Jun 2027 08:16:20.654             1.444           655.375
       317   10 Jun 2027 08:17:14.120   10 Jun 2027 08:17:23.239             9.119          1552.688
       318   10 Jun 2027 08:17:44.217   10 Jun 2027 08:17:46.325             2.108           607.906
       319   10 Jun 2027 08:17:48.541   10 Jun 2027 08:17:53.815             5.274             2.250
       320   10 Jun 2027 08:18:34.526   10 Jun 2027 08:18:37.773             3.247           925.125
       321   10 Jun 2027 08:19:01.835   10 Jun 2027 08:19:04.103             2.268           676.563
       322   10 Jun 2027 08:19:11.497   10 Jun 2027 08:19:14.467             2.970            66.688
       323   10 Jun 2027 08:19:31.276   10 Jun 2027 08:19:32.226             0.950           317.750
       324   10 Jun 2027 08:20:09.846   10 Jun 2027 08:20:14.016             4.170          1140.969
       325   10 Jun 2027 09:49:41.897   10 Jun 2027 09:50:01.326            19.429          8656.375
       326   10 Jun 2027 09:50:35.924   10 Jun 2027 09:50:39.739             3.815           683.063
       327   10 Jun 2027 09:51:58.417   10 Jun 2027 09:52:01.168             2.751           616.156
       328   10 Jun 2027 09:52:18.881   10 Jun 2027 09:52:20.005             1.124           553.531
       329   10 Jun 2027 09:53:20.118   10 Jun 2027 09:53:24.653             4.535          1833.719
       330   10 Jun 2027 09:53:24.707   10 Jun 2027 09:53:25.739             1.032             1.688
       331   10 Jun 2027 09:53:57.643   10 Jun 2027 09:54:00.032             2.389           789.813
       332   10 Jun 2027 09:54:35.529   10 Jun 2027 09:54:38.997             3.468          1109.281
       333   10 Jun 2027 09:54:59.968   10 Jun 2027 09:55:00.955             0.987           248.344
       334   10 Jun 2027 09:55:01.578   10 Jun 2027 09:55:03.517             1.939            19.469
       335   10 Jun 2027 09:55:29.805   10 Jun 2027 09:55:34.350             4.545           222.125
       336   10 Jun 2027 09:55:47.460   10 Jun 2027 09:55:48.519             1.059           398.969
       337   10 Jun 2027 11:27:41.435   10 Jun 2027 11:27:54.963            13.528          6764.000
       338   10 Jun 2027 11:27:58.486   10 Jun 2027 11:28:04.885             6.399           878.156
       339   10 Jun 2027 11:29:00.537   10 Jun 2027 11:29:06.697             6.160          1710.750
       340   10 Jun 2027 11:29:51.881   10 Jun 2027 11:29:53.280             1.399           699.500
       341   10 Jun 2027 11:30:05.680   10 Jun 2027 11:30:13.591             7.911           620.094
       342   10 Jun 2027 11:30:22.856   10 Jun 2027 11:30:23.579             0.723           289.531
       343   10 Jun 2027 11:30:32.218   10 Jun 2027 11:30:33.347             1.129            36.969
       344   10 Jun 2027 11:31:14.869   10 Jun 2027 11:31:19.564             4.695           485.125
       345   10 Jun 2027 11:31:34.710   10 Jun 2027 11:31:36.261             1.551           167.312
       346   11 Jun 2027 03:38:34.001   11 Jun 2027 03:39:04.616            30.615         15307.500
       347   11 Jun 2027 03:50:16.401   11 Jun 2027 03:51:35.145            78.744         39372.000
       348   11 Jun 2027 05:12:29.564   11 Jun 2027 05:13:41.332            71.768         35884.000
       349   11 Jun 2027 05:15:47.213   11 Jun 2027 05:16:13.423            26.210         13105.000
       350   11 Jun 2027 06:47:35.259   11 Jun 2027 06:49:05.029            89.770         44885.000
       351   11 Jun 2027 06:49:37.439   11 Jun 2027 06:49:58.920            21.481         10740.500
       352   11 Jun 2027 06:54:14.965   11 Jun 2027 06:54:14.965             0.000             0.000
       353   11 Jun 2027 06:55:29.916   11 Jun 2027 06:55:48.556            18.640          9320.000
       354   11 Jun 2027 08:24:51.662   11 Jun 2027 08:25:13.636            21.974         10987.000
       355   11 Jun 2027 08:25:42.710   11 Jun 2027 08:25:56.039            13.329          1571.094
       356   11 Jun 2027 08:27:53.534   11 Jun 2027 08:27:59.427             5.893          1723.156
       357   11 Jun 2027 08:29:23.200   11 Jun 2027 08:29:28.418             5.218          2458.469
       358   11 Jun 2027 08:29:55.191   11 Jun 2027 08:29:58.582             3.391           651.969
       359   11 Jun 2027 08:30:33.021   11 Jun 2027 08:30:34.937             1.916           955.312
       360   11 Jun 2027 08:30:48.718   11 Jun 2027 08:30:48.741             0.023            11.500
       361   11 Jun 2027 08:30:54.083   11 Jun 2027 08:30:54.083             0.000             0.000
       362   11 Jun 2027 08:31:10.396   11 Jun 2027 08:31:14.224             3.828          1095.875
       363   11 Jun 2027 08:31:40.339   11 Jun 2027 08:31:40.339             0.000             0.000
       364   11 Jun 2027 10:01:44.871   11 Jun 2027 10:02:01.200            16.329          7611.312
       365   11 Jun 2027 10:03:12.754   11 Jun 2027 10:03:14.971             2.217           273.594
       366   11 Jun 2027 10:03:47.956   11 Jun 2027 10:03:52.160             4.204           801.625
       367   11 Jun 2027 10:03:55.887   11 Jun 2027 10:03:56.678             0.791           116.469
       368   11 Jun 2027 10:04:29.229   11 Jun 2027 10:04:35.674             6.445           889.687
       369   11 Jun 2027 10:04:47.506   11 Jun 2027 10:04:50.037             2.531           369.750
       370   11 Jun 2027 10:05:33.647   11 Jun 2027 10:05:37.226             3.579          1231.406
       371   11 Jun 2027 10:05:42.358   11 Jun 2027 10:05:45.461             3.103           160.375
       372   11 Jun 2027 10:05:49.642   11 Jun 2027 10:05:52.153             2.511           130.656
       373   11 Jun 2027 10:06:09.097   11 Jun 2027 10:06:13.147             4.050           517.719
       374   11 Jun 2027 10:06:34.983   11 Jun 2027 10:06:36.238             1.255           627.500
       375   11 Jun 2027 10:07:14.764   11 Jun 2027 10:07:19.131             4.367          1258.813
       376   11 Jun 2027 10:07:41.904   11 Jun 2027 10:07:43.548             1.644           316.813
       377   11 Jun 2027 11:39:41.180   11 Jun 2027 11:39:58.974            17.794          8686.063
       378   11 Jun 2027 11:40:17.109   11 Jun 2027 11:40:18.136             1.027           264.188
       379   11 Jun 2027 11:40:58.933   11 Jun 2027 11:41:02.362             3.429          1228.406
       380   11 Jun 2027 11:41:10.740   11 Jun 2027 11:41:12.339             1.599           261.812
       381   11 Jun 2027 11:41:29.431   11 Jun 2027 11:41:30.516             1.085           497.469
       382   11 Jun 2027 11:41:54.142   11 Jun 2027 11:41:56.582             2.440           735.406
       383   11 Jun 2027 11:42:53.711   11 Jun 2027 11:42:59.192             5.481          1463.969
       384   11 Jun 2027 11:43:30.613   11 Jun 2027 11:43:34.038             3.425           981.906
       385   12 Jun 2027 03:50:02.990   12 Jun 2027 03:51:15.741            72.751         36375.500
       386   12 Jun 2027 04:02:13.130   12 Jun 2027 04:02:51.101            37.971         18985.500
       387   12 Jun 2027 05:24:14.582   12 Jun 2027 05:25:35.015            80.433         40216.500
       388   12 Jun 2027 05:26:17.120   12 Jun 2027 05:26:20.061             2.941          1470.500
       389   12 Jun 2027 05:26:49.228   12 Jun 2027 05:26:55.130             5.902          2951.000
       390   12 Jun 2027 05:28:44.840   12 Jun 2027 05:28:44.840             0.000             0.000
       391   12 Jun 2027 06:59:04.303   12 Jun 2027 07:00:55.535           111.232         55616.000
       392   12 Jun 2027 07:01:11.005   12 Jun 2027 07:01:33.364            22.359         10441.031
       393   12 Jun 2027 07:04:02.306   12 Jun 2027 07:04:04.158             1.852           926.000
       394   12 Jun 2027 07:04:37.258   12 Jun 2027 07:04:40.138             2.880          1440.000
       395   12 Jun 2027 07:05:52.699   12 Jun 2027 07:05:54.006             1.307           653.500
       396   12 Jun 2027 07:06:00.189   12 Jun 2027 07:06:05.899             5.710          2855.000
       397   12 Jun 2027 07:06:13.982   12 Jun 2027 07:06:21.200             7.218          2527.656
       398   12 Jun 2027 07:06:46.331   12 Jun 2027 07:06:46.331             0.000             0.000
       399   12 Jun 2027 07:06:52.675   12 Jun 2027 07:06:54.809             2.134           983.594
       400   12 Jun 2027 08:36:51.316   12 Jun 2027 08:37:15.802            24.486         11865.906
       401   12 Jun 2027 08:37:47.124   12 Jun 2027 08:37:51.065             3.941           978.812
       402   12 Jun 2027 08:39:28.380   12 Jun 2027 08:39:32.332             3.952          1564.469
       403   12 Jun 2027 08:39:59.693   12 Jun 2027 08:40:06.411             6.718           855.031
       404   12 Jun 2027 08:40:30.139   12 Jun 2027 08:40:33.015             2.876           278.062
       405   12 Jun 2027 08:42:04.617   12 Jun 2027 08:42:12.893             8.276          2487.406
       406   12 Jun 2027 08:42:35.971   12 Jun 2027 08:42:42.140             6.169           379.906
       407   12 Jun 2027 08:42:59.833   12 Jun 2027 08:43:01.468             1.635           313.719
       408   12 Jun 2027 08:43:35.257   12 Jun 2027 08:43:37.206             1.949           479.563
       409   12 Jun 2027 08:43:58.787   12 Jun 2027 08:44:03.973             5.186           674.406
       410   12 Jun 2027 08:44:13.117   12 Jun 2027 08:44:13.690             0.573           221.750
       411   12 Jun 2027 10:13:36.324   12 Jun 2027 10:13:55.777            19.453          8445.813
       412   12 Jun 2027 10:14:41.561   12 Jun 2027 10:14:44.819             3.258          1345.000
       413   12 Jun 2027 10:16:15.065   12 Jun 2027 10:16:19.448             4.383          1020.500
       414   12 Jun 2027 10:16:24.525   12 Jun 2027 10:16:25.209             0.684           158.656
       415   12 Jun 2027 10:16:59.789   12 Jun 2027 10:17:01.838             2.049           992.469
       416   12 Jun 2027 10:17:24.422   12 Jun 2027 10:17:30.329             5.907           705.750
       417   12 Jun 2027 10:17:40.583   12 Jun 2027 10:17:41.149             0.566           192.344
       418   12 Jun 2027 10:17:56.676   12 Jun 2027 10:17:58.415             1.739           277.281
       419   12 Jun 2027 10:18:37.159   12 Jun 2027 10:18:44.018             6.859          1210.750
       420   12 Jun 2027 10:19:39.428   12 Jun 2027 10:19:42.571             3.143          1175.000
       421   12 Jun 2027 10:20:06.276   12 Jun 2027 10:20:08.177             1.901           740.781
       422   12 Jun 2027 11:51:42.123   12 Jun 2027 11:52:05.627            23.504          7040.031
       423   12 Jun 2027 11:52:10.728   12 Jun 2027 11:52:12.494             1.766           159.406
       424   12 Jun 2027 11:52:39.817   12 Jun 2027 11:52:41.929             2.112           846.281
       425   12 Jun 2027 11:53:08.420   12 Jun 2027 11:53:10.989             2.569           408.000
       426   12 Jun 2027 11:53:26.800   12 Jun 2027 11:53:28.916             2.116           172.437
       427   12 Jun 2027 11:54:02.514   12 Jun 2027 11:54:06.704             4.190           999.188
       428   12 Jun 2027 11:54:32.877   12 Jun 2027 11:54:34.364             1.487           667.625
       429   12 Jun 2027 11:55:28.420   12 Jun 2027 11:55:31.568             3.148          1574.000
       430   12 Jun 2027 11:55:38.845   12 Jun 2027 11:55:39.872             1.027           342.656
       431   13 Jun 2027 04:02:03.494   13 Jun 2027 04:02:43.283            39.789         19894.500
       432   13 Jun 2027 04:03:51.204   13 Jun 2027 04:04:00.923             9.719          4859.500
       433   13 Jun 2027 05:38:01.569   13 Jun 2027 05:40:30.704           149.135         74567.500
       434   13 Jun 2027 07:11:50.900   13 Jun 2027 07:13:50.384           119.484         59742.000
       435   13 Jun 2027 07:14:29.168   13 Jun 2027 07:14:43.644            14.476          6365.969
       436   13 Jun 2027 07:15:38.562   13 Jun 2027 07:15:44.557             5.995          1660.344
       437   13 Jun 2027 07:15:49.459   13 Jun 2027 07:15:49.640             0.181            75.281
       438   13 Jun 2027 07:16:09.491   13 Jun 2027 07:16:13.561             4.070           366.031
       439   13 Jun 2027 07:19:38.422   13 Jun 2027 07:19:50.437            12.015          6003.188
       440   13 Jun 2027 08:48:56.435   13 Jun 2027 08:49:17.681            21.246         10166.531
       441   13 Jun 2027 08:49:39.767   13 Jun 2027 08:49:46.121             6.354           122.094
       442   13 Jun 2027 08:49:54.181   13 Jun 2027 08:49:55.673             1.492           251.875
       443   13 Jun 2027 08:50:11.071   13 Jun 2027 08:50:12.065             0.994           248.875
       444   13 Jun 2027 08:51:39.519   13 Jun 2027 08:51:43.050             3.531          1765.500
       445   13 Jun 2027 08:52:13.108   13 Jun 2027 08:52:15.113             2.005          1002.500
       446   13 Jun 2027 08:52:21.725   13 Jun 2027 08:52:26.451             4.726           257.344
       447   13 Jun 2027 08:52:34.303   13 Jun 2027 08:52:35.268             0.965           245.375
       448   13 Jun 2027 08:53:04.752   13 Jun 2027 08:53:07.304             2.552           655.188
       449   13 Jun 2027 08:53:40.840   13 Jun 2027 08:53:45.838             4.998           858.562
       450   13 Jun 2027 08:53:52.099   13 Jun 2027 08:53:53.791             1.692           106.531
       451   13 Jun 2027 08:54:14.697   13 Jun 2027 08:54:17.244             2.547           355.656
       452   13 Jun 2027 08:54:51.943   13 Jun 2027 08:55:01.757             9.814           947.750
       453   13 Jun 2027 08:55:36.528   13 Jun 2027 08:55:42.719             6.191           156.781
       454   13 Jun 2027 08:55:43.258   13 Jun 2027 08:55:45.354             2.096            16.844
       455   13 Jun 2027 08:56:05.602   13 Jun 2027 08:56:09.174             3.572           616.656
       456   13 Jun 2027 10:25:58.486   13 Jun 2027 10:26:15.252            16.766          7551.844
       457   13 Jun 2027 10:26:19.132   13 Jun 2027 10:26:21.942             2.810            94.656
       458   13 Jun 2027 10:26:44.931   13 Jun 2027 10:26:46.595             1.664           619.969
       459   13 Jun 2027 10:28:16.676   13 Jun 2027 10:28:22.099             5.423          2009.062
       460   13 Jun 2027 10:28:51.941   13 Jun 2027 10:28:52.257             0.316           158.000
       461   13 Jun 2027 10:29:47.214   13 Jun 2027 10:29:51.393             4.179          2048.344
       462   13 Jun 2027 10:30:05.537   13 Jun 2027 10:30:08.683             3.146           404.750
       463   13 Jun 2027 10:30:24.935   13 Jun 2027 10:30:29.445             4.510           507.875
       464   13 Jun 2027 10:30:31.047   13 Jun 2027 10:30:34.266             3.219            50.063
       465   13 Jun 2027 10:31:09.633   13 Jun 2027 10:31:09.633             0.000             0.000
       466   13 Jun 2027 10:31:13.753   13 Jun 2027 10:31:16.211             2.458          1108.719
       467   13 Jun 2027 10:31:48.868   13 Jun 2027 10:31:50.037             1.169           528.594
       468   13 Jun 2027 10:31:58.033   13 Jun 2027 10:32:00.718             2.685           134.469
