uniorb/output/strategy_1/Camera/Camera_KinoSat_110607.txt

KinoSat_110607
-------------------------
    Access    *     Start Time (UTCG)     *     Stop Time (UTCG)  *   Duration (s) *   Data (Mbytes)
         1   01 Jun 2027 03:24:48.572   01 Jun 2027 03:25:57.192            68.620         34310.000
         2   01 Jun 2027 03:26:24.921   01 Jun 2027 03:26:29.602             4.681          2340.500
         3   01 Jun 2027 03:26:58.066   01 Jun 2027 03:27:01.975             3.909          1954.500
         4   01 Jun 2027 04:58:53.813   01 Jun 2027 05:01:17.489           143.676         71838.000
         5   01 Jun 2027 05:04:42.515   01 Jun 2027 05:04:43.307             0.792           396.000
         6   01 Jun 2027 05:05:24.301   01 Jun 2027 05:05:34.107             9.806          4903.000
         7   01 Jun 2027 05:05:51.139   01 Jun 2027 05:05:51.139             0.000             0.000
         8   01 Jun 2027 05:05:54.380   01 Jun 2027 05:05:56.761             2.381          1190.500
         9   01 Jun 2027 05:06:38.330   01 Jun 2027 05:06:40.084             1.754           877.000
        10   01 Jun 2027 06:35:58.031   01 Jun 2027 06:38:06.601           128.570         64285.000
        11   01 Jun 2027 06:39:14.647   01 Jun 2027 06:39:15.868             1.221           610.500
        12   01 Jun 2027 06:39:40.047   01 Jun 2027 06:39:49.941             9.894          4947.000
        13   01 Jun 2027 08:12:55.662   01 Jun 2027 08:15:22.278           146.616         73308.000
        14   01 Jun 2027 08:16:05.492   01 Jun 2027 08:16:16.721            11.229          5614.500
        15   01 Jun 2027 09:49:41.782   01 Jun 2027 09:51:06.503            84.721         42360.500
        16   01 Jun 2027 09:51:44.240   01 Jun 2027 09:52:10.778            26.538         13269.000
        17   01 Jun 2027 09:52:20.070   01 Jun 2027 09:52:47.768            27.698         13849.000
        18   01 Jun 2027 11:27:53.297   01 Jun 2027 11:28:53.538            60.241         30120.500
        19   02 Jun 2027 03:36:55.215   02 Jun 2027 03:37:13.803            18.588          9294.000
        20   02 Jun 2027 05:12:03.059   02 Jun 2027 05:13:56.015           112.956         56478.000
        21   02 Jun 2027 05:13:59.421   02 Jun 2027 05:14:06.221             6.800          3400.000
        22   02 Jun 2027 05:15:04.999   02 Jun 2027 05:15:50.560            45.561         22780.500
        23   02 Jun 2027 05:16:01.385   02 Jun 2027 05:16:03.212             1.827           913.500
        24   02 Jun 2027 05:17:29.343   02 Jun 2027 05:17:48.457            19.114          9557.000
        25   02 Jun 2027 06:48:24.001   02 Jun 2027 06:49:53.573            89.572         44786.000
        26   02 Jun 2027 06:50:35.067   02 Jun 2027 06:51:05.980            30.913         15456.500
        27   02 Jun 2027 06:51:48.141   02 Jun 2027 06:51:52.952             4.811          2405.500
        28   02 Jun 2027 06:52:48.421   02 Jun 2027 06:53:01.708            13.287          6643.500
        29   02 Jun 2027 08:25:57.359   02 Jun 2027 08:28:31.151           153.792         76896.000
        30   02 Jun 2027 08:28:37.251   02 Jun 2027 08:28:41.605             4.354          2177.000
        31   02 Jun 2027 10:02:01.096   02 Jun 2027 10:03:55.958           114.862         57431.000
        32   02 Jun 2027 10:06:14.124   02 Jun 2027 10:06:14.124             0.000             0.000
        33   03 Jun 2027 03:49:04.763   03 Jun 2027 03:49:26.240            21.477         10738.500
        34   03 Jun 2027 03:51:47.066   03 Jun 2027 03:51:54.174             7.108          3554.000
        35   03 Jun 2027 05:24:14.784   03 Jun 2027 05:26:30.546           135.762         67881.000
        36   03 Jun 2027 05:28:16.050   03 Jun 2027 05:28:38.506            22.456         11228.000
        37   03 Jun 2027 05:28:59.855   03 Jun 2027 05:29:14.699            14.844          7422.000
        38   03 Jun 2027 07:00:32.018   03 Jun 2027 07:02:56.641           144.623         72311.500
        39   03 Jun 2027 07:05:09.448   03 Jun 2027 07:05:33.583            24.135         12067.500
        40   03 Jun 2027 08:38:03.103   03 Jun 2027 08:40:14.088           130.985         65492.500
        41   03 Jun 2027 08:41:37.909   03 Jun 2027 08:41:42.323             4.414          2207.000
        42   03 Jun 2027 08:42:27.032   03 Jun 2027 08:42:34.350             7.318          3659.000
        43   03 Jun 2027 10:14:04.649   03 Jun 2027 10:15:21.367            76.718         38359.000
        44   03 Jun 2027 10:15:23.399   03 Jun 2027 10:15:25.390             1.991            65.937
        45   03 Jun 2027 10:16:52.245   03 Jun 2027 10:17:00.127             7.882          2714.219
        46   03 Jun 2027 10:17:56.224   03 Jun 2027 10:18:04.606             8.382          1753.031
        47   04 Jun 2027 04:00:48.639   04 Jun 2027 04:01:16.283            27.644         13822.000
        48   04 Jun 2027 04:02:42.418   04 Jun 2027 04:02:58.267            15.849          7924.500
        49   04 Jun 2027 05:35:43.114   04 Jun 2027 05:38:13.909           150.795         75397.500
        50   04 Jun 2027 05:41:04.943   04 Jun 2027 05:41:17.581            12.638          6319.000
        51   04 Jun 2027 05:42:26.256   04 Jun 2027 05:42:35.679             9.423          4711.500
        52   04 Jun 2027 07:12:15.024   04 Jun 2027 07:14:47.897           152.873         76436.500
        53   04 Jun 2027 07:15:29.569   04 Jun 2027 07:15:37.997             8.428          4214.000
        54   04 Jun 2027 07:15:38.747   04 Jun 2027 07:15:42.025             3.278           977.063
        55   04 Jun 2027 07:17:24.719   04 Jun 2027 07:17:33.371             8.652          3209.188
        56   04 Jun 2027 08:50:32.608   04 Jun 2027 08:51:08.577            35.969         17637.375
        57   04 Jun 2027 08:51:44.674   04 Jun 2027 08:51:47.965             3.291          1039.156
        58   04 Jun 2027 08:52:22.738   04 Jun 2027 08:52:27.562             4.824          1086.656
        59   04 Jun 2027 08:52:54.732   04 Jun 2027 08:52:59.294             4.562           849.063
        60   04 Jun 2027 10:25:53.955   04 Jun 2027 10:26:10.414            16.459          8049.625
        61   04 Jun 2027 10:26:15.215   04 Jun 2027 10:26:21.299             6.084            78.406
        62   04 Jun 2027 10:27:04.862   04 Jun 2027 10:27:07.009             2.147          1073.500
        63   04 Jun 2027 10:27:08.628   04 Jun 2027 10:27:10.321             1.693           338.438
        64   04 Jun 2027 10:27:45.521   04 Jun 2027 10:27:47.978             2.457          1100.000
        65   04 Jun 2027 10:27:55.758   04 Jun 2027 10:27:57.914             2.156           194.875
        66   04 Jun 2027 10:28:29.933   04 Jun 2027 10:28:29.933             0.000             0.000
        67   04 Jun 2027 10:28:52.251   04 Jun 2027 10:28:53.672             1.421           710.500
        68   04 Jun 2027 10:29:39.580   04 Jun 2027 10:29:46.631             7.051          2422.156
        69   04 Jun 2027 10:30:50.972   04 Jun 2027 10:30:53.921             2.949          1466.375
        70   05 Jun 2027 04:11:03.330   05 Jun 2027 04:11:44.400            41.070         20535.000
        71   05 Jun 2027 04:11:57.146   05 Jun 2027 04:11:58.760             1.614           807.000
        72   05 Jun 2027 04:12:34.149   05 Jun 2027 04:12:39.599             5.450          2725.000
        73   05 Jun 2027 04:14:30.227   05 Jun 2027 04:14:58.093            27.866         13933.000
        74   05 Jun 2027 05:47:29.146   05 Jun 2027 05:49:46.689           137.543         68771.500
        75   05 Jun 2027 05:50:07.433   05 Jun 2027 05:50:07.433             0.000             0.000
        76   05 Jun 2027 05:50:38.971   05 Jun 2027 05:51:01.454            22.483         11241.500
        77   05 Jun 2027 05:52:35.946   05 Jun 2027 05:52:40.745             4.799          2399.500
        78   05 Jun 2027 07:24:35.399   05 Jun 2027 07:25:38.634            63.235         31617.500
        79   05 Jun 2027 07:25:53.069   05 Jun 2027 07:26:42.925            49.856         24928.000
        80   05 Jun 2027 07:27:58.288   05 Jun 2027 07:28:32.039            33.751         16624.657
        81   05 Jun 2027 07:29:55.730   05 Jun 2027 07:30:01.629             5.899          2615.344
        82   05 Jun 2027 07:30:09.728   05 Jun 2027 07:30:12.754             3.026           253.031
        83   05 Jun 2027 09:02:30.361   05 Jun 2027 09:02:58.735            28.374         13009.719
        84   05 Jun 2027 09:04:09.619   05 Jun 2027 09:04:15.855             6.236          2115.656
        85   05 Jun 2027 09:04:33.657   05 Jun 2027 09:04:38.696             5.039           458.813
        86   05 Jun 2027 09:05:30.777   05 Jun 2027 09:05:34.358             3.581          1627.531
        87   05 Jun 2027 10:35:36.300   05 Jun 2027 10:35:55.016            18.716          6381.406
        88   05 Jun 2027 10:37:23.582   05 Jun 2027 10:37:27.495             3.913          1695.937
        89   05 Jun 2027 10:38:57.891   05 Jun 2027 10:39:03.865             5.974          2505.313
        90   05 Jun 2027 10:39:09.413   05 Jun 2027 10:39:09.413             0.000             0.000
        91   05 Jun 2027 10:39:21.291   05 Jun 2027 10:39:23.485             2.194           544.562
        92   05 Jun 2027 10:39:52.969   05 Jun 2027 10:39:58.363             5.394           893.125
        93   05 Jun 2027 10:40:17.195   05 Jun 2027 10:40:17.195             0.000             0.000
        94   05 Jun 2027 10:40:24.734   05 Jun 2027 10:40:29.335             4.601           799.438
        95   05 Jun 2027 10:41:08.612   05 Jun 2027 10:41:12.051             3.439           833.094
        96   05 Jun 2027 10:42:38.148   05 Jun 2027 10:42:38.905             0.757           378.500
        97   05 Jun 2027 10:42:45.663   05 Jun 2027 10:42:48.947             3.284           985.750
        98   05 Jun 2027 10:43:33.704   05 Jun 2027 10:43:36.508             2.804          1390.813
        99   06 Jun 2027 04:22:12.782   06 Jun 2027 04:23:50.892            98.110         49055.000
       100   06 Jun 2027 04:24:20.417   06 Jun 2027 04:24:40.472            20.055         10027.500
       101   06 Jun 2027 05:59:44.658   06 Jun 2027 06:01:42.013           117.355         58677.500
       102   06 Jun 2027 06:02:10.673   06 Jun 2027 06:02:35.065            24.392         12196.000
       103   06 Jun 2027 06:04:04.251   06 Jun 2027 06:04:08.987             4.736          2368.000
       104   06 Jun 2027 06:05:54.466   06 Jun 2027 06:05:59.175             4.709          2354.500
       105   06 Jun 2027 07:36:30.621   06 Jun 2027 07:38:24.863           114.242         57121.000
       106   06 Jun 2027 07:38:32.339   06 Jun 2027 07:38:34.060             1.721           860.500
       107   06 Jun 2027 07:39:23.791   06 Jun 2027 07:39:30.380             6.589          2965.406
       108   06 Jun 2027 07:40:20.602   06 Jun 2027 07:40:24.954             4.352          1569.437
       109   06 Jun 2027 07:40:39.619   06 Jun 2027 07:40:40.123             0.504           102.844
       110   06 Jun 2027 07:41:36.840   06 Jun 2027 07:41:41.979             5.139          1715.187
       111   06 Jun 2027 07:42:47.521   06 Jun 2027 07:42:51.219             3.698          1849.000
       112   06 Jun 2027 09:14:30.316   06 Jun 2027 09:14:54.225            23.909         11682.969
       113   06 Jun 2027 09:15:52.058   06 Jun 2027 09:15:55.237             3.179          1589.500
       114   06 Jun 2027 09:16:45.742   06 Jun 2027 09:16:52.018             6.276          1582.687
       115   06 Jun 2027 09:16:58.485   06 Jun 2027 09:16:58.713             0.228            56.563
       116   06 Jun 2027 09:17:46.512   06 Jun 2027 09:17:49.181             2.669           918.594
       117   06 Jun 2027 09:18:20.336   06 Jun 2027 09:18:20.662             0.326           163.000
       118   06 Jun 2027 10:48:06.719   06 Jun 2027 10:48:11.665             4.946          2085.469
       119   06 Jun 2027 10:48:31.447   06 Jun 2027 10:48:33.158             1.711           504.750
       120   06 Jun 2027 10:48:46.024   06 Jun 2027 10:48:47.829             1.805           213.313
       121   06 Jun 2027 10:49:13.749   06 Jun 2027 10:49:16.540             2.791           190.063
       122   06 Jun 2027 10:49:43.699   06 Jun 2027 10:49:49.945             6.246           479.937
       123   06 Jun 2027 10:50:01.223   06 Jun 2027 10:50:05.713             4.490           352.438
       124   06 Jun 2027 10:51:01.301   06 Jun 2027 10:51:06.150             4.849          1336.719
       125   06 Jun 2027 10:51:49.986   06 Jun 2027 10:51:53.904             3.918          1326.594
       126   06 Jun 2027 10:52:54.627   06 Jun 2027 10:52:58.476             3.849          1743.187
       127   06 Jun 2027 10:53:18.884   06 Jun 2027 10:53:21.303             2.419           310.125
       128   06 Jun 2027 10:54:07.883   06 Jun 2027 10:54:13.765             5.882          1278.687
       129   06 Jun 2027 10:55:21.810   06 Jun 2027 10:55:21.810             0.000             0.000
       130   07 Jun 2027 03:00:46.463   07 Jun 2027 03:01:04.883            18.420          9210.000
       131   07 Jun 2027 03:03:20.963   07 Jun 2027 03:03:24.784             3.821          1910.500
       132   07 Jun 2027 03:04:44.657   07 Jun 2027 03:04:46.495             1.838           919.000
       133   07 Jun 2027 04:33:43.706   07 Jun 2027 04:35:19.931            96.225         48112.500
       134   07 Jun 2027 04:37:01.321   07 Jun 2027 04:37:06.456             5.135          2567.500
       135   07 Jun 2027 04:37:47.008   07 Jun 2027 04:37:47.008             0.000             0.000
       136   07 Jun 2027 04:38:07.898   07 Jun 2027 04:38:19.540            11.642          5821.000
       137   07 Jun 2027 04:40:20.809   07 Jun 2027 04:40:23.478             2.669          1334.500
       138   07 Jun 2027 04:42:47.634   07 Jun 2027 04:43:07.443            19.809          9904.500
       139   07 Jun 2027 06:11:39.514   07 Jun 2027 06:13:15.974            96.460         48230.000
       140   07 Jun 2027 06:13:30.504   07 Jun 2027 06:13:50.533            20.029         10014.500
       141   07 Jun 2027 06:13:54.483   07 Jun 2027 06:13:56.788             2.305          1152.500
       142   07 Jun 2027 06:16:05.250   07 Jun 2027 06:16:09.491             4.241          2120.500
       143   07 Jun 2027 06:16:18.820   07 Jun 2027 06:16:20.334             1.514           757.000
       144   07 Jun 2027 06:18:47.202   07 Jun 2027 06:18:53.686             6.484          3242.000
       145   07 Jun 2027 07:48:27.077   07 Jun 2027 07:50:22.447           115.370         55744.156
       146   07 Jun 2027 07:51:54.341   07 Jun 2027 07:52:00.960             6.619          2871.688
       147   07 Jun 2027 07:52:05.111   07 Jun 2027 07:52:06.783             1.672           129.719
       148   07 Jun 2027 07:53:17.898   07 Jun 2027 07:53:21.114             3.216          1608.000
       149   07 Jun 2027 07:53:35.873   07 Jun 2027 07:53:40.738             4.865           771.500
       150   07 Jun 2027 09:26:17.442   07 Jun 2027 09:26:49.822            32.380         10991.937
       151   07 Jun 2027 09:27:08.670   07 Jun 2027 09:27:08.670             0.000             0.000
       152   07 Jun 2027 09:27:26.553   07 Jun 2027 09:27:30.949             4.396           973.688
       153   07 Jun 2027 09:28:02.795   07 Jun 2027 09:28:05.554             2.759           588.719
       154   07 Jun 2027 09:28:16.241   07 Jun 2027 09:28:17.387             1.146           297.563
       155   07 Jun 2027 09:28:56.590   07 Jun 2027 09:29:00.192             3.602           839.469
       156   07 Jun 2027 09:29:16.299   07 Jun 2027 09:29:18.772             2.473           503.344
       157   07 Jun 2027 11:02:16.091   07 Jun 2027 11:02:21.212             5.121          2363.969
       158   07 Jun 2027 11:02:45.555   07 Jun 2027 11:02:46.323             0.768           141.563
       159   07 Jun 2027 11:03:24.502   07 Jun 2027 11:03:26.987             2.485          1193.094
       160   07 Jun 2027 11:04:03.785   07 Jun 2027 11:04:05.282             1.497           648.812
       161   07 Jun 2027 11:04:23.449   07 Jun 2027 11:04:27.014             3.565           567.719
       162   07 Jun 2027 11:05:09.218   07 Jun 2027 11:05:09.582             0.364           182.000
       163   07 Jun 2027 11:05:14.488   07 Jun 2027 11:05:16.300             1.812           446.688
       164   07 Jun 2027 11:06:25.597   07 Jun 2027 11:06:30.208             4.611          1934.281
       165   08 Jun 2027 03:12:49.514   08 Jun 2027 03:13:04.083            14.569          7284.500
       166   08 Jun 2027 03:14:03.591   08 Jun 2027 03:14:04.399             0.808           404.000
       167   08 Jun 2027 03:14:15.125   08 Jun 2027 03:14:28.078            12.953          6476.500
       168   08 Jun 2027 03:15:08.016   08 Jun 2027 03:15:12.020             4.004          2002.000
       169   08 Jun 2027 03:16:06.686   08 Jun 2027 03:16:26.500            19.814          9907.000
       170   08 Jun 2027 04:46:37.180   08 Jun 2027 04:47:59.750            82.570         41285.000
       171   08 Jun 2027 04:48:12.095   08 Jun 2027 04:48:19.771             7.676          3838.000
       172   08 Jun 2027 04:48:39.551   08 Jun 2027 04:49:02.386            22.835         11417.500
       173   08 Jun 2027 04:52:20.137   08 Jun 2027 04:52:20.137             0.000             0.000
       174   08 Jun 2027 04:54:15.903   08 Jun 2027 04:54:26.553            10.650          5325.000
       175   08 Jun 2027 04:55:07.935   08 Jun 2027 04:55:08.779             0.844           422.000
       176   08 Jun 2027 06:23:51.411   08 Jun 2027 06:25:44.029           112.618         56309.000
       177   08 Jun 2027 06:25:52.237   08 Jun 2027 06:25:56.764             4.527          2263.500
       178   08 Jun 2027 06:26:54.024   08 Jun 2027 06:26:55.174             1.150           575.000
       179   08 Jun 2027 06:27:48.018   08 Jun 2027 06:27:48.018             0.000             0.000
       180   08 Jun 2027 06:28:03.145   08 Jun 2027 06:28:06.676             3.531          1765.500
       181   08 Jun 2027 06:28:38.759   08 Jun 2027 06:28:44.113             5.354          2677.000
       182   08 Jun 2027 06:29:40.795   08 Jun 2027 06:29:53.784            12.989          6494.500
       183   08 Jun 2027 08:01:03.744   08 Jun 2027 08:02:14.145            70.401         34525.281
       184   08 Jun 2027 08:02:28.514   08 Jun 2027 08:02:31.942             3.428           282.250
       185   08 Jun 2027 08:03:20.236   08 Jun 2027 08:03:20.236             0.000             0.000
       186   08 Jun 2027 08:03:37.149   08 Jun 2027 08:03:44.239             7.090          1894.969
       187   08 Jun 2027 08:04:24.386   08 Jun 2027 08:04:28.640             4.254           836.719
       188   08 Jun 2027 08:04:55.351   08 Jun 2027 08:04:57.189             1.838           834.719
       189   08 Jun 2027 08:06:14.145   08 Jun 2027 08:06:19.503             5.358          2404.875
       190   08 Jun 2027 09:37:46.544   08 Jun 2027 09:38:05.536            18.992          9224.938
       191   08 Jun 2027 09:39:24.489   08 Jun 2027 09:39:27.930             3.441          1720.500
       192   08 Jun 2027 09:39:41.388   08 Jun 2027 09:39:45.141             3.753          1167.344
       193   08 Jun 2027 09:40:35.582   08 Jun 2027 09:40:39.582             4.000          1576.281
       194   08 Jun 2027 09:41:34.274   08 Jun 2027 09:41:38.946             4.672          1671.562
       195   08 Jun 2027 09:42:29.682   08 Jun 2027 09:42:35.271             5.589          1083.594
       196   08 Jun 2027 11:12:59.015   08 Jun 2027 11:13:06.288             7.273          2655.687
       197   08 Jun 2027 11:14:43.792   08 Jun 2027 11:14:51.360             7.568           968.625
       198   08 Jun 2027 11:15:09.255   08 Jun 2027 11:15:14.112             4.857           359.531
       199   08 Jun 2027 11:15:20.229   08 Jun 2027 11:15:22.370             2.141           106.500
       200   08 Jun 2027 11:15:40.099   08 Jun 2027 11:15:44.013             3.914           441.219
       201   08 Jun 2027 11:16:03.603   08 Jun 2027 11:16:05.421             1.818           210.313
       202   08 Jun 2027 11:16:25.460   08 Jun 2027 11:16:33.667             8.207           324.094
       203   08 Jun 2027 11:17:13.276   08 Jun 2027 11:17:16.183             2.907           678.313
       204   09 Jun 2027 03:25:03.535   09 Jun 2027 03:25:34.863            31.328         15664.000
       205   09 Jun 2027 03:26:04.544   09 Jun 2027 03:26:04.544             0.000             0.000
       206   09 Jun 2027 03:26:45.826   09 Jun 2027 03:26:57.718            11.892          5946.000
       207   09 Jun 2027 03:27:10.041   09 Jun 2027 03:27:10.041             0.000             0.000
       208   09 Jun 2027 03:27:53.823   09 Jun 2027 03:27:53.823             0.000             0.000
       209   09 Jun 2027 03:28:24.726   09 Jun 2027 03:28:37.082            12.356          6178.000
       210   09 Jun 2027 04:57:23.249   09 Jun 2027 04:57:56.354            33.105         16552.500
       211   09 Jun 2027 04:59:08.445   09 Jun 2027 05:00:38.186            89.741         44870.500
       212   09 Jun 2027 05:01:06.986   09 Jun 2027 05:01:06.986             0.000             0.000
       213   09 Jun 2027 05:01:31.985   09 Jun 2027 05:01:44.683            12.698          6349.000
       214   09 Jun 2027 05:02:23.171   09 Jun 2027 05:02:23.171             0.000             0.000
       215   09 Jun 2027 05:04:10.683   09 Jun 2027 05:04:26.378            15.695          7847.500
       216   09 Jun 2027 05:06:06.661   09 Jun 2027 05:06:11.496             4.835          2417.500
       217   09 Jun 2027 05:06:45.241   09 Jun 2027 05:06:47.349             2.108          1054.000
       218   09 Jun 2027 05:07:03.770   09 Jun 2027 05:07:06.454             2.684          1342.000
       219   09 Jun 2027 06:36:12.644   09 Jun 2027 06:38:22.391           129.747         64873.500
       220   09 Jun 2027 08:13:10.396   09 Jun 2027 08:14:02.258            51.862         25931.000
       221   09 Jun 2027 08:14:46.531   09 Jun 2027 08:14:57.252            10.721          3930.093
       222   09 Jun 2027 08:15:16.105   09 Jun 2027 08:15:17.489             1.384           454.063
       223   09 Jun 2027 08:16:21.926   09 Jun 2027 08:16:27.576             5.650          1964.844
       224   09 Jun 2027 08:18:02.803   09 Jun 2027 08:18:07.738             4.935          2467.500
       225   09 Jun 2027 09:49:56.201   09 Jun 2027 09:50:15.931            19.730          8614.500
       226   09 Jun 2027 09:51:44.959   09 Jun 2027 09:51:50.816             5.857          2647.312
       227   09 Jun 2027 09:53:10.714   09 Jun 2027 09:53:15.841             5.127          1902.281
       228   09 Jun 2027 09:53:42.704   09 Jun 2027 09:53:45.866             3.162           576.875
       229   09 Jun 2027 09:54:12.569   09 Jun 2027 09:54:14.034             1.465           322.187
       230   09 Jun 2027 11:28:07.757   09 Jun 2027 11:28:12.257             4.500          1724.906
       231   09 Jun 2027 11:28:36.559   09 Jun 2027 11:28:38.320             1.761           370.031
       232   10 Jun 2027 03:37:10.524   10 Jun 2027 03:37:56.440            45.916         22958.000
       233   10 Jun 2027 03:38:42.077   10 Jun 2027 03:38:47.806             5.729          2864.500
       234   10 Jun 2027 03:40:27.366   10 Jun 2027 03:40:27.366             0.000             0.000
       235   10 Jun 2027 05:12:17.973   10 Jun 2027 05:14:41.865           143.892         71946.000
       236   10 Jun 2027 05:18:44.585   10 Jun 2027 05:18:56.029            11.444          5722.000
       237   10 Jun 2027 05:18:59.997   10 Jun 2027 05:19:07.184             7.187          3593.500
       238   10 Jun 2027 06:48:39.000   10 Jun 2027 06:49:53.619            74.619         37309.500
       239   10 Jun 2027 06:50:08.144   10 Jun 2027 06:50:52.565            44.421         22210.500
       240   10 Jun 2027 06:50:58.580   10 Jun 2027 06:51:03.715             5.135          2567.500
       241   10 Jun 2027 06:52:47.333   10 Jun 2027 06:53:00.615            13.282          6401.563
       242   10 Jun 2027 08:26:11.922   10 Jun 2027 08:26:45.221            33.299         16236.563
       243   10 Jun 2027 08:27:14.679   10 Jun 2027 08:27:15.500             0.821           410.500
       244   10 Jun 2027 08:28:11.536   10 Jun 2027 08:28:23.105            11.569          2074.031
       245   10 Jun 2027 08:28:32.129   10 Jun 2027 08:28:33.496             1.367           199.437
       246   10 Jun 2027 08:28:42.787   10 Jun 2027 08:28:45.614             2.827            87.375
       247   10 Jun 2027 08:30:00.462   10 Jun 2027 08:30:08.044             7.582          2296.438
       248   10 Jun 2027 08:30:29.575   10 Jun 2027 08:30:30.988             1.413           586.906
       249   10 Jun 2027 10:02:15.827   10 Jun 2027 10:02:36.353            20.526          8380.688
       250   10 Jun 2027 10:02:44.641   10 Jun 2027 10:02:48.431             3.790           223.937
       251   10 Jun 2027 10:03:26.233   10 Jun 2027 10:03:28.219             1.986           988.344
       252   10 Jun 2027 10:04:10.613   10 Jun 2027 10:04:17.631             7.018          1253.719
       253   10 Jun 2027 10:05:11.874   10 Jun 2027 10:05:16.064             4.190          1335.250
       254   10 Jun 2027 10:05:36.134   10 Jun 2027 10:05:38.159             2.025           605.656
       255   10 Jun 2027 10:06:21.799   10 Jun 2027 10:06:28.349             6.550          1138.312
       256   11 Jun 2027 03:49:19.398   11 Jun 2027 03:49:42.040            22.642         11321.000
       257   11 Jun 2027 03:50:43.553   11 Jun 2027 03:51:13.112            29.559         14779.500
       258   11 Jun 2027 03:52:02.268   11 Jun 2027 03:52:02.268             0.000             0.000
       259   11 Jun 2027 05:24:29.373   11 Jun 2027 05:26:46.130           136.757         68378.500
       260   11 Jun 2027 05:28:49.809   11 Jun 2027 05:28:54.626             4.817          2408.500
       261   11 Jun 2027 05:30:10.955   11 Jun 2027 05:30:17.492             6.537          3268.500
       262   11 Jun 2027 05:30:46.371   11 Jun 2027 05:30:57.995            11.624          5812.000
       263   11 Jun 2027 07:00:46.673   11 Jun 2027 07:02:55.687           129.014         64507.000
       264   11 Jun 2027 07:06:05.859   11 Jun 2027 07:06:22.663            16.804          8402.000
       265   11 Jun 2027 07:06:42.142   11 Jun 2027 07:06:51.946             9.804          3732.344
       266   11 Jun 2027 08:38:18.987   11 Jun 2027 08:38:53.753            34.766         16744.375
       267   11 Jun 2027 08:39:09.341   11 Jun 2027 08:39:10.693             1.352           165.125
       268   11 Jun 2027 08:39:24.632   11 Jun 2027 08:39:26.002             1.370           435.594
       269   11 Jun 2027 08:39:38.346   11 Jun 2027 08:39:38.636             0.290           126.906
       270   11 Jun 2027 08:39:40.311   11 Jun 2027 08:39:45.604             5.293            52.344
       271   11 Jun 2027 08:40:51.898   11 Jun 2027 08:40:58.415             6.517          2071.688
       272   11 Jun 2027 08:42:48.196   11 Jun 2027 08:42:49.008             0.812           406.000
       273   11 Jun 2027 10:14:19.028   11 Jun 2027 10:14:35.942            16.914          8457.000
       274   11 Jun 2027 10:15:22.417   11 Jun 2027 10:15:26.096             3.679          1804.656
       275   11 Jun 2027 10:16:11.491   11 Jun 2027 10:16:15.066             3.575          1418.594
       276   11 Jun 2027 10:17:06.882   11 Jun 2027 10:17:09.514             2.632          1143.094
       277   11 Jun 2027 10:17:23.669   11 Jun 2027 10:17:23.669             0.000             0.000
       278   11 Jun 2027 10:17:30.423   11 Jun 2027 10:17:31.977             1.554           346.687
       279   11 Jun 2027 10:19:08.405   11 Jun 2027 10:19:15.234             6.829          2386.375
       280   12 Jun 2027 04:01:03.149   12 Jun 2027 04:01:49.707            46.558         23279.000
       281   12 Jun 2027 04:04:12.897   12 Jun 2027 04:04:26.638            13.741          6870.500
       282   12 Jun 2027 04:05:14.566   12 Jun 2027 04:05:14.566             0.000             0.000
       283   12 Jun 2027 05:35:56.599   12 Jun 2027 05:38:06.349           129.750         64875.000
       284   12 Jun 2027 05:39:07.272   12 Jun 2027 05:39:38.550            31.278         15639.000
       285   12 Jun 2027 05:41:30.119   12 Jun 2027 05:41:32.926             2.807          1403.500
       286   12 Jun 2027 05:42:40.741   12 Jun 2027 05:42:54.583            13.842          6921.000
       287   12 Jun 2027 07:12:29.986   12 Jun 2027 07:14:54.888           144.902         69488.968
       288   12 Jun 2027 08:50:47.289   12 Jun 2027 08:51:18.983            31.694         14745.812
       289   12 Jun 2027 08:51:58.891   12 Jun 2027 08:52:00.315             1.424           712.000
       290   12 Jun 2027 08:52:25.797   12 Jun 2027 08:52:27.270             1.473           736.500
       291   12 Jun 2027 08:53:35.712   12 Jun 2027 08:53:41.544             5.832          2530.344
       292   12 Jun 2027 08:53:50.537   12 Jun 2027 08:53:52.706             2.169           281.031
       293   12 Jun 2027 10:26:08.264   12 Jun 2027 10:26:23.796            15.532          7497.531
       294   12 Jun 2027 10:27:22.352   12 Jun 2027 10:27:26.628             4.276          1691.969
       295   12 Jun 2027 10:28:12.572   12 Jun 2027 10:28:18.175             5.603          1196.469
       296   12 Jun 2027 10:29:08.302   12 Jun 2027 10:29:11.153             2.851          1312.438
       297   12 Jun 2027 10:29:44.881   12 Jun 2027 10:29:49.890             5.009           671.500
       298   12 Jun 2027 10:31:06.133   12 Jun 2027 10:31:08.494             2.361          1180.500
       299   13 Jun 2027 04:11:17.467   13 Jun 2027 04:12:12.029            54.562         27281.000
       300   13 Jun 2027 04:12:48.563   13 Jun 2027 04:12:54.818             6.255          3127.500
       301   13 Jun 2027 04:13:31.446   13 Jun 2027 04:13:31.446             0.000             0.000
       302   13 Jun 2027 04:15:15.283   13 Jun 2027 04:15:15.533             0.250           125.000
       303   13 Jun 2027 04:16:07.952   13 Jun 2027 04:16:15.460             7.508          3754.000
       304   13 Jun 2027 04:17:00.086   13 Jun 2027 04:17:17.716            17.630          8815.000
       305   13 Jun 2027 05:47:44.078   13 Jun 2027 05:49:30.163           106.085         53042.500
       306   13 Jun 2027 05:52:23.413   13 Jun 2027 05:52:43.411            19.998          9999.000
       307   13 Jun 2027 05:55:14.194   13 Jun 2027 05:55:15.841             1.647           823.500
       308   13 Jun 2027 07:24:50.644   13 Jun 2027 07:26:57.641           126.997         63498.500
       309   13 Jun 2027 07:28:13.384   13 Jun 2027 07:28:24.406            11.022          5511.000
       310   13 Jun 2027 07:28:56.249   13 Jun 2027 07:29:11.505            15.256          7628.000
       311   13 Jun 2027 07:29:54.204   13 Jun 2027 07:29:54.204             0.000             0.000
       312   13 Jun 2027 07:30:52.550   13 Jun 2027 07:31:00.851             8.301          4150.500
       313   13 Jun 2027 09:02:45.026   13 Jun 2027 09:03:13.765            28.739         14037.375
       314   13 Jun 2027 09:04:24.322   13 Jun 2027 09:04:31.618             7.296          2076.375
       315   13 Jun 2027 09:05:02.274   13 Jun 2027 09:05:06.552             4.278           887.375
       316   13 Jun 2027 09:05:16.573   13 Jun 2027 09:05:18.670             2.097           138.156
       317   13 Jun 2027 09:05:56.498   13 Jun 2027 09:05:58.901             2.403           914.437
       318   13 Jun 2027 09:06:24.168   13 Jun 2027 09:06:25.827             1.659           618.094
       319   13 Jun 2027 10:35:51.231   13 Jun 2027 10:36:10.908            19.677          6066.031
       320   13 Jun 2027 10:37:17.220   13 Jun 2027 10:37:23.205             5.985          1038.531
       321   13 Jun 2027 10:37:41.198   13 Jun 2027 10:37:43.034             1.836           562.281
       322   13 Jun 2027 10:38:45.888   13 Jun 2027 10:38:52.795             6.907          1671.750
       323   13 Jun 2027 10:39:12.444   13 Jun 2027 10:39:14.597             2.153           614.031
       324   13 Jun 2027 10:39:24.258   13 Jun 2027 10:39:25.422             1.164           157.250
       325   13 Jun 2027 10:39:48.579   13 Jun 2027 10:39:51.165             2.586           688.594
       326   13 Jun 2027 10:40:33.788   13 Jun 2027 10:40:33.788             0.000             0.000
       327   13 Jun 2027 10:40:39.648   13 Jun 2027 10:40:41.552             1.904           807.406
       328   13 Jun 2027 10:41:23.301   13 Jun 2027 10:41:28.649             5.348           784.937
       329   13 Jun 2027 10:42:15.547   13 Jun 2027 10:42:15.730             0.183            91.500
       330   13 Jun 2027 10:42:53.210   13 Jun 2027 10:42:58.094             4.884          1027.812
       331   13 Jun 2027 10:43:18.794   13 Jun 2027 10:43:22.292             3.498           565.281
       332   13 Jun 2027 10:43:49.911   13 Jun 2027 10:43:50.743             0.832           416.000
