uniorb/output/strategy_1/Camera/Camera_KinoSat_111706.txt

KinoSat_111706
-------------------------
    Access    *     Start Time (UTCG)     *     Stop Time (UTCG)  *   Duration (s) *   Data (Mbytes)
         1   01 Jun 2027 03:00:00.000   01 Jun 2027 03:00:38.579            38.579         19289.500
         2   01 Jun 2027 03:01:48.909   01 Jun 2027 03:01:52.018             3.109          1554.500
         3   01 Jun 2027 03:03:23.219   01 Jun 2027 03:03:48.677            25.458         12729.000
         4   01 Jun 2027 03:05:47.471   01 Jun 2027 03:05:51.891             4.420          2210.000
         5   01 Jun 2027 04:38:26.544   01 Jun 2027 04:40:37.606           131.062         65531.000
         6   01 Jun 2027 04:43:21.241   01 Jun 2027 04:43:21.241             0.000             0.000
         7   01 Jun 2027 04:45:16.659   01 Jun 2027 04:45:44.390            27.731         13865.500
         8   01 Jun 2027 06:03:34.736   01 Jun 2027 06:04:55.525            80.789         40394.500
         9   01 Jun 2027 06:15:10.725   01 Jun 2027 06:15:36.845            26.120         13060.000
        10   01 Jun 2027 06:16:09.030   01 Jun 2027 06:16:11.793             2.763          1381.500
        11   01 Jun 2027 07:37:45.514   01 Jun 2027 07:38:44.445            58.931         29465.500
        12   01 Jun 2027 07:39:23.674   01 Jun 2027 07:40:28.436            64.762         32381.000
        13   01 Jun 2027 07:42:00.297   01 Jun 2027 07:42:15.051            14.754          7377.000
        14   01 Jun 2027 09:12:51.146   01 Jun 2027 09:13:57.384            66.238         33119.000
        15   01 Jun 2027 09:16:18.630   01 Jun 2027 09:16:55.432            36.802         18401.000
        16   01 Jun 2027 09:17:38.248   01 Jun 2027 09:17:38.893             0.645           322.500
        17   01 Jun 2027 10:49:43.189   01 Jun 2027 10:52:13.094           149.905         74952.500
        18   01 Jun 2027 10:52:46.513   01 Jun 2027 10:52:50.193             3.680          1840.000
        19   01 Jun 2027 10:54:09.981   01 Jun 2027 10:54:11.982             2.001          1000.500
        20   01 Jun 2027 10:54:18.440   01 Jun 2027 10:54:20.651             2.211          1105.500
        21   01 Jun 2027 10:56:18.785   01 Jun 2027 10:56:23.892             5.107          2553.500
        22   01 Jun 2027 10:57:08.180   01 Jun 2027 10:57:08.609             0.429           214.500
        23   02 Jun 2027 03:11:43.854   02 Jun 2027 03:13:07.424            83.570         41785.000
        24   02 Jun 2027 03:13:09.720   02 Jun 2027 03:13:16.699             6.979          3489.500
        25   02 Jun 2027 03:13:40.263   02 Jun 2027 03:13:40.814             0.551           275.500
        26   02 Jun 2027 03:14:25.595   02 Jun 2027 03:14:28.418             2.823          1411.500
        27   02 Jun 2027 03:16:34.440   02 Jun 2027 03:16:41.406             6.966          3483.000
        28   02 Jun 2027 03:17:21.885   02 Jun 2027 03:17:22.856             0.971           485.500
        29   02 Jun 2027 04:50:43.094   02 Jun 2027 04:51:56.351            73.257         36628.500
        30   02 Jun 2027 04:52:29.586   02 Jun 2027 04:52:29.625             0.039            19.500
        31   02 Jun 2027 04:52:41.813   02 Jun 2027 04:52:53.729            11.916          5958.000
        32   02 Jun 2027 04:54:20.858   02 Jun 2027 04:54:22.812             1.954           977.000
        33   02 Jun 2027 04:54:41.219   02 Jun 2027 04:54:58.454            17.235          8617.500
        34   02 Jun 2027 04:55:47.995   02 Jun 2027 04:55:55.949             7.954          3977.000
        35   02 Jun 2027 04:57:30.657   02 Jun 2027 04:57:44.086            13.429          6714.500
        36   02 Jun 2027 06:14:54.680   02 Jun 2027 06:15:25.538            30.858         15429.000
        37   02 Jun 2027 06:16:43.862   02 Jun 2027 06:16:55.299            11.437          5718.500
        38   02 Jun 2027 06:27:08.166   02 Jun 2027 06:28:03.538            55.372         27686.000
        39   02 Jun 2027 07:49:20.998   02 Jun 2027 07:50:30.223            69.225         34612.500
        40   02 Jun 2027 07:51:18.333   02 Jun 2027 07:51:42.278            23.945         11972.500
        41   02 Jun 2027 07:54:17.391   02 Jun 2027 07:54:22.775             5.384          2692.000
        42   02 Jun 2027 09:24:14.385   02 Jun 2027 09:25:13.262            58.877         29438.500
        43   02 Jun 2027 09:26:00.733   02 Jun 2027 09:26:24.129            23.396         11698.000
        44   02 Jun 2027 09:26:25.850   02 Jun 2027 09:26:40.416            14.566          7283.000
        45   02 Jun 2027 11:01:49.877   02 Jun 2027 11:04:35.861           165.984         82992.000
        46   02 Jun 2027 11:05:58.360   02 Jun 2027 11:06:05.734             7.374          3687.000
        47   02 Jun 2027 11:06:40.713   02 Jun 2027 11:06:50.964            10.251          5125.500
        48   02 Jun 2027 11:08:07.111   02 Jun 2027 11:08:15.006             7.895          3947.500
        49   02 Jun 2027 11:09:12.146   02 Jun 2027 11:09:12.355             0.209           104.500
        50   03 Jun 2027 03:24:03.099   03 Jun 2027 03:24:16.280            13.181          6590.500
        51   03 Jun 2027 03:24:30.472   03 Jun 2027 03:26:01.216            90.744         45372.000
        52   03 Jun 2027 03:26:36.681   03 Jun 2027 03:26:38.527             1.846           923.000
        53   03 Jun 2027 03:28:42.882   03 Jun 2027 03:28:42.882             0.000             0.000
        54   03 Jun 2027 03:29:18.529   03 Jun 2027 03:29:26.474             7.945          3972.500
        55   03 Jun 2027 05:02:49.794   03 Jun 2027 05:04:05.534            75.740         37870.000
        56   03 Jun 2027 05:05:26.459   03 Jun 2027 05:05:26.459             0.000             0.000
        57   03 Jun 2027 05:05:54.775   03 Jun 2027 05:06:14.719            19.944          9972.000
        58   03 Jun 2027 06:27:00.460   03 Jun 2027 06:28:06.542            66.082         33041.000
        59   03 Jun 2027 06:39:33.212   03 Jun 2027 06:39:34.842             1.630           815.000
        60   03 Jun 2027 08:00:50.594   03 Jun 2027 08:02:40.191           109.597         54798.500
        61   03 Jun 2027 08:02:47.917   03 Jun 2027 08:02:59.220            11.303          5651.500
        62   03 Jun 2027 08:05:12.568   03 Jun 2027 08:05:23.816            11.248          5624.000
        63   03 Jun 2027 09:35:45.053   03 Jun 2027 09:37:02.007            76.954         38477.000
        64   03 Jun 2027 09:37:48.367   03 Jun 2027 09:37:49.633             1.266           633.000
        65   03 Jun 2027 09:38:11.951   03 Jun 2027 09:38:22.850            10.899          5449.500
        66   03 Jun 2027 09:44:44.428   03 Jun 2027 09:45:15.370            30.942         15471.000
        67   03 Jun 2027 11:13:46.339   03 Jun 2027 11:14:10.016            23.677         11838.500
        68   03 Jun 2027 11:17:39.137   03 Jun 2027 11:18:20.771            41.634         19988.783
        69   03 Jun 2027 11:19:29.765   03 Jun 2027 11:19:36.067             6.302          2141.969
        70   03 Jun 2027 11:19:43.312   03 Jun 2027 11:19:44.979             1.667           102.000
        71   03 Jun 2027 11:20:56.131   03 Jun 2027 11:21:06.785            10.654          2207.062
        72   04 Jun 2027 03:36:40.894   04 Jun 2027 03:36:48.182             7.288          3644.000
        73   04 Jun 2027 03:37:02.356   04 Jun 2027 03:38:03.659            61.303         30651.500
        74   04 Jun 2027 03:38:08.501   04 Jun 2027 03:38:38.979            30.478         15239.000
        75   04 Jun 2027 03:39:00.807   04 Jun 2027 03:39:00.807             0.000             0.000
        76   04 Jun 2027 03:39:04.920   04 Jun 2027 03:39:06.200             1.280           640.000
        77   04 Jun 2027 03:42:06.455   04 Jun 2027 03:42:15.636             9.181          4590.500
        78   04 Jun 2027 05:15:27.214   04 Jun 2027 05:16:41.912            74.698         37349.000
        79   04 Jun 2027 05:17:14.955   04 Jun 2027 05:17:30.404            15.449          7724.500
        80   04 Jun 2027 05:18:20.567   04 Jun 2027 05:18:23.166             2.599          1299.500
        81   04 Jun 2027 06:38:57.326   04 Jun 2027 06:40:34.229            96.903         48451.500
        82   04 Jun 2027 08:15:09.151   04 Jun 2027 08:16:10.889            61.738         29791.969
        83   04 Jun 2027 08:18:02.779   04 Jun 2027 08:18:09.549             6.770          3283.250
        84   04 Jun 2027 09:48:42.512   04 Jun 2027 09:48:56.313            13.801          5513.812
        85   04 Jun 2027 09:49:26.952   04 Jun 2027 09:49:28.200             1.248           142.469
        86   04 Jun 2027 09:50:29.774   04 Jun 2027 09:50:29.774             0.000             0.000
        87   04 Jun 2027 09:50:37.171   04 Jun 2027 09:50:41.864             4.693          1458.875
        88   04 Jun 2027 09:50:57.534   04 Jun 2027 09:51:03.072             5.538           489.687
        89   04 Jun 2027 09:53:37.190   04 Jun 2027 09:53:45.433             8.243          4121.500
        90   04 Jun 2027 09:54:26.168   04 Jun 2027 09:54:30.921             4.753          1967.656
        91   04 Jun 2027 09:54:48.790   04 Jun 2027 09:54:51.379             2.589           551.469
        92   04 Jun 2027 09:56:14.693   04 Jun 2027 09:56:14.693             0.000             0.000
        93   04 Jun 2027 09:56:21.806   04 Jun 2027 09:56:26.130             4.324          2162.000
        94   04 Jun 2027 09:57:16.163   04 Jun 2027 09:57:17.025             0.862           431.000
        95   04 Jun 2027 11:26:08.704   04 Jun 2027 11:26:24.270            15.566          7509.375
        96   04 Jun 2027 11:26:53.709   04 Jun 2027 11:27:01.515             7.806           649.469
        97   04 Jun 2027 11:28:14.499   04 Jun 2027 11:28:19.324             4.825          1449.656
        98   04 Jun 2027 11:30:32.084   04 Jun 2027 11:30:42.195            10.111          3996.344
        99   04 Jun 2027 11:31:06.756   04 Jun 2027 11:31:09.414             2.658           264.531
       100   04 Jun 2027 11:31:16.407   04 Jun 2027 11:31:18.173             1.766           218.531
       101   04 Jun 2027 11:31:58.099   04 Jun 2027 11:31:59.184             1.085           542.500
       102   04 Jun 2027 11:32:32.335   04 Jun 2027 11:32:37.484             5.149          1543.531
       103   04 Jun 2027 11:32:42.922   04 Jun 2027 11:32:44.971             2.049           169.937
       104   04 Jun 2027 11:32:51.010   04 Jun 2027 11:32:53.137             2.127           188.719
       105   05 Jun 2027 03:49:07.578   05 Jun 2027 03:49:35.183            27.605         13802.500
       106   05 Jun 2027 03:49:38.972   05 Jun 2027 03:51:12.580            93.608         46804.000
       107   05 Jun 2027 03:51:36.428   05 Jun 2027 03:51:45.251             8.823          4411.500
       108   05 Jun 2027 03:53:32.898   05 Jun 2027 03:53:52.973            20.075         10037.500
       109   05 Jun 2027 05:27:08.405   05 Jun 2027 05:28:30.567            82.162         41081.000
       110   05 Jun 2027 05:28:44.900   05 Jun 2027 05:28:53.431             8.531          4265.500
       111   05 Jun 2027 05:30:09.607   05 Jun 2027 05:30:23.429            13.822          6911.000
       112   05 Jun 2027 06:50:48.358   05 Jun 2027 06:52:09.253            80.895         40447.500
       113   05 Jun 2027 08:27:15.963   05 Jun 2027 08:27:45.626            29.663         14831.500
       114   05 Jun 2027 08:27:47.329   05 Jun 2027 08:27:55.311             7.982          3761.031
       115   05 Jun 2027 08:28:25.326   05 Jun 2027 08:28:28.053             2.727           806.906
       116   05 Jun 2027 08:29:30.567   05 Jun 2027 08:29:35.153             4.586          1953.563
       117   05 Jun 2027 09:59:26.067   05 Jun 2027 09:59:33.997             7.930          3965.000
       118   05 Jun 2027 10:01:21.492   05 Jun 2027 10:01:25.799             4.307          1914.063
       119   05 Jun 2027 10:03:21.655   05 Jun 2027 10:03:21.655             0.000             0.000
       120   05 Jun 2027 10:04:18.515   05 Jun 2027 10:04:30.944            12.429          4615.094
       121   05 Jun 2027 10:05:01.828   05 Jun 2027 10:05:06.106             4.278           477.781
       122   05 Jun 2027 10:07:38.569   05 Jun 2027 10:07:48.345             9.776          4728.906
       123   05 Jun 2027 10:08:45.073   05 Jun 2027 10:08:49.443             4.370          1360.688
       124   05 Jun 2027 10:09:01.958   05 Jun 2027 10:09:03.016             1.058           186.406
       125   05 Jun 2027 10:09:12.135   05 Jun 2027 10:09:14.811             2.676           284.969
       126   05 Jun 2027 11:38:19.304   05 Jun 2027 11:38:31.495            12.191          6095.500
       127   05 Jun 2027 11:38:36.226   05 Jun 2027 11:38:39.544             3.318           941.375
       128   05 Jun 2027 11:38:55.766   05 Jun 2027 11:38:59.463             3.697           452.313
       129   05 Jun 2027 11:39:27.493   05 Jun 2027 11:39:29.519             2.026           875.938
       130   05 Jun 2027 11:40:21.366   05 Jun 2027 11:40:24.616             3.250          1418.156
       131   05 Jun 2027 11:41:00.488   05 Jun 2027 11:41:02.947             2.459          1121.000
       132   05 Jun 2027 11:41:07.740   05 Jun 2027 11:41:11.565             3.825            79.531
       133   05 Jun 2027 11:42:39.921   05 Jun 2027 11:42:45.654             5.733          2490.375
       134   05 Jun 2027 11:43:22.113   05 Jun 2027 11:43:25.412             3.299          1139.344
       135   05 Jun 2027 11:44:54.179   05 Jun 2027 11:45:02.619             8.440          2773.969
       136   06 Jun 2027 04:01:13.653   06 Jun 2027 04:02:16.772            63.119         31559.500
       137   06 Jun 2027 04:02:23.795   06 Jun 2027 04:02:42.607            18.812          9406.000
       138   06 Jun 2027 04:03:24.357   06 Jun 2027 04:04:11.657            47.300         23650.000
       139   06 Jun 2027 04:04:50.892   06 Jun 2027 04:05:03.280            12.388          6194.000
       140   06 Jun 2027 04:05:21.827   06 Jun 2027 04:05:44.481            22.654         11327.000
       141   06 Jun 2027 05:40:21.972   06 Jun 2027 05:42:00.176            98.204         49102.000
       142   06 Jun 2027 05:42:15.362   06 Jun 2027 05:42:23.629             8.267          4133.500
       143   06 Jun 2027 07:02:55.670   06 Jun 2027 07:04:23.095            87.425         43712.500
       144   06 Jun 2027 07:05:31.093   06 Jun 2027 07:05:31.093             0.000             0.000
       145   06 Jun 2027 07:05:46.135   06 Jun 2027 07:05:47.181             1.046           523.000
       146   06 Jun 2027 08:39:23.876   06 Jun 2027 08:39:42.781            18.905          9452.500
       147   06 Jun 2027 08:40:22.256   06 Jun 2027 08:40:24.013             1.757           878.500
       148   06 Jun 2027 08:40:46.249   06 Jun 2027 08:40:53.767             7.518          2237.625
       149   06 Jun 2027 08:41:00.193   06 Jun 2027 08:41:01.806             1.613            43.375
       150   06 Jun 2027 08:42:02.316   06 Jun 2027 08:42:11.764             9.448          1767.031
       151   06 Jun 2027 10:15:01.070   06 Jun 2027 10:15:16.332            15.262          6785.563
       152   06 Jun 2027 10:16:28.994   06 Jun 2027 10:16:28.994             0.000             0.000
       153   06 Jun 2027 10:18:05.257   06 Jun 2027 10:18:05.257             0.000             0.000
       154   06 Jun 2027 10:18:25.795   06 Jun 2027 10:18:40.134            14.339          5065.281
       155   06 Jun 2027 10:19:02.459   06 Jun 2027 10:19:03.496             1.037           414.875
       156   06 Jun 2027 10:19:17.571   06 Jun 2027 10:19:20.738             3.167           212.031
       157   06 Jun 2027 10:20:31.764   06 Jun 2027 10:20:35.292             3.528          1764.000
       158   06 Jun 2027 10:20:59.136   06 Jun 2027 10:21:04.266             5.130          1095.219
       159   06 Jun 2027 11:50:53.758   06 Jun 2027 11:51:12.388            18.630          7906.188
       160   06 Jun 2027 11:52:44.654   06 Jun 2027 11:52:49.833             5.179          2442.437
       161   06 Jun 2027 11:54:53.699   06 Jun 2027 11:55:01.734             8.035          3870.812
       162   06 Jun 2027 11:56:14.291   06 Jun 2027 11:56:18.893             4.602          1965.219
       163   06 Jun 2027 11:56:25.865   06 Jun 2027 11:56:27.311             1.446           217.875
       164   06 Jun 2027 11:57:03.484   06 Jun 2027 11:57:10.553             7.069          1089.094
       165   07 Jun 2027 04:13:18.180   07 Jun 2027 04:13:59.622            41.442         20721.000
       166   07 Jun 2027 04:14:21.774   07 Jun 2027 04:14:58.121            36.347         18173.500
       167   07 Jun 2027 04:15:37.054   07 Jun 2027 04:16:06.634            29.580         14790.000
       168   07 Jun 2027 05:51:31.009   07 Jun 2027 05:52:07.445            36.436         18218.000
       169   07 Jun 2027 05:52:36.069   07 Jun 2027 05:54:12.094            96.025         48012.500
       170   07 Jun 2027 07:14:57.891   07 Jun 2027 07:16:42.351           104.460         52209.062
       171   07 Jun 2027 08:51:26.249   07 Jun 2027 08:51:41.832            15.583          6924.625
       172   07 Jun 2027 08:52:52.782   07 Jun 2027 08:52:53.625             0.843           421.500
       173   07 Jun 2027 08:53:20.038   07 Jun 2027 08:53:25.412             5.374          2473.438
       174   07 Jun 2027 10:26:48.819   07 Jun 2027 10:27:06.538            17.719          7836.844
       175   07 Jun 2027 10:28:31.775   07 Jun 2027 10:28:31.775             0.000             0.000
       176   07 Jun 2027 10:28:40.695   07 Jun 2027 10:28:44.429             3.734           973.250
       177   07 Jun 2027 10:29:14.615   07 Jun 2027 10:29:16.044             1.429            60.281
       178   07 Jun 2027 10:31:34.213   07 Jun 2027 10:31:44.722            10.509          3881.000
       179   07 Jun 2027 10:32:20.726   07 Jun 2027 10:32:24.443             3.717          1091.750
       180   07 Jun 2027 10:32:25.041   07 Jun 2027 10:32:26.426             1.385            18.688
       181   07 Jun 2027 10:32:37.731   07 Jun 2027 10:32:38.833             1.102           164.375
       182   08 Jun 2027 04:26:22.774   08 Jun 2027 04:27:59.548            96.774         48387.000
       183   08 Jun 2027 04:30:45.905   08 Jun 2027 04:30:48.507             2.602          1301.000
       184   08 Jun 2027 04:31:16.070   08 Jun 2027 04:31:28.871            12.801          6400.500
       185   08 Jun 2027 04:33:05.280   08 Jun 2027 04:33:55.586            50.306         25153.000
       186   08 Jun 2027 05:52:33.693   08 Jun 2027 05:52:58.175            24.482         12241.000
       187   08 Jun 2027 06:03:26.759   08 Jun 2027 06:04:42.402            75.643         37821.500
       188   08 Jun 2027 06:05:35.499   08 Jun 2027 06:05:44.675             9.176          4588.000
       189   08 Jun 2027 07:27:24.802   08 Jun 2027 07:28:45.129            80.327         40163.500
       190   08 Jun 2027 07:29:25.814   08 Jun 2027 07:29:31.874             6.060          3030.000
       191   08 Jun 2027 07:29:52.513   08 Jun 2027 07:30:13.728            21.215          7659.312
       192   08 Jun 2027 09:03:09.509   08 Jun 2027 09:03:27.468            17.959          8979.500
       193   08 Jun 2027 09:05:51.053   08 Jun 2027 09:05:54.588             3.535          1767.500
       194   08 Jun 2027 09:05:59.097   08 Jun 2027 09:06:11.718            12.621          3623.813
       195   08 Jun 2027 10:37:53.218   08 Jun 2027 10:38:10.212            16.994          7894.750
       196   08 Jun 2027 10:38:45.636   08 Jun 2027 10:38:49.352             3.716           861.937
       197   08 Jun 2027 10:39:32.105   08 Jun 2027 10:39:34.296             2.191          1074.313
       198   08 Jun 2027 10:40:01.750   08 Jun 2027 10:40:05.176             3.426           819.406
       199   08 Jun 2027 10:41:11.245   08 Jun 2027 10:41:12.221             0.976           488.000
       200   08 Jun 2027 10:43:33.846   08 Jun 2027 10:43:46.512            12.666          6002.438
       201   08 Jun 2027 10:43:55.671   08 Jun 2027 10:43:56.521             0.850            26.250
       202   08 Jun 2027 10:44:18.555   08 Jun 2027 10:44:21.814             3.259           688.562
       203   08 Jun 2027 10:44:35.031   08 Jun 2027 10:44:36.450             1.419           334.250
       204   08 Jun 2027 10:45:00.459   08 Jun 2027 10:45:08.054             7.595           750.281
       205   08 Jun 2027 10:45:19.737   08 Jun 2027 10:45:21.008             1.271           324.469
       206   09 Jun 2027 03:00:49.330   09 Jun 2027 03:01:01.654            12.324          6162.000
       207   09 Jun 2027 03:01:05.152   09 Jun 2027 03:01:14.279             9.127          4563.500
       208   09 Jun 2027 03:01:40.569   09 Jun 2027 03:01:55.048            14.479          7239.500
       209   09 Jun 2027 03:02:13.190   09 Jun 2027 03:02:19.860             6.670          3335.000
       210   09 Jun 2027 03:03:30.682   09 Jun 2027 03:03:38.133             7.451          3725.500
       211   09 Jun 2027 03:03:46.289   09 Jun 2027 03:04:05.862            19.573          9786.500
       212   09 Jun 2027 03:04:42.643   09 Jun 2027 03:04:44.885             2.242          1121.000
       213   09 Jun 2027 03:05:43.535   09 Jun 2027 03:06:00.261            16.726          8363.000
       214   09 Jun 2027 04:38:45.039   09 Jun 2027 04:40:15.940            90.901         45450.500
       215   09 Jun 2027 04:40:35.228   09 Jun 2027 04:40:52.515            17.287          8643.500
       216   09 Jun 2027 04:44:06.139   09 Jun 2027 04:44:06.139             0.000             0.000
       217   09 Jun 2027 04:44:53.985   09 Jun 2027 04:44:54.368             0.383           191.500
       218   09 Jun 2027 04:45:01.557   09 Jun 2027 04:45:05.243             3.686          1843.000
       219   09 Jun 2027 04:45:19.825   09 Jun 2027 04:46:00.259            40.434         20217.000
       220   09 Jun 2027 06:03:48.479   09 Jun 2027 06:04:31.766            43.287         21643.500
       221   09 Jun 2027 06:15:28.007   09 Jun 2027 06:16:06.990            38.983         19491.500
       222   09 Jun 2027 07:38:00.392   09 Jun 2027 07:39:00.988            60.596         30298.000
       223   09 Jun 2027 07:39:41.372   09 Jun 2027 07:39:57.322            15.950          6642.437
       224   09 Jun 2027 07:41:31.443   09 Jun 2027 07:41:31.443             0.000             0.000
       225   09 Jun 2027 07:41:55.558   09 Jun 2027 07:42:05.952            10.394          3694.875
       226   09 Jun 2027 09:13:03.540   09 Jun 2027 09:13:14.106            10.566          5283.000
       227   09 Jun 2027 09:13:30.940   09 Jun 2027 09:13:33.604             2.664           696.094
       228   09 Jun 2027 09:14:54.103   09 Jun 2027 09:14:56.190             2.087           676.094
       229   09 Jun 2027 09:15:05.088   09 Jun 2027 09:15:08.214             3.126           278.063
       230   09 Jun 2027 09:17:55.618   09 Jun 2027 09:18:06.891            11.273          5028.000
       231   09 Jun 2027 09:18:30.783   09 Jun 2027 09:18:35.923             5.140           692.500
       232   09 Jun 2027 09:19:03.424   09 Jun 2027 09:19:05.580             2.156           719.750
       233   09 Jun 2027 10:53:14.497   09 Jun 2027 10:53:35.781            21.284         10522.469
       234   09 Jun 2027 10:54:29.868   09 Jun 2027 10:54:33.730             3.862          1690.219
       235   09 Jun 2027 10:55:10.994   09 Jun 2027 10:55:19.520             8.526           691.063
       236   09 Jun 2027 10:56:39.393   09 Jun 2027 10:56:47.433             8.040          2490.687
       237   09 Jun 2027 10:57:00.213   09 Jun 2027 10:57:02.033             1.820           155.031
       238   09 Jun 2027 10:57:14.872   09 Jun 2027 10:57:21.834             6.962           370.000
       239   10 Jun 2027 03:12:01.684   10 Jun 2027 03:13:20.611            78.927         39463.500
       240   10 Jun 2027 03:14:02.430   10 Jun 2027 03:14:05.013             2.583          1291.500
       241   10 Jun 2027 03:14:09.410   10 Jun 2027 03:14:29.683            20.273         10136.500
       242   10 Jun 2027 03:15:36.057   10 Jun 2027 03:15:39.970             3.913          1956.500
       243   10 Jun 2027 03:16:51.771   10 Jun 2027 03:16:56.746             4.975          2487.500
       244   10 Jun 2027 04:51:04.702   10 Jun 2027 04:52:13.900            69.198         34599.000
       245   10 Jun 2027 04:53:50.285   10 Jun 2027 04:53:57.920             7.635          3817.500
       246   10 Jun 2027 04:54:35.718   10 Jun 2027 04:54:40.500             4.782          2391.000
       247   10 Jun 2027 04:54:57.664   10 Jun 2027 04:54:59.982             2.318          1159.000
       248   10 Jun 2027 04:55:28.267   10 Jun 2027 04:55:28.267             0.000             0.000
       249   10 Jun 2027 04:56:32.863   10 Jun 2027 04:56:41.284             8.421          4210.500
       250   10 Jun 2027 04:56:55.457   10 Jun 2027 04:57:12.731            17.274          8637.000
       251   10 Jun 2027 06:15:09.747   10 Jun 2027 06:15:37.796            28.049         14024.500
       252   10 Jun 2027 06:15:44.321   10 Jun 2027 06:15:44.321             0.000             0.000
       253   10 Jun 2027 06:17:01.029   10 Jun 2027 06:17:24.665            23.636         11818.000
       254   10 Jun 2027 06:27:25.351   10 Jun 2027 06:28:07.920            42.569         21284.500
       255   10 Jun 2027 07:49:24.640   10 Jun 2027 07:50:28.860            64.220         30663.593
       256   10 Jun 2027 07:51:33.180   10 Jun 2027 07:51:39.342             6.162          1954.531
       257   10 Jun 2027 07:53:58.463   10 Jun 2027 07:54:07.058             8.595          3724.438
       258   10 Jun 2027 09:24:28.109   10 Jun 2027 09:24:40.433            12.324          5049.156
       259   10 Jun 2027 09:25:44.454   10 Jun 2027 09:25:48.842             4.388          1226.813
       260   10 Jun 2027 09:26:13.389   10 Jun 2027 09:26:16.412             3.023           670.344
       261   10 Jun 2027 09:29:38.353   10 Jun 2027 09:29:48.687            10.334          5144.875
       262   10 Jun 2027 09:31:55.868   10 Jun 2027 09:31:59.159             3.291          1645.500
       263   10 Jun 2027 11:05:34.558   10 Jun 2027 11:05:55.102            20.544         10272.000
       264   10 Jun 2027 11:07:30.743   10 Jun 2027 11:07:42.292            11.549          5633.875
       265   10 Jun 2027 11:08:17.109   10 Jun 2027 11:08:19.566             2.457          1088.031
       266   10 Jun 2027 11:08:38.711   10 Jun 2027 11:08:45.487             6.776           503.500
       267   10 Jun 2027 11:09:10.109   10 Jun 2027 11:09:11.240             1.131           553.531
       268   11 Jun 2027 03:24:20.817   11 Jun 2027 03:24:33.433            12.616          6308.000
       269   11 Jun 2027 03:24:48.250   11 Jun 2027 03:26:23.179            94.929         47464.500
       270   11 Jun 2027 03:26:54.605   11 Jun 2027 03:26:54.605             0.000             0.000
       271   11 Jun 2027 03:27:44.236   11 Jun 2027 03:28:00.607            16.371          8185.500
       272   11 Jun 2027 03:30:12.596   11 Jun 2027 03:30:13.898             1.302           651.000
       273   11 Jun 2027 05:03:09.199   11 Jun 2027 05:04:15.924            66.725         33362.500
       274   11 Jun 2027 05:05:53.368   11 Jun 2027 05:06:09.456            16.088          8044.000
       275   11 Jun 2027 06:27:17.354   11 Jun 2027 06:28:23.514            66.160         33080.000
       276   11 Jun 2027 08:01:06.830   11 Jun 2027 08:02:07.150            60.320         30160.000
       277   11 Jun 2027 08:02:57.098   11 Jun 2027 08:03:14.644            17.546          5899.999
       278   11 Jun 2027 08:04:36.060   11 Jun 2027 08:04:47.655            11.595          2504.063
       279   11 Jun 2027 08:05:16.724   11 Jun 2027 08:05:22.444             5.720           908.406
       280   11 Jun 2027 08:05:35.782   11 Jun 2027 08:05:40.258             4.476           279.469
       281   11 Jun 2027 08:06:32.319   11 Jun 2027 08:06:40.585             8.266          1626.906
       282   11 Jun 2027 09:35:59.081   11 Jun 2027 09:36:03.200             4.119          2059.500
       283   11 Jun 2027 09:36:53.143   11 Jun 2027 09:37:05.377            12.234          4186.688
       284   11 Jun 2027 09:38:11.340   11 Jun 2027 09:38:15.712             4.372           239.438
       285   11 Jun 2027 09:39:06.293   11 Jun 2027 09:39:14.227             7.934          1484.156
       286   11 Jun 2027 09:40:41.899   11 Jun 2027 09:40:47.868             5.969          2428.844
       287   11 Jun 2027 09:41:00.104   11 Jun 2027 09:41:01.650             1.546           372.375
       288   11 Jun 2027 09:41:38.199   11 Jun 2027 09:41:40.746             2.547           933.281
       289   11 Jun 2027 09:43:56.705   11 Jun 2027 09:43:56.705             0.000             0.000
       290   11 Jun 2027 09:45:00.169   11 Jun 2027 09:45:12.387            12.218          6094.625
       291   11 Jun 2027 11:14:04.725   11 Jun 2027 11:14:32.975            28.250          6516.406
       292   11 Jun 2027 11:18:42.929   11 Jun 2027 11:18:59.309            16.380          7811.062
       293   11 Jun 2027 11:19:30.080   11 Jun 2027 11:19:30.524             0.444           222.000
       294   11 Jun 2027 11:19:59.166   11 Jun 2027 11:20:04.673             5.507          1437.656
       295   11 Jun 2027 11:20:56.294   11 Jun 2027 11:20:58.439             2.145          1072.500
       296   12 Jun 2027 03:36:58.677   12 Jun 2027 03:37:01.876             3.199          1599.500
       297   12 Jun 2027 03:37:20.316   12 Jun 2027 03:38:20.206            59.890         29945.000
       298   12 Jun 2027 03:38:25.265   12 Jun 2027 03:39:30.433            65.168         32584.000
       299   12 Jun 2027 03:39:56.576   12 Jun 2027 03:40:05.200             8.624          4312.000
       300   12 Jun 2027 03:42:19.600   12 Jun 2027 03:42:28.273             8.673          4336.500
       301   12 Jun 2027 05:15:45.826   12 Jun 2027 05:16:56.086            70.260         35130.000
       302   12 Jun 2027 05:17:07.987   12 Jun 2027 05:17:33.134            25.147         12573.500
       303   12 Jun 2027 05:18:46.990   12 Jun 2027 05:19:04.217            17.227          8613.500
       304   12 Jun 2027 06:39:14.128   12 Jun 2027 06:40:24.950            70.822         35411.000
       305   12 Jun 2027 06:40:34.458   12 Jun 2027 06:40:49.946            15.488          7744.000
       306   12 Jun 2027 08:15:26.258   12 Jun 2027 08:15:55.250            28.992         14465.813
       307   12 Jun 2027 08:16:46.553   12 Jun 2027 08:17:02.861            16.308          1508.344
       308   12 Jun 2027 08:18:20.219   12 Jun 2027 08:18:27.237             7.018          2412.375
       309   12 Jun 2027 09:48:59.635   12 Jun 2027 09:49:10.971            11.336          5248.906
       310   12 Jun 2027 09:50:06.248   12 Jun 2027 09:50:08.018             1.770           742.594
       311   12 Jun 2027 09:50:48.843   12 Jun 2027 09:50:49.375             0.532           266.000
       312   12 Jun 2027 09:51:21.906   12 Jun 2027 09:51:27.000             5.094          2020.125
       313   12 Jun 2027 09:53:54.529   12 Jun 2027 09:54:04.723            10.194          4610.281
       314   12 Jun 2027 09:54:46.175   12 Jun 2027 09:54:47.237             1.062           190.344
       315   12 Jun 2027 09:55:49.976   12 Jun 2027 09:55:49.976             0.000             0.000
       316   12 Jun 2027 09:55:56.643   12 Jun 2027 09:56:02.144             5.501          1958.938
       317   12 Jun 2027 09:56:09.286   12 Jun 2027 09:56:11.692             2.406            86.156
       318   12 Jun 2027 09:57:13.456   12 Jun 2027 09:57:17.271             3.815          1517.188
       319   12 Jun 2027 11:26:30.279   12 Jun 2027 11:26:46.603            16.324          7665.344
       320   12 Jun 2027 11:27:38.042   12 Jun 2027 11:27:43.327             5.285           872.906
       321   12 Jun 2027 11:28:31.906   12 Jun 2027 11:28:35.089             3.183          1448.656
       322   12 Jun 2027 11:28:56.452   12 Jun 2027 11:29:00.194             3.742           667.594
       323   12 Jun 2027 11:29:20.141   12 Jun 2027 11:29:22.952             2.811           277.719
       324   12 Jun 2027 11:30:16.997   12 Jun 2027 11:30:21.280             4.283          1023.594
       325   12 Jun 2027 11:30:41.287   12 Jun 2027 11:30:43.517             2.230           393.906
       326   12 Jun 2027 11:31:04.127   12 Jun 2027 11:31:06.020             1.893           315.094
       327   12 Jun 2027 11:31:23.198   12 Jun 2027 11:31:23.638             0.440           195.875
       328   12 Jun 2027 11:31:56.174   12 Jun 2027 11:32:02.190             6.016           790.156
       329   12 Jun 2027 11:32:44.640   12 Jun 2027 11:32:47.495             2.855          1326.563
       330   12 Jun 2027 11:32:55.396   12 Jun 2027 11:32:55.396             0.000             0.000
       331   13 Jun 2027 03:49:23.358   13 Jun 2027 03:49:51.348            27.990         13995.000
       332   13 Jun 2027 03:49:55.353   13 Jun 2027 03:51:22.436            87.083         43541.500
       333   13 Jun 2027 03:51:51.502   13 Jun 2027 03:51:51.914             0.412           206.000
       334   13 Jun 2027 03:52:13.393   13 Jun 2027 03:52:21.538             8.145          4072.500
       335   13 Jun 2027 05:27:25.653   13 Jun 2027 05:28:21.715            56.062         28031.000
       336   13 Jun 2027 05:28:50.044   13 Jun 2027 05:29:41.143            51.099         25549.500
       337   13 Jun 2027 05:30:25.960   13 Jun 2027 05:30:39.121            13.161          6580.500
       338   13 Jun 2027 06:51:04.914   13 Jun 2027 06:52:44.015            99.101         49550.500
       339   13 Jun 2027 06:53:15.809   13 Jun 2027 06:53:17.721             1.912           956.000
       340   13 Jun 2027 08:27:31.774   13 Jun 2027 08:28:03.121            31.347         15595.531
       341   13 Jun 2027 08:28:44.910   13 Jun 2027 08:28:48.592             3.682          1281.344
       342   13 Jun 2027 08:29:13.472   13 Jun 2027 08:29:21.438             7.966           777.500
       343   13 Jun 2027 08:30:06.061   13 Jun 2027 08:30:10.888             4.827          1394.469
       344   13 Jun 2027 09:59:40.098   13 Jun 2027 09:59:50.993            10.895          5248.781
       345   13 Jun 2027 10:02:08.510   13 Jun 2027 10:02:08.510             0.000             0.000
       346   13 Jun 2027 10:03:23.716   13 Jun 2027 10:03:37.904            14.188          6428.125
       347   13 Jun 2027 10:06:40.027   13 Jun 2027 10:06:52.023            11.996          5601.844
       348   13 Jun 2027 10:07:30.531   13 Jun 2027 10:07:33.158             2.627          1108.469
       349   13 Jun 2027 10:07:50.088   13 Jun 2027 10:07:50.724             0.636           186.438
       350   13 Jun 2027 10:08:24.363   13 Jun 2027 10:08:24.363             0.000             0.000
       351   13 Jun 2027 10:09:16.721   13 Jun 2027 10:09:24.308             7.587          2673.531
       352   13 Jun 2027 10:09:25.055   13 Jun 2027 10:09:26.643             1.588            23.344
       353   13 Jun 2027 11:38:37.750   13 Jun 2027 11:38:52.918            15.168          6424.969
       354   13 Jun 2027 11:39:12.130   13 Jun 2027 11:39:15.510             3.380           388.344
       355   13 Jun 2027 11:40:40.011   13 Jun 2027 11:40:41.261             1.250           602.906
       356   13 Jun 2027 11:41:06.541   13 Jun 2027 11:41:09.817             3.276           269.875
       357   13 Jun 2027 11:41:35.940   13 Jun 2027 11:41:39.068             3.128           673.312
       358   13 Jun 2027 11:42:19.084   13 Jun 2027 11:42:25.587             6.503           980.062
       359   13 Jun 2027 11:42:43.909   13 Jun 2027 11:42:45.477             1.568           175.969
       360   13 Jun 2027 11:42:56.952   13 Jun 2027 11:42:57.910             0.958           358.594
       361   13 Jun 2027 11:43:38.226   13 Jun 2027 11:43:40.059             1.833           916.500
       362   13 Jun 2027 11:44:33.961   13 Jun 2027 11:44:37.679             3.718          1849.719
       363   13 Jun 2027 11:44:43.671   13 Jun 2027 11:44:44.916             1.245           187.250
       364   13 Jun 2027 11:45:08.173   13 Jun 2027 11:45:08.173             0.000             0.000
