uniorb/output/strategy_4/Drop/Drop_KinoSat_110102.txt

KinoSat_110102
-------------------------
    Access    *     Start Time (UTCG)     *     Stop Time (UTCG)  *   Duration (s)        *       Station  *  Data (Mbytes)
         1   01 Jun 2027 03:00:34.495   01 Jun 2027 03:02:13.812            99.317                Irkutsk         12414.625
         2   01 Jun 2027 03:02:26.641   01 Jun 2027 03:03:11.353            44.712               Magadan1          5589.000
         3   01 Jun 2027 03:03:28.455   01 Jun 2027 03:03:34.709             6.254               Magadan2           781.750
         4   01 Jun 2027 03:03:53.053   01 Jun 2027 03:04:28.110            35.057              Murmansk2          4382.125
         5   01 Jun 2027 03:04:44.506   01 Jun 2027 03:05:06.727            22.221                Novosib          2777.625
         6   01 Jun 2027 03:05:27.290   01 Jun 2027 03:05:39.879            12.589                Norilsk          1573.625
         7   01 Jun 2027 03:05:47.471   01 Jun 2027 03:05:49.161             1.690                Irkutsk           211.250
         8   01 Jun 2027 03:05:50.583   01 Jun 2027 03:06:16.329            25.746              Murmansk1          3218.250
         9   01 Jun 2027 03:07:30.067   01 Jun 2027 03:07:51.998            21.931                Norilsk          2741.375
        10   01 Jun 2027 03:09:48.043   01 Jun 2027 03:10:18.679            30.636                Norilsk          3829.500
        11   01 Jun 2027 03:41:12.322   01 Jun 2027 03:41:12.632             0.310            RioGallegos            38.750
        12   01 Jun 2027 03:43:52.948   01 Jun 2027 03:45:23.211            90.263            RioGallegos         11282.875
        13   01 Jun 2027 04:15:48.148   01 Jun 2027 04:18:11.355           143.207                Sumatra         15530.750
        14   01 Jun 2027 04:38:05.490   01 Jun 2027 04:38:33.429            27.939              Murmansk1          3492.375
        15   01 Jun 2027 04:38:40.415   01 Jun 2027 04:38:51.801            11.386              Murmansk1          1423.250
        16   01 Jun 2027 04:38:55.919   01 Jun 2027 04:38:58.142             2.223                Norilsk           277.875
        17   01 Jun 2027 04:39:13.276   01 Jun 2027 04:40:05.731            52.455                 Moscow          6556.875
        18   01 Jun 2027 04:40:18.169   01 Jun 2027 04:40:21.701             3.532                Norilsk           441.500
        19   01 Jun 2027 04:40:27.388   01 Jun 2027 04:42:23.149           115.761                Novosib         14470.125
        20   01 Jun 2027 06:00:11.412   01 Jun 2027 06:02:35.064           143.652                  Delhi         17956.500
        21   01 Jun 2027 06:06:10.948   01 Jun 2027 06:07:49.251            98.303                  Delhi         12287.875
        22   01 Jun 2027 06:16:23.576   01 Jun 2027 06:17:26.981            63.405                Novosib          7925.625
        23   01 Jun 2027 06:17:52.109   01 Jun 2027 06:18:23.186            31.077                Novosib          3884.625
        24   01 Jun 2027 06:19:28.685   01 Jun 2027 06:19:43.926            15.241              Murmansk1          1905.125
        25   01 Jun 2027 07:51:32.289   01 Jun 2027 07:52:02.535            30.246                 Moscow          3780.750
        26   01 Jun 2027 07:52:22.800   01 Jun 2027 07:52:55.619            32.819                 Moscow          4102.375
        27   01 Jun 2027 07:53:13.320   01 Jun 2027 07:54:29.787            76.467              Murmansk2          9558.375
        28   01 Jun 2027 07:54:52.385   01 Jun 2027 07:55:40.760            48.375                 Moscow          6046.875
        29   01 Jun 2027 08:58:49.548   01 Jun 2027 09:05:36.025           406.477               CapeTown         50809.625
        30   01 Jun 2027 12:52:43.038   01 Jun 2027 12:54:48.202           125.164               Magadan2         15645.500
        31   01 Jun 2027 13:02:40.383   01 Jun 2027 13:02:50.544            10.161               Magadan1          1270.125
        32   01 Jun 2027 14:28:35.408   01 Jun 2027 14:29:27.764            52.356               Magadan2          6544.500
        33   01 Jun 2027 14:36:38.157   01 Jun 2027 14:38:10.435            92.278               Magadan2         11534.750
        34   01 Jun 2027 15:20:16.747   01 Jun 2027 15:22:10.675           113.928            RioGallegos         14241.000
        35   01 Jun 2027 15:28:39.209   01 Jun 2027 15:29:48.245            69.036            RioGallegos          8629.500
        36   01 Jun 2027 16:11:05.105   01 Jun 2027 16:13:02.891           117.786                Irkutsk         14723.250
        37   01 Jun 2027 16:21:50.443   01 Jun 2027 16:23:46.091           115.648                Sumatra         14456.000
        38   01 Jun 2027 16:29:30.692   01 Jun 2027 16:31:31.610           120.918                Sumatra         15114.750
        39   01 Jun 2027 17:47:36.986   01 Jun 2027 17:48:49.240            72.254                Novosib          9031.750
        40   01 Jun 2027 17:51:17.558   01 Jun 2027 17:54:03.514           165.956                  Delhi         20744.500
        41   01 Jun 2027 18:00:49.087   01 Jun 2027 18:00:50.398             1.311                  Delhi           163.875
        42   01 Jun 2027 19:28:35.945   01 Jun 2027 19:29:02.699            26.754                  Delhi           888.250
        43   02 Jun 2027 03:18:22.180   02 Jun 2027 03:19:39.142            76.962                Novosib          9620.250
        44   02 Jun 2027 03:19:50.196   02 Jun 2027 03:22:08.633           138.437                Norilsk         17304.625
        45   02 Jun 2027 04:27:54.179   02 Jun 2027 04:29:24.814            90.635                Sumatra         11329.375
        46   02 Jun 2027 04:30:52.032   02 Jun 2027 04:32:42.339           110.307                Sumatra         13788.375
        47   02 Jun 2027 04:53:36.753   02 Jun 2027 04:53:43.460             6.707                Irkutsk           838.375
        48   02 Jun 2027 04:54:06.720   02 Jun 2027 04:54:21.792            15.072              Murmansk2          1884.000
        49   02 Jun 2027 04:54:27.956   02 Jun 2027 04:55:47.346            79.390                Novosib          9923.750
        50   02 Jun 2027 04:55:52.514   02 Jun 2027 04:56:30.992            38.478                 Moscow          4809.750
        51   02 Jun 2027 04:56:44.983   02 Jun 2027 05:01:15.792           270.809              Murmansk2         33851.125
        52   02 Jun 2027 06:12:27.535   02 Jun 2027 06:24:19.500           711.965                  Delhi         88995.625
        53   02 Jun 2027 06:24:23.651   02 Jun 2027 06:24:56.533            32.882                 Moscow          4110.250
        54   02 Jun 2027 06:30:03.486   02 Jun 2027 06:31:01.198            57.712              Murmansk1          7214.000
        55   02 Jun 2027 06:31:53.412   02 Jun 2027 06:33:13.608            80.196                 Moscow         10024.500
        56   02 Jun 2027 06:33:43.686   02 Jun 2027 06:36:53.854           190.168              Murmansk2         23771.000
        57   02 Jun 2027 07:59:43.592   02 Jun 2027 08:00:15.095            31.503                 Moscow          3937.875
        58   02 Jun 2027 08:05:08.021   02 Jun 2027 08:07:07.748           119.727              Murmansk1         14965.875
        59   02 Jun 2027 08:07:56.882   02 Jun 2027 08:12:49.044           292.162              Murmansk2         36520.250
        60   02 Jun 2027 09:14:29.785   02 Jun 2027 09:22:05.929           456.144               CapeTown         57018.000
        61   02 Jun 2027 09:39:33.416   02 Jun 2027 09:40:13.595            40.179              Murmansk2          5022.375
        62   02 Jun 2027 09:40:35.799   02 Jun 2027 09:43:39.030           183.231                 Moscow         22903.875
        63   02 Jun 2027 09:43:54.895   02 Jun 2027 09:45:16.691            81.796              Murmansk1         10224.500
        64   02 Jun 2027 09:45:16.691   02 Jun 2027 09:47:52.926           156.235              Murmansk2         19529.375
        65   02 Jun 2027 09:48:44.348   02 Jun 2027 09:48:46.081             1.733              Murmansk1           216.625
        66   02 Jun 2027 09:50:48.575   02 Jun 2027 09:53:59.769           191.194                Anadyr1         23899.250
        67   02 Jun 2027 11:26:28.432   02 Jun 2027 11:26:39.042            10.610                Anadyr1          1326.250
        68   02 Jun 2027 11:27:37.755   02 Jun 2027 11:28:02.312            24.557                Anadyr1          3069.625
        69   02 Jun 2027 13:04:42.452   02 Jun 2027 13:10:52.147           369.695               Magadan1         46211.875
        70   02 Jun 2027 15:00:24.924   02 Jun 2027 15:02:37.098           132.174                Sumatra         16521.750
        71   02 Jun 2027 15:32:13.132   02 Jun 2027 15:33:37.661            84.529            RioGallegos         10566.125
        72   02 Jun 2027 16:24:57.810   02 Jun 2027 16:26:48.702           110.892                Irkutsk         13861.500
        73   02 Jun 2027 16:33:59.410   02 Jun 2027 16:35:06.740            67.330                Sumatra          8416.250
        74   02 Jun 2027 16:35:28.554   02 Jun 2027 16:36:45.848            77.294                  Delhi          9661.750
        75   02 Jun 2027 17:56:23.719   02 Jun 2027 17:57:26.668            62.949                Novosib          7868.625
        76   02 Jun 2027 18:03:15.813   02 Jun 2027 18:05:10.914           115.101                  Delhi         14387.625
        77   02 Jun 2027 19:39:40.671   02 Jun 2027 19:39:46.513             5.842                 Moscow           730.250
        78   02 Jun 2027 21:08:14.968   02 Jun 2027 21:08:51.333            36.365              Murmansk1          4545.625
        79   02 Jun 2027 21:09:27.258   02 Jun 2027 21:11:20.336           113.078                 Moscow         14134.750
        80   02 Jun 2027 21:12:45.933   02 Jun 2027 21:14:15.983            90.050                 Moscow         11256.250
        81   02 Jun 2027 21:34:36.217   02 Jun 2027 21:35:05.389            29.172               CapeTown          3646.500
        82   02 Jun 2027 21:36:33.411   02 Jun 2027 21:38:21.594           108.183               CapeTown         13522.875
        83   03 Jun 2027 03:05:51.546   03 Jun 2027 03:09:26.482           214.936                Sumatra          5687.875
        84   03 Jun 2027 03:30:06.933   03 Jun 2027 03:31:10.124            63.191              Murmansk2          7898.875
        85   03 Jun 2027 03:31:24.438   03 Jun 2027 03:31:43.775            19.337                Novosib          2417.125
        86   03 Jun 2027 03:31:47.169   03 Jun 2027 03:31:56.262             9.093                Norilsk          1136.625
        87   03 Jun 2027 04:40:06.227   03 Jun 2027 04:40:51.348            45.121                Sumatra          5640.125
        88   03 Jun 2027 04:42:41.561   03 Jun 2027 04:44:10.237            88.676                Sumatra         11084.500
        89   03 Jun 2027 05:05:19.567   03 Jun 2027 05:07:47.745           148.178                Novosib         18522.250
        90   03 Jun 2027 05:07:55.259   03 Jun 2027 05:08:41.849            46.590                 Moscow          5823.750
        91   03 Jun 2027 05:08:43.502   03 Jun 2027 05:13:13.377           269.875              Murmansk2         33734.375
        92   03 Jun 2027 06:31:57.052   03 Jun 2027 06:33:47.742           110.690                  Delhi         13836.250
        93   03 Jun 2027 06:34:06.576   03 Jun 2027 06:37:25.740           199.164                Novosib         24895.500
        94   03 Jun 2027 06:41:49.259   03 Jun 2027 06:45:17.851           208.592                 Moscow         26074.000
        95   03 Jun 2027 06:45:39.942   03 Jun 2027 06:48:54.523           194.581              Murmansk2         24322.625
        96   03 Jun 2027 08:08:31.054   03 Jun 2027 08:08:44.705            13.651                 Moscow          1706.375
        97   03 Jun 2027 08:11:43.994   03 Jun 2027 08:15:17.762           213.768                 Moscow         26721.000
        98   03 Jun 2027 08:16:26.379   03 Jun 2027 08:21:18.290           291.911                 Moscow         36488.875
        99   03 Jun 2027 08:21:29.317   03 Jun 2027 08:24:50.772           201.455              Murmansk2         25181.875
       100   03 Jun 2027 08:28:54.259   03 Jun 2027 08:31:38.412           164.153                Anadyr1         20519.125
       101   03 Jun 2027 09:27:34.628   03 Jun 2027 09:34:25.693           411.065               CapeTown         51383.125
       102   03 Jun 2027 10:06:43.547   03 Jun 2027 10:07:44.515            60.968                Anadyr1          7621.000
       103   03 Jun 2027 10:12:17.586   03 Jun 2027 10:12:18.419             0.833                Anadyr2           104.125
       104   03 Jun 2027 13:16:42.435   03 Jun 2027 13:17:06.923            24.488               Magadan1          3061.000
       105   03 Jun 2027 13:17:48.160   03 Jun 2027 13:19:51.399           123.239               Magadan2         15404.875
       106   03 Jun 2027 15:11:17.352   03 Jun 2027 15:17:05.664           348.312                Sumatra         43539.000
       107   03 Jun 2027 15:18:27.534   03 Jun 2027 15:19:39.675            72.141                Sumatra          9017.625
       108   03 Jun 2027 16:37:44.033   03 Jun 2027 16:37:59.592            15.559                Novosib          1944.875
       109   03 Jun 2027 16:46:26.098   03 Jun 2027 16:49:53.625           207.527                  Delhi         25940.875
       110   03 Jun 2027 18:15:17.376   03 Jun 2027 18:16:35.482            78.106                  Delhi          9763.250
       111   03 Jun 2027 18:18:27.879   03 Jun 2027 18:20:12.030           104.151                  Delhi         13018.875
       112   03 Jun 2027 19:50:18.596   03 Jun 2027 19:52:56.804           158.208                 Moscow         19776.000
       113   03 Jun 2027 21:45:27.276   03 Jun 2027 21:46:34.489            67.213               CapeTown          8401.625
       114   03 Jun 2027 21:47:55.617   03 Jun 2027 21:48:31.329            35.712               CapeTown          4464.000
       115   03 Jun 2027 21:53:17.147   03 Jun 2027 21:53:23.669             6.522               CapeTown           815.250
       116   03 Jun 2027 21:57:43.210   03 Jun 2027 21:58:02.032            18.822               CapeTown          2352.750
       117   04 Jun 2027 03:17:01.361   04 Jun 2027 03:17:22.773            21.412                Sumatra          2676.500
       118   04 Jun 2027 03:18:04.008   04 Jun 2027 03:24:36.235           392.227                Sumatra          4262.500
       119   04 Jun 2027 03:42:24.843   04 Jun 2027 03:42:49.646            24.803                Novosib          3100.375
       120   04 Jun 2027 04:52:25.136   04 Jun 2027 04:52:27.220             2.084                Sumatra           260.500
       121   04 Jun 2027 04:54:24.663   04 Jun 2027 04:56:36.272           131.609                Sumatra         16451.125
       122   04 Jun 2027 05:17:52.574   04 Jun 2027 05:18:46.884            54.310              Murmansk2          6788.750
       123   04 Jun 2027 05:19:20.261   04 Jun 2027 05:19:47.405            27.144                Novosib          3393.000
       124   04 Jun 2027 05:19:50.390   04 Jun 2027 05:20:51.128            60.738                 Moscow          7592.250
       125   04 Jun 2027 05:21:25.975   04 Jun 2027 05:25:11.483           225.508              Murmansk2         28188.500
       126   04 Jun 2027 06:43:52.617   04 Jun 2027 06:45:41.109           108.492                  Delhi         13561.500
       127   04 Jun 2027 06:46:05.926   04 Jun 2027 06:49:10.485           184.559                Novosib         23069.875
       128   04 Jun 2027 06:49:22.738   04 Jun 2027 06:49:39.539            16.801                 Moscow          2100.125
       129   04 Jun 2027 06:53:58.438   04 Jun 2027 06:54:36.306            37.868              Murmansk1          4733.500
       130   04 Jun 2027 06:54:57.425   04 Jun 2027 06:57:21.621           144.196                 Moscow         18024.500
       131   04 Jun 2027 06:57:53.482   04 Jun 2027 07:00:55.419           181.937              Murmansk2         22742.125
       132   04 Jun 2027 08:23:43.659   04 Jun 2027 08:25:11.984            88.325                 Moscow         11040.625
       133   04 Jun 2027 08:27:16.621   04 Jun 2027 08:30:27.003           190.382              Murmansk1         23797.750
       134   04 Jun 2027 08:30:53.516   04 Jun 2027 08:33:17.304           143.788                 Moscow         17973.500
       135   04 Jun 2027 08:33:18.713   04 Jun 2027 08:36:52.502           213.789              Murmansk1         26723.625
       136   04 Jun 2027 08:40:09.767   04 Jun 2027 08:44:23.556           253.789                Anadyr2         31723.625
       137   04 Jun 2027 10:14:43.738   04 Jun 2027 10:14:51.639             7.901                Anadyr2           987.625
       138   04 Jun 2027 10:19:22.044   04 Jun 2027 10:19:41.707            19.663                Anadyr1          2457.875
       139   04 Jun 2027 11:53:14.084   04 Jun 2027 11:53:22.017             7.933               Magadan2           991.625
       140   04 Jun 2027 11:55:33.729   04 Jun 2027 11:56:07.677            33.948               Magadan1          4243.500
       141   04 Jun 2027 13:28:42.902   04 Jun 2027 13:29:01.414            18.512               Magadan2          2314.000
       142   04 Jun 2027 13:30:17.994   04 Jun 2027 13:31:04.899            46.905               Magadan1          5863.125
       143   04 Jun 2027 13:36:15.905   04 Jun 2027 13:38:18.083           122.178               Magadan2         15272.250
       144   04 Jun 2027 15:11:56.200   04 Jun 2027 15:13:17.731            81.531                Irkutsk         10191.375
       145   04 Jun 2027 15:22:47.759   04 Jun 2027 15:24:19.316            91.557                Sumatra         11444.625
       146   04 Jun 2027 15:26:14.317   04 Jun 2027 15:29:52.944           218.627                Sumatra         27328.375
       147   04 Jun 2027 16:47:34.044   04 Jun 2027 16:48:57.544            83.500                Novosib         10437.500
       148   04 Jun 2027 16:52:45.540   04 Jun 2027 17:01:35.580           530.040                  Delhi         66255.000
       149   04 Jun 2027 20:03:02.169   04 Jun 2027 20:03:02.998             0.829                 Moscow           103.625
       150   04 Jun 2027 20:05:13.719   04 Jun 2027 20:06:53.148            99.429                 Moscow         12428.625
       151   04 Jun 2027 21:57:39.057   04 Jun 2027 21:58:10.223            31.166               CapeTown          3895.750
       152   04 Jun 2027 22:00:11.544   04 Jun 2027 22:02:08.190           116.646               CapeTown          7625.875
       153   05 Jun 2027 05:06:00.263   05 Jun 2027 05:06:46.891            46.628                Sumatra          5828.500
       154   05 Jun 2027 05:17:45.561   05 Jun 2027 05:18:02.727            17.166                  Delhi          2145.750
       155   05 Jun 2027 05:19:25.485   05 Jun 2027 05:21:36.966           131.481                  Delhi         16435.125
       156   05 Jun 2027 05:30:09.209   05 Jun 2027 05:32:59.235           170.026                 Moscow         21253.250
       157   05 Jun 2027 05:33:19.565   05 Jun 2027 05:37:10.065           230.500              Murmansk2         28812.500
       158   05 Jun 2027 06:55:44.420   05 Jun 2027 06:57:39.763           115.343                  Delhi         14417.875
       159   05 Jun 2027 06:58:36.567   05 Jun 2027 07:00:57.866           141.299                Novosib         17662.375
       160   05 Jun 2027 07:06:34.800   05 Jun 2027 07:06:45.057            10.257                Norilsk          1282.125
       161   05 Jun 2027 07:07:15.931   05 Jun 2027 07:09:24.909           128.978                 Moscow         16122.250
       162   05 Jun 2027 07:09:46.816   05 Jun 2027 07:12:56.525           189.709              Murmansk2         23713.625
       163   05 Jun 2027 08:14:35.019   05 Jun 2027 08:17:25.498           170.479               CapeTown         21309.875
       164   05 Jun 2027 08:35:42.495   05 Jun 2027 08:37:07.016            84.521                 Moscow         10565.125
       165   05 Jun 2027 08:39:18.349   05 Jun 2027 08:41:25.752           127.403              Murmansk1         15925.375
       166   05 Jun 2027 08:41:47.473   05 Jun 2027 08:42:34.384            46.911              Murmansk1          5863.875
       167   05 Jun 2027 08:42:37.069   05 Jun 2027 08:43:05.250            28.181                 Moscow          3522.625
       168   05 Jun 2027 08:44:01.399   05 Jun 2027 08:48:54.209           292.810              Murmansk2         36601.250
       169   05 Jun 2027 08:51:46.460   05 Jun 2027 08:56:16.312           269.852                Anadyr2         33731.500
       170   05 Jun 2027 10:26:42.521   05 Jun 2027 10:27:23.608            41.087                Anadyr2          5135.875
       171   05 Jun 2027 12:05:08.440   05 Jun 2027 12:09:19.220           250.780               Magadan1         31347.500
       172   05 Jun 2027 13:44:02.861   05 Jun 2027 13:46:13.491           130.630               Magadan2         16328.750
       173   05 Jun 2027 15:24:54.822   05 Jun 2027 15:26:02.578            67.756                Irkutsk          8469.500
       174   05 Jun 2027 15:34:26.658   05 Jun 2027 15:40:51.854           385.196                Sumatra         48149.500
       175   05 Jun 2027 17:03:58.855   05 Jun 2027 17:05:50.441           111.586                Novosib         13948.250
       176   05 Jun 2027 17:06:11.372   05 Jun 2027 17:13:38.053           446.681                  Delhi         55835.125
       177   05 Jun 2027 20:18:21.884   05 Jun 2027 20:19:18.947            57.063                 Moscow          6074.000
       178   06 Jun 2027 04:06:11.408   06 Jun 2027 04:06:18.813             7.405                Irkutsk           925.625
       179   06 Jun 2027 04:06:29.930   06 Jun 2027 04:06:54.477            24.547                Novosib          3068.375
       180   06 Jun 2027 05:17:31.405   06 Jun 2027 05:18:58.662            87.257                Sumatra         10907.125
       181   06 Jun 2027 05:24:12.931   06 Jun 2027 05:24:24.886            11.955                  Delhi          1494.375
       182   06 Jun 2027 05:28:05.517   06 Jun 2027 05:29:38.486            92.969                  Delhi         11621.125
       183   06 Jun 2027 05:41:44.299   06 Jun 2027 05:42:51.112            66.813              Murmansk1          8351.625
       184   06 Jun 2027 05:42:52.721   06 Jun 2027 05:43:44.109            51.388                Novosib          6423.500
       185   06 Jun 2027 05:43:49.301   06 Jun 2027 05:45:06.428            77.127                 Moscow          9640.875
       186   06 Jun 2027 05:45:12.088   06 Jun 2027 05:49:09.094           237.006              Murmansk2         29625.750
       187   06 Jun 2027 07:08:48.752   06 Jun 2027 07:09:46.188            57.436                 Moscow          7179.500
       188   06 Jun 2027 07:11:37.083   06 Jun 2027 07:11:58.411            21.328                Novosib          2666.000
       189   06 Jun 2027 07:12:44.749   06 Jun 2027 07:13:36.198            51.449                 Moscow          6431.125
       190   06 Jun 2027 07:17:37.702   06 Jun 2027 07:17:51.204            13.502                Novosib          1687.750
       191   06 Jun 2027 07:18:59.051   06 Jun 2027 07:21:27.714           148.663                 Moscow         18582.875
       192   06 Jun 2027 07:21:36.519   06 Jun 2027 07:24:57.799           201.280              Murmansk2         25160.000
       193   06 Jun 2027 08:24:53.988   06 Jun 2027 08:31:24.617           390.629               CapeTown         48828.625
       194   06 Jun 2027 08:47:47.329   06 Jun 2027 08:48:15.279            27.950                 Moscow          3493.750
       195   06 Jun 2027 08:51:20.047   06 Jun 2027 08:53:36.600           136.553              Murmansk1         17069.125
       196   06 Jun 2027 08:53:45.887   06 Jun 2027 08:54:55.016            69.129                 Moscow          8641.125
       197   06 Jun 2027 08:56:03.064   06 Jun 2027 09:00:55.859           292.795              Murmansk2         36599.375
       198   06 Jun 2027 09:03:31.304   06 Jun 2027 09:06:38.488           187.184                Anadyr2         23398.000
       199   06 Jun 2027 10:39:46.179   06 Jun 2027 10:40:51.620            65.441                Anadyr1          8180.125
       200   06 Jun 2027 10:41:46.930   06 Jun 2027 10:43:34.441           107.511                Anadyr1         13438.875
       201   06 Jun 2027 12:17:04.267   06 Jun 2027 12:18:36.319            92.052               Magadan2         11506.500
       202   06 Jun 2027 12:21:59.946   06 Jun 2027 12:22:11.055            11.109               Magadan2          1388.625
       203   06 Jun 2027 12:24:36.630   06 Jun 2027 12:26:36.300           119.670               Magadan1         14958.750
       204   06 Jun 2027 14:47:58.057   06 Jun 2027 14:49:01.348            63.291            RioGallegos          7911.375
       205   06 Jun 2027 15:34:30.778   06 Jun 2027 15:34:57.445            26.667                Irkutsk          3333.375
       206   06 Jun 2027 15:37:41.292   06 Jun 2027 15:37:46.117             4.825                Irkutsk           603.125
       207   06 Jun 2027 15:39:33.179   06 Jun 2027 15:41:59.110           145.931                Irkutsk         18241.375
       208   06 Jun 2027 15:46:12.540   06 Jun 2027 15:48:58.783           166.243                Sumatra         20780.375
       209   06 Jun 2027 17:08:15.296   06 Jun 2027 17:10:42.898           147.602                Novosib         18450.250
       210   06 Jun 2027 17:16:00.192   06 Jun 2027 17:22:15.710           375.518                  Delhi         46939.750
       211   06 Jun 2027 20:21:43.985   06 Jun 2027 20:22:49.636            65.651                 Moscow          8206.375
       212   06 Jun 2027 20:24:26.813   06 Jun 2027 20:26:45.294           138.481                 Moscow         12792.500
       213   07 Jun 2027 05:30:29.494   07 Jun 2027 05:30:59.490            29.996                Sumatra          3749.500
       214   07 Jun 2027 05:36:12.055   07 Jun 2027 05:38:23.841           131.786                  Delhi         16473.250
       215   07 Jun 2027 05:39:24.633   07 Jun 2027 05:41:20.571           115.938                  Delhi         14492.250
       216   07 Jun 2027 05:54:12.094   07 Jun 2027 05:54:53.150            41.056              Murmansk2          5132.000
       217   07 Jun 2027 05:55:00.643   07 Jun 2027 05:55:40.843            40.200                Novosib          5025.000
       218   07 Jun 2027 05:56:11.056   07 Jun 2027 05:57:12.881            61.825                 Moscow          7728.125
       219   07 Jun 2027 05:57:14.687   07 Jun 2027 06:01:08.521           233.834              Murmansk2         29229.250
       220   07 Jun 2027 07:20:42.618   07 Jun 2027 07:21:17.137            34.519                 Moscow          4314.875
       221   07 Jun 2027 07:29:40.715   07 Jun 2027 07:30:12.075            31.360              Murmansk1          3920.000
       222   07 Jun 2027 07:31:56.077   07 Jun 2027 07:33:30.005            93.928                 Moscow         11741.000
       223   07 Jun 2027 07:33:35.671   07 Jun 2027 07:36:59.215           203.544              Murmansk2         25443.000
       224   07 Jun 2027 08:36:02.792   07 Jun 2027 08:44:31.476           508.684               CapeTown         63585.500
       225   07 Jun 2027 09:03:21.679   07 Jun 2027 09:06:15.537           173.858              Murmansk2         21732.250
       226   07 Jun 2027 09:07:16.936   07 Jun 2027 09:07:38.073            21.137                 Moscow          2642.125
       227   07 Jun 2027 09:08:04.765   07 Jun 2027 09:09:51.494           106.729              Murmansk1         13341.125
       228   07 Jun 2027 09:09:51.494   07 Jun 2027 09:11:58.685           127.191              Murmansk2         15898.875
       229   07 Jun 2027 09:12:54.176   07 Jun 2027 09:12:57.413             3.237              Murmansk1           404.625
       230   07 Jun 2027 09:15:20.710   07 Jun 2027 09:23:41.552           500.842                Anadyr2         62605.250
       231   07 Jun 2027 10:17:41.111   07 Jun 2027 10:21:16.930           215.819               CapeTown         26977.375
       232   07 Jun 2027 10:52:56.659   07 Jun 2027 10:53:02.762             6.103                Anadyr2           762.875
       233   07 Jun 2027 12:29:01.275   07 Jun 2027 12:34:03.256           301.981               Magadan1         37747.625
       234   07 Jun 2027 12:34:35.819   07 Jun 2027 12:39:29.329           293.510               Magadan2         36688.750
       235   07 Jun 2027 15:00:59.406   07 Jun 2027 15:02:14.229            74.823            RioGallegos          9352.875
       236   07 Jun 2027 15:58:04.549   07 Jun 2027 16:02:24.981           260.432                Sumatra         32554.000
       237   07 Jun 2027 17:20:12.805   07 Jun 2027 17:21:14.919            62.114                Novosib          7764.250
       238   07 Jun 2027 17:27:46.668   07 Jun 2027 17:33:37.305           350.637                  Delhi         43829.625
       239   07 Jun 2027 20:33:42.312   07 Jun 2027 20:34:32.739            50.427                 Moscow          6303.375
       240   07 Jun 2027 20:35:43.734   07 Jun 2027 20:38:39.605           175.871                 Moscow         12483.250
       241   08 Jun 2027 04:30:32.584   08 Jun 2027 04:31:16.070            43.486                Norilsk          5435.750
       242   08 Jun 2027 05:44:21.400   08 Jun 2027 05:45:08.812            47.412                Sumatra          5926.500
       243   08 Jun 2027 05:46:51.559   08 Jun 2027 05:47:21.729            30.170                Sumatra          3771.250
       244   08 Jun 2027 05:48:16.551   08 Jun 2027 05:49:45.714            89.163                  Delhi         11145.375
       245   08 Jun 2027 05:53:08.404   08 Jun 2027 05:56:05.103           176.699                  Delhi         22087.375
       246   08 Jun 2027 06:06:09.920   08 Jun 2027 06:06:55.097            45.177              Murmansk1          5647.125
       247   08 Jun 2027 06:06:56.112   08 Jun 2027 06:09:18.696           142.584                 Moscow         17823.000
       248   08 Jun 2027 06:09:31.487   08 Jun 2027 06:13:08.311           216.824              Murmansk2         27103.000
       249   08 Jun 2027 07:32:39.224   08 Jun 2027 07:32:58.457            19.233                 Moscow          2404.125
       250   08 Jun 2027 07:42:58.524   08 Jun 2027 07:45:30.108           151.584                Norilsk         18948.000
       251   08 Jun 2027 07:45:31.140   08 Jun 2027 07:49:00.750           209.610              Murmansk2         26201.250
       252   08 Jun 2027 08:47:28.571   08 Jun 2027 08:57:19.037           590.466               CapeTown         73808.250
       253   08 Jun 2027 09:11:50.923   08 Jun 2027 09:12:06.712            15.789                 Moscow          1973.625
       254   08 Jun 2027 09:15:23.212   08 Jun 2027 09:18:07.472           164.260              Murmansk2         20532.500
       255   08 Jun 2027 09:20:06.466   08 Jun 2027 09:23:48.593           222.127              Murmansk1         27765.875
       256   08 Jun 2027 09:24:55.761   08 Jun 2027 09:24:58.841             3.080              Murmansk2           385.000
       257   08 Jun 2027 09:27:13.066   08 Jun 2027 09:36:20.432           547.366                Anadyr1         68420.750
       258   08 Jun 2027 10:25:58.257   08 Jun 2027 10:29:29.823           211.566               CapeTown         26445.750
       259   08 Jun 2027 12:40:59.238   08 Jun 2027 12:43:28.695           149.457               Magadan1         18682.125
       260   08 Jun 2027 12:45:49.870   08 Jun 2027 12:45:57.401             7.531               Magadan2           941.375
       261   08 Jun 2027 12:47:06.693   08 Jun 2027 12:48:11.623            64.930               Magadan1          8116.250
       262   08 Jun 2027 14:17:37.608   08 Jun 2027 14:17:50.204            12.596               Magadan1          1574.500
       263   08 Jun 2027 14:21:32.024   08 Jun 2027 14:23:48.844           136.820               Magadan2         17102.500
       264   08 Jun 2027 15:08:36.830   08 Jun 2027 15:10:38.763           121.933            RioGallegos         15241.625
       265   08 Jun 2027 15:56:20.431   08 Jun 2027 15:57:38.950            78.519                Irkutsk          9814.875
       266   08 Jun 2027 16:01:24.536   08 Jun 2027 16:02:50.694            86.158                Irkutsk         10769.750
       267   08 Jun 2027 16:05:51.039   08 Jun 2027 16:05:53.215             2.176                Irkutsk           272.000
       268   08 Jun 2027 16:10:02.254   08 Jun 2027 16:12:55.654           173.400                Sumatra         21675.000
       269   08 Jun 2027 17:34:34.194   08 Jun 2027 17:37:07.866           153.672                Novosib         19209.000
       270   08 Jun 2027 17:39:37.640   08 Jun 2027 17:42:27.600           169.960                  Delhi         21245.000
       271   08 Jun 2027 19:16:21.498   08 Jun 2027 19:17:55.717            94.219                  Delhi         11777.375
       272   08 Jun 2027 20:42:26.091   08 Jun 2027 20:42:27.225             1.134              Murmansk1           141.750
       273   08 Jun 2027 20:45:41.539   08 Jun 2027 20:46:20.191            38.652                 Moscow          4831.500
       274   08 Jun 2027 20:48:50.266   08 Jun 2027 20:50:35.459           105.193                 Moscow         13149.125
       275   08 Jun 2027 22:55:03.354   08 Jun 2027 22:55:06.831             3.477               CapeTown           434.625
       276   09 Jun 2027 03:06:31.109   09 Jun 2027 03:08:10.252            99.143              Murmansk2         12392.875
       277   09 Jun 2027 04:16:03.203   09 Jun 2027 04:18:25.281           142.078                Sumatra         17759.750
       278   09 Jun 2027 04:41:34.196   09 Jun 2027 04:41:49.344            15.148                Novosib          1893.500
       279   09 Jun 2027 04:42:33.381   09 Jun 2027 04:49:33.671           420.290              Murmansk2         52536.250
       280   09 Jun 2027 06:00:26.667   09 Jun 2027 06:12:46.323           739.656                  Delhi         92457.000
       281   09 Jun 2027 06:12:55.243   09 Jun 2027 06:13:42.267            47.024                 Moscow          5878.000
       282   09 Jun 2027 06:18:06.286   09 Jun 2027 06:19:19.709            73.423                Novosib          9177.875
       283   09 Jun 2027 06:19:57.456   09 Jun 2027 06:21:23.945            86.489                 Moscow         10811.125
       284   09 Jun 2027 06:22:02.138   09 Jun 2027 06:25:08.431           186.293              Murmansk2         23286.625
       285   09 Jun 2027 07:47:57.547   09 Jun 2027 07:50:41.827           164.280                 Moscow         20535.000
       286   09 Jun 2027 07:54:02.057   09 Jun 2027 07:54:46.919            44.862              Murmansk2          5607.750
       287   09 Jun 2027 07:54:52.705   09 Jun 2027 07:55:14.348            21.643                Norilsk          2705.375
       288   09 Jun 2027 07:55:54.827   09 Jun 2027 07:57:32.933            98.106                 Moscow         12263.250
       289   09 Jun 2027 07:57:49.991   09 Jun 2027 08:01:02.377           192.386              Murmansk1         24048.250
       290   09 Jun 2027 09:00:56.839   09 Jun 2027 09:09:54.626           537.787               CapeTown         67223.375
       291   09 Jun 2027 09:27:24.607   09 Jun 2027 09:28:34.564            69.957              Murmansk1          8744.625
       292   09 Jun 2027 09:28:34.564   09 Jun 2027 09:28:56.476            21.912              Murmansk2          2739.000
       293   09 Jun 2027 09:28:58.591   09 Jun 2027 09:30:03.889            65.298                 Moscow          8162.250
       294   09 Jun 2027 09:32:08.139   09 Jun 2027 09:34:13.231           125.092              Murmansk2         15636.500
       295   09 Jun 2027 09:34:13.231   09 Jun 2027 09:36:08.615           115.384              Murmansk1         14423.000
       296   09 Jun 2027 09:36:57.407   09 Jun 2027 09:37:00.083             2.676              Murmansk2           334.500
       297   09 Jun 2027 09:39:07.502   09 Jun 2027 09:41:24.906           137.404                Anadyr1         17175.500
       298   09 Jun 2027 11:24:17.741   09 Jun 2027 11:25:21.747            64.006                Anadyr1          8000.750
       299   09 Jun 2027 12:52:57.994   09 Jun 2027 12:55:03.918           125.924               Magadan1         15740.500
       300   09 Jun 2027 12:55:44.283   09 Jun 2027 12:59:31.068           226.785               Magadan1         28348.125
       301   09 Jun 2027 14:49:45.384   09 Jun 2027 14:49:55.996            10.612                Sumatra          1326.500
       302   09 Jun 2027 15:20:31.629   09 Jun 2027 15:22:24.789           113.160            RioGallegos         14145.000
       303   09 Jun 2027 16:09:39.919   09 Jun 2027 16:11:20.314           100.395                Irkutsk         12549.375
       304   09 Jun 2027 16:15:16.587   09 Jun 2027 16:15:46.385            29.798                Irkutsk          3724.750
       305   09 Jun 2027 16:20:52.022   09 Jun 2027 16:21:02.167            10.145                Irkutsk          1268.125
       306   09 Jun 2027 16:22:05.555   09 Jun 2027 16:24:00.143           114.588                Sumatra         14323.500
       307   09 Jun 2027 16:29:45.741   09 Jun 2027 16:31:46.825           121.084                Sumatra         15135.500
       308   09 Jun 2027 17:49:04.003   09 Jun 2027 17:51:29.230           145.227                Novosib         18153.375
       309   09 Jun 2027 17:51:32.467   09 Jun 2027 17:54:17.275           164.808                  Delhi         20601.000
       310   09 Jun 2027 18:01:04.924   09 Jun 2027 18:01:05.365             0.441                  Delhi            55.125
       311   09 Jun 2027 20:56:40.148   09 Jun 2027 20:57:24.159            44.011              Murmansk2          5501.375
       312   09 Jun 2027 20:57:41.556   09 Jun 2027 21:00:57.132           195.576                 Moscow         24447.000
       313   10 Jun 2027 02:55:05.311   10 Jun 2027 02:56:25.265            79.954                Sumatra          4219.750
       314   10 Jun 2027 03:18:40.154   10 Jun 2027 03:19:54.215            74.061                Novosib          9257.625
       315   10 Jun 2027 03:20:07.182   10 Jun 2027 03:22:23.314           136.132                Norilsk         17016.500
       316   10 Jun 2027 04:28:09.351   10 Jun 2027 04:29:38.966            89.615                Sumatra         11201.875
       317   10 Jun 2027 04:31:06.862   10 Jun 2027 04:32:57.015           110.153                Sumatra         13769.125
       318   10 Jun 2027 04:54:21.197   10 Jun 2027 04:54:37.523            16.326              Murmansk2          2040.750
       319   10 Jun 2027 04:54:46.319   10 Jun 2027 04:56:02.346            76.027                Novosib          9503.375
       320   10 Jun 2027 04:56:09.242   10 Jun 2027 04:56:46.189            36.947                 Moscow          4618.375
       321   10 Jun 2027 04:56:59.709   10 Jun 2027 05:01:30.708           270.999              Murmansk2         33874.875
       322   10 Jun 2027 06:15:09.738   10 Jun 2027 06:17:00.201           110.463                  Delhi         13807.875
       323   10 Jun 2027 06:20:12.883   10 Jun 2027 06:24:34.188           261.305                  Delhi         32663.125
       324   10 Jun 2027 06:24:41.128   10 Jun 2027 06:25:16.621            35.493                 Moscow          4436.625
       325   10 Jun 2027 06:30:19.093   10 Jun 2027 06:30:58.631            39.538              Murmansk1          4942.250
       326   10 Jun 2027 06:31:14.302   10 Jun 2027 06:33:28.674           134.372                 Moscow         16796.500
       327   10 Jun 2027 06:34:18.712   10 Jun 2027 06:37:08.844           170.132              Murmansk2         21266.500
       328   10 Jun 2027 07:59:58.592   10 Jun 2027 08:00:29.324            30.732                 Moscow          3841.500
       329   10 Jun 2027 08:05:22.677   10 Jun 2027 08:06:46.410            83.733              Murmansk2         10466.625
       330   10 Jun 2027 08:06:52.540   10 Jun 2027 08:09:33.457           160.917                 Moscow         20114.625
       331   10 Jun 2027 08:09:37.357   10 Jun 2027 08:13:04.067           206.710              Murmansk2         25838.750
       332   10 Jun 2027 09:14:45.960   10 Jun 2027 09:22:21.394           455.434               CapeTown         56929.250
       333   10 Jun 2027 09:39:27.231   10 Jun 2027 09:40:29.493            62.262              Murmansk2          7782.750
       334   10 Jun 2027 09:40:50.459   10 Jun 2027 09:43:51.459           181.000                 Moscow         22625.000
       335   10 Jun 2027 09:44:09.750   10 Jun 2027 09:48:08.040           238.290              Murmansk2         29786.250
       336   10 Jun 2027 09:48:59.088   10 Jun 2027 09:49:01.097             2.009              Murmansk1           251.125
       337   10 Jun 2027 09:51:03.469   10 Jun 2027 10:00:06.204           542.735                Anadyr1         67841.875
       338   10 Jun 2027 11:36:03.852   10 Jun 2027 11:36:49.268            45.416               Magadan2          5677.000
       339   10 Jun 2027 13:04:57.424   10 Jun 2027 13:05:28.844            31.420               Magadan2          3927.500
       340   10 Jun 2027 13:07:56.853   10 Jun 2027 13:09:49.918           113.065               Magadan1         14133.125
       341   10 Jun 2027 13:11:55.912   10 Jun 2027 13:14:57.375           181.463               Magadan2         22682.875
       342   10 Jun 2027 15:00:37.128   10 Jun 2027 15:03:02.870           145.742                Sumatra         18217.750
       343   10 Jun 2027 15:09:11.770   10 Jun 2027 15:09:13.295             1.525                Sumatra           190.625
       344   10 Jun 2027 15:32:28.048   10 Jun 2027 15:33:51.978            83.930            RioGallegos         10491.250
       345   10 Jun 2027 16:34:14.650   10 Jun 2027 16:35:20.974            66.324                Sumatra          8290.500
       346   10 Jun 2027 16:35:41.830   10 Jun 2027 16:37:02.589            80.759                  Delhi         10094.875
       347   10 Jun 2027 16:41:55.826   10 Jun 2027 16:43:03.584            67.758                Sumatra          8469.750
       348   10 Jun 2027 17:59:27.421   10 Jun 2027 18:00:13.062            45.641                Novosib          5705.125
       349   10 Jun 2027 18:03:30.794   10 Jun 2027 18:05:25.017           114.223                  Delhi         14277.875
       350   10 Jun 2027 18:10:56.853   10 Jun 2027 18:13:06.335           129.482                  Delhi         16185.250
       351   10 Jun 2027 19:39:48.814   10 Jun 2027 19:39:49.068             0.254                 Moscow            31.750
       352   10 Jun 2027 21:09:42.261   10 Jun 2027 21:10:03.600            21.339                 Moscow          2667.375
       353   10 Jun 2027 21:11:17.871   10 Jun 2027 21:11:28.241            10.370              Murmansk2          1296.250
       354   10 Jun 2027 21:11:35.430   10 Jun 2027 21:13:00.966            85.536                 Moscow         10692.000
       355   10 Jun 2027 21:34:41.966   10 Jun 2027 21:35:19.609            37.643               CapeTown          4705.375
       356   10 Jun 2027 21:36:48.381   10 Jun 2027 21:38:36.224           107.843               CapeTown         13480.375
       357   11 Jun 2027 03:06:02.296   11 Jun 2027 03:09:56.362           234.066                Sumatra          6141.250
       358   11 Jun 2027 03:30:21.672   11 Jun 2027 03:32:04.386           102.714              Murmansk2         12839.250
       359   11 Jun 2027 04:40:21.538   11 Jun 2027 04:41:05.652            44.114                Sumatra          5514.250
       360   11 Jun 2027 04:42:16.569   11 Jun 2027 04:42:56.261            39.692                Sumatra          4961.500
       361   11 Jun 2027 04:47:58.641   11 Jun 2027 04:48:18.556            19.915                Sumatra          2489.375
       362   11 Jun 2027 05:05:33.699   11 Jun 2027 05:08:02.732           149.033                Novosib         18629.125
       363   11 Jun 2027 05:08:12.011   11 Jun 2027 05:08:57.011            45.000                 Moscow          5625.000
       364   11 Jun 2027 05:08:57.170   11 Jun 2027 05:13:28.306           271.136              Murmansk2         33892.000
       365   11 Jun 2027 06:32:11.833   11 Jun 2027 06:34:02.320           110.487                  Delhi         13810.875
       366   11 Jun 2027 06:34:21.279   11 Jun 2027 06:37:40.172           198.893                Novosib         24861.625
       367   11 Jun 2027 06:42:04.728   11 Jun 2027 06:45:32.910           208.182                 Moscow         26022.750
       368   11 Jun 2027 06:45:55.229   11 Jun 2027 06:49:09.519           194.290              Murmansk1         24286.250
       369   11 Jun 2027 08:11:52.866   11 Jun 2027 08:14:54.829           181.963                 Moscow         22745.375
       370   11 Jun 2027 08:15:29.913   11 Jun 2027 08:15:42.454            12.541              Murmansk2          1567.625
       371   11 Jun 2027 08:16:41.082   11 Jun 2027 08:21:33.270           292.188                 Moscow         36523.500
       372   11 Jun 2027 08:21:44.426   11 Jun 2027 08:25:05.796           201.370              Murmansk2         25171.250
       373   11 Jun 2027 08:29:07.671   11 Jun 2027 08:31:55.845           168.174                Anadyr1         21021.750
       374   11 Jun 2027 09:27:50.375   11 Jun 2027 09:34:41.018           410.643               CapeTown         51330.375
       375   11 Jun 2027 11:47:57.004   11 Jun 2027 11:51:04.764           187.760               Magadan2         23470.000
       376   11 Jun 2027 13:16:57.419   11 Jun 2027 13:18:03.330            65.911               Magadan2          8238.875
       377   11 Jun 2027 13:20:06.559   11 Jun 2027 13:21:11.293            64.734               Magadan2          8091.750
       378   11 Jun 2027 15:11:31.613   11 Jun 2027 15:19:51.676           500.063                Sumatra         62507.875
       379   11 Jun 2027 16:37:44.914   11 Jun 2027 16:38:14.061            29.147                Novosib          3643.375
       380   11 Jun 2027 16:46:35.965   11 Jun 2027 16:50:09.767           213.802                  Delhi         26725.250
       381   11 Jun 2027 18:16:44.755   11 Jun 2027 18:16:49.765             5.010                  Delhi           626.250
       382   11 Jun 2027 18:23:14.371   11 Jun 2027 18:24:28.946            74.575                  Delhi          9321.875
       383   11 Jun 2027 19:50:34.247   11 Jun 2027 19:51:30.967            56.720                 Moscow          7090.000
       384   11 Jun 2027 21:31:19.575   11 Jun 2027 21:33:51.047           151.472                 Moscow         18934.000
       385   11 Jun 2027 21:48:10.579   11 Jun 2027 21:48:46.245            35.666               CapeTown          4458.250
       386   12 Jun 2027 03:17:15.725   12 Jun 2027 03:17:29.109            13.384                Sumatra           588.125
       387   12 Jun 2027 03:42:28.273   12 Jun 2027 03:42:43.269            14.996                Norilsk          1874.500
       388   12 Jun 2027 04:52:40.599   12 Jun 2027 04:54:39.221           118.622                Sumatra         14827.750
       389   12 Jun 2027 05:07:01.931   12 Jun 2027 05:07:17.130            15.199                  Delhi          1899.875
       390   12 Jun 2027 05:18:08.426   12 Jun 2027 05:18:40.402            31.976              Murmansk1          3997.000
       391   12 Jun 2027 05:18:45.345   12 Jun 2027 05:21:06.268           140.923                 Moscow         17615.375
       392   12 Jun 2027 05:21:41.453   12 Jun 2027 05:25:26.424           224.971              Murmansk1         28121.375
       393   12 Jun 2027 06:44:07.333   12 Jun 2027 06:45:55.760           108.427                  Delhi         13553.375
       394   12 Jun 2027 06:46:20.622   12 Jun 2027 06:49:24.948           184.326                Novosib         23040.750
       395   12 Jun 2027 06:49:37.211   12 Jun 2027 06:49:56.229            19.018                 Moscow          2377.250
       396   12 Jun 2027 06:54:13.997   12 Jun 2027 06:54:50.794            36.797              Murmansk1          4599.625
       397   12 Jun 2027 06:55:14.050   12 Jun 2027 06:57:36.672           142.622                 Moscow         17827.750
       398   12 Jun 2027 06:58:08.044   12 Jun 2027 07:01:10.421           182.377              Murmansk2         22797.125
       399   12 Jun 2027 08:23:58.631   12 Jun 2027 08:25:26.817            88.186                 Moscow         11023.250
       400   12 Jun 2027 08:27:31.645   12 Jun 2027 08:30:44.025           192.380              Murmansk1         24047.500
       401   12 Jun 2027 08:31:11.787   12 Jun 2027 08:33:32.263           140.476                 Moscow         17559.500
       402   12 Jun 2027 08:33:33.842   12 Jun 2027 08:37:07.527           213.685              Murmansk1         26710.625
       403   12 Jun 2027 08:40:24.075   12 Jun 2027 08:43:16.192           172.117                Anadyr2         21514.625
       404   12 Jun 2027 11:55:42.897   12 Jun 2027 11:56:44.066            61.169               Magadan2          7646.125
       405   12 Jun 2027 13:28:57.898   12 Jun 2027 13:30:33.099            95.201               Magadan2         11900.125
       406   12 Jun 2027 13:36:30.978   12 Jun 2027 13:40:28.360           237.382               Magadan1         29672.750
       407   12 Jun 2027 15:12:12.179   12 Jun 2027 15:13:42.909            90.730                Irkutsk         11341.250
       408   12 Jun 2027 15:24:34.880   12 Jun 2027 15:30:06.484           331.604                Sumatra         41450.500
       409   12 Jun 2027 16:52:59.867   12 Jun 2027 17:01:43.034           523.167                  Delhi         65395.875
       410   12 Jun 2027 20:05:29.573   12 Jun 2027 20:07:33.697           124.124                 Moscow         15515.500
       411   12 Jun 2027 21:57:54.350   12 Jun 2027 21:58:24.627            30.277               CapeTown          3784.625
       412   12 Jun 2027 22:00:26.451   12 Jun 2027 22:02:22.987           116.536               CapeTown          2121.000
       413   13 Jun 2027 05:06:14.648   13 Jun 2027 05:07:01.811            47.163                Sumatra          5895.375
       414   13 Jun 2027 05:17:56.303   13 Jun 2027 05:19:40.649           104.346                  Delhi         13043.250
       415   13 Jun 2027 05:30:25.434   13 Jun 2027 05:33:14.359           168.925                 Moscow         21115.625
       416   13 Jun 2027 05:33:35.001   13 Jun 2027 05:37:25.017           230.016              Murmansk2         28752.000
       417   13 Jun 2027 06:55:59.074   13 Jun 2027 06:57:54.492           115.418                  Delhi         14427.250
       418   13 Jun 2027 06:58:52.654   13 Jun 2027 07:01:23.946           151.292                Novosib         18911.500
       419   13 Jun 2027 07:06:49.462   13 Jun 2027 07:07:00.493            11.031                Norilsk          1378.875
       420   13 Jun 2027 07:07:32.810   13 Jun 2027 07:09:39.950           127.140                 Moscow         15892.500
       421   13 Jun 2027 07:09:45.691   13 Jun 2027 07:13:11.533           205.842              Murmansk2         25730.250
       422   13 Jun 2027 08:14:46.181   13 Jun 2027 08:17:44.692           178.511               CapeTown         22313.875
       423   13 Jun 2027 08:35:57.450   13 Jun 2027 08:37:28.771            91.321                 Moscow         11415.125
       424   13 Jun 2027 08:39:33.374   13 Jun 2027 08:41:40.460           127.086              Murmansk2         15885.750
       425   13 Jun 2027 08:42:02.765   13 Jun 2027 08:42:48.892            46.127              Murmansk2          5765.875
       426   13 Jun 2027 08:42:52.387   13 Jun 2027 08:43:23.673            31.286                 Moscow          3910.750
       427   13 Jun 2027 08:44:16.254   13 Jun 2027 08:45:44.633            88.379              Murmansk1         11047.375
       428   13 Jun 2027 08:45:44.633   13 Jun 2027 08:49:09.234           204.601              Murmansk2         25575.125
       429   13 Jun 2027 08:52:01.024   13 Jun 2027 08:56:32.551           271.527                Anadyr1         33940.875
       430   13 Jun 2027 10:26:57.475   13 Jun 2027 10:27:38.136            40.661                Anadyr1          5082.625
       431   13 Jun 2027 10:35:11.240   13 Jun 2027 10:36:23.943            72.703                Anadyr1          9087.875
       432   13 Jun 2027 12:06:37.014   13 Jun 2027 12:07:36.279            59.265               Magadan2          7408.125
       433   13 Jun 2027 12:14:17.617   13 Jun 2027 12:14:54.409            36.792               Magadan2          4599.000
       434   13 Jun 2027 13:40:58.796   13 Jun 2027 13:41:11.993            13.197               Magadan1          1649.625
       435   13 Jun 2027 13:42:58.665   13 Jun 2027 13:45:45.735           167.070               Magadan2         20883.750
       436   13 Jun 2027 15:25:10.536   13 Jun 2027 15:26:17.066            66.530                Irkutsk          8316.250
       437   13 Jun 2027 15:30:25.651   13 Jun 2027 15:32:16.039           110.388                Irkutsk         13798.500
       438   13 Jun 2027 15:34:41.277   13 Jun 2027 15:36:58.262           136.985                Sumatra         17123.125
       439   13 Jun 2027 15:39:55.159   13 Jun 2027 15:41:05.828            70.669                Sumatra          8833.625
       440   13 Jun 2027 16:58:58.908   13 Jun 2027 17:01:44.534           165.626                Novosib         20703.250
       441   13 Jun 2027 17:04:14.625   13 Jun 2027 17:06:05.348           110.723                Novosib         13840.375
       442   13 Jun 2027 17:06:29.490   13 Jun 2027 17:11:27.816           298.326                  Delhi         37290.750
       443   13 Jun 2027 20:10:01.615   13 Jun 2027 20:11:27.567            85.952                 Moscow         10744.000
       444   13 Jun 2027 20:18:37.438   13 Jun 2027 20:19:33.875            56.437                 Moscow          6945.249
