uniorb/output/strategy_4/Drop/Drop_KinoSat_111508.txt

KinoSat_111508
-------------------------
    Access    *     Start Time (UTCG)     *     Stop Time (UTCG)  *   Duration (s)        *       Station  *  Data (Mbytes)
         1   01 Jun 2027 04:29:57.399   01 Jun 2027 04:30:34.400            37.001                Norilsk          1156.281
         2   01 Jun 2027 04:30:59.863   01 Jun 2027 04:34:08.098           188.235              Murmansk2          5882.344
         3   01 Jun 2027 04:34:08.218   01 Jun 2027 04:36:06.208           117.990                 Moscow          3687.187
         4   01 Jun 2027 04:48:38.566   01 Jun 2027 04:49:00.294            21.728               CapeTown           679.000
         5   01 Jun 2027 05:52:04.999   01 Jun 2027 05:52:48.142            43.143               Magadan1          1348.219
         6   01 Jun 2027 05:53:51.061   01 Jun 2027 05:55:46.350           115.289               Magadan1          3602.781
         7   01 Jun 2027 05:55:46.350   01 Jun 2027 05:56:19.525            33.175               Magadan2          1036.719
         8   01 Jun 2027 05:56:28.503   01 Jun 2027 05:57:48.379            79.876                Anadyr1          2496.125
         9   01 Jun 2027 07:29:49.996   01 Jun 2027 07:32:52.832           182.836               Magadan1          5713.625
        10   01 Jun 2027 09:03:23.555   01 Jun 2027 09:06:39.508           195.953               Magadan1          6123.531
        11   01 Jun 2027 09:07:23.771   01 Jun 2027 09:09:09.246           105.475                Irkutsk          3296.094
        12   01 Jun 2027 09:09:21.379   01 Jun 2027 09:09:37.631            16.252              Murmansk2           507.875
        13   01 Jun 2027 09:09:58.172   01 Jun 2027 09:10:48.560            50.388              Murmansk1          1574.625
        14   01 Jun 2027 09:44:29.749   01 Jun 2027 09:45:44.207            74.458            RioGallegos          2326.812
        15   01 Jun 2027 09:47:40.820   01 Jun 2027 09:47:58.154            17.334            RioGallegos           541.687
        16   01 Jun 2027 10:21:16.823   01 Jun 2027 10:22:58.730           101.907                Sumatra          3184.594
        17   01 Jun 2027 10:25:18.909   01 Jun 2027 10:26:28.670            69.761                Sumatra          2180.031
        18   01 Jun 2027 10:40:15.979   01 Jun 2027 10:42:34.793           138.814               Magadan2          4337.937
        19   01 Jun 2027 10:43:59.035   01 Jun 2027 10:46:52.940           173.905                Novosib          5434.531
        20   01 Jun 2027 10:47:09.417   01 Jun 2027 10:48:54.193           104.776                Norilsk          3274.250
        21   01 Jun 2027 10:49:32.542   01 Jun 2027 10:50:24.949            52.407                Norilsk          1637.719
        22   01 Jun 2027 11:20:46.801   01 Jun 2027 11:25:25.378           278.577            RioGallegos          8705.531
        23   01 Jun 2027 11:55:10.907   01 Jun 2027 11:57:20.820           129.913                Sumatra          4059.781
        24   01 Jun 2027 12:03:12.155   01 Jun 2027 12:03:36.916            24.761                Sumatra           773.781
        25   01 Jun 2027 12:04:02.674   01 Jun 2027 12:04:56.511            53.837                Sumatra          1682.406
        26   01 Jun 2027 12:09:58.721   01 Jun 2027 12:13:53.505           234.784                Irkutsk          7337.000
        27   01 Jun 2027 12:14:48.865   01 Jun 2027 12:14:54.416             5.551                Norilsk           173.469
        28   01 Jun 2027 12:15:06.106   01 Jun 2027 12:15:34.436            28.330                Norilsk           885.312
        29   01 Jun 2027 13:39:48.093   01 Jun 2027 13:40:27.387            39.294                  Delhi          1227.938
        30   01 Jun 2027 13:40:50.695   01 Jun 2027 13:41:19.912            29.217                  Delhi           913.031
        31   01 Jun 2027 13:41:51.090   01 Jun 2027 13:42:03.997            12.907                  Delhi           403.344
        32   01 Jun 2027 13:44:31.974   01 Jun 2027 13:44:45.258            13.284                  Delhi           415.125
        33   01 Jun 2027 13:47:58.622   01 Jun 2027 13:53:07.402           308.780                Novosib          9649.375
        34   01 Jun 2027 13:54:19.872   01 Jun 2027 13:54:46.579            26.707                Norilsk           834.594
        35   01 Jun 2027 13:56:49.149   01 Jun 2027 13:57:00.205            11.056                Norilsk           345.500
        36   01 Jun 2027 15:23:40.213   01 Jun 2027 15:26:51.406           191.193                 Moscow          5974.781
        37   01 Jun 2027 15:27:11.147   01 Jun 2027 15:28:22.896            71.749              Murmansk1          2242.156
        38   01 Jun 2027 15:32:30.942   01 Jun 2027 15:37:09.010           278.068                Norilsk          8689.625
        39   01 Jun 2027 17:01:57.161   01 Jun 2027 17:03:36.884            99.723                 Moscow          3116.344
        40   01 Jun 2027 17:05:45.301   01 Jun 2027 17:06:24.997            39.696              Murmansk1          1240.500
        41   01 Jun 2027 17:17:58.896   01 Jun 2027 17:19:28.477            89.581                Anadyr1          2799.406
        42   01 Jun 2027 17:22:58.160   01 Jun 2027 17:23:18.047            19.887                Anadyr2           621.469
        43   01 Jun 2027 18:13:22.593   01 Jun 2027 18:13:57.752            35.159               CapeTown          1098.719
        44   01 Jun 2027 18:17:35.043   01 Jun 2027 18:17:42.632             7.589               CapeTown           237.156
        45   01 Jun 2027 18:18:23.385   01 Jun 2027 18:19:01.248            37.863               CapeTown          1183.219
        46   01 Jun 2027 18:22:43.099   01 Jun 2027 18:23:07.696            24.597               CapeTown           768.656
        47   01 Jun 2027 18:44:43.747   01 Jun 2027 18:49:30.926           287.179              Murmansk1          8974.344
        48   01 Jun 2027 18:49:37.361   01 Jun 2027 18:49:46.273             8.912              Murmansk2           278.500
        49   01 Jun 2027 18:50:12.330   01 Jun 2027 18:50:33.224            20.894              Murmansk2           652.938
        50   01 Jun 2027 18:56:38.725   01 Jun 2027 18:57:12.026            33.301               Magadan2          1040.656
        51   01 Jun 2027 18:57:18.768   01 Jun 2027 18:57:24.820             6.052               Magadan2           189.125
        52   01 Jun 2027 18:58:03.869   01 Jun 2027 18:59:07.689            63.820               Magadan2          1994.375
        53   01 Jun 2027 20:29:37.436   01 Jun 2027 20:32:40.042           182.606                Anadyr2          5706.437
        54   01 Jun 2027 20:32:56.089   01 Jun 2027 20:33:24.595            28.506                Anadyr2           890.812
        55   01 Jun 2027 20:33:42.457   01 Jun 2027 20:35:02.172            79.715               Magadan1          2491.094
        56   01 Jun 2027 20:35:02.172   01 Jun 2027 20:35:53.056            50.884               Magadan2          1590.125
        57   01 Jun 2027 20:36:01.633   01 Jun 2027 20:36:07.036             5.403               Magadan1           168.844
        58   01 Jun 2027 20:36:07.036   01 Jun 2027 20:36:27.848            20.812               Magadan2           650.375
        59   01 Jun 2027 20:36:34.637   01 Jun 2027 20:36:44.327             9.690               Magadan1           302.812
        60   01 Jun 2027 20:37:13.645   01 Jun 2027 20:37:44.518            30.873               Magadan1           964.781
        61   01 Jun 2027 20:41:15.752   01 Jun 2027 20:41:21.300             5.548               Magadan1           173.375
        62   01 Jun 2027 21:25:17.289   01 Jun 2027 21:28:03.963           166.674            RioGallegos          5208.563
        63   01 Jun 2027 21:30:43.797   01 Jun 2027 21:31:19.450            35.653            RioGallegos          1114.156
        64   01 Jun 2027 22:05:25.157   01 Jun 2027 22:07:36.715           131.558                Anadyr2          4111.188
        65   01 Jun 2027 22:07:45.583   01 Jun 2027 22:08:11.690            26.107                Anadyr1           815.844
        66   01 Jun 2027 22:08:19.904   01 Jun 2027 22:09:22.057            62.153               Magadan2          1942.281
        67   01 Jun 2027 22:09:59.832   01 Jun 2027 22:10:19.140            19.308               Magadan2           603.375
        68   01 Jun 2027 22:10:37.313   01 Jun 2027 22:11:12.640            35.327               Magadan2          1103.969
        69   01 Jun 2027 22:12:16.819   01 Jun 2027 22:13:05.084            48.265                Irkutsk          1508.281
        70   01 Jun 2027 22:19:19.203   01 Jun 2027 22:19:29.421            10.218                Irkutsk           319.312
        71   01 Jun 2027 22:20:08.632   01 Jun 2027 22:20:46.684            38.052                Irkutsk          1189.125
        72   01 Jun 2027 22:26:53.718   01 Jun 2027 22:28:16.527            82.809                Sumatra          2587.781
        73   01 Jun 2027 22:35:44.988   01 Jun 2027 22:35:55.505            10.517                Sumatra           328.656
        74   01 Jun 2027 23:40:37.049   01 Jun 2027 23:43:04.334           147.285                Anadyr2          4602.656
        75   01 Jun 2027 23:43:04.334   01 Jun 2027 23:43:06.845             2.511                Anadyr1            78.469
        76   01 Jun 2027 23:43:21.297   01 Jun 2027 23:43:49.701            28.404                Norilsk           887.625
        77   01 Jun 2027 23:43:59.148   01 Jun 2027 23:45:32.016            92.868               Magadan1          2902.125
        78   01 Jun 2027 23:45:32.016   01 Jun 2027 23:46:48.761            76.745               Magadan2          2398.281
        79   01 Jun 2027 23:47:15.124   01 Jun 2027 23:48:12.926            57.802                Irkutsk          1806.312
        80   01 Jun 2027 23:53:10.987   01 Jun 2027 23:53:45.642            34.655                Novosib          1082.969
        81   01 Jun 2027 23:53:54.574   01 Jun 2027 23:53:58.651             4.077                Novosib           127.406
        82   01 Jun 2027 23:57:05.159   01 Jun 2027 23:59:13.415           128.256                  Delhi          4008.000
        83   02 Jun 2027 00:39:20.806   02 Jun 2027 00:39:21.211             0.405            RioGallegos            12.656
        84   02 Jun 2027 00:40:36.577   02 Jun 2027 00:40:56.640            20.063            RioGallegos           626.969
        85   02 Jun 2027 00:44:46.329   02 Jun 2027 00:45:03.391            17.062            RioGallegos           533.188
        86   02 Jun 2027 01:14:37.677   02 Jun 2027 01:15:21.861            44.184                Anadyr1          1380.750
        87   02 Jun 2027 01:15:33.168   02 Jun 2027 01:16:12.216            39.048                Anadyr1          1220.250
        88   02 Jun 2027 01:16:43.513   02 Jun 2027 01:17:15.400            31.887                Anadyr1           996.469
        89   02 Jun 2027 01:19:22.009   02 Jun 2027 01:21:17.766           115.757                Norilsk          3617.406
        90   02 Jun 2027 01:22:06.987   02 Jun 2027 01:23:19.588            72.601              Murmansk1          2268.781
        91   02 Jun 2027 01:23:23.896   02 Jun 2027 01:24:58.514            94.618                Novosib          2956.813
        92   02 Jun 2027 01:30:28.924   02 Jun 2027 01:33:00.756           151.832                  Delhi          4744.750
        93   02 Jun 2027 02:12:38.840   02 Jun 2027 02:13:39.428            60.588            RioGallegos          1893.375
        94   02 Jun 2027 02:13:50.925   02 Jun 2027 02:14:26.651            35.726            RioGallegos          1116.438
        95   02 Jun 2027 02:17:20.439   02 Jun 2027 02:17:53.400            32.961            RioGallegos          1030.031
        96   02 Jun 2027 02:53:51.181   02 Jun 2027 02:54:04.688            13.507                Anadyr2           422.094
        97   02 Jun 2027 02:54:35.048   02 Jun 2027 02:55:41.090            66.042               Magadan2          2063.812
        98   02 Jun 2027 02:56:17.848   02 Jun 2027 02:56:21.540             3.692               Magadan2           115.375
        99   02 Jun 2027 02:56:26.776   02 Jun 2027 02:56:43.871            17.095                Norilsk           534.219
       100   02 Jun 2027 02:57:30.927   02 Jun 2027 02:59:09.138            98.211              Murmansk2          3069.094
       101   02 Jun 2027 02:59:18.210   02 Jun 2027 03:00:21.663            63.453                Novosib          1982.906
       102   02 Jun 2027 03:01:06.103   02 Jun 2027 03:01:19.333            13.230                Irkutsk           413.437
       103   02 Jun 2027 03:01:29.246   02 Jun 2027 03:01:59.376            30.130                Irkutsk           941.563
       104   02 Jun 2027 03:02:27.725   02 Jun 2027 03:03:37.542            69.817                 Moscow          2181.781
       105   02 Jun 2027 03:03:41.880   02 Jun 2027 03:03:45.618             3.738                 Moscow           116.813
       106   02 Jun 2027 03:03:53.468   02 Jun 2027 03:04:57.271            63.803              Murmansk1          1993.844
       107   02 Jun 2027 03:05:00.826   02 Jun 2027 03:05:35.030            34.204              Murmansk2          1068.875
       108   02 Jun 2027 03:05:41.652   02 Jun 2027 03:06:17.375            35.723                 Moscow          1116.344
       109   02 Jun 2027 03:06:32.834   02 Jun 2027 03:06:53.933            21.099                Norilsk           659.344
       110   02 Jun 2027 03:06:57.881   02 Jun 2027 03:07:11.807            13.926                Novosib           435.188
       111   02 Jun 2027 03:07:36.341   02 Jun 2027 03:08:28.812            52.471              Murmansk2          1639.719
       112   02 Jun 2027 03:08:56.092   02 Jun 2027 03:08:58.727             2.635                  Delhi            82.344
       113   02 Jun 2027 03:10:53.023   02 Jun 2027 03:13:21.625           148.602                  Delhi          4643.813
       114   02 Jun 2027 04:21:50.585   02 Jun 2027 04:23:03.983            73.398                Anadyr1          2293.688
       115   02 Jun 2027 04:23:05.503   02 Jun 2027 04:24:32.864            87.361                Anadyr2          2730.031
       116   02 Jun 2027 04:41:05.694   02 Jun 2027 04:42:01.066            55.372                Novosib          1730.375
       117   02 Jun 2027 04:42:32.179   02 Jun 2027 04:45:47.150           194.971                 Moscow          6092.844
       118   02 Jun 2027 05:00:35.622   02 Jun 2027 05:03:01.820           146.198               CapeTown          4568.688
       119   02 Jun 2027 06:04:22.344   02 Jun 2027 06:05:07.574            45.230                Anadyr2          1413.438
       120   02 Jun 2027 06:05:26.619   02 Jun 2027 06:06:32.467            65.848               Magadan1          2057.750
       121   02 Jun 2027 07:42:54.733   02 Jun 2027 07:45:05.852           131.119                Anadyr2          4097.469
       122   02 Jun 2027 07:45:47.711   02 Jun 2027 07:45:58.040            10.329                Anadyr1           322.781
       123   02 Jun 2027 07:54:24.141   02 Jun 2027 07:54:32.962             8.821                 Moscow           275.656
       124   02 Jun 2027 09:15:42.592   02 Jun 2027 09:16:12.822            30.230               Magadan2           944.687
       125   02 Jun 2027 09:16:50.380   02 Jun 2027 09:18:36.183           105.803               Magadan2          3306.344
       126   02 Jun 2027 09:18:36.405   02 Jun 2027 09:20:03.115            86.710               Magadan2          2709.687
       127   02 Jun 2027 09:20:21.986   02 Jun 2027 09:21:06.528            44.542               Magadan1          1391.938
       128   02 Jun 2027 09:21:10.769   02 Jun 2027 09:21:25.713            14.944               Magadan2           467.000
       129   02 Jun 2027 10:32:34.204   02 Jun 2027 10:32:34.359             0.155                Sumatra             4.844
       130   02 Jun 2027 10:51:40.522   02 Jun 2027 10:52:36.178            55.656                Irkutsk          1739.250
       131   02 Jun 2027 10:52:42.573   02 Jun 2027 10:52:45.642             3.069                Irkutsk            95.906
       132   02 Jun 2027 10:53:22.552   02 Jun 2027 10:53:48.158            25.606                Irkutsk           800.187
       133   02 Jun 2027 10:54:28.744   02 Jun 2027 10:54:39.081            10.337                Norilsk           323.031
       134   02 Jun 2027 10:55:02.204   02 Jun 2027 10:55:16.373            14.169                Norilsk           442.781
       135   02 Jun 2027 10:55:17.644   02 Jun 2027 10:55:38.153            20.509                Irkutsk           640.906
       136   02 Jun 2027 10:55:40.877   02 Jun 2027 10:56:37.259            56.382                Irkutsk          1761.938
       137   02 Jun 2027 10:56:41.644   02 Jun 2027 10:56:43.164             1.520                Novosib            47.500
       138   02 Jun 2027 10:56:43.351   02 Jun 2027 10:57:00.180            16.829                Novosib           525.906
       139   02 Jun 2027 10:57:05.406   02 Jun 2027 10:57:11.056             5.650                Norilsk           176.562
       140   02 Jun 2027 10:57:25.622   02 Jun 2027 10:57:33.699             8.077                Irkutsk           252.406
       141   02 Jun 2027 11:33:08.216   02 Jun 2027 11:34:19.762            71.546            RioGallegos          2235.812
       142   02 Jun 2027 12:07:25.791   02 Jun 2027 12:09:12.903           107.112                Sumatra          3347.250
       143   02 Jun 2027 12:22:10.715   02 Jun 2027 12:23:36.949            86.234                Novosib          2694.813
       144   02 Jun 2027 12:23:47.585   02 Jun 2027 12:24:10.673            23.088                Novosib           721.500
       145   02 Jun 2027 12:27:07.922   02 Jun 2027 12:27:39.130            31.208                Norilsk           975.250
       146   02 Jun 2027 12:32:52.014   02 Jun 2027 12:33:22.397            30.383                Norilsk           949.469
       147   02 Jun 2027 13:52:14.480   02 Jun 2027 13:54:30.288           135.808                  Delhi          4244.000
       148   02 Jun 2027 13:57:14.524   02 Jun 2027 13:57:39.442            24.918                  Delhi           778.688
       149   02 Jun 2027 14:00:30.951   02 Jun 2027 14:01:26.243            55.292                 Moscow          1727.875
       150   02 Jun 2027 14:01:27.920   02 Jun 2027 14:05:23.418           235.498                Novosib          7359.312
       151   02 Jun 2027 14:08:34.363   02 Jun 2027 14:08:51.605            17.242                Norilsk           538.812
       152   02 Jun 2027 15:35:46.740   02 Jun 2027 15:37:49.178           122.438                 Moscow          3826.188
       153   02 Jun 2027 15:38:45.134   02 Jun 2027 15:38:57.264            12.130                 Moscow           379.062
       154   02 Jun 2027 15:39:18.240   02 Jun 2027 15:42:07.532           169.292              Murmansk2          5290.375
       155   02 Jun 2027 15:45:29.114   02 Jun 2027 15:46:51.728            82.614                Norilsk          2581.688
       156   02 Jun 2027 15:47:21.879   02 Jun 2027 15:47:37.563            15.684                Norilsk           490.125
       157   02 Jun 2027 15:48:21.217   02 Jun 2027 15:49:20.205            58.988                Norilsk          1843.375
       158   02 Jun 2027 16:51:43.470   02 Jun 2027 16:51:56.893            13.423               CapeTown           419.469
       159   02 Jun 2027 16:56:06.810   02 Jun 2027 16:56:37.364            30.554               CapeTown           954.812
       160   02 Jun 2027 17:00:30.235   02 Jun 2027 17:00:46.771            16.536               CapeTown           516.750
       161   02 Jun 2027 17:14:38.595   02 Jun 2027 17:14:42.339             3.744                 Moscow           117.000
       162   02 Jun 2027 17:15:00.252   02 Jun 2027 17:15:43.463            43.211                 Moscow          1350.344
       163   02 Jun 2027 17:17:05.365   02 Jun 2027 17:18:26.173            80.808              Murmansk2          2525.250
       164   02 Jun 2027 17:24:17.723   02 Jun 2027 17:24:46.533            28.810              Murmansk1           900.312
       165   02 Jun 2027 17:26:18.568   02 Jun 2027 17:26:49.432            30.864              Murmansk2           964.500
       166   02 Jun 2027 17:29:56.754   02 Jun 2027 17:30:13.166            16.412                Anadyr2           512.875
       167   02 Jun 2027 17:31:03.526   02 Jun 2027 17:32:16.414            72.888                Anadyr1          2277.750
       168   02 Jun 2027 17:38:19.587   02 Jun 2027 17:38:37.158            17.571                Anadyr2           549.094
       169   02 Jun 2027 18:25:36.555   02 Jun 2027 18:26:10.678            34.123               CapeTown          1066.344
       170   02 Jun 2027 18:26:30.883   02 Jun 2027 18:26:46.465            15.582               CapeTown           486.938
       171   02 Jun 2027 18:29:50.118   02 Jun 2027 18:30:08.890            18.772               CapeTown           586.625
       172   02 Jun 2027 18:31:53.548   02 Jun 2027 18:32:59.850            66.302               CapeTown          2071.937
       173   02 Jun 2027 18:57:33.211   02 Jun 2027 19:01:25.111           231.900              Murmansk1          7246.875
       174   02 Jun 2027 19:08:30.141   02 Jun 2027 19:09:09.887            39.746               Magadan1          1242.062
       175   02 Jun 2027 19:10:36.041   02 Jun 2027 19:11:09.726            33.685               Magadan1          1052.656
       176   02 Jun 2027 19:14:23.977   02 Jun 2027 19:14:37.369            13.392               Magadan1           418.500
       177   02 Jun 2027 19:17:31.674   02 Jun 2027 19:17:54.993            23.319               Magadan2           728.719
       178   02 Jun 2027 20:41:38.855   02 Jun 2027 20:45:19.342           220.487                Anadyr1          6890.219
       179   02 Jun 2027 20:45:19.342   02 Jun 2027 20:45:39.513            20.171                Anadyr2           630.344
       180   02 Jun 2027 20:45:39.877   02 Jun 2027 20:47:43.415           123.538               Magadan2          3860.562
       181   02 Jun 2027 20:47:43.415   02 Jun 2027 20:48:26.290            42.875               Magadan1          1339.844
       182   02 Jun 2027 20:50:32.686   02 Jun 2027 20:50:57.986            25.300               Magadan1           790.625
       183   02 Jun 2027 21:36:48.331   02 Jun 2027 21:39:30.651           162.320            RioGallegos          5072.500
       184   02 Jun 2027 21:43:11.432   02 Jun 2027 21:43:31.213            19.781            RioGallegos           618.156
       185   02 Jun 2027 22:17:23.923   02 Jun 2027 22:17:40.730            16.807                Anadyr1           525.219
       186   02 Jun 2027 22:18:07.832   02 Jun 2027 22:18:27.534            19.702                Anadyr1           615.688
       187   02 Jun 2027 22:18:57.855   02 Jun 2027 22:19:26.904            29.049                Anadyr1           907.781
       188   02 Jun 2027 22:19:30.990   02 Jun 2027 22:21:06.670            95.680                Norilsk          2990.000
       189   02 Jun 2027 22:21:26.612   02 Jun 2027 22:21:50.606            23.994               Magadan1           749.813
       190   02 Jun 2027 22:22:01.652   02 Jun 2027 22:22:54.502            52.850                Norilsk          1651.563
       191   02 Jun 2027 22:23:29.009   02 Jun 2027 22:23:42.214            13.205               Magadan2           412.656
       192   02 Jun 2027 22:24:02.994   02 Jun 2027 22:25:03.964            60.970                Irkutsk          1905.313
       193   02 Jun 2027 22:26:37.640   02 Jun 2027 22:27:24.088            46.448                Irkutsk          1451.500
       194   02 Jun 2027 22:38:17.633   02 Jun 2027 22:41:10.212           172.579                Sumatra          5393.094
       195   02 Jun 2027 23:52:28.474   02 Jun 2027 23:53:06.202            37.728                Anadyr1          1179.000
       196   02 Jun 2027 23:54:50.926   02 Jun 2027 23:55:10.499            19.573                Anadyr1           611.656
       197   02 Jun 2027 23:55:23.351   02 Jun 2027 23:57:09.376           106.025                Norilsk          3313.281
       198   02 Jun 2027 23:57:15.181   02 Jun 2027 23:58:19.902            64.721               Magadan1          2022.531
       199   02 Jun 2027 23:59:15.863   02 Jun 2027 23:59:43.631            27.768                Irkutsk           867.750
       200   03 Jun 2027 00:00:05.331   03 Jun 2027 00:00:19.777            14.446                Novosib           451.438
       201   03 Jun 2027 00:02:10.294   03 Jun 2027 00:02:35.278            24.984                Novosib           780.750
       202   03 Jun 2027 00:05:42.268   03 Jun 2027 00:05:46.361             4.093                Novosib           127.906
       203   03 Jun 2027 00:06:12.418   03 Jun 2027 00:06:16.663             4.245                Irkutsk           132.656
       204   03 Jun 2027 00:06:51.838   03 Jun 2027 00:07:12.639            20.801                Novosib           650.031
       205   03 Jun 2027 00:07:26.774   03 Jun 2027 00:08:04.274            37.500                Novosib          1171.875
       206   03 Jun 2027 00:08:18.619   03 Jun 2027 00:09:00.545            41.926                  Delhi          1310.187
       207   03 Jun 2027 00:11:28.641   03 Jun 2027 00:11:39.088            10.447                  Delhi           326.469
       208   03 Jun 2027 00:12:46.280   03 Jun 2027 00:14:13.673            87.393                  Delhi          2731.031
       209   03 Jun 2027 00:55:56.488   03 Jun 2027 00:56:09.120            12.632            RioGallegos           394.750
       210   03 Jun 2027 00:58:59.975   03 Jun 2027 00:59:00.808             0.833            RioGallegos            26.031
       211   03 Jun 2027 01:26:19.939   03 Jun 2027 01:28:20.603           120.664                Anadyr1          3770.750
       212   03 Jun 2027 01:31:24.018   03 Jun 2027 01:33:26.713           122.695                Norilsk          3834.219
       213   03 Jun 2027 01:33:45.465   03 Jun 2027 01:34:06.599            21.134               Magadan2           660.438
       214   03 Jun 2027 01:34:12.712   03 Jun 2027 01:35:19.759            67.047              Murmansk2          2095.219
       215   03 Jun 2027 01:35:23.032   03 Jun 2027 01:36:09.882            46.850              Murmansk1          1464.062
       216   03 Jun 2027 01:39:42.483   03 Jun 2027 01:40:20.764            38.281              Murmansk1          1196.281
       217   03 Jun 2027 01:44:37.373   03 Jun 2027 01:44:49.823            12.450                  Delhi           389.062
       218   03 Jun 2027 01:45:39.459   03 Jun 2027 01:46:06.279            26.820                  Delhi           838.125
       219   03 Jun 2027 01:47:27.906   03 Jun 2027 01:48:15.524            47.618                  Delhi          1488.063
       220   03 Jun 2027 02:25:06.893   03 Jun 2027 02:27:09.194           122.301            RioGallegos          3821.906
       221   03 Jun 2027 02:27:27.808   03 Jun 2027 02:28:12.906            45.098            RioGallegos          1409.313
       222   03 Jun 2027 02:59:37.186   03 Jun 2027 03:00:00.180            22.994                Anadyr1           718.562
       223   03 Jun 2027 03:14:53.138   03 Jun 2027 03:15:42.189            49.051                Irkutsk          1532.844
       224   03 Jun 2027 03:16:38.670   03 Jun 2027 03:17:46.525            67.855                 Moscow          2120.469
       225   03 Jun 2027 03:18:08.049   03 Jun 2027 03:18:17.299             9.250                Novosib           289.063
       226   03 Jun 2027 03:18:26.213   03 Jun 2027 03:21:24.452           178.239                Novosib          5569.969
       227   03 Jun 2027 03:22:05.185   03 Jun 2027 03:22:09.208             4.023                Novosib           125.719
       228   03 Jun 2027 03:38:16.691   03 Jun 2027 03:38:21.417             4.726               CapeTown           147.687
       229   03 Jun 2027 04:33:43.065   03 Jun 2027 04:35:07.658            84.593                Anadyr2          2643.531
       230   03 Jun 2027 04:35:38.348   03 Jun 2027 04:36:31.878            53.530                Anadyr1          1672.812
       231   03 Jun 2027 04:36:59.255   03 Jun 2027 04:37:39.733            40.478               Magadan2          1264.937
       232   03 Jun 2027 04:48:27.055   03 Jun 2027 04:48:37.790            10.735                Novosib           335.469
       233   03 Jun 2027 04:54:38.647   03 Jun 2027 04:55:22.383            43.736                 Moscow          1366.750
       234   03 Jun 2027 04:55:29.713   03 Jun 2027 04:56:20.580            50.867                 Moscow          1589.594
       235   03 Jun 2027 06:09:54.276   03 Jun 2027 06:10:14.798            20.522               Magadan1           641.313
       236   03 Jun 2027 06:16:02.018   03 Jun 2027 06:16:10.954             8.936               Magadan1           279.250
       237   03 Jun 2027 06:16:23.240   03 Jun 2027 06:17:16.197            52.957                Anadyr1          1654.906
       238   03 Jun 2027 06:17:16.197   03 Jun 2027 06:17:38.180            21.983                Anadyr2           686.969
       239   03 Jun 2027 06:17:53.117   03 Jun 2027 06:18:56.333            63.216               Magadan2          1975.500
       240   03 Jun 2027 07:51:54.953   03 Jun 2027 07:52:37.137            42.184                Anadyr1          1318.250
       241   03 Jun 2027 07:52:37.953   03 Jun 2027 07:52:49.290            11.337                Anadyr1           354.281
       242   03 Jun 2027 07:52:55.595   03 Jun 2027 07:53:11.830            16.235               Magadan1           507.344
       243   03 Jun 2027 07:53:14.339   03 Jun 2027 07:53:19.771             5.432               Magadan2           169.750
       244   03 Jun 2027 07:53:41.462   03 Jun 2027 07:54:58.384            76.922                Anadyr2          2403.813
       245   03 Jun 2027 07:55:16.343   03 Jun 2027 07:56:27.386            71.043                Anadyr2          2220.094
       246   03 Jun 2027 08:36:02.663   03 Jun 2027 08:36:37.589            34.926            RioGallegos          1091.437
       247   03 Jun 2027 09:27:12.975   03 Jun 2027 09:28:00.366            47.391               Magadan2          1480.969
       248   03 Jun 2027 09:28:05.128   03 Jun 2027 09:28:14.417             9.289               Magadan1           290.281
       249   03 Jun 2027 09:29:03.446   03 Jun 2027 09:29:50.222            46.776               Magadan2          1461.750
       250   03 Jun 2027 09:30:16.363   03 Jun 2027 09:30:35.252            18.889               Magadan1           590.281
       251   03 Jun 2027 09:31:14.247   03 Jun 2027 09:31:17.221             2.974                Irkutsk            92.938
       252   03 Jun 2027 09:31:23.508   03 Jun 2027 09:31:31.911             8.403                Irkutsk           262.594
       253   03 Jun 2027 09:31:36.134   03 Jun 2027 09:31:59.029            22.895                Norilsk           715.469
       254   03 Jun 2027 09:32:03.179   03 Jun 2027 09:32:53.612            50.433                Irkutsk          1576.031
       255   03 Jun 2027 09:32:54.124   03 Jun 2027 09:33:19.869            25.745               Magadan1           804.531
       256   03 Jun 2027 09:33:41.827   03 Jun 2027 09:34:19.269            37.442                Norilsk          1170.062
       257   03 Jun 2027 10:08:17.907   03 Jun 2027 10:09:23.811            65.904            RioGallegos          2059.500
       258   03 Jun 2027 10:44:03.569   03 Jun 2027 10:45:03.501            59.932                Sumatra          1872.875
       259   03 Jun 2027 11:03:40.781   03 Jun 2027 11:04:27.166            46.385                Irkutsk          1449.531
       260   03 Jun 2027 11:05:44.843   03 Jun 2027 11:06:16.734            31.891                Novosib           996.594
       261   03 Jun 2027 11:06:21.702   03 Jun 2027 11:07:01.655            39.953                Irkutsk          1248.531
       262   03 Jun 2027 11:07:13.281   03 Jun 2027 11:07:43.910            30.629                Irkutsk           957.156
       263   03 Jun 2027 11:08:00.933   03 Jun 2027 11:08:41.786            40.853                Norilsk          1276.656
       264   03 Jun 2027 11:08:51.782   03 Jun 2027 11:08:55.560             3.778                Novosib           118.063
       265   03 Jun 2027 11:09:02.416   03 Jun 2027 11:09:27.070            24.654                Novosib           770.438
       266   03 Jun 2027 11:45:34.618   03 Jun 2027 11:46:29.388            54.770            RioGallegos          1711.563
       267   03 Jun 2027 12:19:48.103   03 Jun 2027 12:21:10.782            82.679                Sumatra          2583.719
       268   03 Jun 2027 12:34:17.899   03 Jun 2027 12:35:41.032            83.133                Novosib          2597.906
       269   03 Jun 2027 12:38:14.039   03 Jun 2027 12:39:45.386            91.347                Norilsk          2854.594
       270   03 Jun 2027 12:44:24.496   03 Jun 2027 12:44:28.242             3.746                Norilsk           117.062
       271   03 Jun 2027 12:44:42.353   03 Jun 2027 12:44:53.752            11.399                Norilsk           356.219
       272   03 Jun 2027 14:04:50.229   03 Jun 2027 14:07:36.174           165.945                  Delhi          5185.781
       273   03 Jun 2027 14:12:24.481   03 Jun 2027 14:12:48.040            23.559                 Moscow           736.219
       274   03 Jun 2027 14:13:17.719   03 Jun 2027 14:14:14.740            57.021                Novosib          1781.906
       275   03 Jun 2027 14:15:13.146   03 Jun 2027 14:18:08.020           174.874                Novosib          5464.812
       276   03 Jun 2027 14:24:46.903   03 Jun 2027 14:26:28.147           101.244                Norilsk          3163.875
       277   03 Jun 2027 15:47:56.444   03 Jun 2027 15:49:47.259           110.815                 Moscow          3462.969
       278   03 Jun 2027 15:51:27.078   03 Jun 2027 15:52:17.379            50.301              Murmansk1          1571.906
       279   03 Jun 2027 15:52:17.379   03 Jun 2027 15:52:45.977            28.598              Murmansk2           893.687
       280   03 Jun 2027 15:53:49.749   03 Jun 2027 15:54:36.694            46.945              Murmansk2          1467.031
       281   03 Jun 2027 15:58:44.521   03 Jun 2027 15:59:59.366            74.845                Norilsk          2338.906
       282   03 Jun 2027 16:00:38.723   03 Jun 2027 16:01:05.771            27.048                Norilsk           845.250
       283   03 Jun 2027 16:07:08.939   03 Jun 2027 16:08:13.807            64.868                Anadyr2          2027.125
       284   03 Jun 2027 17:01:20.172   03 Jun 2027 17:02:10.963            50.791               CapeTown          1587.219
       285   03 Jun 2027 17:07:25.867   03 Jun 2027 17:07:47.562            21.695               CapeTown           677.969
       286   03 Jun 2027 17:27:28.774   03 Jun 2027 17:27:53.229            24.455                 Moscow           764.219
       287   03 Jun 2027 17:28:13.269   03 Jun 2027 17:28:39.740            26.471                 Moscow           827.219
       288   03 Jun 2027 17:29:30.603   03 Jun 2027 17:30:34.117            63.514              Murmansk1          1984.812
       289   03 Jun 2027 17:30:54.357   03 Jun 2027 17:32:01.906            67.549                 Moscow          2110.906
       290   03 Jun 2027 17:34:28.277   03 Jun 2027 17:34:49.210            20.933              Murmansk1           654.156
       291   03 Jun 2027 17:41:55.448   03 Jun 2027 17:42:05.390             9.942                Anadyr2           310.687
       292   03 Jun 2027 17:42:15.348   03 Jun 2027 17:42:59.896            44.548                Anadyr2          1392.125
       293   03 Jun 2027 17:44:07.181   03 Jun 2027 17:44:16.812             9.631                Anadyr1           300.969
       294   03 Jun 2027 17:46:40.735   03 Jun 2027 17:47:03.844            23.109                Anadyr2           722.156
       295   03 Jun 2027 18:37:54.851   03 Jun 2027 18:39:16.845            81.994               CapeTown          2562.313
       296   03 Jun 2027 18:41:17.144   03 Jun 2027 18:41:27.509            10.365               CapeTown           323.906
       297   03 Jun 2027 18:42:17.958   03 Jun 2027 18:42:45.159            27.201               CapeTown           850.031
       298   03 Jun 2027 19:10:30.416   03 Jun 2027 19:14:59.145           268.729              Murmansk2          8397.781
       299   03 Jun 2027 19:20:23.776   03 Jun 2027 19:21:11.878            48.102               Magadan2          1503.187
       300   03 Jun 2027 19:23:09.332   03 Jun 2027 19:23:50.358            41.026               Magadan2          1282.062
       301   03 Jun 2027 19:26:17.589   03 Jun 2027 19:26:25.066             7.477               Magadan2           233.656
       302   03 Jun 2027 19:26:36.395   03 Jun 2027 19:26:52.321            15.926               Magadan1           497.687
       303   03 Jun 2027 19:28:51.973   03 Jun 2027 19:29:05.471            13.498               Magadan1           421.812
       304   03 Jun 2027 20:53:40.119   03 Jun 2027 20:57:41.248           241.129                Anadyr2          7535.281
       305   03 Jun 2027 20:57:58.531   03 Jun 2027 20:59:58.535           120.004               Magadan1          3750.125
       306   03 Jun 2027 21:00:28.793   03 Jun 2027 21:00:30.220             1.427               Magadan1            44.594
       307   03 Jun 2027 21:00:43.891   03 Jun 2027 21:01:14.578            30.687               Magadan1           958.969
       308   03 Jun 2027 21:06:32.402   03 Jun 2027 21:06:50.191            17.789               Magadan2           555.906
       309   03 Jun 2027 21:07:04.379   03 Jun 2027 21:08:18.387            74.008               Magadan1          2312.750
       310   03 Jun 2027 21:48:28.035   03 Jun 2027 21:50:31.875           123.840            RioGallegos          3870.000
       311   03 Jun 2027 21:53:29.545   03 Jun 2027 21:53:53.932            24.387            RioGallegos           762.094
       312   03 Jun 2027 22:29:22.076   03 Jun 2027 22:29:42.580            20.504                Anadyr1           640.750
       313   03 Jun 2027 22:30:13.622   03 Jun 2027 22:30:21.981             8.359                Anadyr1           261.219
       314   03 Jun 2027 22:30:51.042   03 Jun 2027 22:32:05.419            74.377                Anadyr1          2324.281
       315   03 Jun 2027 22:32:21.303   03 Jun 2027 22:33:01.630            40.327                Norilsk          1260.219
       316   03 Jun 2027 22:33:06.364   03 Jun 2027 22:33:10.960             4.596                Norilsk           143.625
       317   03 Jun 2027 22:33:58.781   03 Jun 2027 22:34:20.445            21.664               Magadan1           677.000
       318   03 Jun 2027 22:34:28.424   03 Jun 2027 22:35:06.811            38.387                Norilsk          1199.594
       319   03 Jun 2027 22:35:52.692   03 Jun 2027 22:37:01.144            68.452                Irkutsk          2139.125
       320   03 Jun 2027 22:38:40.015   03 Jun 2027 22:39:08.610            28.595                Irkutsk           893.594
       321   03 Jun 2027 22:41:58.613   03 Jun 2027 22:42:02.849             4.236                Irkutsk           132.375
       322   03 Jun 2027 22:49:51.686   03 Jun 2027 22:51:11.077            79.391                Sumatra          2480.969
       323   03 Jun 2027 22:51:42.438   03 Jun 2027 22:53:00.734            78.296                Sumatra          2446.750
       324   04 Jun 2027 00:04:18.618   04 Jun 2027 00:05:32.262            73.644                Anadyr1          2301.375
       325   04 Jun 2027 00:06:36.111   04 Jun 2027 00:07:01.611            25.500                Anadyr2           796.875
       326   04 Jun 2027 00:07:25.504   04 Jun 2027 00:07:37.283            11.779                Norilsk           368.094
       327   04 Jun 2027 00:08:04.856   04 Jun 2027 00:09:49.861           105.005               Magadan2          3281.406
       328   04 Jun 2027 00:11:17.473   04 Jun 2027 00:12:31.431            73.958                Irkutsk          2311.188
       329   04 Jun 2027 00:13:15.458   04 Jun 2027 00:14:31.654            76.196                Novosib          2381.125
       330   04 Jun 2027 00:19:02.983   04 Jun 2027 00:19:32.512            29.529                Novosib           922.781
       331   04 Jun 2027 00:19:46.657   04 Jun 2027 00:20:02.285            15.628                  Delhi           488.375
       332   04 Jun 2027 00:20:18.092   04 Jun 2027 00:20:38.020            19.928                  Delhi           622.750
       333   04 Jun 2027 00:24:18.003   04 Jun 2027 00:24:59.507            41.504                  Delhi          1297.000
       334   04 Jun 2027 00:27:17.048   04 Jun 2027 00:27:26.738             9.690                Sumatra           302.813
       335   04 Jun 2027 00:33:42.977   04 Jun 2027 00:36:05.513           142.536                Sumatra          4454.250
       336   04 Jun 2027 01:38:01.593   04 Jun 2027 01:38:30.501            28.908                Anadyr1           903.375
       337   04 Jun 2027 01:39:24.500   04 Jun 2027 01:40:21.289            56.789                Anadyr1          1774.656
       338   04 Jun 2027 01:43:25.897   04 Jun 2027 01:44:34.870            68.973                Norilsk          2155.406
       339   04 Jun 2027 01:44:58.416   04 Jun 2027 01:45:33.904            35.488               Magadan2          1109.000
       340   04 Jun 2027 01:45:53.645   04 Jun 2027 01:48:02.844           129.199              Murmansk2          4037.469
       341   04 Jun 2027 01:50:31.234   04 Jun 2027 01:51:04.986            33.752                Irkutsk          1054.750
       342   04 Jun 2027 01:54:16.135   04 Jun 2027 01:54:19.040             2.905                 Moscow            90.781
       343   04 Jun 2027 01:54:38.645   04 Jun 2027 01:55:12.515            33.870                  Delhi          1058.438
       344   04 Jun 2027 01:58:49.296   04 Jun 2027 01:59:07.189            17.893                  Delhi           559.156
       345   04 Jun 2027 02:03:32.106   04 Jun 2027 02:03:47.039            14.933                  Delhi           466.656
       346   04 Jun 2027 02:05:06.318   04 Jun 2027 02:06:14.683            68.365                  Delhi          2136.406
       347   04 Jun 2027 02:37:55.306   04 Jun 2027 02:38:16.129            20.823            RioGallegos           650.719
       348   04 Jun 2027 02:39:26.511   04 Jun 2027 02:39:35.201             8.690            RioGallegos           271.563
       349   04 Jun 2027 02:40:25.446   04 Jun 2027 02:40:31.367             5.921            RioGallegos           185.031
       350   04 Jun 2027 03:17:34.939   04 Jun 2027 03:17:39.689             4.750                Anadyr1           148.438
       351   04 Jun 2027 03:18:33.275   04 Jun 2027 03:18:47.903            14.628               Magadan1           457.125
       352   04 Jun 2027 03:19:43.382   04 Jun 2027 03:19:59.067            15.685               Magadan1           490.156
       353   04 Jun 2027 03:20:35.483   04 Jun 2027 03:20:37.637             2.154               Magadan1            67.312
       354   04 Jun 2027 03:21:26.239   04 Jun 2027 03:21:26.273             0.034               Magadan2             1.063
       355   04 Jun 2027 03:22:16.355   04 Jun 2027 03:22:29.840            13.485                Anadyr1           421.406
       356   04 Jun 2027 03:29:23.324   04 Jun 2027 03:30:09.865            46.541                Norilsk          1454.406
       357   04 Jun 2027 03:30:25.772   04 Jun 2027 03:31:31.254            65.482                Novosib          2046.312
       358   04 Jun 2027 03:31:49.335   04 Jun 2027 03:32:33.082            43.747                Novosib          1367.094
       359   04 Jun 2027 03:33:35.371   04 Jun 2027 03:33:44.857             9.486                Novosib           296.438
       360   04 Jun 2027 04:45:37.165   04 Jun 2027 04:46:39.957            62.792                Anadyr1          1962.250
       361   04 Jun 2027 04:48:20.151   04 Jun 2027 04:48:33.790            13.639                Anadyr1           426.219
       362   04 Jun 2027 04:56:15.581   04 Jun 2027 04:56:21.661             6.080                Anadyr2           190.000
       363   04 Jun 2027 04:56:39.912   04 Jun 2027 04:56:53.856            13.944                Anadyr2           435.750
       364   04 Jun 2027 05:05:24.576   04 Jun 2027 05:06:02.801            38.225                 Moscow          1194.531
       365   04 Jun 2027 05:06:45.522   04 Jun 2027 05:06:55.922            10.400                 Moscow           325.000
       366   04 Jun 2027 05:07:08.429   04 Jun 2027 05:07:20.493            12.064                 Moscow           377.000
       367   04 Jun 2027 05:12:06.292   04 Jun 2027 05:12:22.087            15.795                 Moscow           493.594
       368   04 Jun 2027 05:24:58.466   04 Jun 2027 05:26:17.212            78.746               CapeTown          2460.813
       369   04 Jun 2027 06:28:05.949   04 Jun 2027 06:28:07.330             1.381               Magadan1            43.156
       370   04 Jun 2027 06:28:23.834   04 Jun 2027 06:29:14.647            50.813                Anadyr1          1587.906
       371   04 Jun 2027 06:29:50.998   04 Jun 2027 06:30:12.642            21.644                Anadyr2           676.375
       372   04 Jun 2027 06:30:17.939   04 Jun 2027 06:30:32.541            14.602                Anadyr2           456.312
       373   04 Jun 2027 06:31:22.767   04 Jun 2027 06:31:29.349             6.582                Anadyr2           205.688
       374   04 Jun 2027 06:32:33.892   04 Jun 2027 06:33:02.717            28.825                Anadyr1           900.781
       375   04 Jun 2027 08:02:38.255   04 Jun 2027 08:03:48.286            70.031                Anadyr2          2188.469
       376   04 Jun 2027 08:03:59.377   04 Jun 2027 08:04:15.592            16.215               Magadan1           506.719
       377   04 Jun 2027 08:04:38.617   04 Jun 2027 08:05:15.572            36.955                Anadyr2          1154.844
       378   04 Jun 2027 08:05:19.617   04 Jun 2027 08:05:56.761            37.144                Anadyr1          1160.750
       379   04 Jun 2027 08:06:09.953   04 Jun 2027 08:06:46.489            36.536               Magadan2          1141.750
       380   04 Jun 2027 08:07:01.105   04 Jun 2027 08:08:28.164            87.059                Anadyr1          2720.594
       381   04 Jun 2027 09:39:00.343   04 Jun 2027 09:40:15.618            75.275               Magadan2          2352.344
       382   04 Jun 2027 09:40:31.514   04 Jun 2027 09:40:48.078            16.564               Magadan1           517.625
       383   04 Jun 2027 09:41:16.394   04 Jun 2027 09:41:45.671            29.277               Magadan2           914.906
       384   04 Jun 2027 09:42:36.781   04 Jun 2027 09:44:03.480            86.699               Magadan2          2709.344
       385   04 Jun 2027 09:44:58.614   04 Jun 2027 09:45:17.291            18.677                Irkutsk           583.656
       386   04 Jun 2027 09:47:02.049   04 Jun 2027 09:47:07.232             5.183                Norilsk           161.969
       387   04 Jun 2027 10:20:16.858   04 Jun 2027 10:21:21.804            64.946            RioGallegos          2029.563
       388   04 Jun 2027 10:55:41.765   04 Jun 2027 10:56:13.316            31.551                Sumatra           985.969
       389   04 Jun 2027 10:56:59.926   04 Jun 2027 10:57:20.427            20.501                Sumatra           640.656
       390   04 Jun 2027 11:10:02.549   04 Jun 2027 11:12:00.887           118.338                  Delhi          3698.062
       391   04 Jun 2027 11:16:14.099   04 Jun 2027 11:16:49.174            35.075                Novosib          1096.094
       392   04 Jun 2027 11:16:58.476   04 Jun 2027 11:17:17.319            18.843                Novosib           588.844
       393   04 Jun 2027 11:17:45.148   04 Jun 2027 11:17:54.168             9.020                Novosib           281.875
       394   04 Jun 2027 11:18:16.807   04 Jun 2027 11:18:30.542            13.735                Irkutsk           429.219
       395   04 Jun 2027 11:18:59.791   04 Jun 2027 11:19:15.146            15.355                Novosib           479.844
       396   04 Jun 2027 11:19:24.570   04 Jun 2027 11:19:28.264             3.694                Norilsk           115.438
       397   04 Jun 2027 11:19:48.857   04 Jun 2027 11:20:02.672            13.815                Irkutsk           431.719
       398   04 Jun 2027 11:20:04.290   04 Jun 2027 11:20:16.838            12.548                Norilsk           392.125
       399   04 Jun 2027 11:20:26.361   04 Jun 2027 11:21:17.701            51.340                Irkutsk          1604.375
       400   04 Jun 2027 11:58:06.768   04 Jun 2027 11:58:42.842            36.074            RioGallegos          1127.313
       401   04 Jun 2027 12:32:19.904   04 Jun 2027 12:33:02.928            43.024                Sumatra          1344.500
       402   04 Jun 2027 12:35:39.088   04 Jun 2027 12:36:19.024            39.936                Sumatra          1248.000
       403   04 Jun 2027 12:47:01.940   04 Jun 2027 12:49:21.811           139.871                Novosib          4370.969
       404   04 Jun 2027 12:50:28.600   04 Jun 2027 12:50:36.209             7.609                Norilsk           237.781
       405   04 Jun 2027 12:51:12.015   04 Jun 2027 12:51:53.258            41.243                Norilsk          1288.844
       406   04 Jun 2027 14:17:38.911   04 Jun 2027 14:20:24.196           165.285                  Delhi          5165.156
       407   04 Jun 2027 14:24:07.476   04 Jun 2027 14:24:51.284            43.808                 Moscow          1369.000
       408   04 Jun 2027 14:26:10.167   04 Jun 2027 14:29:23.704           193.537                Novosib          6048.031
       409   04 Jun 2027 14:31:30.139   04 Jun 2027 14:32:32.081            61.942                Norilsk          1935.688
       410   04 Jun 2027 15:40:53.546   04 Jun 2027 15:42:27.634            94.088               CapeTown          2940.250
       411   04 Jun 2027 16:00:09.502   04 Jun 2027 16:01:17.625            68.123                 Moscow          2128.844
       412   04 Jun 2027 16:03:37.726   04 Jun 2027 16:04:27.911            50.185              Murmansk2          1568.281
       413   04 Jun 2027 16:04:47.724   04 Jun 2027 16:05:17.504            29.780              Murmansk2           930.625
       414   04 Jun 2027 16:06:37.600   04 Jun 2027 16:07:02.168            24.568              Murmansk1           767.750
       415   04 Jun 2027 16:18:50.436   04 Jun 2027 16:19:45.323            54.887                Anadyr1          1715.219
       416   04 Jun 2027 16:20:01.230   04 Jun 2027 16:21:44.741           103.511                Anadyr2          3234.719
       417   04 Jun 2027 17:13:16.259   04 Jun 2027 17:15:29.905           133.646               CapeTown          4176.438
       418   04 Jun 2027 17:41:58.358   04 Jun 2027 17:42:02.282             3.924              Murmansk1           122.625
       419   04 Jun 2027 17:42:27.434   04 Jun 2027 17:43:48.149            80.715              Murmansk2          2522.344
       420   04 Jun 2027 17:44:35.284   04 Jun 2027 17:45:12.679            37.395              Murmansk1          1168.594
       421   04 Jun 2027 17:46:30.499   04 Jun 2027 17:47:56.389            85.890              Murmansk1          2684.063
       422   04 Jun 2027 17:54:43.467   04 Jun 2027 17:54:50.653             7.186                Anadyr1           224.563
       423   04 Jun 2027 17:55:08.170   04 Jun 2027 17:55:22.708            14.538                Anadyr1           454.313
       424   04 Jun 2027 18:01:02.046   04 Jun 2027 18:01:10.729             8.683                Anadyr2           271.344
       425   04 Jun 2027 18:01:20.236   04 Jun 2027 18:01:34.054            13.818                Anadyr2           431.812
       426   04 Jun 2027 18:50:18.899   04 Jun 2027 18:51:24.672            65.773               CapeTown          2055.406
       427   04 Jun 2027 18:54:07.646   04 Jun 2027 18:55:38.126            90.480               CapeTown          2827.500
       428   04 Jun 2027 19:23:42.739   04 Jun 2027 19:26:37.914           175.175              Murmansk1          5474.219
       429   04 Jun 2027 19:30:50.725   04 Jun 2027 19:31:16.488            25.763                Anadyr1           805.094
       430   04 Jun 2027 19:32:19.104   04 Jun 2027 19:33:37.105            78.001               Magadan1          2437.531
       431   04 Jun 2027 19:33:46.269   04 Jun 2027 19:33:54.447             8.178               Magadan2           255.563
       432   04 Jun 2027 19:35:42.085   04 Jun 2027 19:36:58.262            76.177               Magadan2          2380.531
       433   04 Jun 2027 21:05:41.169   04 Jun 2027 21:09:23.245           222.076                Anadyr1          6939.875
       434   04 Jun 2027 21:09:26.619   04 Jun 2027 21:11:17.396           110.777               Magadan1          3461.781
       435   04 Jun 2027 21:11:17.396   04 Jun 2027 21:12:59.949           102.553               Magadan2          3204.781
       436   04 Jun 2027 21:15:28.521   04 Jun 2027 21:15:55.038            26.517               Magadan1           828.656
       437   04 Jun 2027 22:00:13.170   04 Jun 2027 22:02:34.034           140.864            RioGallegos          4402.000
       438   04 Jun 2027 22:02:42.946   04 Jun 2027 22:03:27.976            45.030            RioGallegos          1407.188
       439   04 Jun 2027 22:41:19.525   04 Jun 2027 22:41:44.328            24.803                Anadyr1           775.094
       440   04 Jun 2027 22:43:30.897   04 Jun 2027 22:45:05.690            94.793                Norilsk          2962.281
       441   04 Jun 2027 22:45:08.702   04 Jun 2027 22:45:24.273            15.571               Magadan1           486.594
       442   04 Jun 2027 22:46:05.884   04 Jun 2027 22:47:14.355            68.471                Norilsk          2139.719
       443   04 Jun 2027 22:47:45.032   04 Jun 2027 22:48:24.611            39.579                Irkutsk          1236.844
       444   04 Jun 2027 22:49:10.945   04 Jun 2027 22:49:29.930            18.985                Irkutsk           593.281
       445   04 Jun 2027 22:50:02.147   04 Jun 2027 22:52:22.172           140.025                Novosib          4375.781
       446   04 Jun 2027 23:03:46.332   04 Jun 2027 23:04:57.091            70.759                Sumatra          2211.219
       447   04 Jun 2027 23:09:21.344   04 Jun 2027 23:10:58.410            97.066                Sumatra          3033.312
       448   05 Jun 2027 00:16:30.439   05 Jun 2027 00:16:51.638            21.199                Anadyr2           662.469
       449   05 Jun 2027 00:17:01.327   05 Jun 2027 00:17:31.599            30.272                Anadyr1           946.000
       450   05 Jun 2027 00:19:27.723   05 Jun 2027 00:19:35.816             8.093                Norilsk           252.906
       451   05 Jun 2027 00:20:07.413   05 Jun 2027 00:21:18.827            71.414               Magadan2          2231.687
       452   05 Jun 2027 00:21:18.827   05 Jun 2027 00:21:42.565            23.738               Magadan1           741.813
       453   05 Jun 2027 00:23:19.909   05 Jun 2027 00:24:15.303            55.394                Irkutsk          1731.063
       454   05 Jun 2027 00:24:25.803   05 Jun 2027 00:25:35.905            70.102                Novosib          2190.688
       455   05 Jun 2027 00:29:03.308   05 Jun 2027 00:29:57.023            53.715                Novosib          1678.594
       456   05 Jun 2027 00:31:23.756   05 Jun 2027 00:32:08.475            44.719                  Delhi          1397.469
       457   05 Jun 2027 00:33:53.923   05 Jun 2027 00:34:34.223            40.300                  Delhi          1259.375
       458   05 Jun 2027 00:37:29.380   05 Jun 2027 00:37:55.298            25.918                  Delhi           809.937
       459   05 Jun 2027 00:42:02.201   05 Jun 2027 00:42:21.586            19.385                  Delhi           605.781
       460   05 Jun 2027 01:15:20.937   05 Jun 2027 01:15:36.040            15.103            RioGallegos           471.969
       461   05 Jun 2027 01:16:38.076   05 Jun 2027 01:17:27.161            49.085            RioGallegos          1533.906
       462   05 Jun 2027 01:49:42.844   05 Jun 2027 01:49:57.286            14.442                Anadyr2           451.313
       463   05 Jun 2027 01:50:31.194   05 Jun 2027 01:51:25.856            54.662                Anadyr2          1708.187
       464   05 Jun 2027 01:51:25.856   05 Jun 2027 01:52:03.067            37.211                Anadyr1          1162.844
       465   05 Jun 2027 01:55:35.750   05 Jun 2027 01:55:43.321             7.571                Anadyr1           236.594
       466   05 Jun 2027 01:56:03.673   05 Jun 2027 01:57:46.800           103.127               Magadan1          3222.719
       467   05 Jun 2027 01:57:50.218   05 Jun 2027 01:59:21.336            91.118              Murmansk1          2847.437
       468   05 Jun 2027 01:59:34.586   05 Jun 2027 01:59:49.509            14.923                Novosib           466.344
       469   05 Jun 2027 02:00:08.272   05 Jun 2027 02:00:32.637            24.365                Irkutsk           761.406
       470   05 Jun 2027 02:02:54.001   05 Jun 2027 02:03:08.938            14.937                 Moscow           466.781
       471   05 Jun 2027 02:04:33.781   05 Jun 2027 02:04:43.721             9.940                 Moscow           310.625
       472   05 Jun 2027 02:06:04.366   05 Jun 2027 02:06:32.125            27.759                 Moscow           867.469
       473   05 Jun 2027 02:09:18.919   05 Jun 2027 02:11:10.230           111.311                  Delhi          3478.469
       474   05 Jun 2027 03:31:27.650   05 Jun 2027 03:32:21.278            53.628                Anadyr2          1675.875
       475   05 Jun 2027 03:42:20.093   05 Jun 2027 03:45:34.327           194.234              Murmansk2          6069.813
       476   05 Jun 2027 03:45:39.029   05 Jun 2027 03:49:17.948           218.919                 Moscow          6841.219
       477   05 Jun 2027 04:01:24.989   05 Jun 2027 04:04:34.894           189.905               CapeTown          5934.531
       478   05 Jun 2027 04:05:29.825   05 Jun 2027 04:05:45.119            15.294               CapeTown           477.938
       479   05 Jun 2027 04:07:15.208   05 Jun 2027 04:09:02.669           107.461               CapeTown          3358.156
       480   05 Jun 2027 05:00:09.824   05 Jun 2027 05:00:33.708            23.884                Anadyr2           746.375
       481   05 Jun 2027 05:00:46.869   05 Jun 2027 05:01:02.393            15.524                Anadyr2           485.125
       482   05 Jun 2027 05:02:59.291   05 Jun 2027 05:04:02.450            63.159               Magadan2          1973.719
