uniorb/output/strategy_4/Drop/Drop_KinoSat_111607.txt

KinoSat_111607
-------------------------
    Access    *     Start Time (UTCG)     *     Stop Time (UTCG)  *   Duration (s)        *       Station  *  Data (Mbytes)
         1   01 Jun 2027 03:01:08.653   01 Jun 2027 03:01:34.950            26.297                  Delhi           255.500
         2   01 Jun 2027 04:35:06.428   01 Jun 2027 04:35:20.959            14.531              Murmansk1           454.094
         3   01 Jun 2027 04:35:20.959   01 Jun 2027 04:36:04.842            43.883              Murmansk2          1371.344
         4   01 Jun 2027 04:36:04.842   01 Jun 2027 04:36:34.856            30.014              Murmansk1           937.937
         5   01 Jun 2027 04:36:40.207   01 Jun 2027 04:37:26.968            46.761              Murmansk1          1461.281
         6   01 Jun 2027 04:37:58.431   01 Jun 2027 04:39:45.345           106.914              Murmansk2          3341.063
         7   01 Jun 2027 04:40:05.731   01 Jun 2027 04:40:56.210            50.479                 Moscow          1577.469
         8   01 Jun 2027 04:41:25.062   01 Jun 2027 04:41:50.054            24.992                 Moscow           781.000
         9   01 Jun 2027 04:55:22.512   01 Jun 2027 04:56:59.597            97.085               CapeTown          3033.906
        10   01 Jun 2027 05:58:55.576   01 Jun 2027 06:03:34.963           279.387               Magadan1          8730.844
        11   01 Jun 2027 06:04:22.667   01 Jun 2027 06:04:57.432            34.765              Murmansk2          1086.406
        12   01 Jun 2027 06:09:43.925   01 Jun 2027 06:10:41.527            57.602              Murmansk1          1800.063
        13   01 Jun 2027 06:10:41.527   01 Jun 2027 06:10:58.123            16.596              Murmansk2           518.625
        14   01 Jun 2027 06:11:18.486   01 Jun 2027 06:14:50.738           212.252              Murmansk1          6632.875
        15   01 Jun 2027 07:33:59.792   01 Jun 2027 07:34:13.553            13.761                Anadyr1           430.031
        16   01 Jun 2027 07:34:44.993   01 Jun 2027 07:37:22.756           157.763                Norilsk          4930.094
        17   01 Jun 2027 07:37:28.246   01 Jun 2027 07:39:54.459           146.213                Anadyr1          4569.156
        18   01 Jun 2027 09:08:06.980   01 Jun 2027 09:14:58.932           411.952                Anadyr1         12873.500
        19   01 Jun 2027 10:45:41.650   01 Jun 2027 10:49:51.985           250.335               Magadan1          7822.969
        20   01 Jun 2027 12:03:36.916   01 Jun 2027 12:04:02.674            25.758                Sumatra           804.937
        21   01 Jun 2027 12:15:13.893   01 Jun 2027 12:16:29.411            75.518                Irkutsk          2359.938
        22   01 Jun 2027 12:17:28.803   01 Jun 2027 12:18:29.377            60.574                Irkutsk          1892.938
        23   01 Jun 2027 12:19:44.182   01 Jun 2027 12:19:57.707            13.525                Irkutsk           422.656
        24   01 Jun 2027 13:06:42.861   01 Jun 2027 13:12:24.001           341.140            RioGallegos         10660.625
        25   01 Jun 2027 13:53:07.402   01 Jun 2027 13:53:14.659             7.257                Novosib           226.781
        26   01 Jun 2027 13:53:22.174   01 Jun 2027 13:54:06.410            44.236                Novosib          1382.375
        27   01 Jun 2027 13:54:53.456   01 Jun 2027 13:55:46.413            52.957                Novosib          1654.906
        28   01 Jun 2027 13:57:11.045   01 Jun 2027 13:58:01.056            50.011                Novosib          1562.844
        29   01 Jun 2027 14:00:00.852   01 Jun 2027 14:00:42.262            41.410                Norilsk          1294.063
        30   01 Jun 2027 15:29:29.343   01 Jun 2027 15:32:02.341           152.998                 Moscow          4781.188
        31   01 Jun 2027 15:32:56.776   01 Jun 2027 15:34:11.178            74.402              Murmansk1          2325.062
        32   01 Jun 2027 15:34:11.178   01 Jun 2027 15:34:36.582            25.404              Murmansk2           793.875
        33   01 Jun 2027 15:37:09.010   01 Jun 2027 15:39:05.193           116.183                Norilsk          3630.719
        34   01 Jun 2027 15:40:21.918   01 Jun 2027 15:42:50.568           148.650                Norilsk          4645.312
        35   01 Jun 2027 17:06:59.425   01 Jun 2027 17:07:46.126            46.701                 Moscow          1459.406
        36   01 Jun 2027 17:08:19.543   01 Jun 2027 17:09:15.862            56.319                 Moscow          1759.969
        37   01 Jun 2027 17:10:05.042   01 Jun 2027 17:11:04.738            59.696              Murmansk1          1865.500
        38   01 Jun 2027 17:11:38.682   01 Jun 2027 17:12:03.770            25.088                 Moscow           784.000
        39   01 Jun 2027 17:12:42.288   01 Jun 2027 17:13:49.030            66.742              Murmansk2          2085.687
        40   01 Jun 2027 17:16:28.582   01 Jun 2027 17:16:58.466            29.884                 Moscow           933.875
        41   01 Jun 2027 17:23:57.275   01 Jun 2027 17:24:30.448            33.173                Anadyr2          1036.656
        42   01 Jun 2027 17:24:54.339   01 Jun 2027 17:25:17.933            23.594                Anadyr1           737.312
        43   01 Jun 2027 18:19:01.248   01 Jun 2027 18:20:26.798            85.550               CapeTown          2673.438
        44   01 Jun 2027 18:21:57.066   01 Jun 2027 18:22:43.099            46.033               CapeTown          1438.531
        45   01 Jun 2027 18:49:30.926   01 Jun 2027 18:54:30.515           299.589              Murmansk1          9362.156
        46   01 Jun 2027 18:54:39.048   01 Jun 2027 18:54:56.831            17.783              Murmansk1           555.719
        47   01 Jun 2027 19:02:50.992   01 Jun 2027 19:02:55.288             4.296               Magadan2           134.250
        48   01 Jun 2027 19:02:55.288   01 Jun 2027 19:03:40.161            44.873               Magadan1          1402.281
        49   01 Jun 2027 19:04:13.518   01 Jun 2027 19:04:41.349            27.831               Magadan1           869.719
        50   01 Jun 2027 19:06:59.220   01 Jun 2027 19:07:18.366            19.146               Magadan1           598.312
        51   01 Jun 2027 20:35:28.332   01 Jun 2027 20:39:12.921           224.589                Anadyr2          7018.406
        52   01 Jun 2027 20:40:01.639   01 Jun 2027 20:42:58.835           177.196               Magadan2          5537.375
        53   01 Jun 2027 20:48:13.420   01 Jun 2027 20:48:32.514            19.094               Magadan2           596.687
        54   01 Jun 2027 21:32:38.363   01 Jun 2027 21:34:27.767           109.404            RioGallegos          3418.875
        55   01 Jun 2027 22:11:19.457   01 Jun 2027 22:13:25.297           125.840                Anadyr2          3932.500
        56   01 Jun 2027 22:13:27.498   01 Jun 2027 22:13:44.132            16.634                Anadyr1           519.812
        57   01 Jun 2027 22:13:53.767   01 Jun 2027 22:17:00.249           186.482               Magadan1          5827.562
        58   01 Jun 2027 22:17:00.249   01 Jun 2027 22:17:34.708            34.459               Magadan2          1076.844
        59   01 Jun 2027 22:18:41.302   01 Jun 2027 22:19:19.203            37.901                Irkutsk          1184.406
        60   01 Jun 2027 22:19:29.421   01 Jun 2027 22:20:08.632            39.211                Irkutsk          1225.344
        61   01 Jun 2027 22:24:18.128   01 Jun 2027 22:24:55.233            37.105                Irkutsk          1159.531
        62   01 Jun 2027 22:34:14.096   01 Jun 2027 22:35:44.988            90.892                Sumatra          2840.375
        63   01 Jun 2027 23:46:41.372   01 Jun 2027 23:49:06.092           144.720                Anadyr2          4522.500
        64   01 Jun 2027 23:49:11.509   01 Jun 2027 23:49:40.733            29.224                Norilsk           913.250
        65   01 Jun 2027 23:49:47.970   01 Jun 2027 23:49:48.431             0.461               Magadan2            14.406
        66   01 Jun 2027 23:50:01.816   01 Jun 2027 23:50:13.175            11.359                Norilsk           354.969
        67   01 Jun 2027 23:50:34.853   01 Jun 2027 23:50:54.405            19.552                Norilsk           611.000
        68   01 Jun 2027 23:51:30.021   01 Jun 2027 23:51:49.801            19.780               Magadan1           618.125
        69   01 Jun 2027 23:52:06.769   01 Jun 2027 23:52:24.413            17.644               Magadan1           551.375
        70   01 Jun 2027 23:52:45.101   01 Jun 2027 23:53:23.356            38.255               Magadan1          1195.469
        71   01 Jun 2027 23:53:58.651   01 Jun 2027 23:55:21.591            82.940                Novosib          2591.875
        72   01 Jun 2027 23:56:00.131   01 Jun 2027 23:57:14.260            74.129                Novosib          2316.531
        73   02 Jun 2027 00:06:17.089   02 Jun 2027 00:06:38.818            21.729                  Delhi           679.031
        74   02 Jun 2027 00:08:40.158   02 Jun 2027 00:09:24.534            44.376                Sumatra          1386.750
        75   02 Jun 2027 00:41:10.010   02 Jun 2027 00:42:15.620            65.610            RioGallegos          2050.312
        76   02 Jun 2027 00:47:18.806   02 Jun 2027 00:47:28.664             9.858            RioGallegos           308.063
        77   02 Jun 2027 00:50:08.884   02 Jun 2027 00:50:12.861             3.977            RioGallegos           124.281
        78   02 Jun 2027 00:50:48.052   02 Jun 2027 00:51:59.201            71.149            RioGallegos          2223.406
        79   02 Jun 2027 01:21:42.861   02 Jun 2027 01:22:22.066            39.205                Anadyr2          1225.156
        80   02 Jun 2027 01:22:47.075   02 Jun 2027 01:23:06.879            19.804                Anadyr1           618.875
        81   02 Jun 2027 01:23:22.505   02 Jun 2027 01:23:46.303            23.798                Anadyr2           743.688
        82   02 Jun 2027 01:25:11.964   02 Jun 2027 01:26:53.846           101.882                Norilsk          3183.812
        83   02 Jun 2027 01:28:15.963   02 Jun 2027 01:28:48.316            32.353               Magadan1          1011.031
        84   02 Jun 2027 01:29:01.319   02 Jun 2027 01:32:10.793           189.474                Novosib          5921.062
        85   02 Jun 2027 01:43:14.679   02 Jun 2027 01:43:31.633            16.954                  Delhi           529.813
        86   02 Jun 2027 01:45:57.991   02 Jun 2027 01:46:32.318            34.327                  Delhi          1072.719
        87   02 Jun 2027 02:18:03.224   02 Jun 2027 02:18:07.430             4.206            RioGallegos           131.438
        88   02 Jun 2027 02:18:51.377   02 Jun 2027 02:20:11.574            80.197            RioGallegos          2506.156
        89   02 Jun 2027 02:20:55.646   02 Jun 2027 02:22:34.515            98.869            RioGallegos          3089.656
        90   02 Jun 2027 02:58:13.478   02 Jun 2027 02:58:21.098             7.620                Anadyr2           238.125
        91   02 Jun 2027 02:58:31.186   02 Jun 2027 02:58:54.055            22.869                Anadyr2           714.656
        92   02 Jun 2027 03:08:07.468   02 Jun 2027 03:08:53.423            45.955                Norilsk          1436.094
        93   02 Jun 2027 03:09:01.509   02 Jun 2027 03:11:55.017           173.508                Novosib          5422.125
        94   02 Jun 2027 03:12:10.492   02 Jun 2027 03:13:32.737            82.245                Norilsk          2570.156
        95   02 Jun 2027 03:13:37.921   02 Jun 2027 03:17:11.111           213.190                  Delhi          6662.187
        96   02 Jun 2027 04:47:50.843   02 Jun 2027 04:48:54.374            63.531                Novosib          1985.344
        97   02 Jun 2027 04:49:34.166   02 Jun 2027 04:50:02.182            28.016                 Moscow           875.500
        98   02 Jun 2027 04:50:37.885   02 Jun 2027 04:53:54.098           196.213                 Moscow          6131.656
        99   02 Jun 2027 05:06:25.811   02 Jun 2027 05:09:21.113           175.302               CapeTown          5478.188
       100   02 Jun 2027 06:03:08.914   02 Jun 2027 06:05:19.547           130.633                Anadyr1          4082.281
       101   02 Jun 2027 06:05:26.619   02 Jun 2027 06:06:32.467            65.848               Magadan2          2057.750
       102   02 Jun 2027 06:06:32.467   02 Jun 2027 06:06:43.960            11.493               Magadan1           359.156
       103   02 Jun 2027 06:10:19.624   02 Jun 2027 06:11:16.108            56.484                Anadyr2          1765.125
       104   02 Jun 2027 06:11:19.772   02 Jun 2027 06:13:36.972           137.200               Magadan1          4287.500
       105   02 Jun 2027 07:48:12.388   02 Jun 2027 07:50:11.038           118.650                Anadyr1          3707.812
       106   02 Jun 2027 09:21:03.935   02 Jun 2027 09:22:56.023           112.088                Anadyr1          3502.750
       107   02 Jun 2027 09:23:32.977   02 Jun 2027 09:26:40.416           187.439                Anadyr1          5857.469
       108   02 Jun 2027 09:27:26.260   02 Jun 2027 09:27:40.759            14.499                Norilsk           453.094
       109   02 Jun 2027 10:02:28.354   02 Jun 2027 10:03:04.461            36.107            RioGallegos          1128.344
       110   02 Jun 2027 10:04:37.828   02 Jun 2027 10:04:41.510             3.682            RioGallegos           115.062
       111   02 Jun 2027 10:05:16.304   02 Jun 2027 10:05:44.867            28.563            RioGallegos           892.594
       112   02 Jun 2027 10:39:39.527   02 Jun 2027 10:41:32.028           112.501                Sumatra          3515.656
       113   02 Jun 2027 10:57:05.158   02 Jun 2027 10:57:34.219            29.061               Magadan1           908.156
       114   02 Jun 2027 10:57:40.450   02 Jun 2027 10:58:41.032            60.582               Magadan2          1893.187
       115   02 Jun 2027 10:58:41.032   02 Jun 2027 11:00:17.734            96.702               Magadan1          3021.938
       116   02 Jun 2027 11:00:48.495   02 Jun 2027 11:01:08.920            20.425                Novosib           638.281
       117   02 Jun 2027 11:01:13.398   02 Jun 2027 11:01:14.060             0.662                Irkutsk            20.687
       118   02 Jun 2027 11:01:14.783   02 Jun 2027 11:01:27.803            13.020                Norilsk           406.875
       119   02 Jun 2027 11:01:33.428   02 Jun 2027 11:02:12.488            39.060                Novosib          1220.625
       120   02 Jun 2027 11:02:22.043   02 Jun 2027 11:02:26.806             4.763                Norilsk           148.844
       121   02 Jun 2027 11:02:30.715   02 Jun 2027 11:02:50.801            20.086                Norilsk           627.687
       122   02 Jun 2027 11:02:53.159   02 Jun 2027 11:03:19.535            26.376                Novosib           824.250
       123   02 Jun 2027 11:38:30.530   02 Jun 2027 11:39:26.173            55.643            RioGallegos          1738.844
       124   02 Jun 2027 11:47:52.410   02 Jun 2027 11:48:06.373            13.963            RioGallegos           436.344
       125   02 Jun 2027 12:12:58.945   02 Jun 2027 12:13:59.514            60.569                Sumatra          1892.781
       126   02 Jun 2027 12:25:59.821   02 Jun 2027 12:27:13.947            74.126                  Delhi          2316.438
       127   02 Jun 2027 12:27:37.445   02 Jun 2027 12:27:54.014            16.569                Irkutsk           517.781
       128   02 Jun 2027 12:27:58.912   02 Jun 2027 12:29:06.626            67.714                Novosib          2116.062
       129   02 Jun 2027 12:31:38.464   02 Jun 2027 12:32:33.240            54.776                Norilsk          1711.750
       130   02 Jun 2027 12:45:10.761   02 Jun 2027 12:45:44.067            33.306              Murmansk2          1040.812
       131   02 Jun 2027 13:20:37.156   02 Jun 2027 13:22:59.073           141.917            RioGallegos          4434.906
       132   02 Jun 2027 14:05:13.054   02 Jun 2027 14:06:05.454            52.400                  Delhi          1637.500
       133   02 Jun 2027 14:06:11.001   02 Jun 2027 14:09:10.329           179.328                Novosib          5604.000
       134   02 Jun 2027 14:09:32.888   02 Jun 2027 14:09:46.879            13.991                Norilsk           437.219
       135   02 Jun 2027 14:10:05.253   02 Jun 2027 14:10:42.525            37.272                Novosib          1164.750
       136   02 Jun 2027 14:19:27.414   02 Jun 2027 14:20:02.637            35.223                Norilsk          1100.719
       137   02 Jun 2027 15:41:31.283   02 Jun 2027 15:44:25.555           174.272                 Moscow          5446.000
       138   02 Jun 2027 15:45:01.349   02 Jun 2027 15:46:08.803            67.454              Murmansk2          2107.938
       139   02 Jun 2027 15:49:56.284   02 Jun 2027 15:54:25.738           269.454                Norilsk          8420.438
       140   02 Jun 2027 17:19:31.175   02 Jun 2027 17:20:00.878            29.703                 Moscow           928.219
       141   02 Jun 2027 17:22:24.510   02 Jun 2027 17:24:17.723           113.213              Murmansk1          3537.906
       142   02 Jun 2027 17:26:18.568   02 Jun 2027 17:27:55.964            97.396              Murmansk1          3043.625
       143   02 Jun 2027 17:36:30.119   02 Jun 2027 17:36:51.662            21.543                Anadyr2           673.219
       144   02 Jun 2027 17:40:36.095   02 Jun 2027 17:40:45.973             9.878                Anadyr2           308.687
       145   02 Jun 2027 17:41:45.332   02 Jun 2027 17:42:34.043            48.711                Anadyr1          1522.219
       146   02 Jun 2027 18:31:10.053   02 Jun 2027 18:31:53.548            43.495               CapeTown          1359.219
       147   02 Jun 2027 18:38:48.639   02 Jun 2027 18:38:52.551             3.912               CapeTown           122.250
       148   02 Jun 2027 18:39:33.386   02 Jun 2027 18:39:53.739            20.353               CapeTown           636.031
       149   02 Jun 2027 18:40:10.967   02 Jun 2027 18:40:53.669            42.702               CapeTown          1334.438
       150   02 Jun 2027 19:02:12.713   02 Jun 2027 19:05:54.719           222.006              Murmansk1          6937.688
       151   02 Jun 2027 19:06:00.096   02 Jun 2027 19:06:32.447            32.351              Murmansk1          1010.969
       152   02 Jun 2027 19:14:37.369   02 Jun 2027 19:15:52.478            75.109               Magadan1          2347.156
       153   02 Jun 2027 19:23:16.172   02 Jun 2027 19:23:28.815            12.643               Magadan2           395.094
       154   02 Jun 2027 20:47:29.981   02 Jun 2027 20:49:05.014            95.033                Anadyr2          2969.781
       155   02 Jun 2027 20:49:07.812   02 Jun 2027 20:51:19.933           132.121                Anadyr1          4128.781
       156   02 Jun 2027 20:51:46.059   02 Jun 2027 20:53:27.373           101.314               Magadan2          3166.062
       157   02 Jun 2027 20:53:27.373   02 Jun 2027 20:54:26.024            58.651               Magadan1          1832.844
       158   02 Jun 2027 20:55:39.505   02 Jun 2027 20:56:17.139            37.634               Magadan2          1176.062
       159   02 Jun 2027 20:59:00.634   02 Jun 2027 20:59:08.341             7.707               Magadan1           240.844
       160   02 Jun 2027 21:43:31.213   02 Jun 2027 21:46:06.037           154.824            RioGallegos          4838.250
       161   02 Jun 2027 21:48:44.357   02 Jun 2027 21:49:16.458            32.101            RioGallegos          1003.156
       162   02 Jun 2027 22:23:19.073   02 Jun 2027 22:25:14.441           115.368                Anadyr2          3605.250
       163   02 Jun 2027 22:25:26.180   02 Jun 2027 22:26:56.945            90.765                Norilsk          2836.406
       164   02 Jun 2027 22:27:34.065   02 Jun 2027 22:27:52.915            18.850               Magadan1           589.062
       165   02 Jun 2027 22:28:11.821   02 Jun 2027 22:28:21.986            10.165               Magadan1           317.656
       166   02 Jun 2027 22:29:25.131   02 Jun 2027 22:29:34.025             8.894               Magadan1           277.938
       167   02 Jun 2027 22:30:18.978   02 Jun 2027 22:30:56.674            37.696                Irkutsk          1178.000
       168   02 Jun 2027 22:32:10.275   02 Jun 2027 22:32:49.887            39.612                Irkutsk          1237.875
       169   02 Jun 2027 22:39:11.177   02 Jun 2027 22:39:23.983            12.806                Irkutsk           400.188
       170   02 Jun 2027 22:45:11.502   02 Jun 2027 22:47:30.673           139.171                Sumatra          4349.094
       171   02 Jun 2027 23:58:34.690   03 Jun 2027 00:00:09.719            95.029                Anadyr1          2969.656
       172   03 Jun 2027 00:01:06.504   03 Jun 2027 00:01:46.002            39.498                Anadyr1          1234.312
       173   03 Jun 2027 00:01:51.115   03 Jun 2027 00:04:46.419           175.304               Magadan1          5478.250
       174   03 Jun 2027 00:05:46.361   03 Jun 2027 00:06:51.838            65.477                Novosib          2046.156
       175   03 Jun 2027 00:08:54.511   03 Jun 2027 00:09:19.880            25.369                Novosib           792.781
       176   03 Jun 2027 00:15:05.054   03 Jun 2027 00:15:20.903            15.849                Novosib           495.281
       177   03 Jun 2027 00:15:33.193   03 Jun 2027 00:16:34.261            61.068                  Delhi          1908.375
       178   03 Jun 2027 00:18:17.597   03 Jun 2027 00:20:21.148           123.551                  Delhi          3860.969
       179   03 Jun 2027 01:04:44.874   03 Jun 2027 01:05:14.531            29.657            RioGallegos           926.781
       180   03 Jun 2027 01:32:40.366   03 Jun 2027 01:32:47.819             7.453                Anadyr2           232.906
       181   03 Jun 2027 01:33:00.855   03 Jun 2027 01:33:40.338            39.483                Anadyr1          1233.844
       182   03 Jun 2027 01:34:14.956   03 Jun 2027 01:34:30.713            15.757                Anadyr2           492.406
       183   03 Jun 2027 01:34:51.157   03 Jun 2027 01:35:14.629            23.472                Anadyr2           733.500
       184   03 Jun 2027 01:35:35.816   03 Jun 2027 01:35:39.756             3.940                Anadyr1           123.125
       185   03 Jun 2027 01:37:14.170   03 Jun 2027 01:39:12.922           118.752                Norilsk          3711.000
       186   03 Jun 2027 01:40:05.507   03 Jun 2027 01:41:09.934            64.427              Murmansk2          2013.344
       187   03 Jun 2027 01:41:16.468   03 Jun 2027 01:42:28.670            72.202              Murmansk1          2256.312
       188   03 Jun 2027 01:45:38.787   03 Jun 2027 01:46:41.331            62.544                Novosib          1954.500
       189   03 Jun 2027 01:53:24.958   03 Jun 2027 01:54:18.449            53.491                  Delhi          1671.594
       190   03 Jun 2027 02:30:21.175   03 Jun 2027 02:32:33.141           131.966            RioGallegos          4123.937
       191   03 Jun 2027 02:34:37.782   03 Jun 2027 02:35:05.286            27.504            RioGallegos           859.500
       192   03 Jun 2027 03:22:15.384   03 Jun 2027 03:22:22.217             6.833                Norilsk           213.531
       193   03 Jun 2027 03:22:31.195   03 Jun 2027 03:22:48.995            17.800                Irkutsk           556.250
       194   03 Jun 2027 03:22:53.991   03 Jun 2027 03:24:43.264           109.273                Novosib          3414.781
       195   03 Jun 2027 03:24:48.446   03 Jun 2027 03:25:41.814            53.368                Norilsk          1667.750
       196   03 Jun 2027 03:26:19.297   03 Jun 2027 03:26:39.520            20.223                  Delhi           631.969
       197   03 Jun 2027 04:59:44.924   03 Jun 2027 05:00:17.596            32.672                Novosib          1021.000
       198   03 Jun 2027 05:00:24.092   03 Jun 2027 05:01:07.961            43.869                 Moscow          1370.906
       199   03 Jun 2027 05:01:31.924   03 Jun 2027 05:01:48.065            16.141                 Moscow           504.406
       200   03 Jun 2027 05:02:53.400   03 Jun 2027 05:03:12.921            19.521                 Moscow           610.031
       201   03 Jun 2027 05:03:35.529   03 Jun 2027 05:04:08.697            33.168                 Moscow          1036.500
       202   03 Jun 2027 05:18:26.516   03 Jun 2027 05:21:01.223           154.707               CapeTown          4834.594
       203   03 Jun 2027 06:21:31.469   03 Jun 2027 06:22:15.241            43.772                Anadyr2          1367.875
       204   03 Jun 2027 06:22:15.241   03 Jun 2027 06:22:20.925             5.684                Anadyr1           177.625
       205   03 Jun 2027 06:22:31.694   03 Jun 2027 06:23:31.448            59.754               Magadan1          1867.313
       206   03 Jun 2027 06:27:27.933   03 Jun 2027 06:27:41.248            13.315               Magadan1           416.094
       207   03 Jun 2027 07:01:26.313   03 Jun 2027 07:02:01.313            35.000               CapeTown          1093.750
       208   03 Jun 2027 07:57:49.763   03 Jun 2027 07:57:51.846             2.083               Magadan2            65.094
       209   03 Jun 2027 07:57:52.410   03 Jun 2027 07:58:35.735            43.325               Magadan2          1353.906
       210   03 Jun 2027 07:58:42.454   03 Jun 2027 07:59:16.021            33.567               Magadan2          1048.969
       211   03 Jun 2027 07:59:24.940   03 Jun 2027 07:59:57.409            32.469               Magadan2          1014.656
       212   03 Jun 2027 08:00:12.564   03 Jun 2027 08:01:24.215            71.651                Anadyr1          2239.094
       213   03 Jun 2027 09:32:54.124   03 Jun 2027 09:33:19.869            25.745               Magadan2           804.531
       214   03 Jun 2027 09:33:19.869   03 Jun 2027 09:33:23.766             3.897               Magadan1           121.781
       215   03 Jun 2027 09:33:51.988   03 Jun 2027 09:33:54.563             2.575               Magadan2            80.469
       216   03 Jun 2027 09:34:35.235   03 Jun 2027 09:35:46.169            70.934               Magadan1          2216.687
       217   03 Jun 2027 09:36:37.649   03 Jun 2027 09:37:49.633            71.984               Magadan1          2249.500
       218   03 Jun 2027 09:37:53.483   03 Jun 2027 09:38:09.227            15.744                Anadyr1           492.000
       219   03 Jun 2027 09:38:11.951   03 Jun 2027 09:38:47.710            35.759               Magadan1          1117.469
       220   03 Jun 2027 10:14:19.143   03 Jun 2027 10:15:17.069            57.926            RioGallegos          1810.188
       221   03 Jun 2027 10:17:20.770   03 Jun 2027 10:17:22.595             1.825            RioGallegos            57.031
       222   03 Jun 2027 10:19:38.352   03 Jun 2027 10:20:13.199            34.847            RioGallegos          1088.969
       223   03 Jun 2027 10:50:48.167   03 Jun 2027 10:52:29.210           101.043                Sumatra          3157.594
       224   03 Jun 2027 11:09:34.154   03 Jun 2027 11:09:57.918            23.764                Irkutsk           742.625
       225   03 Jun 2027 11:10:28.788   03 Jun 2027 11:10:38.424             9.636                Irkutsk           301.125
       226   03 Jun 2027 11:10:47.713   03 Jun 2027 11:11:10.684            22.971                Norilsk           717.844
       227   03 Jun 2027 11:11:38.588   03 Jun 2027 11:12:08.157            29.569                Irkutsk           924.031
       228   03 Jun 2027 11:12:26.188   03 Jun 2027 11:13:11.960            45.772                Irkutsk          1430.375
       229   03 Jun 2027 11:13:20.726   03 Jun 2027 11:13:45.438            24.712                Irkutsk           772.250
       230   03 Jun 2027 11:14:25.487   03 Jun 2027 11:14:36.003            10.516                Novosib           328.625
       231   03 Jun 2027 11:14:51.115   03 Jun 2027 11:15:19.251            28.136                Novosib           879.250
       232   03 Jun 2027 11:51:29.504   03 Jun 2027 11:52:05.816            36.312            RioGallegos          1134.750
       233   03 Jun 2027 11:54:08.161   03 Jun 2027 11:55:20.900            72.739            RioGallegos          2273.094
       234   03 Jun 2027 12:25:25.112   03 Jun 2027 12:27:07.046           101.934                Sumatra          3185.438
       235   03 Jun 2027 12:40:06.119   03 Jun 2027 12:40:48.479            42.360                Irkutsk          1323.750
       236   03 Jun 2027 12:41:04.841   03 Jun 2027 12:41:20.896            16.055                Novosib           501.719
       237   03 Jun 2027 12:41:48.567   03 Jun 2027 12:42:16.079            27.512                Novosib           859.750
       238   03 Jun 2027 12:43:48.551   03 Jun 2027 12:44:24.496            35.945                Norilsk          1123.281
       239   03 Jun 2027 14:09:52.828   03 Jun 2027 14:11:01.544            68.716                  Delhi          2147.375
       240   03 Jun 2027 14:13:50.158   03 Jun 2027 14:15:01.872            71.714                  Delhi          2241.063
       241   03 Jun 2027 14:17:02.574   03 Jun 2027 14:18:00.074            57.500                  Delhi          1796.875
       242   03 Jun 2027 14:18:08.020   03 Jun 2027 14:21:08.644           180.624                Novosib          5644.500
       243   03 Jun 2027 14:22:39.576   03 Jun 2027 14:22:45.678             6.102                Norilsk           190.687
       244   03 Jun 2027 14:23:05.750   03 Jun 2027 14:23:11.276             5.526                Novosib           172.688
       245   03 Jun 2027 14:23:44.275   03 Jun 2027 14:24:09.169            24.894                Norilsk           777.937
       246   03 Jun 2027 14:26:28.147   03 Jun 2027 14:27:08.107            39.960                Norilsk          1248.750
       247   03 Jun 2027 15:53:36.218   03 Jun 2027 15:56:53.352           197.134                 Moscow          6160.437
       248   03 Jun 2027 15:57:07.574   03 Jun 2027 15:58:05.112            57.538              Murmansk2          1798.063
       249   03 Jun 2027 15:59:00.366   03 Jun 2027 15:59:28.258            27.892              Murmansk1           871.625
       250   03 Jun 2027 16:02:49.696   03 Jun 2027 16:07:21.216           271.520                Norilsk          8485.000
       251   03 Jun 2027 17:32:08.922   03 Jun 2027 17:33:21.334            72.412                 Moscow          2262.875
       252   03 Jun 2027 17:34:46.194   03 Jun 2027 17:35:40.922            54.728              Murmansk2          1710.250
       253   03 Jun 2027 17:36:37.203   03 Jun 2027 17:37:05.027            27.824                 Moscow           869.500
       254   03 Jun 2027 17:38:20.673   03 Jun 2027 17:38:44.486            23.813              Murmansk1           744.156
       255   03 Jun 2027 17:43:41.251   03 Jun 2027 17:44:04.269            23.018              Murmansk1           719.312
       256   03 Jun 2027 17:47:50.870   03 Jun 2027 17:49:11.343            80.473                Anadyr2          2514.781
       257   03 Jun 2027 18:43:22.150   03 Jun 2027 18:45:00.385            98.235               CapeTown          3069.844
       258   03 Jun 2027 18:47:15.312   03 Jun 2027 18:47:47.716            32.404               CapeTown          1012.625
       259   03 Jun 2027 19:14:59.145   03 Jun 2027 19:19:40.942           281.797              Murmansk2          8806.156
       260   03 Jun 2027 19:19:59.814   03 Jun 2027 19:21:00.003            60.189              Murmansk1          1880.906
       261   03 Jun 2027 19:26:27.400   03 Jun 2027 19:26:36.395             8.995               Magadan2           281.094
       262   03 Jun 2027 19:27:00.601   03 Jun 2027 19:27:29.674            29.073               Magadan1           908.531
       263   03 Jun 2027 20:59:31.530   03 Jun 2027 21:03:21.446           229.916                Anadyr2          7184.875
       264   03 Jun 2027 21:03:44.657   03 Jun 2027 21:04:56.630            71.973               Magadan1          2249.156
       265   03 Jun 2027 21:04:56.630   03 Jun 2027 21:06:32.402            95.772               Magadan2          2992.875
       266   03 Jun 2027 21:06:50.191   03 Jun 2027 21:07:04.379            14.188               Magadan1           443.375
       267   03 Jun 2027 21:08:51.206   03 Jun 2027 21:08:56.446             5.240               Magadan1           163.750
       268   03 Jun 2027 21:09:05.664   03 Jun 2027 21:09:35.148            29.484               Magadan1           921.375
       269   03 Jun 2027 21:54:55.128   03 Jun 2027 21:57:50.224           175.096            RioGallegos          5471.750
       270   03 Jun 2027 22:35:18.191   03 Jun 2027 22:37:33.876           135.685                Anadyr2          4240.156
       271   03 Jun 2027 22:37:46.568   03 Jun 2027 22:39:04.139            77.571               Magadan2          2424.094
       272   03 Jun 2027 22:39:58.639   03 Jun 2027 22:40:32.189            33.550                Norilsk          1048.438
       273   03 Jun 2027 22:42:02.849   03 Jun 2027 22:42:54.929            52.080                Irkutsk          1627.500
       274   03 Jun 2027 22:44:08.738   03 Jun 2027 22:44:37.472            28.734                Irkutsk           897.938
       275   03 Jun 2027 22:56:28.475   03 Jun 2027 22:59:11.115           162.640                Sumatra          5082.500
       276   04 Jun 2027 00:10:26.819   04 Jun 2027 00:11:36.899            70.080                Anadyr1          2190.000
       277   04 Jun 2027 00:12:10.952   04 Jun 2027 00:12:52.302            41.350                Anadyr1          1292.188
       278   04 Jun 2027 00:13:15.437   04 Jun 2027 00:14:58.614           103.177                Norilsk          3224.281
       279   04 Jun 2027 00:15:20.572   04 Jun 2027 00:16:11.251            50.679               Magadan2          1583.719
       280   04 Jun 2027 00:16:15.627   04 Jun 2027 00:16:48.177            32.550               Magadan1          1017.188
       281   04 Jun 2027 00:17:08.671   04 Jun 2027 00:17:50.079            41.408                Irkutsk          1294.000
       282   04 Jun 2027 00:18:17.495   04 Jun 2027 00:18:32.082            14.587                Novosib           455.844
       283   04 Jun 2027 00:19:32.512   04 Jun 2027 00:20:01.358            28.846                Novosib           901.437
       284   04 Jun 2027 00:25:52.163   04 Jun 2027 00:26:48.005            55.842                Novosib          1745.062
       285   04 Jun 2027 00:26:57.304   04 Jun 2027 00:28:55.026           117.722                  Delhi          3678.813
       286   04 Jun 2027 01:11:04.351   04 Jun 2027 01:11:41.999            37.648            RioGallegos          1176.500
       287   04 Jun 2027 01:16:47.523   04 Jun 2027 01:17:03.980            16.457            RioGallegos           514.281
       288   04 Jun 2027 01:44:23.031   04 Jun 2027 01:44:49.033            26.002                Anadyr1           812.562
       289   04 Jun 2027 01:45:11.551   04 Jun 2027 01:45:39.620            28.069                Anadyr1           877.156
       290   04 Jun 2027 01:45:39.620   04 Jun 2027 01:46:04.930            25.310                Anadyr2           790.937
       291   04 Jun 2027 01:46:22.354   04 Jun 2027 01:46:36.574            14.220                Anadyr2           444.375
       292   04 Jun 2027 01:49:16.286   04 Jun 2027 01:51:06.667           110.381                Norilsk          3449.406
       293   04 Jun 2027 01:51:55.530   04 Jun 2027 01:53:35.439            99.909              Murmansk2          3122.156
       294   04 Jun 2027 01:53:46.388   04 Jun 2027 01:56:21.689           155.301                Novosib          4853.156
       295   04 Jun 2027 02:42:44.716   04 Jun 2027 02:46:22.256           217.540            RioGallegos          6798.125
       296   04 Jun 2027 02:47:33.361   04 Jun 2027 02:48:03.358            29.997            RioGallegos           937.406
       297   04 Jun 2027 03:34:58.766   04 Jun 2027 03:35:27.250            28.484                Norilsk           890.125
       298   04 Jun 2027 03:36:05.860   04 Jun 2027 03:36:31.013            25.153                Norilsk           786.031
       299   04 Jun 2027 03:36:44.199   04 Jun 2027 03:37:35.306            51.107              Murmansk1          1597.094
       300   04 Jun 2027 03:37:36.732   04 Jun 2027 03:38:53.203            76.471                Novosib          2389.719
       301   04 Jun 2027 03:39:27.506   04 Jun 2027 03:43:46.975           259.469                  Delhi          8108.406
       302   04 Jun 2027 05:11:03.867   04 Jun 2027 05:11:31.364            27.497                Novosib           859.281
       303   04 Jun 2027 05:11:33.762   04 Jun 2027 05:12:06.292            32.530                 Moscow          1016.562
       304   04 Jun 2027 05:12:22.087   04 Jun 2027 05:12:24.737             2.650                 Moscow            82.813
       305   04 Jun 2027 05:12:31.634   04 Jun 2027 05:13:26.147            54.513                 Moscow          1703.531
       306   04 Jun 2027 05:14:30.072   04 Jun 2027 05:15:16.982            46.910                 Moscow          1465.938
       307   04 Jun 2027 05:30:32.361   04 Jun 2027 05:30:48.806            16.445               CapeTown           513.906
       308   04 Jun 2027 05:31:15.690   04 Jun 2027 05:32:46.921            91.231               CapeTown          2850.969
       309   04 Jun 2027 06:33:02.717   04 Jun 2027 06:33:21.725            19.008                Anadyr1           594.000
       310   04 Jun 2027 06:33:21.725   04 Jun 2027 06:34:16.328            54.603                Anadyr2          1706.344
       311   04 Jun 2027 06:34:22.425   04 Jun 2027 06:35:04.430            42.005                Anadyr2          1312.656
       312   04 Jun 2027 06:35:04.430   04 Jun 2027 06:35:38.992            34.562                Anadyr1          1080.063
       313   04 Jun 2027 08:09:51.418   04 Jun 2027 08:10:11.179            19.761                Anadyr1           617.531
       314   04 Jun 2027 08:10:19.152   04 Jun 2027 08:11:19.569            60.417                Anadyr1          1888.031
       315   04 Jun 2027 08:11:34.194   04 Jun 2027 08:11:59.544            25.350               Magadan2           792.188
       316   04 Jun 2027 08:12:12.235   04 Jun 2027 08:13:15.546            63.311                Anadyr2          1978.469
       317   04 Jun 2027 08:55:26.467   04 Jun 2027 08:55:40.402            13.935            RioGallegos           435.469
       318   04 Jun 2027 09:45:11.973   04 Jun 2027 09:45:31.457            19.484               Magadan1           608.875
       319   04 Jun 2027 09:45:44.366   04 Jun 2027 09:45:56.469            12.103               Magadan1           378.219
       320   04 Jun 2027 09:46:43.436   04 Jun 2027 09:47:20.517            37.081               Magadan2          1158.781
       321   04 Jun 2027 09:47:44.185   04 Jun 2027 09:48:21.286            37.101               Magadan2          1159.406
       322   04 Jun 2027 09:49:22.393   04 Jun 2027 09:49:26.952             4.559                Irkutsk           142.469
       323   04 Jun 2027 09:49:50.487   04 Jun 2027 09:50:29.774            39.287               Magadan2          1227.719
       324   04 Jun 2027 09:50:37.171   04 Jun 2027 09:51:03.072            25.901               Magadan1           809.406
       325   04 Jun 2027 09:51:07.149   04 Jun 2027 09:51:10.944             3.795                Irkutsk           118.594
       326   04 Jun 2027 09:56:32.578   04 Jun 2027 09:56:33.131             0.553                Norilsk            17.281
       327   04 Jun 2027 10:26:13.149   04 Jun 2027 10:27:05.026            51.877            RioGallegos          1621.156
       328   04 Jun 2027 10:31:10.509   04 Jun 2027 10:32:16.116            65.607            RioGallegos          2050.219
       329   04 Jun 2027 11:07:41.656   04 Jun 2027 11:08:31.463            49.807                Sumatra          1556.469
       330   04 Jun 2027 11:23:04.693   04 Jun 2027 11:23:41.611            36.918                Irkutsk          1153.687
       331   04 Jun 2027 11:24:10.060   04 Jun 2027 11:24:30.472            20.412                Norilsk           637.875
       332   04 Jun 2027 11:24:49.268   04 Jun 2027 11:24:59.163             9.895                Novosib           309.219
       333   04 Jun 2027 11:25:17.504   04 Jun 2027 11:25:27.127             9.623                Irkutsk           300.719
       334   04 Jun 2027 11:25:29.033   04 Jun 2027 11:25:38.693             9.660                Norilsk           301.875
       335   04 Jun 2027 11:26:01.382   04 Jun 2027 11:26:15.439            14.057                Novosib           439.281
       336   04 Jun 2027 11:26:21.526   04 Jun 2027 11:26:32.926            11.400                Novosib           356.250
       337   04 Jun 2027 11:26:34.252   04 Jun 2027 11:26:48.381            14.129                Norilsk           441.531
       338   04 Jun 2027 11:26:53.709   04 Jun 2027 11:27:03.025             9.316                Novosib           291.125
       339   04 Jun 2027 11:27:06.482   04 Jun 2027 11:27:41.805            35.323                Norilsk          1103.844
       340   04 Jun 2027 12:03:13.304   04 Jun 2027 12:04:05.862            52.558            RioGallegos          1642.437
       341   04 Jun 2027 12:37:28.731   04 Jun 2027 12:38:33.277            64.546                Sumatra          2017.062
       342   04 Jun 2027 12:46:03.683   04 Jun 2027 12:47:21.356            77.673                  Delhi          2427.281
       343   04 Jun 2027 12:52:07.060   04 Jun 2027 12:53:01.931            54.871                Novosib          1714.719
       344   04 Jun 2027 12:53:03.648   04 Jun 2027 12:54:20.620            76.972                Irkutsk          2405.375
       345   04 Jun 2027 14:22:23.391   04 Jun 2027 14:27:31.828           308.437                  Delhi          9638.656
       346   04 Jun 2027 14:30:47.197   04 Jun 2027 14:31:52.124            64.927                Novosib          2028.969
       347   04 Jun 2027 14:33:05.809   04 Jun 2027 14:33:26.490            20.681                Novosib           646.281
       348   04 Jun 2027 14:34:26.691   04 Jun 2027 14:34:27.643             0.952                Norilsk            29.750
       349   04 Jun 2027 14:35:06.880   04 Jun 2027 14:36:10.134            63.254                Novosib          1976.687
       350   04 Jun 2027 16:05:44.256   04 Jun 2027 16:07:38.234           113.978                 Moscow          3561.813
       351   04 Jun 2027 16:09:15.519   04 Jun 2027 16:09:23.667             8.148              Murmansk1           254.625
       352   04 Jun 2027 16:09:26.420   04 Jun 2027 16:09:54.828            28.408                 Moscow           887.750
       353   04 Jun 2027 16:09:59.590   04 Jun 2027 16:11:01.935            62.345              Murmansk2          1948.281
       354   04 Jun 2027 16:13:01.290   04 Jun 2027 16:13:21.843            20.553              Murmansk1           642.281
       355   04 Jun 2027 16:15:53.493   04 Jun 2027 16:18:26.531           153.038                Norilsk          4782.438
       356   04 Jun 2027 16:25:15.463   04 Jun 2027 16:25:42.771            27.308                Anadyr2           853.375
       357   04 Jun 2027 17:19:16.812   04 Jun 2027 17:20:50.173            93.361               CapeTown          2917.531
       358   04 Jun 2027 17:29:38.194   04 Jun 2027 17:30:24.548            46.354               CapeTown          1448.563
       359   04 Jun 2027 17:44:54.165   04 Jun 2027 17:45:28.649            34.484                 Moscow          1077.625
       360   04 Jun 2027 17:46:31.527   04 Jun 2027 17:48:37.778           126.251                 Moscow          3945.344
       361   04 Jun 2027 17:52:09.849   04 Jun 2027 17:52:11.131             1.282              Murmansk2            40.062
       362   04 Jun 2027 17:54:10.803   04 Jun 2027 17:55:36.197            85.394              Murmansk1          2668.563
       363   04 Jun 2027 18:01:34.054   04 Jun 2027 18:01:43.765             9.711                Anadyr2           303.469
       364   04 Jun 2027 18:07:14.298   04 Jun 2027 18:07:15.582             1.284                Anadyr1            40.125
       365   04 Jun 2027 18:08:48.442   04 Jun 2027 18:08:57.835             9.393                Anadyr2           293.531
       366   04 Jun 2027 18:10:54.010   04 Jun 2027 18:10:55.605             1.595                Anadyr1            49.844
       367   04 Jun 2027 18:55:38.126   04 Jun 2027 18:57:03.711            85.585               CapeTown          2674.531
       368   04 Jun 2027 19:00:11.849   04 Jun 2027 19:00:31.256            19.407               CapeTown           606.469
       369   04 Jun 2027 19:27:51.763   04 Jun 2027 19:32:24.677           272.914              Murmansk2          8528.563
       370   04 Jun 2027 19:32:27.504   04 Jun 2027 19:33:09.038            41.534              Murmansk1          1297.937
       371   04 Jun 2027 19:38:20.017   04 Jun 2027 19:39:34.124            74.107               Magadan1          2315.844
       372   04 Jun 2027 19:42:08.329   04 Jun 2027 19:42:34.808            26.479               Magadan2           827.469
       373   04 Jun 2027 19:43:47.514   04 Jun 2027 19:44:18.103            30.589               Magadan1           955.906
       374   04 Jun 2027 21:11:32.935   04 Jun 2027 21:15:16.178           223.243                Anadyr1          6976.344
       375   04 Jun 2027 21:15:23.128   04 Jun 2027 21:16:43.899            80.771                Anadyr2          2524.094
       376   04 Jun 2027 21:16:53.380   04 Jun 2027 21:18:29.162            95.782               Magadan1          2993.188
       377   04 Jun 2027 21:18:35.981   04 Jun 2027 21:18:54.573            18.592               Magadan1           581.000
       378   04 Jun 2027 21:20:19.016   04 Jun 2027 21:20:52.801            33.785               Magadan1          1055.781
       379   04 Jun 2027 22:06:30.949   04 Jun 2027 22:08:58.040           147.091            RioGallegos          4596.594
       380   04 Jun 2027 22:09:24.325   04 Jun 2027 22:09:38.465            14.140            RioGallegos           441.875
       381   04 Jun 2027 22:12:27.834   04 Jun 2027 22:13:02.632            34.798            RioGallegos          1087.438
       382   04 Jun 2027 22:47:16.724   04 Jun 2027 22:48:17.670            60.946                Anadyr1          1904.563
       383   04 Jun 2027 22:48:44.718   04 Jun 2027 22:49:15.354            30.636                Anadyr1           957.375
       384   04 Jun 2027 22:49:23.754   04 Jun 2027 22:51:00.225            96.471                Norilsk          3014.719
       385   04 Jun 2027 22:51:14.669   04 Jun 2027 22:51:40.127            25.458               Magadan2           795.562
       386   04 Jun 2027 22:52:20.558   04 Jun 2027 22:53:02.734            42.176               Magadan2          1318.000
       387   04 Jun 2027 22:53:50.899   04 Jun 2027 22:54:54.295            63.396                Irkutsk          1981.125
       388   04 Jun 2027 22:56:21.067   04 Jun 2027 22:57:19.095            58.028                Irkutsk          1813.375
       389   04 Jun 2027 23:07:57.584   04 Jun 2027 23:08:56.913            59.329                Sumatra          1854.031
       390   04 Jun 2027 23:13:28.866   04 Jun 2027 23:13:48.910            20.044                Sumatra           626.375
       391   04 Jun 2027 23:53:05.327   04 Jun 2027 23:53:49.059            43.732            RioGallegos          1366.625
       392   05 Jun 2027 00:22:17.683   05 Jun 2027 00:22:44.599            26.916                Anadyr1           841.125
       393   05 Jun 2027 00:23:34.781   05 Jun 2027 00:24:36.907            62.126                Anadyr1          1941.438
       394   05 Jun 2027 00:24:52.882   05 Jun 2027 00:24:55.264             2.382                Anadyr1            74.437
       395   05 Jun 2027 00:25:01.686   05 Jun 2027 00:25:07.055             5.369                Anadyr2           167.781
       396   05 Jun 2027 00:25:12.065   05 Jun 2027 00:25:25.175            13.110                Anadyr2           409.687
       397   05 Jun 2027 00:25:53.640   05 Jun 2027 00:27:00.636            66.996                Norilsk          2093.625
       398   05 Jun 2027 00:27:58.946   05 Jun 2027 00:28:50.257            51.311               Magadan2          1603.469
       399   05 Jun 2027 00:29:09.896   05 Jun 2027 00:31:18.704           128.808                Irkutsk          4025.250
       400   05 Jun 2027 00:31:38.881   05 Jun 2027 00:31:55.682            16.801                Novosib           525.031
       401   05 Jun 2027 00:37:55.298   05 Jun 2027 00:41:13.426           198.128                  Delhi          6191.500
       402   05 Jun 2027 01:24:43.101   05 Jun 2027 01:24:56.641            13.540            RioGallegos           423.125
       403   05 Jun 2027 01:27:07.501   05 Jun 2027 01:27:27.320            19.819            RioGallegos           619.344
       404   05 Jun 2027 01:28:21.634   05 Jun 2027 01:28:44.400            22.766            RioGallegos           711.438
       405   05 Jun 2027 01:56:04.986   05 Jun 2027 01:56:16.710            11.724                Anadyr1           366.375
       406   05 Jun 2027 01:56:38.042   05 Jun 2027 01:56:50.337            12.295                Anadyr1           384.219
       407   05 Jun 2027 01:57:09.999   05 Jun 2027 01:57:24.569            14.570                Anadyr1           455.312
       408   05 Jun 2027 01:57:40.776   05 Jun 2027 01:58:22.954            42.178                Anadyr1          1318.062
       409   05 Jun 2027 02:01:18.289   05 Jun 2027 02:02:41.115            82.826                Norilsk          2588.313
       410   05 Jun 2027 02:02:55.065   05 Jun 2027 02:02:55.419             0.354                Norilsk            11.063
       411   05 Jun 2027 02:03:43.742   05 Jun 2027 02:04:01.383            17.641               Magadan1           551.281
       412   05 Jun 2027 02:04:29.299   05 Jun 2027 02:05:34.435            65.136              Murmansk1          2035.500
       413   05 Jun 2027 02:05:42.438   05 Jun 2027 02:06:55.564            73.126                Novosib          2285.187
       414   05 Jun 2027 02:10:42.054   05 Jun 2027 02:10:54.394            12.340                Novosib           385.625
       415   05 Jun 2027 02:11:33.287   05 Jun 2027 02:12:14.686            41.399                Irkutsk          1293.719
       416   05 Jun 2027 02:16:17.415   05 Jun 2027 02:16:34.064            16.649                  Delhi           520.281
       417   05 Jun 2027 02:17:50.242   05 Jun 2027 02:18:14.392            24.150                  Delhi           754.687
       418   05 Jun 2027 02:55:19.673   05 Jun 2027 02:57:12.782           113.109            RioGallegos          3534.656
       419   05 Jun 2027 02:57:44.910   05 Jun 2027 02:58:09.924            25.014            RioGallegos           781.688
       420   05 Jun 2027 02:58:51.262   05 Jun 2027 02:59:11.458            20.196            RioGallegos           631.125
       421   05 Jun 2027 03:46:07.690   05 Jun 2027 03:46:22.684            14.994                Norilsk           468.562
       422   05 Jun 2027 03:46:44.595   05 Jun 2027 03:49:35.273           170.678                Norilsk          5333.688
       423   05 Jun 2027 03:49:42.961   05 Jun 2027 03:50:10.268            27.307              Murmansk2           853.344
       424   05 Jun 2027 03:50:17.151   05 Jun 2027 03:50:59.562            42.411                Novosib          1325.344
       425   05 Jun 2027 05:23:58.453   05 Jun 2027 05:24:33.761            35.308                 Moscow          1103.375
       426   05 Jun 2027 05:25:01.527   05 Jun 2027 05:25:19.114            17.587                 Moscow           549.594
       427   05 Jun 2027 05:27:35.750   05 Jun 2027 05:27:45.048             9.298                 Moscow           290.563
       428   05 Jun 2027 05:28:31.569   05 Jun 2027 05:28:34.527             2.958                 Moscow            92.437
       429   05 Jun 2027 05:29:41.894   05 Jun 2027 05:29:51.221             9.327                 Moscow           291.469
       430   05 Jun 2027 05:42:43.609   05 Jun 2027 05:44:35.474           111.865               CapeTown          3495.781
       431   05 Jun 2027 05:47:42.087   05 Jun 2027 05:47:50.569             8.482               CapeTown           265.062
       432   05 Jun 2027 05:53:01.286   05 Jun 2027 05:54:08.540            67.254               CapeTown          2101.687
       433   05 Jun 2027 06:45:40.753   05 Jun 2027 06:45:47.968             7.215               Magadan1           225.469
       434   05 Jun 2027 06:45:56.015   05 Jun 2027 06:45:58.054             2.039               Magadan1            63.719
       435   05 Jun 2027 06:46:17.146   05 Jun 2027 06:46:24.096             6.950                Anadyr2           217.188
       436   05 Jun 2027 06:46:24.096   05 Jun 2027 06:47:36.259            72.163                Anadyr1          2255.094
       437   05 Jun 2027 06:47:40.894   05 Jun 2027 06:47:57.996            17.102               Magadan1           534.438
       438   05 Jun 2027 06:47:58.444   05 Jun 2027 06:48:24.006            25.562                Anadyr2           798.813
       439   05 Jun 2027 06:50:50.834   05 Jun 2027 06:52:09.253            78.419                Anadyr2          2450.594
       440   05 Jun 2027 08:21:45.898   05 Jun 2027 08:22:20.808            34.910                Anadyr1          1090.937
       441   05 Jun 2027 08:22:50.199   05 Jun 2027 08:23:33.246            43.047                Anadyr1          1345.219
       442   05 Jun 2027 08:23:33.246   05 Jun 2027 08:24:11.280            38.034                Anadyr2          1188.563
       443   05 Jun 2027 08:24:28.223   05 Jun 2027 08:25:03.286            35.063                Anadyr1          1095.719
       444   05 Jun 2027 08:25:31.573   05 Jun 2027 08:25:55.102            23.529               Magadan1           735.281
       445   05 Jun 2027 09:04:56.684   05 Jun 2027 09:06:02.605            65.921            RioGallegos          2060.031
       446   05 Jun 2027 09:57:01.314   05 Jun 2027 09:58:08.618            67.304               Magadan2          2103.250
       447   05 Jun 2027 09:58:15.120   05 Jun 2027 09:58:54.436            39.316               Magadan2          1228.625
       448   05 Jun 2027 09:59:41.154   05 Jun 2027 09:59:57.538            16.384               Magadan2           512.000
       449   05 Jun 2027 10:00:33.886   05 Jun 2027 10:00:43.705             9.819                Norilsk           306.844
       450   05 Jun 2027 10:01:08.759   05 Jun 2027 10:01:25.799            17.040                Irkutsk           532.500
       451   05 Jun 2027 10:01:50.832   05 Jun 2027 10:03:04.293            73.461               Magadan2          2295.656
       452   05 Jun 2027 10:03:09.609   05 Jun 2027 10:03:23.889            14.280                Norilsk           446.250
       453   05 Jun 2027 10:38:10.400   05 Jun 2027 10:39:14.256            63.856            RioGallegos          1995.500
       454   05 Jun 2027 11:13:45.604   05 Jun 2027 11:14:59.966            74.362                Sumatra          2323.812
       455   05 Jun 2027 11:33:52.513   05 Jun 2027 11:34:26.267            33.754                Novosib          1054.812
       456   05 Jun 2027 11:34:35.441   05 Jun 2027 11:34:59.673            24.232                Novosib           757.250
       457   05 Jun 2027 11:35:17.664   05 Jun 2027 11:36:01.911            44.247                Norilsk          1382.719
       458   05 Jun 2027 11:36:18.819   05 Jun 2027 11:36:33.421            14.602                Irkutsk           456.312
       459   05 Jun 2027 11:36:53.428   05 Jun 2027 11:36:54.312             0.884                Norilsk            27.625
       460   05 Jun 2027 11:37:20.741   05 Jun 2027 11:37:53.358            32.617                Norilsk          1019.281
       461   05 Jun 2027 11:38:02.071   05 Jun 2027 11:38:09.739             7.668                Novosib           239.625
       462   05 Jun 2027 11:38:18.520   05 Jun 2027 11:39:27.481            68.961                Irkutsk          2155.031
       463   05 Jun 2027 12:15:42.349   05 Jun 2027 12:16:24.416            42.067            RioGallegos          1314.594
       464   05 Jun 2027 12:49:55.269   05 Jun 2027 12:51:01.693            66.424                Sumatra          2075.750
       465   05 Jun 2027 13:04:15.777   05 Jun 2027 13:05:29.341            73.564                Novosib          2298.875
       466   05 Jun 2027 13:06:24.176   05 Jun 2027 13:07:36.875            72.699                Irkutsk          2271.844
       467   05 Jun 2027 13:10:25.985   05 Jun 2027 13:10:51.151            25.166                Norilsk           786.437
       468   05 Jun 2027 13:14:36.940   05 Jun 2027 13:15:14.904            37.964                Norilsk          1186.375
       469   05 Jun 2027 14:35:04.693   05 Jun 2027 14:38:18.591           193.898                  Delhi          6059.313
       470   05 Jun 2027 14:43:34.314   05 Jun 2027 14:47:07.291           212.977                Novosib          6655.531
       471   05 Jun 2027 14:50:26.946   05 Jun 2027 14:50:37.979            11.033                Norilsk           344.781
       472   05 Jun 2027 16:00:06.022   05 Jun 2027 16:00:41.891            35.869               CapeTown          1120.906
       473   05 Jun 2027 16:01:34.613   05 Jun 2027 16:02:03.699            29.086               CapeTown           908.938
       474   05 Jun 2027 16:17:55.560   05 Jun 2027 16:19:37.475           101.915                 Moscow          3184.844
       475   05 Jun 2027 16:21:25.245   05 Jun 2027 16:23:05.050            99.805              Murmansk2          3118.906
       476   05 Jun 2027 16:24:25.353   05 Jun 2027 16:24:38.148            12.795              Murmansk2           399.844
       477   05 Jun 2027 16:28:10.754   05 Jun 2027 16:28:14.075             3.321              Murmansk1           103.781
       478   05 Jun 2027 16:28:47.866   05 Jun 2027 16:29:24.976            37.110              Murmansk1          1159.688
       479   05 Jun 2027 16:29:38.277   05 Jun 2027 16:30:20.998            42.721                Norilsk          1335.031
       480   05 Jun 2027 16:36:51.970   05 Jun 2027 16:37:36.788            44.818                Anadyr1          1400.563
       481   05 Jun 2027 16:38:36.526   05 Jun 2027 16:38:47.907            11.381                Anadyr2           355.656
       482   05 Jun 2027 16:39:31.049   05 Jun 2027 16:40:05.146            34.097                Anadyr2          1065.531
