uniorb/output/strategy_4/Drop/Drop_KinoSat_111208.txt

KinoSat_111208
-------------------------
    Access    *     Start Time (UTCG)     *     Stop Time (UTCG)  *   Duration (s)        *       Station  *  Data (Mbytes)
         1   01 Jun 2027 03:03:09.986   01 Jun 2027 03:04:28.110            78.124              Murmansk1          2441.375
         2   01 Jun 2027 03:04:30.947   01 Jun 2027 03:04:44.566            13.619                 Moscow           425.594
         3   01 Jun 2027 03:05:07.676   01 Jun 2027 03:05:38.131            30.455              Murmansk2           951.719
         4   01 Jun 2027 03:05:50.583   01 Jun 2027 03:06:16.329            25.746              Murmansk2           804.562
         5   01 Jun 2027 03:06:21.741   01 Jun 2027 03:08:24.522           122.781              Murmansk1          3836.906
         6   01 Jun 2027 03:08:24.522   01 Jun 2027 03:08:33.905             9.383              Murmansk2           293.219
         7   01 Jun 2027 04:27:48.975   01 Jun 2027 04:30:02.398           133.423                Anadyr2          4169.469
         8   01 Jun 2027 04:30:13.762   01 Jun 2027 04:30:14.773             1.011                Anadyr2            31.594
         9   01 Jun 2027 04:30:43.239   01 Jun 2027 04:31:16.190            32.951               Magadan2          1029.719
        10   01 Jun 2027 04:31:21.470   01 Jun 2027 04:31:42.230            20.760                Anadyr2           648.750
        11   01 Jun 2027 06:02:36.243   01 Jun 2027 06:06:32.974           236.731                Anadyr1          7397.844
        12   01 Jun 2027 06:06:32.974   01 Jun 2027 06:07:51.896            78.922                Anadyr2          2466.313
        13   01 Jun 2027 07:38:15.024   01 Jun 2027 07:39:00.466            45.442                Anadyr2          1420.063
        14   01 Jun 2027 07:39:24.835   01 Jun 2027 07:41:25.005           120.170                Irkutsk          3755.312
        15   01 Jun 2027 07:41:37.861   01 Jun 2027 07:41:59.187            21.326               Magadan2           666.438
        16   01 Jun 2027 07:42:00.297   01 Jun 2027 07:43:32.818            92.521                Anadyr2          2891.281
        17   01 Jun 2027 07:43:32.818   01 Jun 2027 07:44:15.107            42.289                Anadyr1          1321.531
        18   01 Jun 2027 07:44:31.976   01 Jun 2027 07:45:16.773            44.797                Novosib          1399.906
        19   01 Jun 2027 07:45:55.827   01 Jun 2027 07:46:20.216            24.389              Murmansk2           762.156
        20   01 Jun 2027 07:51:11.554   01 Jun 2027 07:51:22.385            10.831              Murmansk2           338.469
        21   01 Jun 2027 07:54:21.257   01 Jun 2027 07:54:35.753            14.496              Murmansk2           453.000
        22   01 Jun 2027 08:20:01.971   01 Jun 2027 08:20:51.541            49.570            RioGallegos          1549.062
        23   01 Jun 2027 08:21:55.906   01 Jun 2027 08:22:19.885            23.979            RioGallegos           749.344
        24   01 Jun 2027 08:24:56.198   01 Jun 2027 08:25:45.734            49.536            RioGallegos          1548.000
        25   01 Jun 2027 08:57:32.738   01 Jun 2027 08:58:04.482            31.744                Sumatra           992.000
        26   01 Jun 2027 09:00:26.014   01 Jun 2027 09:01:01.986            35.972                Sumatra          1124.125
        27   01 Jun 2027 09:15:27.548   01 Jun 2027 09:16:10.896            43.348               Magadan2          1354.625
        28   01 Jun 2027 09:17:01.773   01 Jun 2027 09:17:38.248            36.475                Irkutsk          1139.844
        29   01 Jun 2027 09:17:50.280   01 Jun 2027 09:18:55.109            64.829               Magadan2          2025.906
        30   01 Jun 2027 09:18:58.804   01 Jun 2027 09:20:13.112            74.308                Irkutsk          2322.125
        31   01 Jun 2027 09:20:39.329   01 Jun 2027 09:21:40.610            61.281              Murmansk1          1915.031
        32   01 Jun 2027 09:22:14.249   01 Jun 2027 09:22:17.431             3.182              Murmansk1            99.438
        33   01 Jun 2027 09:22:27.787   01 Jun 2027 09:22:52.109            24.322              Murmansk2           760.062
        34   01 Jun 2027 09:25:50.724   01 Jun 2027 09:25:51.286             0.562                Norilsk            17.563
        35   01 Jun 2027 09:27:06.826   01 Jun 2027 09:28:11.046            64.220              Murmansk2          2006.875
        36   01 Jun 2027 09:28:11.046   01 Jun 2027 09:28:41.824            30.778              Murmansk1           961.812
        37   01 Jun 2027 09:55:55.020   01 Jun 2027 09:56:12.693            17.673            RioGallegos           552.281
        38   01 Jun 2027 09:56:58.827   01 Jun 2027 09:58:39.518           100.691            RioGallegos          3146.594
        39   01 Jun 2027 10:00:04.973   01 Jun 2027 10:00:33.377            28.404            RioGallegos           887.625
        40   01 Jun 2027 10:30:26.219   01 Jun 2027 10:31:18.401            52.182                Sumatra          1630.687
        41   01 Jun 2027 10:33:30.891   01 Jun 2027 10:34:31.150            60.259                Sumatra          1883.094
        42   01 Jun 2027 10:39:16.511   01 Jun 2027 10:39:21.247             4.736                Sumatra           148.000
        43   01 Jun 2027 10:47:28.620   01 Jun 2027 10:49:14.226           105.606                  Delhi          3300.188
        44   01 Jun 2027 10:50:28.331   01 Jun 2027 10:50:39.610            11.279                  Delhi           352.469
        45   01 Jun 2027 10:53:15.713   01 Jun 2027 10:53:21.762             6.049              Murmansk1           189.031
        46   01 Jun 2027 10:53:28.817   01 Jun 2027 10:55:38.661           129.844              Murmansk1          4057.625
        47   01 Jun 2027 10:55:38.661   01 Jun 2027 10:56:07.883            29.222              Murmansk2           913.188
        48   01 Jun 2027 10:56:09.009   01 Jun 2027 10:56:47.043            38.034              Murmansk2          1188.563
        49   01 Jun 2027 10:57:25.376   01 Jun 2027 10:58:22.689            57.313                Novosib          1791.031
        50   01 Jun 2027 10:58:29.433   01 Jun 2027 10:58:59.232            29.799                 Moscow           931.219
        51   01 Jun 2027 11:37:19.487   01 Jun 2027 11:39:54.905           155.418            RioGallegos          4856.813
        52   01 Jun 2027 12:14:54.363   01 Jun 2027 12:15:27.237            32.874                  Delhi          1027.313
        53   01 Jun 2027 12:19:44.258   01 Jun 2027 12:20:26.670            42.412                  Delhi          1325.375
        54   01 Jun 2027 12:20:47.300   01 Jun 2027 12:21:10.703            23.403                  Delhi           731.344
        55   01 Jun 2027 12:22:55.283   01 Jun 2027 12:27:42.281           286.998                Novosib          8968.688
        56   01 Jun 2027 12:28:30.811   01 Jun 2027 12:30:08.511            97.700                Norilsk          3053.125
        57   01 Jun 2027 13:59:00.147   01 Jun 2027 14:03:02.015           241.868                 Moscow          7558.375
        58   01 Jun 2027 14:03:33.233   01 Jun 2027 14:04:31.390            58.157              Murmansk2          1817.406
        59   01 Jun 2027 14:04:39.253   01 Jun 2027 14:05:48.216            68.963              Murmansk2          2155.094
        60   01 Jun 2027 14:06:11.503   01 Jun 2027 14:06:16.090             4.587              Murmansk2           143.344
        61   01 Jun 2027 14:06:17.568   01 Jun 2027 14:06:36.180            18.612              Murmansk2           581.625
        62   01 Jun 2027 14:07:11.367   01 Jun 2027 14:08:18.225            66.858                Norilsk          2089.312
        63   01 Jun 2027 14:08:54.884   01 Jun 2027 14:09:26.926            32.042                Norilsk          1001.313
        64   01 Jun 2027 14:10:18.392   01 Jun 2027 14:11:50.176            91.784                Norilsk          2868.250
        65   01 Jun 2027 15:13:15.344   01 Jun 2027 15:14:29.191            73.847               CapeTown          2307.719
        66   01 Jun 2027 15:36:49.949   01 Jun 2027 15:37:26.591            36.642                 Moscow          1145.062
        67   01 Jun 2027 15:39:47.844   01 Jun 2027 15:40:55.267            67.423              Murmansk1          2106.969
        68   01 Jun 2027 15:43:43.880   01 Jun 2027 15:43:48.358             4.478              Murmansk1           139.938
        69   01 Jun 2027 15:44:03.225   01 Jun 2027 15:44:34.703            31.478              Murmansk2           983.688
        70   01 Jun 2027 15:53:25.597   01 Jun 2027 15:53:56.359            30.762                Anadyr1           961.312
        71   01 Jun 2027 15:54:12.454   01 Jun 2027 15:55:17.402            64.948                Anadyr2          2029.625
        72   01 Jun 2027 15:58:14.132   01 Jun 2027 15:58:21.886             7.754                Anadyr2           242.313
        73   01 Jun 2027 15:58:30.189   01 Jun 2027 15:59:21.036            50.847                Anadyr1          1588.969
        74   01 Jun 2027 16:48:36.191   01 Jun 2027 16:50:31.324           115.133               CapeTown          3597.906
        75   01 Jun 2027 17:19:29.162   01 Jun 2027 17:23:33.977           244.815              Murmansk2          7650.469
        76   01 Jun 2027 17:23:33.977   01 Jun 2027 17:24:28.587            54.610              Murmansk1          1706.562
        77   01 Jun 2027 17:30:02.897   01 Jun 2027 17:31:07.062            64.165                Anadyr2          2005.156
        78   01 Jun 2027 17:32:12.896   01 Jun 2027 17:34:01.740           108.844               Magadan2          3401.375
        79   01 Jun 2027 17:34:44.410   01 Jun 2027 17:35:05.921            21.511               Magadan1           672.219
        80   01 Jun 2027 17:35:05.921   01 Jun 2027 17:35:27.814            21.893               Magadan2           684.156
        81   01 Jun 2027 19:04:59.036   01 Jun 2027 19:07:42.636           163.600                Anadyr2          5112.500
        82   01 Jun 2027 19:07:56.766   01 Jun 2027 19:08:08.173            11.407                Anadyr2           356.469
        83   01 Jun 2027 19:08:30.941   01 Jun 2027 19:08:56.662            25.721                Anadyr2           803.781
        84   01 Jun 2027 19:09:16.241   01 Jun 2027 19:09:34.120            17.879               Magadan2           558.719
        85   01 Jun 2027 19:09:39.730   01 Jun 2027 19:11:04.521            84.791               Magadan1          2649.719
        86   01 Jun 2027 19:11:25.978   01 Jun 2027 19:11:58.229            32.251               Magadan2          1007.844
        87   01 Jun 2027 19:14:21.288   01 Jun 2027 19:15:11.057            49.769               Magadan2          1555.281
        88   01 Jun 2027 20:01:21.280   01 Jun 2027 20:03:46.560           145.280            RioGallegos          4540.000
        89   01 Jun 2027 20:40:48.356   01 Jun 2027 20:42:09.972            81.616                Anadyr1          2550.500
        90   01 Jun 2027 20:42:20.503   01 Jun 2027 20:42:50.326            29.823                Anadyr1           931.969
        91   01 Jun 2027 20:42:58.730   01 Jun 2027 20:45:33.032           154.302                Norilsk          4821.938
        92   01 Jun 2027 20:45:56.065   01 Jun 2027 20:46:20.122            24.057                Norilsk           751.781
        93   01 Jun 2027 20:47:57.111   01 Jun 2027 20:48:54.557            57.446                Irkutsk          1795.187
        94   01 Jun 2027 20:50:14.177   01 Jun 2027 20:51:07.144            52.967                Irkutsk          1655.219
        95   01 Jun 2027 20:51:48.933   01 Jun 2027 20:52:53.991            65.058                Irkutsk          2033.062
        96   01 Jun 2027 21:03:00.513   01 Jun 2027 21:05:11.238           130.725                Sumatra          4085.156
        97   01 Jun 2027 22:17:43.353   01 Jun 2027 22:18:03.534            20.181                Anadyr2           630.656
        98   01 Jun 2027 22:18:28.370   01 Jun 2027 22:18:34.219             5.849                Anadyr2           182.781
        99   01 Jun 2027 22:18:43.254   01 Jun 2027 22:20:46.535           123.281                Norilsk          3852.531
       100   01 Jun 2027 22:20:48.476   01 Jun 2027 22:20:56.998             8.522               Magadan2           266.312
       101   01 Jun 2027 22:21:09.857   01 Jun 2027 22:21:26.198            16.341               Magadan2           510.656
       102   01 Jun 2027 22:22:38.537   01 Jun 2027 22:23:57.329            78.792                Irkutsk          2462.250
       103   01 Jun 2027 22:26:35.390   01 Jun 2027 22:27:26.913            51.523                Novosib          1610.094
       104   01 Jun 2027 22:33:35.398   01 Jun 2027 22:35:08.961            93.563                  Delhi          2923.844
       105   01 Jun 2027 22:36:56.961   01 Jun 2027 22:38:06.058            69.097                  Delhi          2159.281
       106   01 Jun 2027 23:50:46.989   01 Jun 2027 23:51:06.620            19.631                Anadyr2           613.469
       107   01 Jun 2027 23:52:26.849   01 Jun 2027 23:52:39.927            13.078                Anadyr1           408.688
       108   01 Jun 2027 23:54:43.403   01 Jun 2027 23:55:26.073            42.670                Norilsk          1333.437
       109   01 Jun 2027 23:55:55.250   01 Jun 2027 23:56:15.380            20.130                Norilsk           629.063
       110   01 Jun 2027 23:56:35.812   01 Jun 2027 23:57:00.879            25.067               Magadan1           783.344
       111   01 Jun 2027 23:57:02.199   01 Jun 2027 23:57:11.206             9.007               Magadan1           281.469
       112   01 Jun 2027 23:57:43.118   01 Jun 2027 23:59:09.092            85.974              Murmansk2          2686.687
       113   01 Jun 2027 23:59:25.270   02 Jun 2027 00:01:11.571           106.301              Murmansk1          3321.906
       114   02 Jun 2027 00:02:04.421   02 Jun 2027 00:02:50.880            46.459              Murmansk1          1451.844
       115   02 Jun 2027 00:05:52.030   02 Jun 2027 00:06:01.074             9.044                  Delhi           282.625
       116   02 Jun 2027 00:09:02.128   02 Jun 2027 00:09:45.121            42.993                  Delhi          1343.531
       117   02 Jun 2027 00:15:56.895   02 Jun 2027 00:16:01.690             4.795                  Delhi           149.844
       118   02 Jun 2027 00:17:58.326   02 Jun 2027 00:18:22.568            24.242                  Delhi           757.562
       119   02 Jun 2027 00:47:42.539   02 Jun 2027 00:48:54.378            71.839            RioGallegos          2244.969
       120   02 Jun 2027 01:23:32.577   02 Jun 2027 01:23:59.105            26.528                Anadyr1           829.000
       121   02 Jun 2027 01:24:03.916   02 Jun 2027 01:24:23.473            19.557                Anadyr1           611.156
       122   02 Jun 2027 01:24:57.422   02 Jun 2027 01:26:15.601            78.179                Anadyr1          2443.094
       123   02 Jun 2027 01:29:36.729   02 Jun 2027 01:31:47.616           130.887               Magadan2          4090.219
       124   02 Jun 2027 01:32:54.111   02 Jun 2027 01:35:01.994           127.883              Murmansk2          3996.344
       125   02 Jun 2027 01:36:43.337   02 Jun 2027 01:36:57.872            14.535                 Moscow           454.219
       126   02 Jun 2027 01:37:12.694   02 Jun 2027 01:37:38.531            25.837                 Moscow           807.406
       127   02 Jun 2027 01:41:11.186   02 Jun 2027 01:41:22.640            11.454                 Moscow           357.938
       128   02 Jun 2027 01:43:31.633   02 Jun 2027 01:44:05.410            33.777                  Delhi          1055.531
       129   02 Jun 2027 01:49:17.338   02 Jun 2027 01:50:08.650            51.312                  Delhi          1603.500
       130   02 Jun 2027 02:08:06.223   02 Jun 2027 02:09:21.422            75.199               CapeTown          2349.969
       131   02 Jun 2027 02:57:21.313   02 Jun 2027 02:58:52.237            90.924                Anadyr1          2841.375
       132   02 Jun 2027 02:59:47.267   02 Jun 2027 03:00:04.636            17.369                Anadyr2           542.781
       133   02 Jun 2027 03:16:34.520   02 Jun 2027 03:16:42.240             7.720                Norilsk           241.250
       134   02 Jun 2027 03:17:21.075   02 Jun 2027 03:17:56.508            35.433                Norilsk          1107.281
       135   02 Jun 2027 03:18:01.136   02 Jun 2027 03:21:32.139           211.003              Murmansk2          6593.844
       136   02 Jun 2027 03:35:55.470   02 Jun 2027 03:38:37.993           162.523               CapeTown          5078.844
       137   02 Jun 2027 04:32:41.176   02 Jun 2027 04:34:07.808            86.632                Anadyr1          2707.250
       138   02 Jun 2027 04:34:09.894   02 Jun 2027 04:35:15.359            65.465               Magadan2          2045.781
       139   02 Jun 2027 04:38:49.268   02 Jun 2027 04:40:07.261            77.993               Magadan2          2437.281
       140   02 Jun 2027 04:40:07.761   02 Jun 2027 04:40:20.853            13.092                Anadyr1           409.125
       141   02 Jun 2027 04:40:38.654   02 Jun 2027 04:43:04.181           145.527               Magadan2          4547.719
       142   02 Jun 2027 07:51:21.159   02 Jun 2027 07:52:31.660            70.501                Anadyr1          2203.156
       143   02 Jun 2027 07:52:50.152   02 Jun 2027 07:53:20.737            30.585                Irkutsk           955.781
       144   02 Jun 2027 07:53:37.363   02 Jun 2027 07:54:54.183            76.820                Irkutsk          2400.625
       145   02 Jun 2027 07:55:04.297   02 Jun 2027 07:55:48.613            44.316                Anadyr2          1384.875
       146   02 Jun 2027 07:55:59.780   02 Jun 2027 07:56:52.023            52.243               Magadan1          1632.594
       147   02 Jun 2027 09:28:08.834   02 Jun 2027 09:29:32.556            83.722               Magadan2          2616.312
       148   02 Jun 2027 09:30:05.643   02 Jun 2027 09:30:22.895            17.252                Norilsk           539.125
       149   02 Jun 2027 09:30:53.547   02 Jun 2027 09:31:17.070            23.523                Norilsk           735.094
       150   02 Jun 2027 09:31:42.068   02 Jun 2027 09:32:07.418            25.350                Irkutsk           792.188
       151   02 Jun 2027 09:32:11.065   02 Jun 2027 09:32:36.319            25.254                Novosib           789.188
       152   02 Jun 2027 09:32:40.456   02 Jun 2027 09:32:45.465             5.009                Norilsk           156.531
       153   02 Jun 2027 10:08:12.393   02 Jun 2027 10:09:06.342            53.949            RioGallegos          1685.906
       154   02 Jun 2027 10:10:35.762   02 Jun 2027 10:10:59.630            23.868            RioGallegos           745.875
       155   02 Jun 2027 10:42:35.319   02 Jun 2027 10:42:52.081            16.762                Sumatra           523.812
       156   02 Jun 2027 10:44:41.163   02 Jun 2027 10:45:23.502            42.339                Sumatra          1323.094
       157   02 Jun 2027 10:51:34.860   02 Jun 2027 10:52:03.957            29.097                  Delhi           909.281
       158   02 Jun 2027 11:04:37.031   02 Jun 2027 11:05:01.344            24.313                Norilsk           759.781
       159   02 Jun 2027 11:06:02.913   02 Jun 2027 11:06:05.718             2.805                Novosib            87.656
       160   02 Jun 2027 11:06:07.551   02 Jun 2027 11:06:40.713            33.162                Irkutsk          1036.312
       161   02 Jun 2027 11:06:50.964   02 Jun 2027 11:08:07.111            76.147                Norilsk          2379.594
       162   02 Jun 2027 11:08:21.341   02 Jun 2027 11:08:35.554            14.213                Novosib           444.156
       163   02 Jun 2027 11:08:44.640   02 Jun 2027 11:09:04.705            20.065                Norilsk           627.031
       164   02 Jun 2027 12:27:13.947   02 Jun 2027 12:28:50.932            96.985                  Delhi          3030.781
       165   02 Jun 2027 12:31:36.264   02 Jun 2027 12:32:26.799            50.535                  Delhi          1579.219
       166   02 Jun 2027 12:35:26.151   02 Jun 2027 12:37:06.613           100.462                Novosib          3139.438
       167   02 Jun 2027 12:38:48.570   02 Jun 2027 12:40:02.720            74.150              Murmansk2          2317.187
       168   02 Jun 2027 12:41:44.981   02 Jun 2027 12:42:03.939            18.958                Norilsk           592.437
       169   02 Jun 2027 12:48:07.896   02 Jun 2027 12:48:41.558            33.662                Norilsk          1051.937
       170   02 Jun 2027 14:11:03.910   02 Jun 2027 14:13:14.306           130.396                 Moscow          4074.875
       171   02 Jun 2027 14:14:19.829   02 Jun 2027 14:15:03.237            43.408                 Moscow          1356.500
       172   02 Jun 2027 14:15:25.228   02 Jun 2027 14:18:01.775           156.547              Murmansk2          4892.094
       173   02 Jun 2027 14:20:02.637   02 Jun 2027 14:21:04.287            61.650                Norilsk          1926.563
       174   02 Jun 2027 14:21:44.449   02 Jun 2027 14:22:20.698            36.249                Norilsk          1132.781
       175   02 Jun 2027 14:24:02.452   02 Jun 2027 14:24:06.674             4.222                Norilsk           131.937
       176   02 Jun 2027 15:25:00.181   02 Jun 2027 15:28:27.338           207.157               CapeTown          6473.656
       177   02 Jun 2027 15:52:08.591   02 Jun 2027 15:53:07.130            58.539              Murmansk1          1829.344
       178   02 Jun 2027 15:55:40.489   02 Jun 2027 15:56:04.448            23.959              Murmansk2           748.719
       179   02 Jun 2027 15:56:34.485   02 Jun 2027 15:56:57.000            22.515              Murmansk2           703.594
       180   02 Jun 2027 16:05:22.328   02 Jun 2027 16:07:52.330           150.002                Anadyr2          4687.562
       181   02 Jun 2027 17:00:46.771   02 Jun 2027 17:01:44.676            57.905               CapeTown          1809.531
       182   02 Jun 2027 17:11:18.963   02 Jun 2027 17:11:28.722             9.759               CapeTown           304.969
       183   02 Jun 2027 17:32:13.883   02 Jun 2027 17:35:19.934           186.051              Murmansk2          5814.094
       184   02 Jun 2027 17:41:04.668   02 Jun 2027 17:41:51.284            46.616                Anadyr2          1456.750
       185   02 Jun 2027 17:42:34.043   02 Jun 2027 17:42:51.448            17.405                Anadyr1           543.906
       186   02 Jun 2027 17:43:42.485   02 Jun 2027 17:44:12.556            30.071                Anadyr2           939.719
       187   02 Jun 2027 17:44:42.989   02 Jun 2027 17:45:00.668            17.679                Anadyr2           552.469
       188   02 Jun 2027 17:45:49.908   02 Jun 2027 17:47:31.688           101.780               Magadan1          3180.625
       189   02 Jun 2027 17:48:59.069   02 Jun 2027 17:49:20.782            21.713               Magadan1           678.531
       190   02 Jun 2027 19:17:00.410   02 Jun 2027 19:19:02.985           122.575                Anadyr1          3830.469
       191   02 Jun 2027 19:19:18.116   02 Jun 2027 19:23:16.172           238.056               Magadan2          7439.250
       192   02 Jun 2027 19:23:59.433   02 Jun 2027 19:24:03.531             4.098               Magadan2           128.063
       193   02 Jun 2027 19:27:09.456   02 Jun 2027 19:27:26.441            16.985               Magadan2           530.781
       194   02 Jun 2027 20:12:37.514   02 Jun 2027 20:15:29.412           171.898            RioGallegos          5371.812
       195   02 Jun 2027 20:18:46.107   02 Jun 2027 20:19:47.665            61.558            RioGallegos          1923.688
       196   02 Jun 2027 20:54:56.224   02 Jun 2027 20:57:28.376           152.152                Norilsk          4754.750
       197   02 Jun 2027 20:57:55.510   02 Jun 2027 20:58:05.207             9.697               Magadan1           303.031
       198   02 Jun 2027 20:58:11.219   02 Jun 2027 20:58:41.486            30.267                Norilsk           945.844
       199   02 Jun 2027 20:59:38.775   02 Jun 2027 21:00:53.032            74.257                Irkutsk          2320.531
       200   02 Jun 2027 21:02:37.536   02 Jun 2027 21:02:58.225            20.689                Irkutsk           646.531
       201   02 Jun 2027 21:08:12.953   02 Jun 2027 21:09:02.090            49.137                Irkutsk          1535.531
       202   02 Jun 2027 21:14:11.909   02 Jun 2027 21:15:49.006            97.097                Sumatra          3034.281
       203   02 Jun 2027 21:16:50.013   02 Jun 2027 21:17:42.471            52.458                Sumatra          1639.312
       204   02 Jun 2027 22:31:21.653   02 Jun 2027 22:33:22.232           120.579               Magadan1          3768.094
       205   02 Jun 2027 22:34:38.249   02 Jun 2027 22:35:50.895            72.646                Irkutsk          2270.188
       206   02 Jun 2027 22:36:03.136   02 Jun 2027 22:38:28.954           145.818                Novosib          4556.812
       207   02 Jun 2027 22:44:22.288   02 Jun 2027 22:46:42.531           140.243                  Delhi          4382.594
       208   03 Jun 2027 00:06:08.315   03 Jun 2027 00:06:33.709            25.394                Anadyr2           793.562
       209   03 Jun 2027 00:06:45.341   03 Jun 2027 00:07:26.042            40.701                Norilsk          1271.906
       210   03 Jun 2027 00:07:30.484   03 Jun 2027 00:08:29.585            59.101               Magadan2          1846.906
       211   03 Jun 2027 00:09:02.389   03 Jun 2027 00:09:13.570            11.181               Magadan2           349.406
       212   03 Jun 2027 00:09:30.655   03 Jun 2027 00:13:28.103           237.448              Murmansk1          7420.250
       213   03 Jun 2027 00:24:18.190   03 Jun 2027 00:26:24.797           126.607                  Delhi          3956.469
       214   03 Jun 2027 01:35:14.738   03 Jun 2027 01:36:04.871            50.133                Anadyr2          1566.656
       215   03 Jun 2027 01:36:58.754   03 Jun 2027 01:37:57.957            59.203                Anadyr1          1850.094
       216   03 Jun 2027 01:38:14.748   03 Jun 2027 01:38:19.151             4.403                Anadyr1           137.594
       217   03 Jun 2027 01:41:09.467   03 Jun 2027 01:42:35.051            85.584               Magadan2          2674.500
       218   03 Jun 2027 01:42:39.404   03 Jun 2027 01:43:02.845            23.441                Norilsk           732.531
       219   03 Jun 2027 01:43:20.108   03 Jun 2027 01:44:42.385            82.277               Magadan2          2571.156
       220   03 Jun 2027 01:44:54.644   03 Jun 2027 01:45:45.582            50.938              Murmansk1          1591.813
       221   03 Jun 2027 01:46:17.499   03 Jun 2027 01:46:27.098             9.599              Murmansk2           299.969
       222   03 Jun 2027 01:46:58.464   03 Jun 2027 01:47:18.060            19.596                Novosib           612.375
       223   03 Jun 2027 01:48:48.851   03 Jun 2027 01:49:19.867            31.016                Irkutsk           969.250
       224   03 Jun 2027 01:54:06.053   03 Jun 2027 01:54:32.536            26.483                 Moscow           827.594
       225   03 Jun 2027 01:56:26.040   03 Jun 2027 01:57:13.950            47.910                  Delhi          1497.188
       226   03 Jun 2027 02:18:34.582   03 Jun 2027 02:19:55.410            80.828               CapeTown          2525.875
       227   03 Jun 2027 03:09:12.378   03 Jun 2027 03:09:53.296            40.918                Anadyr2          1278.687
       228   03 Jun 2027 03:09:53.296   03 Jun 2027 03:10:14.910            21.614                Anadyr1           675.438
       229   03 Jun 2027 03:29:34.171   03 Jun 2027 03:30:06.933            32.762              Murmansk2          1023.812
       230   03 Jun 2027 03:30:47.097   03 Jun 2027 03:31:10.244            23.147              Murmansk2           723.344
       231   03 Jun 2027 03:31:22.886   03 Jun 2027 03:34:30.277           187.391                 Moscow          5855.969
       232   03 Jun 2027 03:47:59.353   03 Jun 2027 03:50:21.787           142.434               CapeTown          4451.062
       233   03 Jun 2027 04:44:46.464   03 Jun 2027 04:45:49.483            63.019                Anadyr2          1969.344
       234   03 Jun 2027 04:45:49.483   03 Jun 2027 04:46:38.486            49.003                Anadyr1          1531.344
       235   03 Jun 2027 04:50:26.613   03 Jun 2027 04:50:29.412             2.799                Anadyr1            87.469
       236   03 Jun 2027 04:50:45.602   03 Jun 2027 04:51:30.409            44.807               Magadan2          1400.219
       237   03 Jun 2027 04:51:48.399   03 Jun 2027 04:56:11.351           262.952                Anadyr1          8217.250
       238   03 Jun 2027 04:56:11.351   03 Jun 2027 04:56:19.426             8.075                Anadyr2           252.344
       239   03 Jun 2027 06:28:06.542   03 Jun 2027 06:28:54.608            48.066                Anadyr1          1502.062
       240   03 Jun 2027 06:29:01.997   03 Jun 2027 06:29:21.217            19.220               Magadan1           600.625
       241   03 Jun 2027 06:29:26.891   03 Jun 2027 06:29:36.234             9.343               Magadan2           291.969
       242   03 Jun 2027 06:29:39.835   03 Jun 2027 06:30:07.760            27.925                Anadyr1           872.656
       243   03 Jun 2027 06:30:07.760   03 Jun 2027 06:30:36.210            28.450                Anadyr2           889.062
       244   03 Jun 2027 06:31:17.459   03 Jun 2027 06:31:29.164            11.705               Magadan2           365.781
       245   03 Jun 2027 06:31:50.467   03 Jun 2027 06:31:56.302             5.835                Anadyr1           182.344
       246   03 Jun 2027 08:02:47.917   03 Jun 2027 08:02:59.220            11.303               Magadan2           353.219
       247   03 Jun 2027 08:03:04.197   03 Jun 2027 08:03:43.961            39.764               Magadan2          1242.625
       248   03 Jun 2027 08:04:18.937   03 Jun 2027 08:05:12.568            53.631               Magadan1          1675.969
       249   03 Jun 2027 08:05:23.816   03 Jun 2027 08:05:43.539            19.723               Magadan1           616.344
       250   03 Jun 2027 08:06:02.288   03 Jun 2027 08:06:49.128            46.840                Anadyr2          1463.750
       251   03 Jun 2027 08:07:07.540   03 Jun 2027 08:07:10.532             2.992                Irkutsk            93.500
       252   03 Jun 2027 08:07:26.619   03 Jun 2027 08:07:27.288             0.669               Magadan1            20.906
       253   03 Jun 2027 08:07:35.397   03 Jun 2027 08:07:36.542             1.145                Irkutsk            35.781
       254   03 Jun 2027 08:07:48.213   03 Jun 2027 08:07:48.964             0.751               Magadan1            23.469
       255   03 Jun 2027 08:07:48.964   03 Jun 2027 08:08:28.331            39.367               Magadan2          1230.219
       256   03 Jun 2027 08:08:41.451   03 Jun 2027 08:08:47.384             5.933               Magadan2           185.406
       257   03 Jun 2027 08:13:57.789   03 Jun 2027 08:14:05.649             7.860                Norilsk           245.625
       258   03 Jun 2027 08:43:44.395   03 Jun 2027 08:44:41.122            56.727            RioGallegos          1772.719
       259   03 Jun 2027 08:45:01.526   03 Jun 2027 08:45:46.718            45.192            RioGallegos          1412.250
       260   03 Jun 2027 09:19:53.133   03 Jun 2027 09:20:49.092            55.959                Sumatra          1748.719
       261   03 Jun 2027 09:41:28.882   03 Jun 2027 09:41:39.755            10.873                Irkutsk           339.781
       262   03 Jun 2027 09:41:56.039   03 Jun 2027 09:42:49.724            53.685                Irkutsk          1677.656
       263   03 Jun 2027 09:43:03.599   03 Jun 2027 09:43:57.434            53.835                Irkutsk          1682.344
       264   03 Jun 2027 09:44:09.615   03 Jun 2027 09:44:38.674            29.059                Novosib           908.094
       265   03 Jun 2027 09:44:44.095   03 Jun 2027 09:44:56.667            12.572                Irkutsk           392.875
       266   03 Jun 2027 10:20:34.261   03 Jun 2027 10:21:19.374            45.113            RioGallegos          1409.781
       267   03 Jun 2027 10:22:30.317   03 Jun 2027 10:23:05.558            35.241            RioGallegos          1101.281
       268   03 Jun 2027 10:54:50.819   03 Jun 2027 10:55:23.718            32.899                Sumatra          1028.094
       269   03 Jun 2027 10:59:37.334   03 Jun 2027 10:59:50.404            13.070                Sumatra           408.437
       270   03 Jun 2027 11:03:14.554   03 Jun 2027 11:03:19.355             4.801                  Delhi           150.031
       271   03 Jun 2027 11:04:03.446   03 Jun 2027 11:05:27.393            83.947                  Delhi          2623.344
       272   03 Jun 2027 11:17:22.151   03 Jun 2027 11:17:41.831            19.680                Irkutsk           615.000
       273   03 Jun 2027 11:17:47.911   03 Jun 2027 11:18:17.719            29.808                Norilsk           931.500
       274   03 Jun 2027 11:18:24.700   03 Jun 2027 11:18:32.189             7.489                Novosib           234.031
       275   03 Jun 2027 11:18:38.204   03 Jun 2027 11:19:14.496            36.292                Novosib          1134.125
       276   03 Jun 2027 11:19:40.048   03 Jun 2027 11:19:45.505             5.457                Novosib           170.531
       277   03 Jun 2027 11:20:02.841   03 Jun 2027 11:20:03.145             0.304                Irkutsk             9.500
       278   03 Jun 2027 11:20:09.078   03 Jun 2027 11:20:23.199            14.121                Norilsk           441.281
       279   03 Jun 2027 12:39:41.183   03 Jun 2027 12:43:16.901           215.718                  Delhi          6741.187
       280   03 Jun 2027 12:48:02.859   03 Jun 2027 12:48:17.039            14.180                Novosib           443.125
       281   03 Jun 2027 12:49:08.994   03 Jun 2027 12:49:39.965            30.971                Novosib           967.844
       282   03 Jun 2027 12:51:46.899   03 Jun 2027 12:52:21.053            34.154                Norilsk          1067.313
       283   03 Jun 2027 12:53:56.863   03 Jun 2027 12:54:18.288            21.425                Norilsk           669.531
       284   03 Jun 2027 12:56:01.913   03 Jun 2027 12:56:22.700            20.787                Norilsk           649.594
       285   03 Jun 2027 14:23:10.717   03 Jun 2027 14:25:09.668           118.951                 Moscow          3717.219
       286   03 Jun 2027 14:26:42.230   03 Jun 2027 14:28:31.816           109.586              Murmansk1          3424.562
       287   03 Jun 2027 14:28:33.310   03 Jun 2027 14:30:22.349           109.039              Murmansk2          3407.469
       288   03 Jun 2027 14:33:02.703   03 Jun 2027 14:36:02.392           179.689                Norilsk          5615.281
       289   03 Jun 2027 14:43:01.016   03 Jun 2027 14:43:39.567            38.551                Anadyr2          1204.719
       290   03 Jun 2027 15:36:49.502   03 Jun 2027 15:37:53.320            63.818               CapeTown          1994.313
       291   03 Jun 2027 16:02:07.627   03 Jun 2027 16:02:41.040            33.413                 Moscow          1044.156
       292   03 Jun 2027 16:04:31.613   03 Jun 2027 16:05:21.770            50.157              Murmansk2          1567.406
       293   03 Jun 2027 16:06:10.319   03 Jun 2027 16:06:44.644            34.325              Murmansk2          1072.656
       294   03 Jun 2027 16:17:20.098   03 Jun 2027 16:19:43.984           143.886                Anadyr1          4496.437
       295   03 Jun 2027 16:21:32.270   03 Jun 2027 16:22:16.565            44.295                Anadyr1          1384.219
       296   03 Jun 2027 17:13:00.942   03 Jun 2027 17:14:32.753            91.811               CapeTown          2869.094
       297   03 Jun 2027 17:45:04.250   03 Jun 2027 17:49:36.129           271.879              Murmansk1          8496.219
       298   03 Jun 2027 17:53:23.420   03 Jun 2027 17:53:27.163             3.743                Anadyr1           116.969
       299   03 Jun 2027 17:53:47.350   03 Jun 2027 17:54:07.255            19.905                Anadyr1           622.031
       300   03 Jun 2027 17:55:52.958   03 Jun 2027 17:57:36.010           103.052               Magadan2          3220.375
       301   03 Jun 2027 19:29:01.651   03 Jun 2027 19:32:50.686           229.035                Anadyr1          7157.344
       302   03 Jun 2027 19:33:06.682   03 Jun 2027 19:35:02.444           115.762               Magadan1          3617.562
       303   03 Jun 2027 19:35:15.247   03 Jun 2027 19:35:46.106            30.859               Magadan2           964.344
       304   03 Jun 2027 20:24:09.521   03 Jun 2027 20:27:16.636           187.115            RioGallegos          5847.344
       305   03 Jun 2027 20:30:33.231   03 Jun 2027 20:30:51.031            17.800            RioGallegos           556.250
       306   03 Jun 2027 21:04:45.979   03 Jun 2027 21:05:21.347            35.368                Anadyr2          1105.250
       307   03 Jun 2027 21:06:54.852   03 Jun 2027 21:07:42.605            47.753                Norilsk          1492.281
       308   03 Jun 2027 21:08:18.387   03 Jun 2027 21:09:35.148            76.761               Magadan2          2398.781
       309   03 Jun 2027 21:09:54.612   03 Jun 2027 21:10:31.491            36.879               Magadan2          1152.469
       310   03 Jun 2027 21:11:25.207   03 Jun 2027 21:14:28.969           183.762                Irkutsk          5742.562
       311   03 Jun 2027 21:25:37.169   03 Jun 2027 21:28:35.812           178.643                Sumatra          5582.594
       312   03 Jun 2027 22:42:13.981   03 Jun 2027 22:42:26.364            12.383                Anadyr2           386.969
       313   03 Jun 2027 22:42:46.905   03 Jun 2027 22:43:40.230            53.325                Norilsk          1666.406
       314   03 Jun 2027 22:44:09.283   03 Jun 2027 22:44:41.067            31.784               Magadan1           993.250
       315   03 Jun 2027 22:46:20.588   03 Jun 2027 22:46:37.266            16.678               Magadan2           521.187
       316   03 Jun 2027 22:46:37.266   03 Jun 2027 22:46:43.977             6.711               Magadan1           209.719
       317   03 Jun 2027 22:46:58.787   03 Jun 2027 22:47:41.408            42.621                Irkutsk          1331.906
       318   03 Jun 2027 22:47:42.667   03 Jun 2027 22:48:21.036            38.369                Novosib          1199.031
       319   03 Jun 2027 22:50:00.893   03 Jun 2027 22:50:19.834            18.941                Novosib           591.906
       320   03 Jun 2027 22:52:24.863   03 Jun 2027 22:53:05.700            40.837                Novosib          1276.156
       321   03 Jun 2027 22:55:37.789   03 Jun 2027 22:56:43.355            65.566                  Delhi          2048.938
       322   03 Jun 2027 22:57:50.756   03 Jun 2027 22:58:23.441            32.685                  Delhi          1021.406
       323   03 Jun 2027 22:59:18.845   03 Jun 2027 23:00:09.347            50.502                  Delhi          1578.187
       324   04 Jun 2027 00:13:39.796   04 Jun 2027 00:15:05.990            86.194                Anadyr1          2693.563
       325   04 Jun 2027 00:18:47.178   04 Jun 2027 00:19:23.383            36.205                Norilsk          1131.406
       326   04 Jun 2027 00:19:53.076   04 Jun 2027 00:20:13.468            20.392                Norilsk           637.250
       327   04 Jun 2027 00:20:14.854   04 Jun 2027 00:20:52.584            37.730               Magadan2          1179.062
       328   04 Jun 2027 00:21:16.081   04 Jun 2027 00:21:26.386            10.305               Magadan2           322.031
       329   04 Jun 2027 00:21:49.017   04 Jun 2027 00:23:09.350            80.333              Murmansk1          2510.406
       330   04 Jun 2027 00:23:15.102   04 Jun 2027 00:24:00.636            45.534                Novosib          1422.937
       331   04 Jun 2027 00:24:17.008   04 Jun 2027 00:25:29.297            72.289              Murmansk2          2259.031
       332   04 Jun 2027 00:26:27.995   04 Jun 2027 00:27:54.030            86.035              Murmansk1          2688.594
       333   04 Jun 2027 00:40:08.764   04 Jun 2027 00:41:39.012            90.248                  Delhi          2820.250
       334   04 Jun 2027 01:46:57.599   04 Jun 2027 01:48:05.616            68.017                Anadyr1          2125.531
       335   04 Jun 2027 01:49:00.112   04 Jun 2027 01:49:41.040            40.928                Anadyr1          1279.000
       336   04 Jun 2027 01:50:03.297   04 Jun 2027 01:50:05.876             2.579                Anadyr1            80.594
       337   04 Jun 2027 01:52:16.506   04 Jun 2027 01:52:32.866            16.360                Anadyr2           511.250
       338   04 Jun 2027 01:52:39.806   04 Jun 2027 01:53:51.347            71.541               Magadan1          2235.656
       339   04 Jun 2027 01:54:25.487   04 Jun 2027 01:54:43.074            17.587               Magadan1           549.594
       340   04 Jun 2027 01:55:21.016   04 Jun 2027 01:55:30.073             9.057               Magadan2           283.031
       341   04 Jun 2027 01:56:24.903   04 Jun 2027 01:56:38.016            13.113               Magadan1           409.781
       342   04 Jun 2027 01:56:55.542   04 Jun 2027 01:57:46.949            51.407              Murmansk2          1606.469
       343   04 Jun 2027 01:57:48.592   04 Jun 2027 01:58:15.001            26.409              Murmansk1           825.281
       344   04 Jun 2027 01:58:46.723   04 Jun 2027 02:00:00.477            73.754                Novosib          2304.812
       345   04 Jun 2027 02:00:28.818   04 Jun 2027 02:00:33.155             4.337                 Moscow           135.531
       346   04 Jun 2027 02:00:49.053   04 Jun 2027 02:01:14.537            25.484                 Moscow           796.375
       347   04 Jun 2027 02:10:00.780   04 Jun 2027 02:10:13.497            12.717                 Moscow           397.406
       348   04 Jun 2027 02:25:35.556   04 Jun 2027 02:26:13.339            37.783               CapeTown          1180.719
       349   04 Jun 2027 02:28:57.775   04 Jun 2027 02:29:22.960            25.185               CapeTown           787.031
       350   04 Jun 2027 02:34:46.940   04 Jun 2027 02:35:00.539            13.599               CapeTown           424.969
       351   04 Jun 2027 03:21:04.990   04 Jun 2027 03:22:16.355            71.365                Anadyr1          2230.156
       352   04 Jun 2027 03:32:22.150   04 Jun 2027 03:32:40.594            18.444                Anadyr2           576.375
       353   04 Jun 2027 03:44:29.868   04 Jun 2027 03:45:42.568            72.700              Murmansk2          2271.875
       354   04 Jun 2027 03:46:49.192   04 Jun 2027 03:47:21.024            31.832                 Moscow           994.750
       355   04 Jun 2027 04:56:53.856   04 Jun 2027 04:57:31.725            37.869                Anadyr2          1183.406
       356   04 Jun 2027 04:57:53.169   04 Jun 2027 04:58:33.463            40.294               Magadan1          1259.187
       357   04 Jun 2027 04:59:01.195   04 Jun 2027 04:59:17.654            16.459               Magadan1           514.344
       358   04 Jun 2027 05:02:50.863   04 Jun 2027 05:03:10.624            19.761               Magadan2           617.531
       359   04 Jun 2027 05:03:10.624   04 Jun 2027 05:04:19.831            69.207               Magadan1          2162.719
       360   04 Jun 2027 05:04:31.963   04 Jun 2027 05:05:25.314            53.351               Magadan1          1667.219
       361   04 Jun 2027 05:05:25.314   04 Jun 2027 05:08:27.070           181.756               Magadan2          5679.875
       362   04 Jun 2027 05:09:33.527   04 Jun 2027 05:09:37.999             4.472                Anadyr1           139.750
       363   04 Jun 2027 06:40:07.991   04 Jun 2027 06:40:11.064             3.073                Anadyr1            96.031
       364   04 Jun 2027 06:40:17.695   04 Jun 2027 06:41:07.690            49.995                Anadyr1          1562.344
       365   04 Jun 2027 06:41:12.667   04 Jun 2027 06:41:28.624            15.957               Magadan1           498.656
       366   04 Jun 2027 06:41:28.624   04 Jun 2027 06:41:39.535            10.911               Magadan2           340.969
       367   04 Jun 2027 06:42:02.091   04 Jun 2027 06:43:15.694            73.603               Magadan1          2300.094
       368   04 Jun 2027 08:14:37.608   04 Jun 2027 08:15:26.795            49.187               Magadan2          1537.094
       369   04 Jun 2027 08:15:41.352   04 Jun 2027 08:15:45.285             3.933               Magadan1           122.906
       370   04 Jun 2027 08:17:09.175   04 Jun 2027 08:17:39.208            30.033               Magadan2           938.531
       371   04 Jun 2027 08:17:46.104   04 Jun 2027 08:18:15.460            29.356               Magadan1           917.375
       372   04 Jun 2027 08:18:25.140   04 Jun 2027 08:18:43.990            18.850                Irkutsk           589.062
       373   04 Jun 2027 08:19:09.584   04 Jun 2027 08:19:10.694             1.110                Irkutsk            34.688
       374   04 Jun 2027 08:19:27.516   04 Jun 2027 08:20:21.580            54.064               Magadan2          1689.500
       375   04 Jun 2027 08:20:32.284   04 Jun 2027 08:20:41.116             8.832               Magadan1           276.000
       376   04 Jun 2027 08:25:59.529   04 Jun 2027 08:26:05.047             5.518                Norilsk           172.438
       377   04 Jun 2027 08:55:40.402   04 Jun 2027 08:56:50.300            69.898            RioGallegos          2184.312
       378   04 Jun 2027 08:58:15.011   04 Jun 2027 08:58:23.475             8.464            RioGallegos           264.500
       379   04 Jun 2027 09:31:23.605   04 Jun 2027 09:32:55.266            91.661                Sumatra          2864.406
       380   04 Jun 2027 09:52:43.652   04 Jun 2027 09:52:54.211            10.559                Irkutsk           329.969
       381   04 Jun 2027 09:53:10.986   04 Jun 2027 09:53:20.057             9.071                Irkutsk           283.469
       382   04 Jun 2027 09:53:21.811   04 Jun 2027 09:53:22.839             1.028                Novosib            32.125
       383   04 Jun 2027 09:53:48.562   04 Jun 2027 09:54:31.008            42.446                Novosib          1326.438
       384   04 Jun 2027 09:54:47.385   04 Jun 2027 09:55:09.046            21.661                Irkutsk           676.906
       385   04 Jun 2027 09:55:42.836   04 Jun 2027 09:56:15.348            32.512                Novosib          1016.000
       386   04 Jun 2027 09:56:26.157   04 Jun 2027 09:56:40.497            14.340                Novosib           448.125
       387   04 Jun 2027 09:56:53.652   04 Jun 2027 09:56:56.829             3.177                Irkutsk            99.281
       388   04 Jun 2027 10:33:01.180   04 Jun 2027 10:33:50.709            49.529            RioGallegos          1547.781
       389   04 Jun 2027 10:36:46.667   04 Jun 2027 10:37:37.992            51.325            RioGallegos          1603.906
       390   04 Jun 2027 11:07:13.881   04 Jun 2027 11:07:41.656            27.775                Sumatra           867.969
       391   04 Jun 2027 11:17:10.257   04 Jun 2027 11:17:49.523            39.266                  Delhi          1227.062
       392   04 Jun 2027 11:28:35.127   04 Jun 2027 11:28:48.718            13.591                Irkutsk           424.719
       393   04 Jun 2027 11:29:26.479   04 Jun 2027 11:29:59.810            33.331                Irkutsk          1041.594
       394   04 Jun 2027 11:30:39.258   04 Jun 2027 11:30:39.396             0.138                Novosib             4.312
       395   04 Jun 2027 11:31:06.756   04 Jun 2027 11:31:47.245            40.489                Irkutsk          1265.281
       396   04 Jun 2027 11:31:58.099   04 Jun 2027 11:32:11.322            13.223                Novosib           413.219
       397   04 Jun 2027 11:32:24.847   04 Jun 2027 11:32:44.971            20.124                Norilsk           628.875
       398   04 Jun 2027 12:52:18.055   04 Jun 2027 12:53:42.010            83.955                  Delhi          2623.594
       399   04 Jun 2027 12:54:54.791   04 Jun 2027 12:55:50.609            55.818                  Delhi          1744.313
       400   04 Jun 2027 12:57:09.489   04 Jun 2027 12:57:14.256             4.767                  Delhi           148.969
       401   04 Jun 2027 13:00:46.816   04 Jun 2027 13:01:48.017            61.201                Novosib          1912.531
       402   04 Jun 2027 13:02:33.052   04 Jun 2027 13:03:02.783            29.731                Novosib           929.094
       403   04 Jun 2027 13:04:16.428   04 Jun 2027 13:04:57.638            41.210                Norilsk          1287.813
       404   04 Jun 2027 13:08:00.790   04 Jun 2027 13:08:49.784            48.994                Norilsk          1531.063
       405   04 Jun 2027 14:35:20.702   04 Jun 2027 14:37:07.826           107.124                 Moscow          3347.625
       406   04 Jun 2027 14:38:19.417   04 Jun 2027 14:38:34.034            14.617                 Moscow           456.781
       407   04 Jun 2027 14:38:51.177   04 Jun 2027 14:42:17.005           205.828              Murmansk2          6432.125
       408   04 Jun 2027 14:42:17.005   04 Jun 2027 14:42:32.076            15.071              Murmansk1           470.969
       409   04 Jun 2027 14:46:25.260   04 Jun 2027 14:48:01.577            96.317                Norilsk          3009.906
       410   04 Jun 2027 14:54:31.157   04 Jun 2027 14:55:34.849            63.692                Anadyr1          1990.375
       411   04 Jun 2027 14:56:32.012   04 Jun 2027 14:57:26.642            54.630                Anadyr1          1707.188
       412   04 Jun 2027 15:48:42.542   04 Jun 2027 15:49:28.364            45.822               CapeTown          1431.938
       413   04 Jun 2027 16:14:59.045   04 Jun 2027 16:15:27.258            28.213                 Moscow           881.656
       414   04 Jun 2027 16:16:57.029   04 Jun 2027 16:17:38.422            41.393              Murmansk2          1293.531
       415   04 Jun 2027 16:17:49.176   04 Jun 2027 16:18:12.366            23.190              Murmansk1           724.688
       416   04 Jun 2027 16:19:27.800   04 Jun 2027 16:19:53.809            26.009              Murmansk2           812.781
       417   04 Jun 2027 16:23:59.283   04 Jun 2027 16:24:35.857            36.574              Murmansk1          1142.938
       418   04 Jun 2027 16:29:18.689   04 Jun 2027 16:32:51.265           212.576                Anadyr1          6643.000
       419   04 Jun 2027 17:26:15.217   04 Jun 2027 17:26:37.628            22.411               CapeTown           700.344
       420   04 Jun 2027 17:31:43.075   04 Jun 2027 17:32:12.428            29.353               CapeTown           917.281
       421   04 Jun 2027 17:58:03.085   04 Jun 2027 18:01:35.628           212.543              Murmansk1          6641.969
       422   04 Jun 2027 18:01:45.858   04 Jun 2027 18:02:23.679            37.821              Murmansk2          1181.906
       423   04 Jun 2027 18:05:07.290   04 Jun 2027 18:05:40.920            33.630                Anadyr2          1050.938
       424   04 Jun 2027 18:07:46.606   04 Jun 2027 18:09:13.847            87.241               Magadan2          2726.281
       425   04 Jun 2027 18:09:13.847   04 Jun 2027 18:09:20.100             6.253               Magadan1           195.406
       426   04 Jun 2027 18:15:10.101   04 Jun 2027 18:15:37.732            27.631               Magadan1           863.469
       427   04 Jun 2027 19:41:02.731   04 Jun 2027 19:45:03.580           240.849                Anadyr1          7526.531
       428   04 Jun 2027 19:45:04.048   04 Jun 2027 19:46:15.514            71.466                Norilsk          2233.312
       429   04 Jun 2027 19:46:37.090   04 Jun 2027 19:47:49.874            72.784               Magadan1          2274.500
       430   04 Jun 2027 19:53:32.560   04 Jun 2027 19:53:43.806            11.246               Magadan2           351.437
       431   04 Jun 2027 19:53:53.608   04 Jun 2027 19:53:54.766             1.158               Magadan2            36.188
       432   04 Jun 2027 19:54:06.369   04 Jun 2027 19:54:37.230            30.861               Magadan2           964.406
       433   04 Jun 2027 20:35:49.720   04 Jun 2027 20:38:42.475           172.755            RioGallegos          5398.594
       434   04 Jun 2027 20:39:37.599   04 Jun 2027 20:39:51.043            13.444            RioGallegos           420.125
       435   04 Jun 2027 20:40:25.344   04 Jun 2027 20:40:35.800            10.456            RioGallegos           326.750
       436   04 Jun 2027 20:41:02.608   04 Jun 2027 20:41:07.292             4.684            RioGallegos           146.375
       437   04 Jun 2027 21:16:43.899   04 Jun 2027 21:17:25.373            41.474                Anadyr2          1296.062
       438   04 Jun 2027 21:18:54.335   04 Jun 2027 21:19:44.494            50.159                Norilsk          1567.469
       439   04 Jun 2027 21:20:01.795   04 Jun 2027 21:20:52.801            51.006               Magadan2          1593.937
       440   04 Jun 2027 21:20:52.801   04 Jun 2027 21:21:19.901            27.100               Magadan1           846.875
       441   04 Jun 2027 21:23:15.048   04 Jun 2027 21:24:53.055            98.007                Irkutsk          3062.719
       442   04 Jun 2027 21:25:26.465   04 Jun 2027 21:26:46.819            80.354                Irkutsk          2511.063
       443   04 Jun 2027 21:29:20.110   04 Jun 2027 21:29:23.177             3.067                Irkutsk            95.844
       444   04 Jun 2027 21:37:12.151   04 Jun 2027 21:37:50.511            38.360                Sumatra          1198.750
       445   04 Jun 2027 21:39:08.197   04 Jun 2027 21:40:27.768            79.571                Sumatra          2486.594
       446   04 Jun 2027 22:52:48.867   04 Jun 2027 22:53:11.195            22.328                Anadyr1           697.750
       447   04 Jun 2027 22:54:01.876   04 Jun 2027 22:54:11.219             9.343                Anadyr2           291.969
       448   04 Jun 2027 22:54:13.601   04 Jun 2027 22:55:02.227            48.626                Anadyr2          1519.562
       449   04 Jun 2027 22:55:26.876   04 Jun 2027 22:56:49.540            82.664               Magadan2          2583.250
       450   04 Jun 2027 22:57:26.812   04 Jun 2027 22:57:51.056            24.244               Magadan1           757.625
       451   04 Jun 2027 22:58:23.363   04 Jun 2027 22:58:50.089            26.726               Magadan2           835.188
       452   04 Jun 2027 22:58:57.056   04 Jun 2027 23:00:37.742           100.686                Novosib          3146.438
       453   04 Jun 2027 23:01:45.820   04 Jun 2027 23:02:08.051            22.231                Novosib           694.719
       454   04 Jun 2027 23:07:06.909   04 Jun 2027 23:07:15.723             8.814                  Delhi           275.437
       455   04 Jun 2027 23:07:30.128   04 Jun 2027 23:07:57.119            26.991                  Delhi           843.469
       456   04 Jun 2027 23:07:57.596   04 Jun 2027 23:08:06.661             9.065                Novosib           283.281
       457   04 Jun 2027 23:09:11.514   04 Jun 2027 23:10:09.905            58.391                  Delhi          1824.719
       458   04 Jun 2027 23:11:46.356   04 Jun 2027 23:12:33.534            47.178                  Delhi          1474.312
       459   05 Jun 2027 00:25:21.381   05 Jun 2027 00:26:19.606            58.225                Anadyr1          1819.531
       460   05 Jun 2027 00:26:34.590   05 Jun 2027 00:27:04.875            30.285                Anadyr1           946.406
       461   05 Jun 2027 00:30:27.774   05 Jun 2027 00:30:49.631            21.857                Anadyr2           683.031
       462   05 Jun 2027 00:31:06.393   05 Jun 2027 00:31:41.437            35.044                Norilsk          1095.125
       463   05 Jun 2027 00:31:56.311   05 Jun 2027 00:33:01.260            64.949               Magadan2          2029.656
       464   05 Jun 2027 00:33:04.402   05 Jun 2027 00:33:18.695            14.293               Magadan2           446.656
       465   05 Jun 2027 00:33:50.620   05 Jun 2027 00:35:10.090            79.470              Murmansk1          2483.437
       466   05 Jun 2027 00:35:19.573   05 Jun 2027 00:36:05.604            46.031                Novosib          1438.469
       467   05 Jun 2027 00:36:50.449   05 Jun 2027 00:37:51.166            60.717                Novosib          1897.406
       468   05 Jun 2027 00:39:04.770   05 Jun 2027 00:40:17.353            72.583                 Moscow          2268.219
       469   05 Jun 2027 00:40:54.392   05 Jun 2027 00:41:20.181            25.789                 Moscow           805.906
       470   05 Jun 2027 00:51:44.559   05 Jun 2027 00:52:08.267            23.708                  Delhi           740.875
       471   05 Jun 2027 01:25:22.737   05 Jun 2027 01:26:45.631            82.894            RioGallegos          2590.438
       472   05 Jun 2027 01:58:41.299   05 Jun 2027 01:59:20.142            38.843                Anadyr2          1213.844
       473   05 Jun 2027 02:00:06.097   05 Jun 2027 02:00:19.027            12.930                Anadyr1           404.062
       474   05 Jun 2027 02:01:01.453   05 Jun 2027 02:01:41.020            39.567                Anadyr2          1236.469
       475   05 Jun 2027 02:04:08.625   05 Jun 2027 02:05:09.551            60.926               Magadan1          1903.937
       476   05 Jun 2027 02:05:17.245   05 Jun 2027 02:05:42.380            25.135               Magadan2           785.469
       477   05 Jun 2027 02:06:53.699   05 Jun 2027 02:07:07.359            13.660                Norilsk           426.875
       478   05 Jun 2027 02:08:56.727   05 Jun 2027 02:09:52.136            55.409              Murmansk2          1731.531
       479   05 Jun 2027 02:10:51.481   05 Jun 2027 02:11:07.162            15.681              Murmansk1           490.031
       480   05 Jun 2027 02:11:50.541   05 Jun 2027 02:13:50.026           119.485                Novosib          3733.906
       481   05 Jun 2027 02:23:13.691   05 Jun 2027 02:23:25.207            11.516                 Moscow           359.875
       482   05 Jun 2027 02:23:44.971   05 Jun 2027 02:24:26.091            41.120                 Moscow          1285.000
