uniorb/output/strategy_4/Drop/Drop_KinoSat_111510.txt

KinoSat_111510
-------------------------
    Access    *     Start Time (UTCG)     *     Stop Time (UTCG)  *   Duration (s)        *       Station  *  Data (Mbytes)
         1   01 Jun 2027 04:10:02.988   01 Jun 2027 04:10:09.469             6.481                 Moscow           202.531
         2   01 Jun 2027 04:10:10.353   01 Jun 2027 04:11:50.063            99.710                Novosib          3115.937
         3   01 Jun 2027 04:11:53.549   01 Jun 2027 04:12:37.150            43.601                Novosib          1362.531
         4   01 Jun 2027 04:13:04.118   01 Jun 2027 04:14:42.673            98.555              Murmansk1          3079.844
         5   01 Jun 2027 04:14:50.966   01 Jun 2027 04:18:17.812           206.846                 Moscow          6463.938
         6   01 Jun 2027 04:42:01.141   01 Jun 2027 04:42:09.678             8.537               CapeTown           266.781
         7   01 Jun 2027 05:32:56.463   01 Jun 2027 05:33:54.739            58.276               Magadan1          1821.125
         8   01 Jun 2027 05:34:14.751   01 Jun 2027 05:34:39.562            24.811               Magadan1           775.344
         9   01 Jun 2027 05:36:33.405   01 Jun 2027 05:36:40.137             6.732               Magadan1           210.375
        10   01 Jun 2027 05:37:05.967   01 Jun 2027 05:37:17.567            11.600               Magadan1           362.500
        11   01 Jun 2027 05:44:54.895   01 Jun 2027 05:45:24.412            29.517              Murmansk1           922.406
        12   01 Jun 2027 05:45:24.412   01 Jun 2027 05:45:40.273            15.861              Murmansk2           495.656
        13   01 Jun 2027 05:48:33.662   01 Jun 2027 05:49:15.976            42.314                 Moscow          1322.312
        14   01 Jun 2027 05:50:21.343   01 Jun 2027 05:51:07.191            45.848              Murmansk1          1432.750
        15   01 Jun 2027 07:08:47.744   01 Jun 2027 07:10:26.195            98.451               Magadan2          3076.594
        16   01 Jun 2027 07:10:47.050   01 Jun 2027 07:13:30.260           163.210               Magadan1          5100.313
        17   01 Jun 2027 07:14:07.802   01 Jun 2027 07:14:29.156            21.354               Magadan1           667.312
        18   01 Jun 2027 07:18:42.370   01 Jun 2027 07:18:54.173            11.803                 Moscow           368.844
        19   01 Jun 2027 08:42:46.723   01 Jun 2027 08:44:06.887            80.164                Irkutsk          2505.125
        20   01 Jun 2027 08:44:27.937   01 Jun 2027 08:46:46.867           138.930               Magadan1          4341.562
        21   01 Jun 2027 08:47:35.088   01 Jun 2027 08:49:57.313           142.225                Anadyr2          4444.531
        22   01 Jun 2027 09:25:39.617   01 Jun 2027 09:25:51.003            11.386            RioGallegos           355.812
        23   01 Jun 2027 10:20:49.776   01 Jun 2027 10:24:51.158           241.382               Magadan1          7543.188
        24   01 Jun 2027 10:25:24.640   01 Jun 2027 10:26:19.789            55.149                Irkutsk          1723.406
        25   01 Jun 2027 11:01:13.101   01 Jun 2027 11:02:33.663            80.562            RioGallegos          2517.563
        26   01 Jun 2027 11:03:02.734   01 Jun 2027 11:03:54.837            52.103            RioGallegos          1628.219
        27   01 Jun 2027 11:35:51.385   01 Jun 2027 11:38:12.052           140.667                Sumatra          4395.844
        28   01 Jun 2027 11:57:34.446   01 Jun 2027 12:01:29.959           235.513                Norilsk          7359.781
        29   01 Jun 2027 12:01:40.020   01 Jun 2027 12:03:49.752           129.732                Novosib          4054.125
        30   01 Jun 2027 12:03:50.104   01 Jun 2027 12:04:14.908            24.804                 Moscow           775.125
        31   01 Jun 2027 12:05:24.139   01 Jun 2027 12:07:15.977           111.838                Norilsk          3494.937
        32   01 Jun 2027 12:08:16.181   01 Jun 2027 12:09:22.444            66.263              Murmansk2          2070.719
        33   01 Jun 2027 12:41:43.516   01 Jun 2027 12:44:06.781           143.265            RioGallegos          4477.031
        34   01 Jun 2027 12:46:36.243   01 Jun 2027 12:47:24.324            48.081            RioGallegos          1502.531
        35   01 Jun 2027 13:28:04.114   01 Jun 2027 13:29:44.292           100.178                Novosib          3130.563
        36   01 Jun 2027 13:29:57.873   01 Jun 2027 13:32:37.816           159.943                  Delhi          4998.219
        37   01 Jun 2027 13:34:45.571   01 Jun 2027 13:35:50.922            65.351                Novosib          2042.219
        38   01 Jun 2027 13:36:22.399   01 Jun 2027 13:39:21.476           179.077                Novosib          5596.156
        39   01 Jun 2027 13:41:07.284   01 Jun 2027 13:43:15.988           128.704                Norilsk          4022.000
        40   01 Jun 2027 13:43:17.088   01 Jun 2027 13:44:56.824            99.736              Murmansk2          3116.750
        41   01 Jun 2027 15:09:37.587   01 Jun 2027 15:09:45.728             8.141                 Moscow           254.406
        42   01 Jun 2027 15:09:48.445   01 Jun 2027 15:10:02.954            14.509              Murmansk2           453.406
        43   01 Jun 2027 15:10:06.407   01 Jun 2027 15:10:23.547            17.140                 Moscow           535.625
        44   01 Jun 2027 15:11:15.144   01 Jun 2027 15:11:48.489            33.345              Murmansk2          1042.031
        45   01 Jun 2027 15:11:56.519   01 Jun 2027 15:12:24.921            28.402                 Moscow           887.562
        46   01 Jun 2027 15:12:46.606   01 Jun 2027 15:16:05.250           198.644                 Moscow          6207.625
        47   01 Jun 2027 15:16:11.403   01 Jun 2027 15:17:45.748            94.345                Norilsk          2948.281
        48   01 Jun 2027 15:18:47.012   01 Jun 2027 15:18:59.991            12.979              Murmansk2           405.594
        49   01 Jun 2027 15:18:59.991   01 Jun 2027 15:19:42.660            42.669              Murmansk1          1333.406
        50   01 Jun 2027 15:20:10.401   01 Jun 2027 15:20:37.089            26.688              Murmansk2           834.000
        51   01 Jun 2027 15:20:37.089   01 Jun 2027 15:20:50.991            13.902              Murmansk1           434.437
        52   01 Jun 2027 16:24:57.719   01 Jun 2027 16:25:30.245            32.526               CapeTown          1016.437
        53   01 Jun 2027 16:26:22.192   01 Jun 2027 16:28:06.673           104.481               CapeTown          3265.031
        54   01 Jun 2027 16:28:38.386   01 Jun 2027 16:29:20.027            41.641               CapeTown          1301.281
        55   01 Jun 2027 16:49:18.929   01 Jun 2027 16:49:33.803            14.874                 Moscow           464.813
        56   01 Jun 2027 16:50:29.866   01 Jun 2027 16:50:57.949            28.083              Murmansk1           877.594
        57   01 Jun 2027 16:51:33.042   01 Jun 2027 16:52:46.385            73.343                 Moscow          2291.969
        58   01 Jun 2027 16:54:15.231   01 Jun 2027 16:55:04.433            49.202              Murmansk2          1537.563
        59   01 Jun 2027 16:56:00.796   01 Jun 2027 16:56:49.527            48.731              Murmansk2          1522.844
        60   01 Jun 2027 17:01:58.034   01 Jun 2027 17:02:29.720            31.686                Anadyr1           990.187
        61   01 Jun 2027 17:04:03.080   01 Jun 2027 17:04:29.359            26.279                Anadyr1           821.219
        62   01 Jun 2027 17:04:58.157   01 Jun 2027 17:05:21.168            23.011                Anadyr2           719.094
        63   01 Jun 2027 17:05:45.852   01 Jun 2027 17:06:09.207            23.355                Anadyr2           729.844
        64   01 Jun 2027 17:06:30.017   01 Jun 2027 17:06:46.339            16.322                Anadyr1           510.063
        65   01 Jun 2027 17:07:38.509   01 Jun 2027 17:08:00.822            22.313                Anadyr2           697.281
        66   01 Jun 2027 17:08:27.001   01 Jun 2027 17:08:36.929             9.928                Anadyr2           310.250
        67   01 Jun 2027 18:03:31.732   01 Jun 2027 18:04:09.513            37.781               CapeTown          1180.656
        68   01 Jun 2027 18:05:30.363   01 Jun 2027 18:06:21.057            50.694               CapeTown          1584.187
        69   01 Jun 2027 18:24:27.039   01 Jun 2027 18:25:30.540            63.501              Murmansk2          1984.406
        70   01 Jun 2027 18:26:23.482   01 Jun 2027 18:28:41.432           137.950              Murmansk1          4310.937
        71   01 Jun 2027 18:29:37.704   01 Jun 2027 18:29:52.276            14.572              Murmansk2           455.375
        72   01 Jun 2027 18:30:32.657   01 Jun 2027 18:30:54.941            22.284              Murmansk1           696.375
        73   01 Jun 2027 18:41:44.091   01 Jun 2027 18:42:04.200            20.109               Magadan2           628.406
        74   01 Jun 2027 18:42:34.084   01 Jun 2027 18:42:54.126            20.042               Magadan1           626.313
        75   01 Jun 2027 18:43:41.928   01 Jun 2027 18:44:17.009            35.081               Magadan1          1096.281
        76   01 Jun 2027 18:44:58.005   01 Jun 2027 18:45:20.805            22.800                Anadyr2           712.500
        77   01 Jun 2027 20:10:26.251   01 Jun 2027 20:14:10.672           224.421                Anadyr1          7013.156
        78   01 Jun 2027 20:14:14.655   01 Jun 2027 20:16:07.910           113.255               Magadan1          3539.219
        79   01 Jun 2027 20:16:07.910   01 Jun 2027 20:16:17.576             9.666               Magadan2           302.063
        80   01 Jun 2027 20:16:38.871   01 Jun 2027 20:17:04.028            25.157                Anadyr2           786.156
        81   01 Jun 2027 20:17:30.209   01 Jun 2027 20:17:40.931            10.722                Anadyr2           335.062
        82   01 Jun 2027 20:18:34.016   01 Jun 2027 20:18:54.260            20.244               Magadan1           632.625
        83   01 Jun 2027 20:19:26.059   01 Jun 2027 20:19:37.745            11.686               Magadan1           365.188
        84   01 Jun 2027 20:19:46.618   01 Jun 2027 20:20:45.778            59.160               Magadan1          1848.750
        85   01 Jun 2027 20:23:25.219   01 Jun 2027 20:24:08.912            43.693               Magadan2          1365.406
        86   01 Jun 2027 20:24:09.948   01 Jun 2027 20:24:34.468            24.520               Magadan1           766.250
        87   01 Jun 2027 21:07:44.222   01 Jun 2027 21:09:27.628           103.406            RioGallegos          3231.438
        88   01 Jun 2027 21:46:17.349   01 Jun 2027 21:48:35.748           138.399                Anadyr1          4324.969
        89   01 Jun 2027 21:48:43.459   01 Jun 2027 21:49:12.068            28.609               Magadan1           894.031
        90   01 Jun 2027 21:49:20.991   01 Jun 2027 21:49:43.810            22.819                Norilsk           713.094
        91   01 Jun 2027 21:50:09.455   01 Jun 2027 21:50:20.350            10.895                Norilsk           340.469
        92   01 Jun 2027 21:50:44.477   01 Jun 2027 21:50:48.650             4.173                Norilsk           130.406
        93   01 Jun 2027 21:51:08.710   01 Jun 2027 21:51:17.690             8.980               Magadan1           280.625
        94   01 Jun 2027 21:51:24.932   01 Jun 2027 21:51:46.323            21.391               Magadan1           668.469
        95   01 Jun 2027 21:51:56.305   01 Jun 2027 21:52:03.854             7.549                Norilsk           235.906
        96   01 Jun 2027 21:53:03.363   01 Jun 2027 21:53:42.742            39.379               Magadan1          1230.594
        97   01 Jun 2027 21:54:55.645   01 Jun 2027 21:55:08.139            12.494               Magadan2           390.437
        98   01 Jun 2027 21:55:08.873   01 Jun 2027 21:55:29.982            21.109                Norilsk           659.656
        99   01 Jun 2027 21:56:30.381   01 Jun 2027 21:57:42.161            71.780                Irkutsk          2243.125
       100   01 Jun 2027 22:09:16.821   01 Jun 2027 22:10:46.064            89.243                Sumatra          2788.844
       101   01 Jun 2027 22:14:30.896   01 Jun 2027 22:16:07.141            96.245                Sumatra          3007.656
       102   01 Jun 2027 23:21:39.476   01 Jun 2027 23:22:08.236            28.760                Anadyr2           898.750
       103   01 Jun 2027 23:22:22.582   01 Jun 2027 23:22:33.599            11.017                Anadyr1           344.281
       104   01 Jun 2027 23:23:41.091   01 Jun 2027 23:24:50.386            69.295                Anadyr2          2165.469
       105   01 Jun 2027 23:24:50.858   01 Jun 2027 23:25:55.237            64.379                Norilsk          2011.844
       106   01 Jun 2027 23:26:51.162   01 Jun 2027 23:27:31.146            39.984               Magadan2          1249.500
       107   01 Jun 2027 23:27:58.609   01 Jun 2027 23:28:12.746            14.137               Magadan2           441.781
       108   01 Jun 2027 23:28:22.967   01 Jun 2027 23:28:33.257            10.290               Magadan2           321.563
       109   01 Jun 2027 23:28:57.867   01 Jun 2027 23:30:27.334            89.467                Novosib          2795.844
       110   01 Jun 2027 23:35:05.270   01 Jun 2027 23:35:34.150            28.880                Irkutsk           902.500
       111   01 Jun 2027 23:37:57.105   01 Jun 2027 23:38:00.686             3.581                Novosib           111.906
       112   01 Jun 2027 23:38:46.655   01 Jun 2027 23:40:03.129            76.474                Irkutsk          2389.812
       113   01 Jun 2027 23:50:51.352   01 Jun 2027 23:50:55.269             3.917                Sumatra           122.406
       114   01 Jun 2027 23:50:58.128   01 Jun 2027 23:51:33.426            35.298                Sumatra          1103.062
       115   01 Jun 2027 23:53:49.998   01 Jun 2027 23:54:29.945            39.947                Sumatra          1248.344
       116   02 Jun 2027 00:22:47.348   02 Jun 2027 00:23:32.287            44.939            RioGallegos          1404.344
       117   02 Jun 2027 00:26:48.051   02 Jun 2027 00:27:04.577            16.526            RioGallegos           516.438
       118   02 Jun 2027 00:28:09.513   02 Jun 2027 00:28:31.979            22.466            RioGallegos           702.062
       119   02 Jun 2027 00:55:55.468   02 Jun 2027 00:56:10.935            15.467                Anadyr1           483.344
       120   02 Jun 2027 00:56:10.935   02 Jun 2027 00:56:44.780            33.845                Anadyr2          1057.656
       121   02 Jun 2027 00:57:34.286   02 Jun 2027 00:57:58.479            24.193                Anadyr1           756.031
       122   02 Jun 2027 00:59:48.391   02 Jun 2027 01:00:28.388            39.997                Anadyr2          1249.906
       123   02 Jun 2027 01:00:37.076   02 Jun 2027 01:02:12.057            94.981                Norilsk          2968.156
       124   02 Jun 2027 01:02:33.278   02 Jun 2027 01:03:05.413            32.135               Magadan1          1004.219
       125   02 Jun 2027 01:03:22.061   02 Jun 2027 01:04:52.689            90.628              Murmansk1          2832.125
       126   02 Jun 2027 01:08:26.491   02 Jun 2027 01:08:36.863            10.372                Novosib           324.125
       127   02 Jun 2027 01:11:03.493   02 Jun 2027 01:11:05.974             2.481                Irkutsk            77.531
       128   02 Jun 2027 01:12:01.639   02 Jun 2027 01:14:20.330           138.691                  Delhi          4334.094
       129   02 Jun 2027 01:52:59.971   02 Jun 2027 01:53:52.872            52.901            RioGallegos          1653.156
       130   02 Jun 2027 01:54:27.393   02 Jun 2027 01:54:37.347             9.954            RioGallegos           311.063
       131   02 Jun 2027 01:55:11.839   02 Jun 2027 01:55:37.770            25.931            RioGallegos           810.344
       132   02 Jun 2027 01:55:57.888   02 Jun 2027 01:56:04.788             6.900            RioGallegos           215.625
       133   02 Jun 2027 01:58:32.095   02 Jun 2027 01:59:02.471            30.376            RioGallegos           949.250
       134   02 Jun 2027 02:00:05.591   02 Jun 2027 02:00:54.524            48.933            RioGallegos          1529.156
       135   02 Jun 2027 02:31:55.531   02 Jun 2027 02:32:06.290            10.759                Anadyr1           336.219
       136   02 Jun 2027 02:33:26.078   02 Jun 2027 02:33:29.371             3.293                Anadyr2           102.906
       137   02 Jun 2027 02:33:34.820   02 Jun 2027 02:34:10.902            36.082                Anadyr2          1127.563
       138   02 Jun 2027 02:35:25.298   02 Jun 2027 02:35:28.815             3.517               Magadan2           109.906
       139   02 Jun 2027 02:36:03.046   02 Jun 2027 02:36:51.324            48.278               Magadan1          1508.688
       140   02 Jun 2027 02:37:10.893   02 Jun 2027 02:37:30.473            19.580                Norilsk           611.875
       141   02 Jun 2027 02:38:21.392   02 Jun 2027 02:39:49.842            88.450              Murmansk1          2764.062
       142   02 Jun 2027 02:40:36.970   02 Jun 2027 02:41:02.663            25.693                Novosib           802.906
       143   02 Jun 2027 02:43:24.863   02 Jun 2027 02:44:22.955            58.092                Irkutsk          1815.375
       144   02 Jun 2027 02:48:33.750   02 Jun 2027 02:49:45.031            71.281                  Delhi          2227.531
       145   02 Jun 2027 02:53:46.544   02 Jun 2027 02:54:21.856            35.312                  Delhi          1103.500
       146   02 Jun 2027 04:21:44.738   02 Jun 2027 04:22:02.194            17.456                Novosib           545.500
       147   02 Jun 2027 04:22:12.016   02 Jun 2027 04:23:32.029            80.013                Norilsk          2500.406
       148   02 Jun 2027 04:23:33.614   02 Jun 2027 04:23:38.236             4.622              Murmansk1           144.438
       149   02 Jun 2027 04:23:42.965   02 Jun 2027 04:23:51.791             8.826              Murmansk1           275.813
       150   02 Jun 2027 04:24:00.495   02 Jun 2027 04:24:07.226             6.731              Murmansk1           210.344
       151   02 Jun 2027 04:24:30.787   02 Jun 2027 04:26:46.851           136.064              Murmansk1          4252.000
       152   02 Jun 2027 04:26:46.851   02 Jun 2027 04:26:53.751             6.900              Murmansk2           215.625
       153   02 Jun 2027 04:27:05.208   02 Jun 2027 04:28:23.937            78.729                 Moscow          2460.281
       154   02 Jun 2027 05:45:11.698   02 Jun 2027 05:45:49.333            37.635                Anadyr2          1176.094
       155   02 Jun 2027 05:45:49.333   02 Jun 2027 05:46:19.855            30.522                Anadyr1           953.812
       156   02 Jun 2027 05:46:52.070   02 Jun 2027 05:50:19.499           207.429                Anadyr1          6482.156
       157   02 Jun 2027 07:23:44.580   02 Jun 2027 07:24:29.104            44.524                Anadyr2          1391.375
       158   02 Jun 2027 07:24:29.104   02 Jun 2027 07:26:14.528           105.424                Anadyr1          3294.500
       159   02 Jun 2027 08:56:23.683   02 Jun 2027 08:59:34.092           190.409               Magadan2          5950.281
       160   02 Jun 2027 08:59:48.334   02 Jun 2027 09:00:23.403            35.069               Magadan2          1095.906
       161   02 Jun 2027 09:00:23.822   02 Jun 2027 09:01:12.559            48.737                Irkutsk          1523.031
       162   02 Jun 2027 09:01:36.985   02 Jun 2027 09:02:23.199            46.214               Magadan1          1444.188
       163   02 Jun 2027 10:32:31.853   02 Jun 2027 10:33:13.498            41.645                Irkutsk          1301.406
       164   02 Jun 2027 10:33:40.365   02 Jun 2027 10:35:25.097           104.732               Magadan2          3272.875
       165   02 Jun 2027 10:35:34.969   02 Jun 2027 10:35:35.269             0.300                Norilsk             9.375
       166   02 Jun 2027 10:35:45.850   02 Jun 2027 10:35:52.194             6.344                Novosib           198.250
       167   02 Jun 2027 10:36:02.049   02 Jun 2027 10:36:11.609             9.560               Magadan1           298.750
       168   02 Jun 2027 10:36:12.824   02 Jun 2027 10:36:18.707             5.883                Irkutsk           183.844
       169   02 Jun 2027 10:36:19.327   02 Jun 2027 10:36:27.103             7.776                Norilsk           243.000
       170   02 Jun 2027 10:36:42.869   02 Jun 2027 10:37:18.396            35.527                Novosib          1110.219
       171   02 Jun 2027 10:37:25.374   02 Jun 2027 10:37:46.737            21.363                Novosib           667.594
       172   02 Jun 2027 10:37:52.180   02 Jun 2027 10:38:20.210            28.030                Novosib           875.937
       173   02 Jun 2027 11:13:27.633   02 Jun 2027 11:14:30.991            63.358            RioGallegos          1979.937
       174   02 Jun 2027 11:47:56.479   02 Jun 2027 11:48:58.983            62.504                Sumatra          1953.250
       175   02 Jun 2027 11:57:27.917   02 Jun 2027 11:57:32.047             4.130                  Delhi           129.062
       176   02 Jun 2027 12:04:41.047   02 Jun 2027 12:05:30.824            49.777                Irkutsk          1555.531
       177   02 Jun 2027 12:08:31.375   02 Jun 2027 12:08:52.170            20.795                Novosib           649.844
       178   02 Jun 2027 12:13:14.555   02 Jun 2027 12:13:21.697             7.142                Irkutsk           223.188
       179   02 Jun 2027 12:13:41.217   02 Jun 2027 12:14:10.836            29.619                Norilsk           925.594
       180   02 Jun 2027 12:55:25.905   02 Jun 2027 12:56:04.519            38.614            RioGallegos          1206.687
       181   02 Jun 2027 12:56:31.171   02 Jun 2027 12:58:06.221            95.050            RioGallegos          2970.312
       182   02 Jun 2027 13:40:16.265   02 Jun 2027 13:42:18.527           122.262                  Delhi          3820.688
       183   02 Jun 2027 13:44:11.580   02 Jun 2027 13:45:37.914            86.334                Novosib          2697.938
       184   02 Jun 2027 13:47:12.957   02 Jun 2027 13:47:45.898            32.941                Norilsk          1029.406
       185   02 Jun 2027 13:51:32.817   02 Jun 2027 13:51:33.022             0.205                Norilsk             6.406
       186   02 Jun 2027 13:53:06.722   02 Jun 2027 13:53:32.350            25.628                Norilsk           800.875
       187   02 Jun 2027 15:16:29.122   02 Jun 2027 15:20:25.803           236.681                 Moscow          7396.281
       188   02 Jun 2027 15:21:33.806   02 Jun 2027 15:22:13.448            39.642              Murmansk1          1238.813
       189   02 Jun 2027 15:24:51.973   02 Jun 2027 15:27:18.974           147.001                Norilsk          4593.781
       190   02 Jun 2027 15:28:11.621   02 Jun 2027 15:29:20.326            68.705                Norilsk          2147.031
       191   02 Jun 2027 15:29:30.016   02 Jun 2027 15:30:47.695            77.679                Norilsk          2427.469
       192   02 Jun 2027 16:54:27.325   02 Jun 2027 16:55:02.597            35.272                 Moscow          1102.250
       193   02 Jun 2027 16:57:21.456   02 Jun 2027 16:58:24.005            62.549              Murmansk1          1954.656
       194   02 Jun 2027 17:00:47.834   02 Jun 2027 17:01:19.870            32.036              Murmansk2          1001.125
       195   02 Jun 2027 17:05:32.136   02 Jun 2027 17:06:40.721            68.585              Murmansk1          2143.281
       196   02 Jun 2027 17:10:51.956   02 Jun 2027 17:12:06.154            74.198                Anadyr2          2318.688
       197   02 Jun 2027 17:17:46.083   02 Jun 2027 17:18:31.288            45.205                Anadyr1          1412.656
       198   02 Jun 2027 18:08:43.848   02 Jun 2027 18:10:21.534            97.686               CapeTown          3052.688
       199   02 Jun 2027 18:37:08.577   02 Jun 2027 18:38:53.522           104.945              Murmansk1          3279.531
       200   02 Jun 2027 18:39:13.085   02 Jun 2027 18:40:53.617           100.532              Murmansk2          3141.625
       201   02 Jun 2027 18:41:20.661   02 Jun 2027 18:42:27.774            67.113              Murmansk1          2097.281
       202   02 Jun 2027 18:49:36.435   02 Jun 2027 18:50:13.991            37.556               Magadan1          1173.625
       203   02 Jun 2027 18:57:16.149   02 Jun 2027 18:57:27.241            11.092               Magadan2           346.625
       204   02 Jun 2027 18:58:26.666   02 Jun 2027 18:58:39.086            12.420               Magadan1           388.125
       205   02 Jun 2027 20:22:27.850   02 Jun 2027 20:24:05.558            97.708                Anadyr2          3053.375
       206   02 Jun 2027 20:24:32.467   02 Jun 2027 20:26:11.919            99.452                Anadyr1          3107.875
       207   02 Jun 2027 20:26:29.092   02 Jun 2027 20:28:27.317           118.225               Magadan1          3694.531
       208   02 Jun 2027 20:28:27.317   02 Jun 2027 20:28:44.530            17.213               Magadan2           537.906
       209   02 Jun 2027 20:29:32.369   02 Jun 2027 20:30:16.181            43.812               Magadan2          1369.125
       210   02 Jun 2027 20:30:54.231   02 Jun 2027 20:31:44.610            50.379               Magadan2          1574.344
       211   02 Jun 2027 20:37:05.184   02 Jun 2027 20:37:21.333            16.149               Magadan2           504.656
       212   02 Jun 2027 21:18:32.571   02 Jun 2027 21:21:05.355           152.784            RioGallegos          4774.500
       213   02 Jun 2027 21:23:41.888   02 Jun 2027 21:24:15.767            33.879            RioGallegos          1058.719
       214   02 Jun 2027 21:58:16.938   02 Jun 2027 22:00:27.653           130.715                Anadyr1          4084.844
       215   02 Jun 2027 22:00:41.608   02 Jun 2027 22:02:09.670            88.062               Magadan2          2751.938
       216   02 Jun 2027 22:03:24.249   02 Jun 2027 22:03:46.738            22.489                Norilsk           702.781
       217   02 Jun 2027 22:05:18.457   02 Jun 2027 22:05:57.424            38.967                Irkutsk          1217.719
       218   02 Jun 2027 22:07:21.295   02 Jun 2027 22:08:11.923            50.628                Irkutsk          1582.125
       219   02 Jun 2027 22:20:12.644   02 Jun 2027 22:21:56.621           103.977                Sumatra          3249.281
       220   02 Jun 2027 22:25:08.987   02 Jun 2027 22:25:35.641            26.654                Sumatra           832.938
       221   02 Jun 2027 23:33:32.818   02 Jun 2027 23:33:53.586            20.768                Anadyr1           649.000
       222   02 Jun 2027 23:34:03.276   02 Jun 2027 23:34:23.413            20.137                Anadyr2           629.281
       223   02 Jun 2027 23:35:42.149   02 Jun 2027 23:36:07.950            25.801                Anadyr1           806.281
       224   02 Jun 2027 23:36:11.472   02 Jun 2027 23:38:16.475           125.003                Norilsk          3906.344
       225   02 Jun 2027 23:38:19.033   02 Jun 2027 23:39:56.414            97.381               Magadan2          3043.156
       226   02 Jun 2027 23:40:06.451   02 Jun 2027 23:41:11.375            64.924                Irkutsk          2028.875
       227   02 Jun 2027 23:41:57.998   02 Jun 2027 23:42:38.245            40.247                Novosib          1257.719
       228   02 Jun 2027 23:49:16.980   02 Jun 2027 23:49:49.784            32.804                Novosib          1025.125
       229   02 Jun 2027 23:50:36.274   02 Jun 2027 23:51:51.782            75.508                  Delhi          2359.625
       230   02 Jun 2027 23:53:22.299   02 Jun 2027 23:55:20.512           118.213                  Delhi          3694.156
       231   03 Jun 2027 01:07:39.059   03 Jun 2027 01:07:56.313            17.254                Anadyr1           539.187
       232   03 Jun 2027 01:08:12.071   03 Jun 2027 01:08:55.582            43.511                Anadyr1          1359.719
       233   03 Jun 2027 01:09:52.525   03 Jun 2027 01:09:54.706             2.181                Anadyr2            68.156
       234   03 Jun 2027 01:10:13.259   03 Jun 2027 01:10:38.454            25.195                Anadyr1           787.344
       235   03 Jun 2027 01:12:12.103   03 Jun 2027 01:12:30.282            18.179                Norilsk           568.094
       236   03 Jun 2027 01:12:47.921   03 Jun 2027 01:14:15.244            87.323               Magadan1          2728.844
       237   03 Jun 2027 01:15:05.002   03 Jun 2027 01:18:07.959           182.957              Murmansk2          5717.406
       238   03 Jun 2027 01:23:53.840   03 Jun 2027 01:25:00.611            66.771                  Delhi          2086.594
       239   03 Jun 2027 02:05:17.532   03 Jun 2027 02:06:36.413            78.881            RioGallegos          2465.031
       240   03 Jun 2027 02:07:20.780   03 Jun 2027 02:07:34.130            13.350            RioGallegos           417.188
       241   03 Jun 2027 02:07:47.460   03 Jun 2027 02:08:09.698            22.238            RioGallegos           694.937
       242   03 Jun 2027 02:12:07.803   03 Jun 2027 02:12:12.254             4.451            RioGallegos           139.094
       243   03 Jun 2027 02:40:56.166   03 Jun 2027 02:41:03.127             6.961                Anadyr2           217.531
       244   03 Jun 2027 02:41:20.944   03 Jun 2027 02:41:28.123             7.179                Anadyr2           224.344
       245   03 Jun 2027 02:41:50.402   03 Jun 2027 02:42:00.068             9.666                Anadyr2           302.063
       246   03 Jun 2027 02:42:07.615   03 Jun 2027 02:43:06.343            58.728                Anadyr2          1835.250
       247   03 Jun 2027 02:44:14.926   03 Jun 2027 02:44:15.246             0.320                Anadyr1            10.000
       248   03 Jun 2027 02:47:00.143   03 Jun 2027 02:47:42.691            42.548               Magadan2          1329.625
       249   03 Jun 2027 02:48:07.560   03 Jun 2027 02:48:37.394            29.834                Norilsk           932.313
       250   03 Jun 2027 02:49:19.061   03 Jun 2027 02:49:36.253            17.192                Norilsk           537.250
       251   03 Jun 2027 02:50:21.801   03 Jun 2027 02:51:25.438            63.637              Murmansk1          1988.656
       252   03 Jun 2027 02:51:48.246   03 Jun 2027 02:52:19.005            30.759              Murmansk1           961.219
       253   03 Jun 2027 02:53:38.485   03 Jun 2027 02:54:20.003            41.518                Irkutsk          1297.438
       254   03 Jun 2027 02:54:39.475   03 Jun 2027 02:54:43.801             4.326                Irkutsk           135.188
       255   03 Jun 2027 02:56:29.264   03 Jun 2027 02:56:31.438             2.174                Irkutsk            67.937
       256   03 Jun 2027 02:56:57.681   03 Jun 2027 02:57:46.174            48.493                Irkutsk          1515.406
       257   03 Jun 2027 03:01:14.020   03 Jun 2027 03:02:08.294            54.274                  Delhi          1696.063
       258   03 Jun 2027 04:33:26.148   03 Jun 2027 04:33:52.434            26.286                Novosib           821.438
       259   03 Jun 2027 04:34:10.301   03 Jun 2027 04:34:28.932            18.631                Novosib           582.219
       260   03 Jun 2027 04:35:53.812   03 Jun 2027 04:36:28.898            35.086              Murmansk2          1096.438
       261   03 Jun 2027 04:37:05.419   03 Jun 2027 04:39:06.600           121.181                 Moscow          3786.906
       262   03 Jun 2027 04:53:24.342   03 Jun 2027 04:56:02.221           157.879               CapeTown          4933.719
       263   03 Jun 2027 05:56:50.387   03 Jun 2027 05:57:36.279            45.892               Magadan2          1434.125
       264   03 Jun 2027 05:58:13.791   03 Jun 2027 06:00:46.354           152.563                Anadyr1          4767.594
       265   03 Jun 2027 07:33:26.011   03 Jun 2027 07:34:13.655            47.644                Anadyr1          1488.875
       266   03 Jun 2027 07:34:19.266   03 Jun 2027 07:34:19.824             0.558               Magadan2            17.437
       267   03 Jun 2027 07:34:56.542   03 Jun 2027 07:35:22.245            25.703               Magadan2           803.219
       268   03 Jun 2027 07:35:45.117   03 Jun 2027 07:36:22.866            37.749                Anadyr1          1179.656
       269   03 Jun 2027 07:36:32.530   03 Jun 2027 07:36:53.964            21.434               Magadan2           669.813
       270   03 Jun 2027 08:16:21.958   03 Jun 2027 08:17:08.317            46.359            RioGallegos          1448.719
       271   03 Jun 2027 09:07:04.842   03 Jun 2027 09:07:50.058            45.216               Magadan1          1413.000
       272   03 Jun 2027 09:08:17.873   03 Jun 2027 09:08:54.009            36.136               Magadan2          1129.250
       273   03 Jun 2027 09:09:03.270   03 Jun 2027 09:09:40.305            37.035               Magadan1          1157.344
       274   03 Jun 2027 09:10:21.242   03 Jun 2027 09:11:55.494            94.252                Anadyr1          2945.375
       275   03 Jun 2027 09:12:47.624   03 Jun 2027 09:12:56.139             8.515                Irkutsk           266.094
       276   03 Jun 2027 09:12:56.529   03 Jun 2027 09:13:09.153            12.624               Magadan1           394.500
       277   03 Jun 2027 09:13:49.343   03 Jun 2027 09:14:19.704            30.361               Magadan1           948.781
       278   03 Jun 2027 09:15:59.145   03 Jun 2027 09:16:43.084            43.939                Norilsk          1373.094
       279   03 Jun 2027 09:49:17.568   03 Jun 2027 09:49:59.987            42.419            RioGallegos          1325.594
       280   03 Jun 2027 09:55:24.748   03 Jun 2027 09:55:26.628             1.880            RioGallegos            58.750
       281   03 Jun 2027 10:25:48.821   03 Jun 2027 10:27:16.585            87.764                Sumatra          2742.625
       282   03 Jun 2027 10:47:06.045   03 Jun 2027 10:48:10.708            64.663                Irkutsk          2020.719
       283   03 Jun 2027 10:48:25.883   03 Jun 2027 10:48:33.593             7.710                Irkutsk           240.938
       284   03 Jun 2027 10:48:48.325   03 Jun 2027 10:49:34.236            45.911                Irkutsk          1434.719
       285   03 Jun 2027 10:49:38.739   03 Jun 2027 10:50:01.443            22.704              Murmansk1           709.500
       286   03 Jun 2027 10:50:06.117   03 Jun 2027 10:50:06.722             0.605                Irkutsk            18.906
       287   03 Jun 2027 10:50:16.005   03 Jun 2027 10:50:19.936             3.931                Novosib           122.844
       288   03 Jun 2027 11:25:46.377   03 Jun 2027 11:25:54.613             8.236            RioGallegos           257.375
       289   03 Jun 2027 11:26:34.194   03 Jun 2027 11:27:07.258            33.064            RioGallegos          1033.250
       290   03 Jun 2027 11:30:22.205   03 Jun 2027 11:30:29.874             7.669            RioGallegos           239.656
       291   03 Jun 2027 11:34:33.571   03 Jun 2027 11:35:17.088            43.517            RioGallegos          1359.906
       292   03 Jun 2027 12:02:08.243   03 Jun 2027 12:02:48.654            40.411                Sumatra          1262.844
       293   03 Jun 2027 12:05:42.504   03 Jun 2027 12:05:45.174             2.670                Sumatra            83.437
       294   03 Jun 2027 12:09:42.996   03 Jun 2027 12:10:05.271            22.275                  Delhi           696.094
       295   03 Jun 2027 12:14:59.247   03 Jun 2027 12:16:25.830            86.583                Novosib          2705.719
       296   03 Jun 2027 12:18:45.957   03 Jun 2027 12:19:40.868            54.911                Norilsk          1715.969
       297   03 Jun 2027 13:44:49.293   03 Jun 2027 13:45:56.504            67.211                  Delhi          2100.344
       298   03 Jun 2027 13:48:54.262   03 Jun 2027 13:49:56.550            62.288                  Delhi          1946.500
       299   03 Jun 2027 13:52:06.275   03 Jun 2027 13:52:59.415            53.140                  Delhi          1660.625
       300   03 Jun 2027 13:53:04.041   03 Jun 2027 13:54:56.249           112.208                Novosib          3506.500
       301   03 Jun 2027 13:56:55.195   03 Jun 2027 13:57:43.351            48.156                Norilsk          1504.875
       302   03 Jun 2027 14:00:02.161   03 Jun 2027 14:01:25.666            83.505                Norilsk          2609.531
       303   03 Jun 2027 15:28:33.846   03 Jun 2027 15:31:48.400           194.554                 Moscow          6079.813
       304   03 Jun 2027 15:32:37.757   03 Jun 2027 15:33:14.833            37.076              Murmansk1          1158.625
       305   03 Jun 2027 15:35:08.808   03 Jun 2027 15:35:19.022            10.214              Murmansk2           319.187
       306   03 Jun 2027 15:37:02.547   03 Jun 2027 15:37:22.961            20.414              Murmansk1           637.938
       307   03 Jun 2027 15:37:45.038   03 Jun 2027 15:40:56.761           191.723                Norilsk          5991.344
       308   03 Jun 2027 15:41:30.604   03 Jun 2027 15:42:19.335            48.731                Norilsk          1522.844
       309   03 Jun 2027 16:52:58.254   03 Jun 2027 16:53:31.246            32.992               CapeTown          1031.000
       310   03 Jun 2027 17:07:04.651   03 Jun 2027 17:07:21.098            16.447                 Moscow           513.969
       311   03 Jun 2027 17:09:38.198   03 Jun 2027 17:11:42.681           124.483                 Moscow          3890.094
       312   03 Jun 2027 17:19:15.025   03 Jun 2027 17:19:19.337             4.312              Murmansk2           134.750
       313   03 Jun 2027 17:22:49.225   03 Jun 2027 17:24:19.953            90.728                Anadyr1          2835.250
       314   03 Jun 2027 17:27:15.639   03 Jun 2027 17:27:44.985            29.346                Anadyr2           917.063
       315   03 Jun 2027 17:32:45.181   03 Jun 2027 17:33:31.674            46.493                Anadyr1          1452.906
       316   03 Jun 2027 18:23:03.949   03 Jun 2027 18:23:15.350            11.401               CapeTown           356.281
       317   03 Jun 2027 18:24:53.058   03 Jun 2027 18:25:52.352            59.294               CapeTown          1852.937
       318   03 Jun 2027 18:49:54.717   03 Jun 2027 18:53:56.357           241.640              Murmansk2          7551.250
       319   03 Jun 2027 18:53:56.357   03 Jun 2027 18:54:27.702            31.345              Murmansk1           979.531
       320   03 Jun 2027 19:01:26.201   03 Jun 2027 19:01:50.833            24.632               Magadan1           769.750
       321   03 Jun 2027 19:03:59.852   03 Jun 2027 19:04:45.604            45.752               Magadan2          1429.750
       322   03 Jun 2027 19:07:14.010   03 Jun 2027 19:07:36.208            22.198               Magadan2           693.687
       323   03 Jun 2027 20:34:29.350   03 Jun 2027 20:36:34.267           124.917                Anadyr2          3903.656
       324   03 Jun 2027 20:36:35.470   03 Jun 2027 20:37:44.469            68.999                Anadyr1          2156.219
       325   03 Jun 2027 20:37:57.964   03 Jun 2027 20:38:28.260            30.296               Magadan1           946.750
       326   03 Jun 2027 20:38:32.542   03 Jun 2027 20:39:54.036            81.494               Magadan2          2546.688
       327   03 Jun 2027 20:40:08.826   03 Jun 2027 20:41:06.147            57.321               Magadan2          1791.281
       328   03 Jun 2027 20:41:22.388   03 Jun 2027 20:41:33.025            10.637               Magadan2           332.406
       329   03 Jun 2027 20:42:22.970   03 Jun 2027 20:43:42.147            79.177               Magadan2          2474.281
       330   03 Jun 2027 21:29:55.302   03 Jun 2027 21:32:35.693           160.391            RioGallegos          5012.219
       331   03 Jun 2027 22:10:16.034   03 Jun 2027 22:12:28.952           132.918                Anadyr1          4153.688
       332   03 Jun 2027 22:12:37.898   03 Jun 2027 22:13:57.613            79.715                Norilsk          2491.094
       333   03 Jun 2027 22:15:00.641   03 Jun 2027 22:15:19.420            18.779               Magadan2           586.844
       334   03 Jun 2027 22:15:56.992   03 Jun 2027 22:16:03.244             6.252                Norilsk           195.375
       335   03 Jun 2027 22:17:01.945   03 Jun 2027 22:19:15.575           133.630                Irkutsk          4175.938
       336   03 Jun 2027 22:31:28.726   03 Jun 2027 22:32:20.953            52.227                Sumatra          1632.094
       337   03 Jun 2027 22:35:59.652   03 Jun 2027 22:36:30.643            30.991                Sumatra           968.469
       338   03 Jun 2027 22:41:37.152   03 Jun 2027 22:41:45.328             8.176                Sumatra           255.500
       339   03 Jun 2027 23:16:11.982   03 Jun 2027 23:16:57.609            45.627            RioGallegos          1425.844
       340   03 Jun 2027 23:45:24.977   03 Jun 2027 23:45:37.823            12.846                Anadyr1           401.438
       341   03 Jun 2027 23:45:59.224   03 Jun 2027 23:47:43.013           103.789                Anadyr1          3243.406
       342   03 Jun 2027 23:48:13.449   03 Jun 2027 23:49:59.342           105.893                Norilsk          3309.156
       343   03 Jun 2027 23:50:15.944   03 Jun 2027 23:50:34.700            18.756               Magadan2           586.125
       344   03 Jun 2027 23:52:06.632   03 Jun 2027 23:52:52.533            45.901                Irkutsk          1434.406
       345   03 Jun 2027 23:53:05.213   03 Jun 2027 23:54:02.971            57.758                Irkutsk          1804.937
       346   03 Jun 2027 23:54:51.537   03 Jun 2027 23:55:07.994            16.457                Novosib           514.281
       347   04 Jun 2027 00:01:34.929   04 Jun 2027 00:04:14.337           159.408                  Delhi          4981.500
       348   04 Jun 2027 00:51:43.090   04 Jun 2027 00:51:49.244             6.154            RioGallegos           192.313
       349   04 Jun 2027 01:19:21.763   04 Jun 2027 01:20:13.321            51.558                Anadyr2          1611.187
       350   04 Jun 2027 01:20:13.321   04 Jun 2027 01:20:44.510            31.189                Anadyr1           974.656
       351   04 Jun 2027 01:21:08.715   04 Jun 2027 01:21:34.700            25.985                Anadyr1           812.031
       352   04 Jun 2027 01:24:14.169   04 Jun 2027 01:24:21.998             7.829                Norilsk           244.656
       353   04 Jun 2027 01:24:46.183   04 Jun 2027 01:25:10.690            24.507                Anadyr1           765.844
       354   04 Jun 2027 01:25:28.950   04 Jun 2027 01:26:16.771            47.821                Norilsk          1494.406
       355   04 Jun 2027 01:26:36.802   04 Jun 2027 01:27:17.006            40.204               Magadan1          1256.375
       356   04 Jun 2027 01:27:17.006   04 Jun 2027 01:27:40.167            23.161               Magadan2           723.781
       357   04 Jun 2027 01:27:53.008   04 Jun 2027 01:28:10.746            17.738              Murmansk1           554.312
       358   04 Jun 2027 01:28:12.318   04 Jun 2027 01:29:51.418            99.100                Novosib          3096.875
       359   04 Jun 2027 01:29:58.031   04 Jun 2027 01:30:17.837            19.806              Murmansk2           618.938
       360   04 Jun 2027 01:33:37.389   04 Jun 2027 01:33:50.602            13.213                Novosib           412.906
       361   04 Jun 2027 01:35:14.922   04 Jun 2027 01:37:05.431           110.509                Novosib          3453.406
       362   04 Jun 2027 02:17:40.438   04 Jun 2027 02:18:46.904            66.466            RioGallegos          2077.063
       363   04 Jun 2027 02:19:06.720   04 Jun 2027 02:19:15.723             9.003            RioGallegos           281.344
       364   04 Jun 2027 02:19:55.768   04 Jun 2027 02:20:15.515            19.747            RioGallegos           617.094
       365   04 Jun 2027 02:21:28.558   04 Jun 2027 02:22:07.488            38.930            RioGallegos          1216.563
       366   04 Jun 2027 02:52:38.529   04 Jun 2027 02:52:41.892             3.363                Anadyr2           105.094
       367   04 Jun 2027 02:53:02.574   04 Jun 2027 02:53:29.489            26.915                Anadyr1           841.094
       368   04 Jun 2027 02:53:45.231   04 Jun 2027 02:53:59.480            14.249                Anadyr1           445.281
       369   04 Jun 2027 02:58:31.846   04 Jun 2027 02:59:25.825            53.979               Magadan1          1686.844
       370   04 Jun 2027 03:07:19.963   04 Jun 2027 03:07:59.713            39.750                Irkutsk          1242.188
       371   04 Jun 2027 03:08:14.932   04 Jun 2027 03:08:56.979            42.047                Norilsk          1313.969
       372   04 Jun 2027 03:09:07.292   04 Jun 2027 03:09:36.145            28.853                Irkutsk           901.656
       373   04 Jun 2027 03:09:43.237   04 Jun 2027 03:09:56.378            13.141                Novosib           410.656
       374   04 Jun 2027 03:10:25.322   04 Jun 2027 03:11:38.780            73.458              Murmansk2          2295.563
       375   04 Jun 2027 03:11:50.536   04 Jun 2027 03:13:07.507            76.971                Novosib          2405.344
       376   04 Jun 2027 03:13:09.493   04 Jun 2027 03:13:49.585            40.092                 Moscow          1252.875
       377   04 Jun 2027 03:14:19.235   04 Jun 2027 03:15:34.548            75.313                  Delhi          2353.531
       378   04 Jun 2027 03:17:54.786   04 Jun 2027 03:18:29.878            35.092                  Delhi          1096.625
       379   04 Jun 2027 04:26:38.610   04 Jun 2027 04:27:28.631            50.021                Anadyr1          1563.156
       380   04 Jun 2027 04:46:09.293   04 Jun 2027 04:46:32.884            23.591                Novosib           737.219
       381   04 Jun 2027 04:48:25.137   04 Jun 2027 04:49:09.267            44.130                 Moscow          1379.062
       382   04 Jun 2027 05:05:29.836   04 Jun 2027 05:05:48.051            18.215               CapeTown           569.219
       383   04 Jun 2027 05:06:21.827   04 Jun 2027 05:07:48.002            86.175               CapeTown          2692.969
       384   04 Jun 2027 06:02:16.714   04 Jun 2027 06:03:09.722            53.008                Anadyr1          1656.500
       385   04 Jun 2027 06:03:09.722   04 Jun 2027 06:03:46.803            37.081                Anadyr2          1158.781
       386   04 Jun 2027 06:03:50.353   04 Jun 2027 06:04:56.631            66.278               Magadan1          2071.187
       387   04 Jun 2027 06:08:01.737   04 Jun 2027 06:09:31.086            89.349                Anadyr2          2792.156
       388   04 Jun 2027 06:10:05.999   04 Jun 2027 06:10:28.648            22.649               Magadan2           707.781
       389   04 Jun 2027 06:10:37.113   04 Jun 2027 06:11:16.041            38.928                Anadyr2          1216.500
       390   04 Jun 2027 06:11:16.041   04 Jun 2027 06:11:21.393             5.352                Anadyr1           167.250
       391   04 Jun 2027 06:11:34.522   04 Jun 2027 06:12:17.166            42.644               Magadan2          1332.625
       392   04 Jun 2027 07:44:50.765   04 Jun 2027 07:45:02.124            11.359               Magadan2           354.969
       393   04 Jun 2027 07:45:06.982   04 Jun 2027 07:45:26.699            19.717                Anadyr2           616.156
       394   04 Jun 2027 07:45:26.699   04 Jun 2027 07:45:27.733             1.034                Anadyr1            32.312
       395   04 Jun 2027 07:45:55.412   04 Jun 2027 07:46:08.557            13.145               Magadan2           410.781
       396   04 Jun 2027 07:46:14.699   04 Jun 2027 07:46:58.624            43.925               Magadan2          1372.656
       397   04 Jun 2027 07:47:06.629   04 Jun 2027 07:47:26.168            19.539               Magadan1           610.594
       398   04 Jun 2027 07:47:47.600   04 Jun 2027 07:48:14.208            26.608                Anadyr2           831.500
       399   04 Jun 2027 07:48:31.732   04 Jun 2027 07:48:56.935            25.203               Magadan2           787.594
       400   04 Jun 2027 08:27:48.093   04 Jun 2027 08:28:18.345            30.252            RioGallegos           945.375
       401   04 Jun 2027 09:20:10.044   04 Jun 2027 09:20:27.013            16.969               Magadan1           530.281
       402   04 Jun 2027 09:20:42.844   04 Jun 2027 09:21:05.069            22.225               Magadan2           694.531
       403   04 Jun 2027 09:21:48.727   04 Jun 2027 09:22:23.443            34.716               Magadan1          1084.875
       404   04 Jun 2027 09:22:43.246   04 Jun 2027 09:23:20.271            37.025               Magadan1          1157.031
       405   04 Jun 2027 09:23:27.084   04 Jun 2027 09:24:54.859            87.775               Magadan1          2742.969
       406   04 Jun 2027 09:25:25.969   04 Jun 2027 09:25:35.812             9.843               Magadan2           307.594
       407   04 Jun 2027 09:26:04.200   04 Jun 2027 09:26:14.829            10.629               Magadan1           332.156
       408   04 Jun 2027 09:27:57.703   04 Jun 2027 09:28:00.033             2.330                Norilsk            72.812
       409   04 Jun 2027 10:01:11.365   04 Jun 2027 10:02:15.617            64.252            RioGallegos          2007.875
       410   04 Jun 2027 10:03:04.674   04 Jun 2027 10:03:20.892            16.218            RioGallegos           506.813
       411   04 Jun 2027 10:37:11.674   04 Jun 2027 10:37:45.545            33.871                Sumatra          1058.469
       412   04 Jun 2027 10:46:00.674   04 Jun 2027 10:46:24.079            23.405                Sumatra           731.406
       413   04 Jun 2027 10:57:27.936   04 Jun 2027 10:57:44.354            16.418                Irkutsk           513.062
       414   04 Jun 2027 10:58:07.645   04 Jun 2027 10:58:40.679            33.034                Irkutsk          1032.312
       415   04 Jun 2027 10:59:09.453   04 Jun 2027 11:00:07.248            57.795                Irkutsk          1806.094
       416   04 Jun 2027 11:00:18.190   04 Jun 2027 11:00:20.959             2.769                Norilsk            86.531
       417   04 Jun 2027 11:00:32.144   04 Jun 2027 11:01:25.405            53.261                Irkutsk          1664.406
       418   04 Jun 2027 11:01:31.928   04 Jun 2027 11:01:42.529            10.601                Norilsk           331.281
       419   04 Jun 2027 11:01:50.985   04 Jun 2027 11:01:52.356             1.371                Novosib            42.844
       420   04 Jun 2027 11:01:54.242   04 Jun 2027 11:02:25.317            31.075                Irkutsk           971.094
       421   04 Jun 2027 11:38:09.770   04 Jun 2027 11:38:29.787            20.017            RioGallegos           625.531
       422   04 Jun 2027 11:40:16.543   04 Jun 2027 11:41:08.746            52.203            RioGallegos          1631.344
       423   04 Jun 2027 12:12:25.310   04 Jun 2027 12:12:56.857            31.547                Sumatra           985.844
       424   04 Jun 2027 12:20:38.215   04 Jun 2027 12:22:22.218           104.003                  Delhi          3250.094
       425   04 Jun 2027 12:27:36.608   04 Jun 2027 12:28:05.285            28.677                Irkutsk           896.156
       426   04 Jun 2027 12:28:27.486   04 Jun 2027 12:28:30.198             2.712                Novosib            84.750
       427   04 Jun 2027 12:29:28.554   04 Jun 2027 12:29:29.323             0.769                Irkutsk            24.031
       428   04 Jun 2027 12:30:03.864   04 Jun 2027 12:30:30.238            26.374                Novosib           824.188
       429   04 Jun 2027 12:40:55.907   04 Jun 2027 12:41:18.583            22.676                Norilsk           708.625
       430   04 Jun 2027 13:57:19.245   04 Jun 2027 14:00:35.736           196.491                  Delhi          6140.344
       431   04 Jun 2027 14:01:23.688   04 Jun 2027 14:02:30.227            66.539                  Delhi          2079.344
       432   04 Jun 2027 14:05:42.773   04 Jun 2027 14:07:01.682            78.909                Novosib          2465.906
       433   04 Jun 2027 14:08:06.905   04 Jun 2027 14:10:39.402           152.497                Novosib          4765.531
       434   04 Jun 2027 15:40:41.661   04 Jun 2027 15:42:39.468           117.807                 Moscow          3681.469
       435   04 Jun 2027 15:44:12.984   04 Jun 2027 15:45:31.030            78.046              Murmansk1          2438.937
       436   04 Jun 2027 15:45:36.522   04 Jun 2027 15:46:03.260            26.738              Murmansk2           835.562
       437   04 Jun 2027 15:50:48.234   04 Jun 2027 15:52:26.655            98.421                Norilsk          3075.656
       438   04 Jun 2027 15:53:22.237   04 Jun 2027 15:54:14.296            52.059                Norilsk          1626.844
       439   04 Jun 2027 16:00:16.166   04 Jun 2027 16:00:19.832             3.666                Anadyr2           114.562
       440   04 Jun 2027 16:00:36.887   04 Jun 2027 16:00:40.178             3.291                Anadyr2           102.844
       441   04 Jun 2027 16:00:54.456   04 Jun 2027 16:01:07.619            13.163                Anadyr1           411.344
       442   04 Jun 2027 16:54:15.291   04 Jun 2027 16:54:50.032            34.741               CapeTown          1085.656
       443   04 Jun 2027 16:58:27.435   04 Jun 2027 17:00:24.451           117.016               CapeTown          3656.750
       444   04 Jun 2027 17:22:06.789   04 Jun 2027 17:22:49.779            42.990              Murmansk2          1343.438
       445   04 Jun 2027 17:23:46.038   04 Jun 2027 17:24:37.373            51.335                 Moscow          1604.219
       446   04 Jun 2027 17:31:10.939   04 Jun 2027 17:31:56.075            45.136              Murmansk1          1410.500
       447   04 Jun 2027 17:34:47.447   04 Jun 2027 17:35:55.663            68.216                Anadyr1          2131.750
       448   04 Jun 2027 17:41:20.797   04 Jun 2027 17:41:41.085            20.288                Anadyr2           634.000
       449   04 Jun 2027 18:30:34.816   04 Jun 2027 18:30:53.701            18.885               CapeTown           590.156
       450   04 Jun 2027 18:31:25.938   04 Jun 2027 18:31:54.572            28.634               CapeTown           894.812
       451   04 Jun 2027 18:35:34.206   04 Jun 2027 18:36:06.007            31.801               CapeTown           993.781
       452   04 Jun 2027 19:02:46.956   04 Jun 2027 19:08:07.084           320.128              Murmansk1         10004.000
       453   04 Jun 2027 19:13:18.607   04 Jun 2027 19:13:49.605            30.998               Magadan2           968.687
       454   04 Jun 2027 19:14:15.089   04 Jun 2027 19:14:18.959             3.870               Magadan2           120.938
       455   04 Jun 2027 19:16:47.973   04 Jun 2027 19:17:06.709            18.736               Magadan1           585.500
       456   04 Jun 2027 19:18:36.812   04 Jun 2027 19:18:44.936             8.124               Magadan2           253.875
       457   04 Jun 2027 19:19:46.238   04 Jun 2027 19:20:34.433            48.195               Magadan2          1506.094
       458   04 Jun 2027 20:46:30.710   04 Jun 2027 20:48:36.073           125.363                Anadyr2          3917.594
       459   04 Jun 2027 20:48:47.026   04 Jun 2027 20:52:30.754           223.728               Magadan2          6991.500
       460   04 Jun 2027 21:00:17.556   04 Jun 2027 21:01:08.649            51.093               Magadan2          1596.656
       461   04 Jun 2027 21:41:30.487   04 Jun 2027 21:43:53.054           142.567            RioGallegos          4455.219
       462   04 Jun 2027 21:44:19.894   04 Jun 2027 21:44:37.118            17.224            RioGallegos           538.250
       463   04 Jun 2027 21:47:05.843   04 Jun 2027 21:48:01.647            55.804            RioGallegos          1743.875
       464   04 Jun 2027 22:22:14.550   04 Jun 2027 22:22:33.096            18.546                Anadyr2           579.562
       465   04 Jun 2027 22:24:22.070   04 Jun 2027 22:25:57.511            95.441                Norilsk          2982.531
       466   04 Jun 2027 22:26:19.239   04 Jun 2027 22:26:37.272            18.033               Magadan2           563.531
       467   04 Jun 2027 22:26:56.037   04 Jun 2027 22:27:19.329            23.292               Magadan1           727.875
       468   04 Jun 2027 22:27:22.187   04 Jun 2027 22:27:25.925             3.738                Norilsk           116.813
       469   04 Jun 2027 22:27:53.951   04 Jun 2027 22:28:03.837             9.886                Norilsk           308.937
       470   04 Jun 2027 22:28:39.941   04 Jun 2027 22:28:47.505             7.564               Magadan2           236.375
       471   04 Jun 2027 22:28:49.701   04 Jun 2027 22:29:54.954            65.253                Irkutsk          2039.156
       472   04 Jun 2027 22:31:10.346   04 Jun 2027 22:31:24.101            13.755                Irkutsk           429.844
       473   04 Jun 2027 22:34:23.595   04 Jun 2027 22:35:03.085            39.490                Irkutsk          1234.062
       474   04 Jun 2027 22:42:57.196   04 Jun 2027 22:45:56.846           179.650                Sumatra          5614.062
       475   04 Jun 2027 23:57:15.882   04 Jun 2027 23:57:55.994            40.112                Anadyr2          1253.500
       476   04 Jun 2027 23:59:35.970   04 Jun 2027 23:59:57.131            21.161                Anadyr1           661.281
       477   05 Jun 2027 00:00:15.548   05 Jun 2027 00:02:01.313           105.765                Norilsk          3305.156
       478   05 Jun 2027 00:03:49.544   05 Jun 2027 00:04:07.037            17.493               Magadan1           546.656
       479   05 Jun 2027 00:04:07.742   05 Jun 2027 00:05:35.106            87.364                Irkutsk          2730.125
       480   05 Jun 2027 00:05:35.851   05 Jun 2027 00:05:58.186            22.335                Novosib           697.969
       481   05 Jun 2027 00:07:01.817   05 Jun 2027 00:07:06.240             4.423                Novosib           138.219
       482   05 Jun 2027 00:07:15.166   05 Jun 2027 00:09:05.464           110.298                Novosib          3446.812
