uniorb/output/strategy_4/Drop/Drop_KinoSat_110902.txt

KinoSat_110902
-------------------------
    Access    *     Start Time (UTCG)     *     Stop Time (UTCG)  *   Duration (s)        *       Station  *  Data (Mbytes)
         1   01 Jun 2027 04:02:21.362   01 Jun 2027 04:03:47.717            86.355               Magadan2          2698.594
         2   01 Jun 2027 04:03:47.717   01 Jun 2027 04:06:34.719           167.002               Magadan1          5218.813
         3   01 Jun 2027 04:06:45.248   01 Jun 2027 04:06:50.606             5.358                Anadyr2           167.438
         4   01 Jun 2027 05:38:08.425   01 Jun 2027 05:39:40.690            92.265               Magadan1          2883.281
         5   01 Jun 2027 05:39:40.690   01 Jun 2027 05:40:07.460            26.770               Magadan2           836.563
         6   01 Jun 2027 05:40:30.946   01 Jun 2027 05:42:24.408           113.462                Anadyr1          3545.688
         7   01 Jun 2027 06:23:15.965   01 Jun 2027 06:24:13.987            58.022            RioGallegos          1813.188
         8   01 Jun 2027 07:13:04.978   01 Jun 2027 07:13:58.880            53.902               Magadan2          1684.438
         9   01 Jun 2027 07:14:00.952   01 Jun 2027 07:14:24.998            24.046                Irkutsk           751.437
        10   01 Jun 2027 07:14:29.156   01 Jun 2027 07:17:21.302           172.146               Magadan2          5379.562
        11   01 Jun 2027 07:17:31.857   01 Jun 2027 07:19:03.454            91.597              Murmansk2          2862.406
        12   01 Jun 2027 07:19:05.634   01 Jun 2027 07:19:22.045            16.411                Novosib           512.844
        13   01 Jun 2027 07:53:44.669   01 Jun 2027 07:54:36.940            52.271            RioGallegos          1633.469
        14   01 Jun 2027 08:28:09.811   01 Jun 2027 08:30:44.069           154.258                Sumatra          4820.562
        15   01 Jun 2027 08:50:16.553   01 Jun 2027 08:51:16.599            60.046                Irkutsk          1876.437
        16   01 Jun 2027 08:51:47.986   01 Jun 2027 08:52:39.922            51.936                Novosib          1623.000
        17   01 Jun 2027 08:52:41.700   01 Jun 2027 08:54:10.367            88.667                Irkutsk          2770.844
        18   01 Jun 2027 08:54:28.016   01 Jun 2027 08:54:47.162            19.146                Novosib           598.312
        19   01 Jun 2027 08:54:58.053   01 Jun 2027 08:55:41.038            42.985              Murmansk1          1343.281
        20   01 Jun 2027 09:31:10.335   01 Jun 2027 09:32:31.035            80.700            RioGallegos          2521.875
        21   01 Jun 2027 10:05:25.218   01 Jun 2027 10:07:54.531           149.313                Sumatra          4666.031
        22   01 Jun 2027 10:26:47.744   01 Jun 2027 10:27:53.346            65.602                Irkutsk          2050.062
        23   01 Jun 2027 10:29:12.674   01 Jun 2027 10:31:12.882           120.208                Norilsk          3756.500
        24   01 Jun 2027 11:52:38.612   01 Jun 2027 11:54:47.803           129.191                  Delhi          4037.219
        25   01 Jun 2027 12:11:02.038   01 Jun 2027 12:11:03.501             1.463                Norilsk            45.719
        26   01 Jun 2027 13:15:39.946   01 Jun 2027 13:18:25.765           165.819               CapeTown          5181.844
        27   01 Jun 2027 13:45:26.334   01 Jun 2027 13:45:37.412            11.078              Murmansk2           346.188
        28   01 Jun 2027 13:46:09.274   01 Jun 2027 13:47:08.404            59.130              Murmansk1          1847.813
        29   01 Jun 2027 13:47:08.404   01 Jun 2027 13:47:26.932            18.528              Murmansk2           579.000
        30   01 Jun 2027 13:48:22.358   01 Jun 2027 13:48:39.660            17.302              Murmansk2           540.688
        31   01 Jun 2027 13:52:10.635   01 Jun 2027 13:52:52.175            41.540                Anadyr2          1298.125
        32   01 Jun 2027 13:53:35.807   01 Jun 2027 13:55:01.084            85.277                Anadyr2          2664.906
        33   01 Jun 2027 13:55:40.878   01 Jun 2027 13:56:09.596            28.718                Anadyr1           897.438
        34   01 Jun 2027 13:57:29.194   01 Jun 2027 13:57:35.278             6.084                Anadyr2           190.125
        35   01 Jun 2027 13:57:56.989   01 Jun 2027 13:58:51.116            54.127                Anadyr1          1691.469
        36   01 Jun 2027 15:20:50.991   01 Jun 2027 15:21:01.665            10.674              Murmansk2           333.563
        37   01 Jun 2027 15:21:53.691   01 Jun 2027 15:22:35.140            41.449              Murmansk1          1295.281
        38   01 Jun 2027 15:22:48.001   01 Jun 2027 15:22:55.250             7.249              Murmansk2           226.531
        39   01 Jun 2027 15:23:19.971   01 Jun 2027 15:24:36.494            76.523              Murmansk2          2391.344
        40   01 Jun 2027 15:30:35.299   01 Jun 2027 15:31:04.396            29.097                Anadyr1           909.281
        41   01 Jun 2027 15:31:24.951   01 Jun 2027 15:33:43.137           138.186               Magadan1          4318.313
        42   01 Jun 2027 15:33:43.137   01 Jun 2027 15:34:20.366            37.229               Magadan2          1163.406
        43   01 Jun 2027 17:02:25.027   01 Jun 2027 17:04:03.080            98.053                Anadyr2          3064.156
        44   01 Jun 2027 17:04:29.359   01 Jun 2027 17:04:58.157            28.798                Anadyr2           899.937
        45   01 Jun 2027 17:05:37.744   01 Jun 2027 17:06:32.086            54.342               Magadan1          1698.188
        46   01 Jun 2027 17:08:09.052   01 Jun 2027 17:08:18.562             9.510                Anadyr1           297.187
        47   01 Jun 2027 17:08:49.813   01 Jun 2027 17:08:54.434             4.621                Anadyr2           144.406
        48   01 Jun 2027 17:09:32.766   01 Jun 2027 17:10:07.083            34.317               Magadan1          1072.406
        49   01 Jun 2027 17:10:43.405   01 Jun 2027 17:10:58.633            15.228               Magadan2           475.875
        50   01 Jun 2027 17:11:18.980   01 Jun 2027 17:11:20.251             1.271                Anadyr2            39.719
        51   01 Jun 2027 17:11:26.644   01 Jun 2027 17:11:47.372            20.728               Magadan1           647.750
        52   01 Jun 2027 17:11:47.372   01 Jun 2027 17:11:55.497             8.125               Magadan2           253.906
        53   01 Jun 2027 17:12:05.273   01 Jun 2027 17:12:12.750             7.477               Magadan2           233.656
        54   01 Jun 2027 17:13:06.787   01 Jun 2027 17:13:31.943            25.156               Magadan2           786.125
        55   01 Jun 2027 17:14:27.833   01 Jun 2027 17:15:07.139            39.306               Magadan1          1228.313
        56   01 Jun 2027 17:16:12.319   01 Jun 2027 17:16:19.269             6.950               Magadan1           217.188
        57   01 Jun 2027 18:38:19.120   01 Jun 2027 18:40:02.758           103.638                Anadyr2          3238.687
        58   01 Jun 2027 18:40:22.830   01 Jun 2027 18:41:06.848            44.018                Anadyr1          1375.563
        59   01 Jun 2027 18:41:15.302   01 Jun 2027 18:41:22.456             7.154                Anadyr1           223.562
        60   01 Jun 2027 18:41:27.664   01 Jun 2027 18:42:00.114            32.450                Anadyr1          1014.063
        61   01 Jun 2027 18:42:04.200   01 Jun 2027 18:42:34.084            29.884               Magadan1           933.875
        62   01 Jun 2027 18:43:13.286   01 Jun 2027 18:44:34.433            81.147                Norilsk          2535.844
        63   01 Jun 2027 18:47:49.767   01 Jun 2027 18:48:48.328            58.561               Magadan1          1830.031
        64   01 Jun 2027 18:50:38.592   01 Jun 2027 18:50:59.989            21.397               Magadan1           668.656
        65   01 Jun 2027 18:52:26.196   01 Jun 2027 18:52:46.322            20.126               Magadan2           628.937
        66   01 Jun 2027 18:53:18.608   01 Jun 2027 18:53:30.634            12.026               Magadan1           375.812
        67   01 Jun 2027 19:33:34.987   01 Jun 2027 19:34:42.511            67.524            RioGallegos          2110.125
        68   01 Jun 2027 19:35:45.535   01 Jun 2027 19:36:20.706            35.171            RioGallegos          1099.094
        69   01 Jun 2027 19:37:55.380   01 Jun 2027 19:38:22.546            27.166            RioGallegos           848.938
        70   01 Jun 2027 19:38:49.700   01 Jun 2027 19:38:50.810             1.110            RioGallegos            34.688
        71   01 Jun 2027 19:39:35.163   01 Jun 2027 19:40:24.818            49.655            RioGallegos          1551.719
        72   01 Jun 2027 19:42:24.090   01 Jun 2027 19:43:34.744            70.654            RioGallegos          2207.937
        73   01 Jun 2027 20:17:09.855   01 Jun 2027 20:18:02.508            52.653                Norilsk          1645.406
        74   01 Jun 2027 20:20:20.001   01 Jun 2027 20:21:29.602            69.601                Irkutsk          2175.031
        75   01 Jun 2027 20:21:42.841   01 Jun 2027 20:21:49.387             6.546                Norilsk           204.563
        76   01 Jun 2027 20:22:10.247   01 Jun 2027 20:25:02.029           171.782                Novosib          5368.187
        77   01 Jun 2027 20:25:37.227   01 Jun 2027 20:27:03.052            85.825                Novosib          2682.031
        78   01 Jun 2027 20:40:14.384   01 Jun 2027 20:41:03.271            48.887                Sumatra          1527.719
        79   01 Jun 2027 20:43:31.572   01 Jun 2027 20:44:31.851            60.279                Sumatra          1883.719
        80   01 Jun 2027 21:53:03.363   01 Jun 2027 21:53:42.742            39.379               Magadan2          1230.594
        81   01 Jun 2027 21:54:55.818   01 Jun 2027 21:55:08.873            13.055                Norilsk           407.969
        82   01 Jun 2027 21:55:29.982   01 Jun 2027 21:55:45.591            15.609                Norilsk           487.781
        83   01 Jun 2027 21:55:59.690   01 Jun 2027 21:56:30.381            30.691                Irkutsk           959.094
        84   01 Jun 2027 21:58:24.016   01 Jun 2027 21:58:34.825            10.809                Novosib           337.781
        85   01 Jun 2027 21:59:26.083   01 Jun 2027 21:59:58.920            32.837                Irkutsk          1026.156
        86   01 Jun 2027 22:01:34.225   01 Jun 2027 22:01:45.921            11.696                Irkutsk           365.500
        87   01 Jun 2027 22:02:01.013   01 Jun 2027 22:02:12.839            11.826                Novosib           369.563
        88   01 Jun 2027 22:03:12.833   01 Jun 2027 22:03:28.940            16.107                Novosib           503.344
        89   01 Jun 2027 22:03:51.120   01 Jun 2027 22:05:08.019            76.899                  Delhi          2403.094
        90   01 Jun 2027 22:05:39.750   01 Jun 2027 22:07:25.724           105.974                  Delhi          3311.687
        91   01 Jun 2027 22:12:22.313   01 Jun 2027 22:13:14.628            52.315                  Delhi          1634.844
        92   01 Jun 2027 23:23:41.091   01 Jun 2027 23:24:07.204            26.113                Anadyr1           816.031
        93   01 Jun 2027 23:27:28.164   01 Jun 2027 23:27:41.097            12.933                Anadyr1           404.156
        94   01 Jun 2027 23:27:59.098   01 Jun 2027 23:28:01.642             2.544                Anadyr2            79.500
        95   01 Jun 2027 23:28:06.615   01 Jun 2027 23:28:23.111            16.496                Norilsk           515.500
        96   01 Jun 2027 23:28:33.257   01 Jun 2027 23:30:08.790            95.533               Magadan1          2985.406
        97   01 Jun 2027 23:30:28.616   01 Jun 2027 23:34:55.157           266.541              Murmansk2          8329.406
        98   01 Jun 2027 23:35:52.018   01 Jun 2027 23:36:37.527            45.509                 Moscow          1422.156
        99   01 Jun 2027 23:39:23.000   01 Jun 2027 23:40:27.282            64.282                 Moscow          2008.813
       100   02 Jun 2027 00:55:33.318   02 Jun 2027 00:55:33.773             0.455                Anadyr1            14.219
       101   02 Jun 2027 00:56:44.780   02 Jun 2027 00:57:10.852            26.072                Anadyr2           814.750
       102   02 Jun 2027 00:57:34.286   02 Jun 2027 00:57:58.479            24.193                Anadyr2           756.031
       103   02 Jun 2027 00:58:20.371   02 Jun 2027 00:58:59.216            38.845                Anadyr2          1213.906
       104   02 Jun 2027 01:00:33.492   02 Jun 2027 01:02:33.278           119.786               Magadan1          3743.312
       105   02 Jun 2027 01:03:53.421   02 Jun 2027 01:03:55.771             2.350                Norilsk            73.438
       106   02 Jun 2027 01:04:05.899   02 Jun 2027 01:04:37.353            31.454               Magadan2           982.938
       107   02 Jun 2027 01:06:14.696   02 Jun 2027 01:07:23.358            68.662              Murmansk1          2145.687
       108   02 Jun 2027 01:07:37.588   02 Jun 2027 01:07:57.989            20.401              Murmansk1           637.531
       109   02 Jun 2027 01:08:33.700   02 Jun 2027 01:08:46.655            12.955              Murmansk2           404.844
       110   02 Jun 2027 01:09:40.194   02 Jun 2027 01:10:37.079            56.885                 Moscow          1777.656
       111   02 Jun 2027 01:17:12.280   02 Jun 2027 01:17:22.996            10.716                 Moscow           334.875
       112   02 Jun 2027 01:18:00.199   02 Jun 2027 01:18:08.374             8.175              Murmansk1           255.469
       113   02 Jun 2027 01:19:01.323   02 Jun 2027 01:19:08.676             7.353                 Moscow           229.781
       114   02 Jun 2027 01:21:00.301   02 Jun 2027 01:21:14.136            13.835                 Moscow           432.344
       115   02 Jun 2027 01:21:50.132   02 Jun 2027 01:22:04.505            14.373                 Moscow           449.156
       116   02 Jun 2027 01:37:19.916   02 Jun 2027 01:37:25.500             5.584               CapeTown           174.500
       117   02 Jun 2027 01:37:55.604   02 Jun 2027 01:38:56.461            60.857               CapeTown          1901.781
       118   02 Jun 2027 01:44:26.652   02 Jun 2027 01:44:41.946            15.294               CapeTown           477.938
       119   02 Jun 2027 02:30:09.027   02 Jun 2027 02:31:55.531           106.504                Anadyr2          3328.250
       120   02 Jun 2027 02:32:06.290   02 Jun 2027 02:32:13.765             7.475                Anadyr1           233.594
       121   02 Jun 2027 02:32:27.611   02 Jun 2027 02:33:22.941            55.330               Magadan1          1729.063
       122   02 Jun 2027 02:34:54.912   02 Jun 2027 02:35:04.348             9.436               Magadan1           294.875
       123   02 Jun 2027 02:36:16.709   02 Jun 2027 02:36:32.975            16.266               Magadan2           508.313
       124   02 Jun 2027 02:37:04.499   02 Jun 2027 02:37:11.262             6.763               Magadan2           211.344
       125   02 Jun 2027 02:37:11.262   02 Jun 2027 02:37:26.443            15.181               Magadan1           474.406
       126   02 Jun 2027 02:39:04.981   02 Jun 2027 02:39:57.986            53.005               Magadan2          1656.406
       127   02 Jun 2027 02:41:49.424   02 Jun 2027 02:42:17.605            28.181                Norilsk           880.656
       128   02 Jun 2027 02:42:19.768   02 Jun 2027 02:43:13.972            54.204              Murmansk1          1693.875
       129   02 Jun 2027 02:46:08.102   02 Jun 2027 02:46:17.699             9.597              Murmansk1           299.906
       130   02 Jun 2027 02:48:24.274   02 Jun 2027 02:48:57.386            33.112                 Moscow          1034.750
       131   02 Jun 2027 02:50:56.365   02 Jun 2027 02:51:46.153            49.788                 Moscow          1555.875
       132   02 Jun 2027 03:13:37.438   02 Jun 2027 03:14:12.928            35.490               CapeTown          1109.062
       133   02 Jun 2027 03:16:20.706   02 Jun 2027 03:16:30.347             9.641               CapeTown           301.281
       134   02 Jun 2027 04:11:23.765   02 Jun 2027 04:12:56.703            92.938                Anadyr2          2904.312
       135   02 Jun 2027 04:13:01.143   02 Jun 2027 04:14:57.702           116.559                Anadyr2          3642.469
       136   02 Jun 2027 04:15:21.825   02 Jun 2027 04:17:23.812           121.987                Anadyr1          3812.094
       137   02 Jun 2027 04:17:47.212   02 Jun 2027 04:18:05.064            17.852               Magadan1           557.875
       138   02 Jun 2027 04:18:32.273   02 Jun 2027 04:18:51.169            18.896                Anadyr2           590.500
       139   02 Jun 2027 05:49:19.035   02 Jun 2027 05:50:19.499            60.464                Anadyr2          1889.500
       140   02 Jun 2027 05:50:28.510   02 Jun 2027 05:50:37.013             8.503                Anadyr2           265.719
       141   02 Jun 2027 05:50:56.320   02 Jun 2027 05:51:32.723            36.403                Irkutsk          1137.594
       142   02 Jun 2027 05:51:41.232   02 Jun 2027 05:53:32.788           111.556                Anadyr2          3486.125
       143   02 Jun 2027 05:53:32.788   02 Jun 2027 05:54:17.096            44.308                Anadyr1          1384.625
       144   02 Jun 2027 05:54:24.176   02 Jun 2027 05:54:25.123             0.947               Magadan1            29.594
       145   02 Jun 2027 07:25:36.844   02 Jun 2027 07:25:46.104             9.260               Magadan1           289.375
       146   02 Jun 2027 07:26:32.548   02 Jun 2027 07:29:28.250           175.702               Magadan2          5490.687
       147   02 Jun 2027 07:29:41.446   02 Jun 2027 07:31:29.045           107.599                Novosib          3362.469
       148   02 Jun 2027 09:03:14.064   02 Jun 2027 09:03:31.403            17.339                Irkutsk           541.844
       149   02 Jun 2027 09:03:58.360   02 Jun 2027 09:04:41.092            42.732                Irkutsk          1335.375
       150   02 Jun 2027 09:05:20.766   02 Jun 2027 09:06:06.774            46.008                Novosib          1437.750
       151   02 Jun 2027 09:06:27.583   02 Jun 2027 09:07:49.248            81.665                Novosib          2552.031
       152   02 Jun 2027 09:43:54.858   02 Jun 2027 09:45:33.062            98.204            RioGallegos          3068.875
       153   02 Jun 2027 09:46:53.588   02 Jun 2027 09:47:19.037            25.449            RioGallegos           795.281
       154   02 Jun 2027 09:47:31.841   02 Jun 2027 09:47:50.077            18.236            RioGallegos           569.875
       155   02 Jun 2027 09:48:05.325   02 Jun 2027 09:48:16.415            11.090            RioGallegos           346.562
       156   02 Jun 2027 10:18:24.558   02 Jun 2027 10:19:40.368            75.810                Sumatra          2369.063
       157   02 Jun 2027 10:38:20.210   02 Jun 2027 10:39:11.727            51.517                Novosib          1609.906
       158   02 Jun 2027 10:39:18.889   02 Jun 2027 10:39:36.271            17.382                Norilsk           543.187
       159   02 Jun 2027 10:39:41.192   02 Jun 2027 10:39:43.119             1.927                Novosib            60.219
       160   02 Jun 2027 10:40:15.129   02 Jun 2027 10:40:56.923            41.794                Novosib          1306.063
       161   02 Jun 2027 10:41:14.454   02 Jun 2027 10:41:43.549            29.095                Norilsk           909.219
       162   02 Jun 2027 10:41:51.803   02 Jun 2027 10:42:06.790            14.987                Norilsk           468.344
       163   02 Jun 2027 12:04:40.678   02 Jun 2027 12:07:24.047           163.369                  Delhi          5105.281
       164   02 Jun 2027 12:12:57.994   02 Jun 2027 12:13:59.114            61.120                Novosib          1910.000
       165   02 Jun 2027 12:14:53.063   02 Jun 2027 12:15:29.713            36.650                Novosib          1145.312
       166   02 Jun 2027 13:23:52.604   02 Jun 2027 13:26:39.441           166.837               CapeTown          5213.656
       167   02 Jun 2027 13:29:38.987   02 Jun 2027 13:30:19.760            40.773               CapeTown          1274.156
       168   02 Jun 2027 13:48:37.673   02 Jun 2027 13:50:24.603           106.930              Murmansk2          3341.562
       169   02 Jun 2027 13:50:56.405   02 Jun 2027 13:51:05.511             9.106              Murmansk2           284.563
       170   02 Jun 2027 13:51:43.882   02 Jun 2027 13:52:35.438            51.556              Murmansk1          1611.125
       171   02 Jun 2027 13:58:13.522   02 Jun 2027 13:58:24.398            10.876              Murmansk2           339.875
       172   02 Jun 2027 14:03:11.980   02 Jun 2027 14:05:35.680           143.700                Anadyr2          4490.625
       173   02 Jun 2027 14:09:29.350   02 Jun 2027 14:09:31.979             2.629                Anadyr2            82.156
       174   02 Jun 2027 14:09:57.847   02 Jun 2027 14:10:57.604            59.757                Anadyr2          1867.406
       175   02 Jun 2027 15:03:03.422   02 Jun 2027 15:03:34.197            30.775               CapeTown           961.719
       176   02 Jun 2027 15:27:29.249   02 Jun 2027 15:28:51.163            81.914              Murmansk2          2559.813
       177   02 Jun 2027 15:29:38.127   02 Jun 2027 15:29:41.649             3.522              Murmansk2           110.063
       178   02 Jun 2027 15:30:48.863   02 Jun 2027 15:31:09.036            20.173              Murmansk1           630.406
       179   02 Jun 2027 15:31:35.842   02 Jun 2027 15:32:09.650            33.808              Murmansk2          1056.500
       180   02 Jun 2027 15:38:33.435   02 Jun 2027 15:40:24.501           111.066                Anadyr2          3470.813
       181   02 Jun 2027 15:41:08.827   02 Jun 2027 15:41:28.671            19.844                Anadyr1           620.125
       182   02 Jun 2027 15:42:36.527   02 Jun 2027 15:45:40.902           184.375               Magadan1          5761.719
       183   02 Jun 2027 15:46:06.870   02 Jun 2027 15:46:24.488            17.618               Magadan2           550.563
       184   02 Jun 2027 15:47:44.704   02 Jun 2027 15:48:11.349            26.645               Magadan2           832.656
       185   02 Jun 2027 17:14:26.433   02 Jun 2027 17:15:54.781            88.348                Anadyr2          2760.875
       186   02 Jun 2027 17:15:54.781   02 Jun 2027 17:16:08.434            13.653                Anadyr1           426.656
       187   02 Jun 2027 17:16:26.682   02 Jun 2027 17:16:51.592            24.910                Anadyr2           778.437
       188   02 Jun 2027 17:16:52.827   02 Jun 2027 17:18:38.959           106.132               Magadan1          3316.625
       189   02 Jun 2027 17:24:07.505   02 Jun 2027 17:24:45.841            38.336               Magadan1          1198.000
       190   02 Jun 2027 18:50:19.450   02 Jun 2027 18:52:04.073           104.623                Anadyr2          3269.469
       191   02 Jun 2027 18:52:23.537   02 Jun 2027 18:54:01.691            98.154                Anadyr1          3067.312
       192   02 Jun 2027 18:54:06.150   02 Jun 2027 18:55:52.776           106.626               Magadan2          3332.063
       193   02 Jun 2027 18:56:02.430   02 Jun 2027 18:56:30.717            28.287                Norilsk           883.969
       194   02 Jun 2027 18:59:00.012   02 Jun 2027 19:00:13.571            73.559                Irkutsk          2298.719
       195   02 Jun 2027 19:01:48.092   02 Jun 2027 19:02:44.313            56.221                Irkutsk          1756.906
       196   02 Jun 2027 19:44:35.289   02 Jun 2027 19:46:02.417            87.128            RioGallegos          2722.750
       197   02 Jun 2027 19:47:07.046   02 Jun 2027 19:47:38.710            31.664            RioGallegos           989.500
       198   02 Jun 2027 19:54:56.257   02 Jun 2027 19:54:57.107             0.850            RioGallegos            26.562
       199   02 Jun 2027 20:27:50.782   02 Jun 2027 20:27:53.334             2.552                Anadyr2            79.750
       200   02 Jun 2027 20:28:11.496   02 Jun 2027 20:30:00.033           108.537                Norilsk          3391.781
       201   02 Jun 2027 20:31:44.610   02 Jun 2027 20:31:47.992             3.382               Magadan1           105.687
       202   02 Jun 2027 20:32:15.241   02 Jun 2027 20:34:01.992           106.751                Irkutsk          3335.969
       203   02 Jun 2027 20:34:21.690   02 Jun 2027 20:36:49.351           147.661                Novosib          4614.406
       204   02 Jun 2027 20:37:55.146   02 Jun 2027 20:38:49.868            54.722                Novosib          1710.063
       205   02 Jun 2027 20:45:55.979   02 Jun 2027 20:46:52.502            56.523                Sumatra          1766.344
       206   02 Jun 2027 20:55:19.112   02 Jun 2027 20:55:28.409             9.297                Sumatra           290.531
       207   02 Jun 2027 20:56:04.422   02 Jun 2027 20:56:30.658            26.236                Sumatra           819.875
       208   02 Jun 2027 22:04:46.289   02 Jun 2027 22:06:04.032            77.743               Magadan2          2429.469
       209   02 Jun 2027 22:07:46.406   02 Jun 2027 22:08:16.138            29.732                Norilsk           929.125
       210   02 Jun 2027 22:08:19.662   02 Jun 2027 22:08:46.535            26.873                Irkutsk           839.781
       211   02 Jun 2027 22:09:24.589   02 Jun 2027 22:09:41.907            17.318                Irkutsk           541.187
       212   02 Jun 2027 22:09:56.207   02 Jun 2027 22:10:55.715            59.508                Novosib          1859.625
       213   02 Jun 2027 22:15:37.827   02 Jun 2027 22:18:03.344           145.517                  Delhi          4547.406
       214   02 Jun 2027 22:20:21.197   02 Jun 2027 22:21:46.222            85.025                  Delhi          2657.031
       215   02 Jun 2027 23:38:05.414   02 Jun 2027 23:38:12.917             7.503                Anadyr1           234.469
       216   02 Jun 2027 23:39:29.810   02 Jun 2027 23:39:46.103            16.293                Anadyr1           509.156
       217   02 Jun 2027 23:39:56.133   02 Jun 2027 23:41:24.435            88.302               Magadan1          2759.437
       218   02 Jun 2027 23:41:39.284   02 Jun 2027 23:42:16.808            37.524               Magadan1          1172.625
       219   02 Jun 2027 23:42:26.779   02 Jun 2027 23:44:27.683           120.904              Murmansk1          3778.250
       220   02 Jun 2027 23:44:32.933   02 Jun 2027 23:44:33.976             1.043              Murmansk2            32.594
       221   02 Jun 2027 23:44:41.078   02 Jun 2027 23:46:26.504           105.426              Murmansk1          3294.562
       222   02 Jun 2027 23:46:49.102   02 Jun 2027 23:47:54.424            65.322                 Moscow          2041.313
       223   02 Jun 2027 23:49:01.694   02 Jun 2027 23:50:57.507           115.813                 Moscow          3619.156
       224   03 Jun 2027 00:15:43.985   03 Jun 2027 00:16:09.136            25.151               CapeTown           785.969
       225   03 Jun 2027 00:16:52.081   03 Jun 2027 00:17:56.883            64.802               CapeTown          2025.062
       226   03 Jun 2027 01:12:01.489   03 Jun 2027 01:12:47.921            46.432               Magadan1          1451.000
       227   03 Jun 2027 01:16:10.342   03 Jun 2027 01:16:30.042            19.700               Magadan2           615.625
       228   03 Jun 2027 01:18:16.217   03 Jun 2027 01:19:21.346            65.129              Murmansk1          2035.281
       229   03 Jun 2027 01:20:04.786   03 Jun 2027 01:20:33.844            29.058              Murmansk1           908.063
       230   03 Jun 2027 01:20:40.417   03 Jun 2027 01:21:17.218            36.801                Novosib          1150.031
       231   03 Jun 2027 01:24:16.984   03 Jun 2027 01:24:31.220            14.236                 Moscow           444.875
       232   03 Jun 2027 01:27:06.633   03 Jun 2027 01:27:14.856             8.223                 Moscow           256.969
       233   03 Jun 2027 01:30:42.167   03 Jun 2027 01:31:07.770            25.603                 Moscow           800.094
       234   03 Jun 2027 01:33:42.835   03 Jun 2027 01:33:57.360            14.525                 Moscow           453.906
       235   03 Jun 2027 01:45:37.878   03 Jun 2027 01:47:06.096            88.218               CapeTown          2756.812
       236   03 Jun 2027 01:56:33.981   03 Jun 2027 01:58:09.681            95.700               CapeTown          2990.625
       237   03 Jun 2027 02:43:06.343   03 Jun 2027 02:44:07.265            60.922                Anadyr1          1903.812
       238   03 Jun 2027 02:44:19.376   03 Jun 2027 02:44:53.712            34.336               Magadan1          1073.000
       239   03 Jun 2027 02:49:02.664   03 Jun 2027 02:49:07.218             4.554               Magadan1           142.313
       240   03 Jun 2027 02:49:12.189   03 Jun 2027 02:49:44.825            32.636               Magadan1          1019.875
       241   03 Jun 2027 02:53:44.869   03 Jun 2027 02:54:09.333            24.464                Norilsk           764.500
       242   03 Jun 2027 02:54:14.345   03 Jun 2027 02:54:59.583            45.238              Murmansk1          1413.688
       243   03 Jun 2027 02:55:53.304   03 Jun 2027 02:55:57.315             4.011              Murmansk2           125.344
       244   03 Jun 2027 02:56:05.885   03 Jun 2027 02:56:11.705             5.820              Murmansk2           181.875
       245   03 Jun 2027 02:57:31.061   03 Jun 2027 02:58:28.465            57.404                 Moscow          1793.875
       246   03 Jun 2027 03:00:35.610   03 Jun 2027 03:01:34.049            58.439              Murmansk1          1826.219
       247   03 Jun 2027 03:06:18.171   03 Jun 2027 03:06:25.097             6.926              Murmansk1           216.438
       248   03 Jun 2027 04:23:05.125   03 Jun 2027 04:23:52.644            47.519                Anadyr2          1484.969
       249   03 Jun 2027 04:25:02.708   03 Jun 2027 04:26:57.446           114.738                Anadyr2          3585.562
       250   03 Jun 2027 04:27:07.822   03 Jun 2027 04:27:41.244            33.422                Anadyr2          1044.437
       251   03 Jun 2027 04:28:09.158   03 Jun 2027 04:28:23.244            14.086               Magadan1           440.188
       252   03 Jun 2027 06:00:22.779   03 Jun 2027 06:02:34.485           131.706                Irkutsk          4115.813
       253   03 Jun 2027 06:02:38.742   03 Jun 2027 06:03:32.323            53.581                Novosib          1674.406
       254   03 Jun 2027 06:03:53.868   03 Jun 2027 06:04:56.203            62.335                Irkutsk          1947.969
       255   03 Jun 2027 06:05:09.150   03 Jun 2027 06:05:35.281            26.131                Anadyr1           816.594
       256   03 Jun 2027 06:06:13.672   03 Jun 2027 06:06:19.870             6.198                Novosib           193.687
       257   03 Jun 2027 06:06:26.954   03 Jun 2027 06:06:29.085             2.131               Magadan2            66.594
       258   03 Jun 2027 06:12:27.658   03 Jun 2027 06:12:56.696            29.038              Murmansk2           907.438
       259   03 Jun 2027 07:36:32.367   03 Jun 2027 07:36:35.807             3.440                Novosib           107.500
       260   03 Jun 2027 07:37:54.224   03 Jun 2027 07:38:13.465            19.241                Irkutsk           601.281
       261   03 Jun 2027 07:38:35.967   03 Jun 2027 07:38:41.862             5.895               Magadan2           184.219
       262   03 Jun 2027 07:39:16.288   03 Jun 2027 07:40:13.076            56.788               Magadan2          1774.625
       263   03 Jun 2027 07:40:29.149   03 Jun 2027 07:40:44.977            15.828               Magadan2           494.625
       264   03 Jun 2027 07:41:41.998   03 Jun 2027 07:42:30.247            48.249                Novosib          1507.781
       265   03 Jun 2027 08:17:08.317   03 Jun 2027 08:17:22.775            14.458            RioGallegos           451.813
       266   03 Jun 2027 08:17:59.553   03 Jun 2027 08:18:21.175            21.622            RioGallegos           675.688
       267   03 Jun 2027 08:51:54.263   03 Jun 2027 08:52:39.041            44.778                Sumatra          1399.313
       268   03 Jun 2027 08:54:07.215   03 Jun 2027 08:54:53.920            46.705                Sumatra          1459.531
       269   03 Jun 2027 09:14:04.022   03 Jun 2027 09:14:15.965            11.943                Irkutsk           373.219
       270   03 Jun 2027 09:14:20.592   03 Jun 2027 09:15:01.793            41.201                Novosib          1287.531
       271   03 Jun 2027 09:15:31.419   03 Jun 2027 09:15:39.258             7.839                Irkutsk           244.969
       272   03 Jun 2027 09:15:43.207   03 Jun 2027 09:15:50.308             7.101                Irkutsk           221.906
       273   03 Jun 2027 09:16:09.430   03 Jun 2027 09:16:43.707            34.277                Irkutsk          1071.156
       274   03 Jun 2027 09:16:53.799   03 Jun 2027 09:17:26.586            32.787                Novosib          1024.594
       275   03 Jun 2027 09:18:01.226   03 Jun 2027 09:18:03.377             2.151                Irkutsk            67.219
       276   03 Jun 2027 09:18:26.315   03 Jun 2027 09:18:57.973            31.658                Novosib           989.313
       277   03 Jun 2027 09:56:50.830   03 Jun 2027 09:57:33.227            42.397            RioGallegos          1324.906
       278   03 Jun 2027 10:32:22.882   03 Jun 2027 10:33:12.346            49.464                Sumatra          1545.750
       279   03 Jun 2027 10:34:35.845   03 Jun 2027 10:34:52.711            16.866                Sumatra           527.062
       280   03 Jun 2027 10:39:14.769   03 Jun 2027 10:40:43.500            88.731                  Delhi          2772.844
       281   03 Jun 2027 10:50:19.936   03 Jun 2027 10:50:36.470            16.534                Novosib           516.687
       282   03 Jun 2027 10:50:52.281   03 Jun 2027 10:51:20.930            28.649                Norilsk           895.281
       283   03 Jun 2027 10:51:37.156   03 Jun 2027 10:52:00.553            23.397                Norilsk           731.156
       284   03 Jun 2027 10:52:45.811   03 Jun 2027 10:52:59.338            13.527                Novosib           422.719
       285   03 Jun 2027 10:53:02.304   03 Jun 2027 10:53:16.358            14.054                Norilsk           439.187
       286   03 Jun 2027 10:53:33.892   03 Jun 2027 10:53:38.891             4.999                Novosib           156.219
       287   03 Jun 2027 10:53:44.088   03 Jun 2027 10:54:18.829            34.741                Novosib          1085.656
       288   03 Jun 2027 12:20:50.105   03 Jun 2027 12:20:50.928             0.823                 Moscow            25.719
       289   03 Jun 2027 12:24:27.369   03 Jun 2027 12:24:41.070            13.701              Murmansk1           428.156
       290   03 Jun 2027 12:24:56.467   03 Jun 2027 12:25:47.252            50.785              Murmansk1          1587.031
       291   03 Jun 2027 12:25:58.592   03 Jun 2027 12:27:16.742            78.150              Murmansk2          2442.187
       292   03 Jun 2027 12:27:16.742   03 Jun 2027 12:27:21.498             4.756              Murmansk1           148.625
       293   03 Jun 2027 12:27:35.348   03 Jun 2027 12:27:53.362            18.014              Murmansk1           562.938
       294   03 Jun 2027 12:28:11.176   03 Jun 2027 12:30:06.015           114.839                Norilsk          3588.719
       295   03 Jun 2027 13:35:18.935   03 Jun 2027 13:35:47.544            28.609               CapeTown           894.031
       296   03 Jun 2027 13:36:59.897   03 Jun 2027 13:37:46.684            46.787               CapeTown          1462.094
       297   03 Jun 2027 13:38:27.685   03 Jun 2027 13:40:05.304            97.619               CapeTown          3050.594
       298   03 Jun 2027 13:40:41.082   03 Jun 2027 13:41:52.700            71.618               CapeTown          2238.063
       299   03 Jun 2027 14:00:53.206   03 Jun 2027 14:01:33.357            40.151              Murmansk1          1254.719
       300   03 Jun 2027 14:01:33.357   03 Jun 2027 14:01:39.213             5.856              Murmansk2           183.000
       301   03 Jun 2027 14:01:52.658   03 Jun 2027 14:03:06.699            74.041              Murmansk1          2313.781
       302   03 Jun 2027 14:11:14.348   03 Jun 2027 14:11:26.964            12.616              Murmansk1           394.250
       303   03 Jun 2027 14:15:04.453   03 Jun 2027 14:17:35.923           151.470                Anadyr1          4733.437
       304   03 Jun 2027 14:18:21.714   03 Jun 2027 14:19:23.897            62.183                Anadyr1          1943.219
       305   03 Jun 2027 15:19:31.848   03 Jun 2027 15:19:36.425             4.577               CapeTown           143.031
       306   03 Jun 2027 15:40:04.461   03 Jun 2027 15:42:06.327           121.866              Murmansk2          3808.313
       307   03 Jun 2027 15:50:33.707   03 Jun 2027 15:51:27.406            53.699                Anadyr1          1678.094
       308   03 Jun 2027 15:52:22.155   03 Jun 2027 15:53:11.482            49.327                Anadyr1          1541.469
       309   03 Jun 2027 15:53:22.410   03 Jun 2027 15:53:30.003             7.593                Anadyr1           237.281
       310   03 Jun 2027 15:53:36.785   03 Jun 2027 15:54:37.053            60.268                Anadyr1          1883.375
       311   03 Jun 2027 15:54:59.713   03 Jun 2027 15:57:30.486           150.773               Magadan2          4711.656
       312   03 Jun 2027 15:58:25.095   03 Jun 2027 15:59:46.827            81.732               Magadan1          2554.125
       313   03 Jun 2027 16:00:54.892   03 Jun 2027 16:01:19.485            24.593               Magadan1           768.531
       314   03 Jun 2027 17:26:27.831   03 Jun 2027 17:27:15.639            47.808                Anadyr2          1494.000
       315   03 Jun 2027 17:27:44.985   03 Jun 2027 17:27:53.834             8.849                Anadyr2           276.531
       316   03 Jun 2027 17:28:23.259   03 Jun 2027 17:28:45.134            21.875                Anadyr1           683.594
       317   03 Jun 2027 17:28:50.835   03 Jun 2027 17:30:12.034            81.199               Magadan2          2537.469
       318   03 Jun 2027 17:30:43.237   03 Jun 2027 17:31:05.661            22.424               Magadan1           700.750
       319   03 Jun 2027 17:36:09.891   03 Jun 2027 17:36:21.909            12.018               Magadan2           375.563
       320   03 Jun 2027 17:36:23.133   03 Jun 2027 17:36:59.557            36.424               Magadan1          1138.250
       321   03 Jun 2027 19:02:19.452   03 Jun 2027 19:04:05.256           105.804                Anadyr1          3306.375
       322   03 Jun 2027 19:04:18.900   03 Jun 2027 19:06:18.133           119.233                Anadyr2          3726.031
       323   03 Jun 2027 19:06:28.530   03 Jun 2027 19:08:28.433           119.903                Norilsk          3746.969
       324   03 Jun 2027 19:09:26.072   03 Jun 2027 19:09:50.200            24.128                Norilsk           754.000
       325   03 Jun 2027 19:10:09.429   03 Jun 2027 19:13:05.604           176.175                Irkutsk          5505.469
       326   03 Jun 2027 19:14:03.780   03 Jun 2027 19:15:18.906            75.126                Irkutsk          2347.688
       327   03 Jun 2027 19:16:21.446   03 Jun 2027 19:16:44.378            22.932                Irkutsk           716.625
       328   03 Jun 2027 19:26:32.418   03 Jun 2027 19:27:29.159            56.741                Sumatra          1773.156
       329   03 Jun 2027 19:29:53.049   03 Jun 2027 19:31:03.091            70.042                Sumatra          2188.813
       330   03 Jun 2027 20:44:11.979   03 Jun 2027 20:46:00.807           108.828                Irkutsk          3400.875
       331   03 Jun 2027 20:46:24.205   03 Jun 2027 20:47:25.964            61.759                Novosib          1929.969
       332   03 Jun 2027 20:49:28.933   03 Jun 2027 20:50:07.237            38.304                Novosib          1197.000
       333   03 Jun 2027 20:50:15.928   03 Jun 2027 20:51:11.108            55.180                Novosib          1724.375
       334   03 Jun 2027 20:58:23.209   03 Jun 2027 20:58:41.646            18.437                Sumatra           576.156
       335   03 Jun 2027 21:02:20.283   03 Jun 2027 21:03:41.402            81.119                Sumatra          2534.969
       336   03 Jun 2027 22:16:47.268   03 Jun 2027 22:17:42.043            54.775               Magadan2          1711.719
       337   03 Jun 2027 22:19:53.697   03 Jun 2027 22:22:40.587           166.890              Murmansk1          5215.312
       338   03 Jun 2027 22:27:28.987   03 Jun 2027 22:29:42.620           133.633                  Delhi          4176.031
       339   03 Jun 2027 23:47:51.450   03 Jun 2027 23:47:55.791             4.341                Anadyr1           135.656
       340   03 Jun 2027 23:50:32.373   03 Jun 2027 23:50:59.130            26.757                Anadyr1           836.156
       341   03 Jun 2027 23:51:38.224   03 Jun 2027 23:53:10.991            92.767               Magadan1          2898.969
       342   03 Jun 2027 23:54:06.451   03 Jun 2027 23:54:27.765            21.314               Magadan1           666.063
       343   03 Jun 2027 23:54:29.806   03 Jun 2027 23:56:26.081           116.275              Murmansk1          3633.594
       344   03 Jun 2027 23:56:27.982   03 Jun 2027 23:57:20.174            52.192              Murmansk2          1631.000
       345   03 Jun 2027 23:57:44.381   03 Jun 2027 23:59:47.379           122.998              Murmansk2          3843.688
       346   03 Jun 2027 23:59:57.336   04 Jun 2027 00:00:35.241            37.905                 Moscow          1184.531
       347   04 Jun 2027 00:03:28.150   04 Jun 2027 00:03:45.268            17.118                 Moscow           534.938
       348   04 Jun 2027 00:04:45.617   04 Jun 2027 00:04:48.649             3.032                 Moscow            94.750
       349   04 Jun 2027 00:25:56.457   04 Jun 2027 00:27:28.079            91.622               CapeTown          2863.188
       350   04 Jun 2027 00:29:00.860   04 Jun 2027 00:30:17.667            76.807               CapeTown          2400.219
       351   04 Jun 2027 01:23:29.880   04 Jun 2027 01:24:03.645            33.765               Magadan2          1055.156
       352   04 Jun 2027 01:24:03.645   04 Jun 2027 01:24:48.992            45.347               Magadan1          1417.094
       353   04 Jun 2027 01:30:17.837   04 Jun 2027 01:32:01.632           103.795              Murmansk2          3243.594
       354   04 Jun 2027 01:32:33.679   04 Jun 2027 01:33:04.488            30.809              Murmansk2           962.781
       355   04 Jun 2027 01:33:33.189   04 Jun 2027 01:35:20.344           107.155                 Moscow          3348.594
       356   04 Jun 2027 02:02:13.033   04 Jun 2027 02:02:39.809            26.776               CapeTown           836.750
       357   04 Jun 2027 02:03:28.429   04 Jun 2027 02:04:39.384            70.955               CapeTown          2217.344
       358   04 Jun 2027 02:54:08.049   04 Jun 2027 02:55:41.442            93.393                Anadyr2          2918.531
       359   04 Jun 2027 02:55:43.682   04 Jun 2027 02:55:52.575             8.893               Magadan2           277.906
       360   04 Jun 2027 02:56:24.176   04 Jun 2027 02:56:50.946            26.770               Magadan2           836.562
       361   04 Jun 2027 02:59:25.825   04 Jun 2027 03:00:08.152            42.327               Magadan2          1322.719
       362   04 Jun 2027 03:00:21.616   04 Jun 2027 03:02:08.627           107.011                Anadyr1          3344.094
       363   04 Jun 2027 03:02:22.002   04 Jun 2027 03:03:02.620            40.618                Anadyr2          1269.312
       364   04 Jun 2027 04:36:35.017   04 Jun 2027 04:38:20.296           105.279               Magadan2          3289.969
       365   04 Jun 2027 04:39:12.863   04 Jun 2027 04:40:26.143            73.280               Magadan2          2290.000
       366   04 Jun 2027 06:10:28.648   04 Jun 2027 06:11:34.522            65.874               Magadan1          2058.562
       367   04 Jun 2027 06:11:39.664   04 Jun 2027 06:12:17.166            37.502               Magadan1          1171.937
       368   04 Jun 2027 06:12:40.857   04 Jun 2027 06:14:17.858            97.001               Magadan2          3031.281
       369   04 Jun 2027 06:14:26.959   04 Jun 2027 06:15:05.814            38.855                Anadyr1          1214.219
       370   04 Jun 2027 06:15:11.725   04 Jun 2027 06:15:12.109             0.384                Anadyr2            12.000
       371   04 Jun 2027 06:15:12.109   04 Jun 2027 06:15:32.603            20.494                Anadyr1           640.438
       372   04 Jun 2027 06:15:35.017   04 Jun 2027 06:16:18.812            43.795               Magadan2          1368.594
       373   04 Jun 2027 06:16:29.285   04 Jun 2027 06:16:30.007             0.722               Magadan2            22.562
       374   04 Jun 2027 06:16:30.007   04 Jun 2027 06:16:41.092            11.085               Magadan1           346.406
       375   04 Jun 2027 06:16:42.479   04 Jun 2027 06:17:06.273            23.794               Magadan1           743.563
       376   04 Jun 2027 06:17:10.956   04 Jun 2027 06:17:39.790            28.834                Anadyr1           901.062
       377   04 Jun 2027 06:21:13.234   04 Jun 2027 06:21:25.498            12.264                Norilsk           383.250
       378   04 Jun 2027 07:48:31.732   04 Jun 2027 07:48:56.935            25.203               Magadan1           787.594
       379   04 Jun 2027 07:49:04.598   04 Jun 2027 07:49:35.977            31.379               Magadan1           980.594
       380   04 Jun 2027 07:50:52.205   04 Jun 2027 07:51:10.448            18.243                Irkutsk           570.094
       381   04 Jun 2027 07:51:18.248   04 Jun 2027 07:51:28.656            10.408                Irkutsk           325.250
       382   04 Jun 2027 07:52:10.161   04 Jun 2027 07:52:14.892             4.731               Magadan2           147.844
       383   04 Jun 2027 07:53:41.842   04 Jun 2027 07:53:51.971            10.129                Novosib           316.531
       384   04 Jun 2027 07:53:55.735   04 Jun 2027 07:54:13.716            17.981              Murmansk1           561.906
       385   04 Jun 2027 07:54:31.301   04 Jun 2027 07:54:55.225            23.924              Murmansk1           747.625
       386   04 Jun 2027 08:29:19.857   04 Jun 2027 08:29:59.116            39.259            RioGallegos          1226.844
       387   04 Jun 2027 08:31:47.786   04 Jun 2027 08:32:11.382            23.596            RioGallegos           737.375
       388   04 Jun 2027 09:03:55.022   04 Jun 2027 09:04:10.892            15.870                Sumatra           495.937
       389   04 Jun 2027 09:08:01.206   04 Jun 2027 09:08:30.203            28.997                Sumatra           906.156
       390   04 Jun 2027 09:24:46.004   04 Jun 2027 09:24:53.089             7.085                Novosib           221.406
       391   04 Jun 2027 09:25:34.134   04 Jun 2027 09:26:20.899            46.765                Novosib          1461.406
       392   04 Jun 2027 09:27:13.335   04 Jun 2027 09:27:34.483            21.148                Novosib           660.875
       393   04 Jun 2027 09:28:11.653   04 Jun 2027 09:28:13.731             2.078                Irkutsk            64.937
       394   04 Jun 2027 09:28:15.174   04 Jun 2027 09:28:20.561             5.387                Irkutsk           168.344
       395   04 Jun 2027 09:28:48.370   04 Jun 2027 09:29:31.850            43.480                Novosib          1358.750
       396   04 Jun 2027 09:30:24.081   04 Jun 2027 09:30:45.403            21.322                Novosib           666.313
       397   04 Jun 2027 10:10:06.635   04 Jun 2027 10:10:26.656            20.021            RioGallegos           625.656
       398   04 Jun 2027 10:12:41.876   04 Jun 2027 10:13:11.884            30.008            RioGallegos           937.750
       399   04 Jun 2027 10:48:33.430   04 Jun 2027 10:49:48.685            75.255                  Delhi          2351.719
       400   04 Jun 2027 10:52:53.858   04 Jun 2027 10:53:25.763            31.905                  Delhi           997.031
       401   04 Jun 2027 11:03:39.188   04 Jun 2027 11:03:50.903            11.715                Novosib           366.094
       402   04 Jun 2027 11:04:29.090   04 Jun 2027 11:04:37.397             8.307                Novosib           259.594
       403   04 Jun 2027 11:04:43.402   04 Jun 2027 11:05:40.018            56.616                Novosib          1769.250
       404   04 Jun 2027 11:05:46.143   04 Jun 2027 11:06:10.224            24.081                Norilsk           752.531
       405   04 Jun 2027 12:32:30.334   04 Jun 2027 12:33:28.087            57.753                 Moscow          1804.781
       406   04 Jun 2027 12:34:20.341   04 Jun 2027 12:35:09.999            49.658                 Moscow          1551.813
       407   04 Jun 2027 12:35:49.271   04 Jun 2027 12:36:45.917            56.646                 Moscow          1770.188
       408   04 Jun 2027 12:36:46.514   04 Jun 2027 12:37:06.260            19.746              Murmansk2           617.063
       409   04 Jun 2027 12:37:11.439   04 Jun 2027 12:38:00.236            48.797              Murmansk2          1524.906
       410   04 Jun 2027 12:39:18.306   04 Jun 2027 12:39:20.442             2.136              Murmansk2            66.750
       411   04 Jun 2027 12:39:41.173   04 Jun 2027 12:40:15.884            34.711              Murmansk2          1084.719
       412   04 Jun 2027 12:40:23.307   04 Jun 2027 12:40:42.547            19.240                Norilsk           601.250
       413   04 Jun 2027 12:43:24.740   04 Jun 2027 12:43:58.290            33.550                Norilsk          1048.437
       414   04 Jun 2027 13:46:54.810   04 Jun 2027 13:49:06.206           131.396               CapeTown          4106.125
       415   04 Jun 2027 13:50:18.338   04 Jun 2027 13:51:47.916            89.578               CapeTown          2799.312
       416   04 Jun 2027 13:53:00.260   04 Jun 2027 13:53:26.915            26.655               CapeTown           832.969
       417   04 Jun 2027 14:13:10.785   04 Jun 2027 14:15:08.089           117.304              Murmansk1          3665.750
       418   04 Jun 2027 14:26:58.975   04 Jun 2027 14:30:51.715           232.740                Anadyr1          7273.125
       419   04 Jun 2027 15:52:43.136   04 Jun 2027 15:54:00.178            77.042              Murmansk2          2407.563
       420   04 Jun 2027 15:54:00.178   04 Jun 2027 15:54:40.706            40.528              Murmansk1          1266.500
       421   04 Jun 2027 15:56:42.051   04 Jun 2027 15:56:56.987            14.936              Murmansk2           466.750
       422   04 Jun 2027 16:02:34.298   04 Jun 2027 16:04:34.402           120.104                Anadyr2          3753.250
       423   04 Jun 2027 16:04:53.013   04 Jun 2027 16:04:57.717             4.704                Anadyr2           147.000
       424   04 Jun 2027 16:05:29.863   04 Jun 2027 16:06:01.534            31.671                Anadyr2           989.719
       425   04 Jun 2027 16:07:02.365   04 Jun 2027 16:09:54.771           172.406               Magadan1          5387.688
       426   04 Jun 2027 16:11:49.124   04 Jun 2027 16:13:16.522            87.398               Magadan1          2731.188
       427   04 Jun 2027 17:38:29.194   04 Jun 2027 17:39:26.737            57.543                Anadyr1          1798.219
       428   04 Jun 2027 17:39:33.779   04 Jun 2027 17:40:10.663            36.884                Anadyr1          1152.625
       429   04 Jun 2027 17:40:49.626   04 Jun 2027 17:42:44.997           115.371               Magadan2          3605.344
       430   04 Jun 2027 18:35:23.832   04 Jun 2027 18:37:33.795           129.963            RioGallegos          4061.344
       431   04 Jun 2027 19:14:19.069   04 Jun 2027 19:16:06.272           107.203                Anadyr2          3350.094
       432   04 Jun 2027 19:16:32.302   04 Jun 2027 19:18:29.913           117.611                Norilsk          3675.344
       433   04 Jun 2027 19:19:16.252   04 Jun 2027 19:20:27.189            70.937                Norilsk          2216.781
       434   04 Jun 2027 19:21:26.633   04 Jun 2027 19:23:19.571           112.938                Norilsk          3529.313
       435   04 Jun 2027 19:27:25.136   04 Jun 2027 19:27:33.027             7.891                Irkutsk           246.594
       436   04 Jun 2027 19:36:58.778   04 Jun 2027 19:38:58.425           119.647                Sumatra          3738.969
       437   04 Jun 2027 19:40:02.726   04 Jun 2027 19:40:23.713            20.987                Sumatra           655.844
       438   04 Jun 2027 19:42:19.922   04 Jun 2027 19:44:30.061           130.139                Sumatra          4066.844
       439   04 Jun 2027 20:53:44.311   04 Jun 2027 20:53:58.150            13.839                Norilsk           432.469
       440   04 Jun 2027 20:56:10.000   04 Jun 2027 20:57:56.502           106.502                Irkutsk          3328.187
       441   04 Jun 2027 20:58:27.217   04 Jun 2027 20:59:00.322            33.105                Novosib          1034.531
       442   04 Jun 2027 21:00:19.491   04 Jun 2027 21:01:38.780            79.289                Novosib          2477.781
       443   04 Jun 2027 21:04:00.263   04 Jun 2027 21:04:27.916            27.653                Novosib           864.156
       444   04 Jun 2027 21:08:05.857   04 Jun 2027 21:08:56.981            51.124                  Delhi          1597.625
       445   04 Jun 2027 21:10:54.341   04 Jun 2027 21:10:58.183             3.842                  Delhi           120.063
       446   04 Jun 2027 22:28:47.505   04 Jun 2027 22:30:01.582            74.077               Magadan2          2314.906
       447   04 Jun 2027 22:31:23.667   04 Jun 2027 22:34:53.314           209.647              Murmansk1          6551.469
       448   04 Jun 2027 22:35:21.056   04 Jun 2027 22:35:54.120            33.064              Murmansk2          1033.250
       449   04 Jun 2027 22:39:23.981   04 Jun 2027 22:40:02.326            38.345                  Delhi          1198.281
       450   04 Jun 2027 22:47:44.435   04 Jun 2027 22:48:53.107            68.672                  Delhi          2146.000
       451   04 Jun 2027 23:57:10.800   04 Jun 2027 23:57:15.882             5.082                Anadyr2           158.813
       452   05 Jun 2027 00:03:12.302   05 Jun 2027 00:03:25.165            12.863                Anadyr1           401.969
       453   05 Jun 2027 00:03:49.544   05 Jun 2027 00:05:57.655           128.111               Magadan2          4003.469
       454   05 Jun 2027 00:06:25.474   05 Jun 2027 00:08:20.815           115.341              Murmansk2          3604.406
       455   05 Jun 2027 00:08:27.982   05 Jun 2027 00:10:28.109           120.127              Murmansk1          3753.969
       456   05 Jun 2027 00:10:40.271   05 Jun 2027 00:12:00.721            80.450                 Moscow          2514.063
       457   05 Jun 2027 00:36:49.934   05 Jun 2027 00:38:55.437           125.503               CapeTown          3921.969
       458   05 Jun 2027 00:41:15.245   05 Jun 2027 00:42:03.179            47.934               CapeTown          1497.937
       459   05 Jun 2027 01:34:58.962   05 Jun 2027 01:35:33.607            34.645               Magadan2          1082.656
       460   05 Jun 2027 01:36:06.333   05 Jun 2027 01:36:37.074            30.741               Magadan1           960.656
       461   05 Jun 2027 01:40:20.680   05 Jun 2027 01:40:32.088            11.408               Magadan2           356.500
       462   05 Jun 2027 01:42:19.533   05 Jun 2027 01:43:13.425            53.892              Murmansk1          1684.125
       463   05 Jun 2027 01:43:13.425   05 Jun 2027 01:43:57.861            44.436              Murmansk2          1388.625
       464   05 Jun 2027 01:44:44.252   05 Jun 2027 01:45:10.768            26.516                Novosib           828.625
       465   05 Jun 2027 01:45:33.238   05 Jun 2027 01:47:03.030            89.792                 Moscow          2806.000
       466   05 Jun 2027 02:09:26.203   05 Jun 2027 02:09:44.227            18.024               CapeTown           563.250
       467   05 Jun 2027 02:10:44.723   05 Jun 2027 02:12:08.749            84.026               CapeTown          2625.813
       468   05 Jun 2027 03:06:10.400   05 Jun 2027 03:07:21.988            71.588                Anadyr2          2237.125
       469   05 Jun 2027 03:12:09.816   05 Jun 2027 03:13:21.569            71.753               Magadan2          2242.281
       470   05 Jun 2027 03:13:34.550   05 Jun 2027 03:15:48.196           133.646                Anadyr1          4176.437
       471   05 Jun 2027 03:15:48.196   05 Jun 2027 03:16:28.199            40.003                Anadyr2          1250.094
       472   05 Jun 2027 03:16:33.640   05 Jun 2027 03:16:50.366            16.726                Anadyr2           522.687
       473   05 Jun 2027 04:51:23.601   05 Jun 2027 04:52:28.763            65.162               Magadan2          2036.313
       474   05 Jun 2027 04:52:53.118   05 Jun 2027 04:54:53.074           119.956                Anadyr1          3748.625
       475   05 Jun 2027 06:24:05.071   05 Jun 2027 06:24:21.957            16.886               Magadan1           527.688
       476   05 Jun 2027 06:24:23.004   05 Jun 2027 06:24:25.787             2.783                Anadyr1            86.969
       477   05 Jun 2027 06:24:25.787   05 Jun 2027 06:24:56.827            31.040                Anadyr2           970.000
       478   05 Jun 2027 06:25:11.637   05 Jun 2027 06:26:34.492            82.855               Magadan1          2589.219
       479   05 Jun 2027 06:26:45.079   05 Jun 2027 06:27:15.078            29.999               Magadan2           937.469
       480   05 Jun 2027 06:27:25.909   05 Jun 2027 06:27:52.955            27.046               Magadan1           845.187
       481   05 Jun 2027 06:27:59.351   05 Jun 2027 06:28:16.700            17.349                Anadyr1           542.156
       482   05 Jun 2027 06:28:20.029   05 Jun 2027 06:28:37.615            17.586                Anadyr1           549.563
