uniorb/output/strategy_4/Drop/Drop_KinoSat_111004.txt

KinoSat_111004
-------------------------
    Access    *     Start Time (UTCG)     *     Stop Time (UTCG)  *   Duration (s)        *       Station  *  Data (Mbytes)
         1   01 Jun 2027 03:38:03.974   01 Jun 2027 03:39:33.572            89.598                Anadyr1          2799.937
         2   01 Jun 2027 03:40:27.072   01 Jun 2027 03:41:43.973            76.901                Anadyr1          2403.156
         3   01 Jun 2027 05:14:31.492   01 Jun 2027 05:15:34.321            62.829                Anadyr1          1963.406
         4   01 Jun 2027 05:16:19.398   01 Jun 2027 05:19:19.434           180.036               Magadan2          5626.125
         5   01 Jun 2027 06:48:12.711   01 Jun 2027 06:50:02.873           110.162                Irkutsk          3442.562
         6   01 Jun 2027 06:50:10.825   01 Jun 2027 06:50:42.000            31.175                Anadyr1           974.219
         7   01 Jun 2027 06:50:42.000   01 Jun 2027 06:52:43.292           121.292                Anadyr2          3790.375
         8   01 Jun 2027 06:52:53.941   01 Jun 2027 06:53:14.196            20.255               Magadan2           632.969
         9   01 Jun 2027 06:53:14.406   01 Jun 2027 06:53:29.310            14.904                Anadyr2           465.750
        10   01 Jun 2027 06:53:29.310   01 Jun 2027 06:54:02.667            33.357                Anadyr1          1042.406
        11   01 Jun 2027 06:54:10.347   01 Jun 2027 06:54:33.853            23.506                Irkutsk           734.562
        12   01 Jun 2027 06:54:41.199   01 Jun 2027 06:56:21.743           100.544              Murmansk2          3142.000
        13   01 Jun 2027 07:30:09.985   01 Jun 2027 07:30:51.125            41.140            RioGallegos          1285.625
        14   01 Jun 2027 07:31:31.572   01 Jun 2027 07:32:50.081            78.509            RioGallegos          2453.406
        15   01 Jun 2027 08:25:42.603   01 Jun 2027 08:26:51.315            68.712                Novosib          2147.250
        16   01 Jun 2027 08:27:06.731   01 Jun 2027 08:27:32.635            25.904                Irkutsk           809.500
        17   01 Jun 2027 08:27:37.747   01 Jun 2027 08:28:51.498            73.751               Magadan1          2304.719
        18   01 Jun 2027 08:29:23.843   01 Jun 2027 08:31:05.452           101.609                Irkutsk          3175.281
        19   01 Jun 2027 08:31:06.448   01 Jun 2027 08:32:44.283            97.835                Norilsk          3057.344
        20   01 Jun 2027 08:33:01.004   01 Jun 2027 08:34:49.884           108.880              Murmansk1          3402.500
        21   01 Jun 2027 09:06:10.462   01 Jun 2027 09:07:31.790            81.328            RioGallegos          2541.500
        22   01 Jun 2027 09:08:43.771   01 Jun 2027 09:09:19.572            35.801            RioGallegos          1118.781
        23   01 Jun 2027 09:40:39.183   01 Jun 2027 09:42:55.088           135.905                Sumatra          4247.031
        24   01 Jun 2027 09:50:05.084   01 Jun 2027 09:51:21.082            75.998                  Delhi          2374.937
        25   01 Jun 2027 10:03:11.936   01 Jun 2027 10:04:40.726            88.790                Irkutsk          2774.688
        26   01 Jun 2027 10:05:04.447   01 Jun 2027 10:05:13.206             8.759                Irkutsk           273.719
        27   01 Jun 2027 10:05:26.584   01 Jun 2027 10:06:32.615            66.031                Irkutsk          2063.469
        28   01 Jun 2027 10:06:40.318   01 Jun 2027 10:06:56.474            16.156                Norilsk           504.875
        29   01 Jun 2027 10:07:11.700   01 Jun 2027 10:08:20.235            68.535              Murmansk2          2141.719
        30   01 Jun 2027 10:08:20.235   01 Jun 2027 10:11:56.407           216.172              Murmansk1          6755.375
        31   01 Jun 2027 10:48:10.275   01 Jun 2027 10:50:04.299           114.024            RioGallegos          3563.250
        32   01 Jun 2027 11:25:10.057   01 Jun 2027 11:26:52.481           102.424                  Delhi          3200.750
        33   01 Jun 2027 11:29:48.650   01 Jun 2027 11:30:22.512            33.862                  Delhi          1058.188
        34   01 Jun 2027 11:32:51.071   01 Jun 2027 11:33:38.865            47.794                  Delhi          1493.563
        35   01 Jun 2027 11:39:14.386   01 Jun 2027 11:40:28.515            74.129                 Moscow          2316.531
        36   01 Jun 2027 11:41:12.378   01 Jun 2027 11:43:56.076           163.698                Novosib          5115.563
        37   01 Jun 2027 11:45:42.899   01 Jun 2027 11:45:49.290             6.391              Murmansk2           199.719
        38   01 Jun 2027 11:47:02.310   01 Jun 2027 11:47:44.049            41.739              Murmansk2          1304.344
        39   01 Jun 2027 13:09:12.012   01 Jun 2027 13:13:26.778           254.766                 Moscow          7961.437
        40   01 Jun 2027 13:13:31.143   01 Jun 2027 13:17:41.514           250.371              Murmansk2          7824.094
        41   01 Jun 2027 13:18:13.605   01 Jun 2027 13:19:50.983            97.378                Norilsk          3043.062
        42   01 Jun 2027 13:20:42.462   01 Jun 2027 13:21:58.044            75.582                Norilsk          2361.937
        43   01 Jun 2027 14:23:22.209   01 Jun 2027 14:25:31.090           128.881               CapeTown          4027.531
        44   01 Jun 2027 14:26:34.233   01 Jun 2027 14:28:00.832            86.599               CapeTown          2706.219
        45   01 Jun 2027 14:50:04.481   01 Jun 2027 14:50:53.843            49.362              Murmansk1          1542.563
        46   01 Jun 2027 14:51:57.594   01 Jun 2027 14:52:55.772            58.178              Murmansk2          1818.063
        47   01 Jun 2027 15:03:36.200   01 Jun 2027 15:05:59.320           143.120                Anadyr1          4472.500
        48   01 Jun 2027 15:08:24.880   01 Jun 2027 15:08:29.774             4.894                Anadyr2           152.938
        49   01 Jun 2027 15:08:58.789   01 Jun 2027 15:09:28.274            29.485                Anadyr2           921.406
        50   01 Jun 2027 15:10:16.184   01 Jun 2027 15:11:03.570            47.386                Anadyr1          1480.813
        51   01 Jun 2027 15:13:01.237   01 Jun 2027 15:13:08.133             6.896                Anadyr2           215.500
        52   01 Jun 2027 15:13:35.125   01 Jun 2027 15:13:49.953            14.828                Anadyr2           463.375
        53   01 Jun 2027 15:59:21.782   01 Jun 2027 16:00:07.862            46.080               CapeTown          1440.000
        54   01 Jun 2027 16:29:52.386   01 Jun 2027 16:32:33.976           161.590              Murmansk1          5049.687
        55   01 Jun 2027 16:33:52.797   01 Jun 2027 16:34:23.253            30.456              Murmansk2           951.750
        56   01 Jun 2027 16:39:15.125   01 Jun 2027 16:39:57.073            41.948                Anadyr1          1310.875
        57   01 Jun 2027 16:40:16.252   01 Jun 2027 16:40:56.021            39.769                Anadyr2          1242.781
        58   01 Jun 2027 16:40:56.021   01 Jun 2027 16:41:10.085            14.064                Anadyr1           439.500
        59   01 Jun 2027 16:42:17.724   01 Jun 2027 16:42:57.780            40.056                Anadyr1          1251.750
        60   01 Jun 2027 16:43:07.292   01 Jun 2027 16:44:14.073            66.781               Magadan1          2086.906
        61   01 Jun 2027 16:45:05.745   01 Jun 2027 16:47:12.877           127.132               Magadan1          3972.875
        62   01 Jun 2027 16:47:54.747   01 Jun 2027 16:48:28.177            33.430               Magadan1          1044.687
        63   01 Jun 2027 18:15:10.452   01 Jun 2027 18:17:00.882           110.430                Anadyr2          3450.937
        64   01 Jun 2027 18:17:29.442   01 Jun 2027 18:21:03.226           213.784               Magadan2          6680.750
        65   01 Jun 2027 18:23:18.502   01 Jun 2027 18:23:47.054            28.552               Magadan1           892.250
        66   01 Jun 2027 18:24:43.394   01 Jun 2027 18:25:16.678            33.284               Magadan1          1040.125
        67   01 Jun 2027 18:28:31.134   01 Jun 2027 18:28:38.815             7.681               Magadan2           240.031
        68   01 Jun 2027 18:28:44.797   01 Jun 2027 18:28:47.441             2.644               Magadan2            82.625
        69   01 Jun 2027 18:28:57.667   01 Jun 2027 18:29:43.952            46.285               Magadan2          1446.406
        70   01 Jun 2027 19:11:19.363   01 Jun 2027 19:13:57.871           158.508            RioGallegos          4953.375
        71   01 Jun 2027 19:15:54.614   01 Jun 2027 19:17:06.439            71.825            RioGallegos          2244.531
        72   01 Jun 2027 19:52:43.214   01 Jun 2027 19:52:55.735            12.521                Anadyr2           391.281
        73   01 Jun 2027 19:53:09.801   01 Jun 2027 19:55:18.791           128.990                Norilsk          4030.938
        74   01 Jun 2027 19:56:31.318   01 Jun 2027 19:57:01.650            30.332                Norilsk           947.875
        75   01 Jun 2027 19:58:03.359   01 Jun 2027 19:59:34.237            90.878                Irkutsk          2839.937
        76   01 Jun 2027 19:59:58.140   01 Jun 2027 20:01:02.587            64.447                Norilsk          2013.969
        77   01 Jun 2027 20:02:31.848   01 Jun 2027 20:03:26.182            54.334                Irkutsk          1697.938
        78   01 Jun 2027 20:03:49.210   01 Jun 2027 20:04:20.606            31.396                Irkutsk           981.125
        79   01 Jun 2027 20:12:57.153   01 Jun 2027 20:15:19.970           142.817                Sumatra          4463.031
        80   01 Jun 2027 20:18:47.131   01 Jun 2027 20:19:42.909            55.778                Sumatra          1743.062
        81   01 Jun 2027 21:28:55.123   01 Jun 2027 21:29:16.663            21.540                Norilsk           673.125
        82   01 Jun 2027 21:30:13.852   01 Jun 2027 21:30:36.621            22.769                Norilsk           711.531
        83   01 Jun 2027 21:30:41.109   01 Jun 2027 21:30:46.531             5.422                Norilsk           169.437
        84   01 Jun 2027 21:32:49.574   01 Jun 2027 21:34:22.798            93.224                Irkutsk          2913.250
        85   01 Jun 2027 21:34:32.467   01 Jun 2027 21:35:06.241            33.774                Novosib          1055.437
        86   01 Jun 2027 21:39:35.247   01 Jun 2027 21:41:09.396            94.149                Novosib          2942.156
        87   01 Jun 2027 21:43:22.942   01 Jun 2027 21:45:15.288           112.346                  Delhi          3510.812
        88   01 Jun 2027 23:01:48.503   01 Jun 2027 23:02:28.997            40.494                Anadyr1          1265.437
        89   01 Jun 2027 23:04:55.122   01 Jun 2027 23:04:58.589             3.467                Norilsk           108.344
        90   01 Jun 2027 23:05:11.181   01 Jun 2027 23:05:49.788            38.607                Norilsk          1206.469
        91   01 Jun 2027 23:06:01.111   01 Jun 2027 23:06:30.330            29.219               Magadan2           913.094
        92   01 Jun 2027 23:06:47.151   01 Jun 2027 23:07:01.464            14.313               Magadan1           447.281
        93   01 Jun 2027 23:07:10.736   01 Jun 2027 23:08:20.214            69.478               Magadan1          2171.188
        94   01 Jun 2027 23:08:30.461   01 Jun 2027 23:11:25.062           174.601              Murmansk2          5456.281
        95   01 Jun 2027 23:16:53.995   01 Jun 2027 23:18:37.189           103.194                  Delhi          3224.812
        96   01 Jun 2027 23:28:36.239   01 Jun 2027 23:28:50.134            13.895                  Delhi           434.219
        97   01 Jun 2027 23:57:57.829   01 Jun 2027 23:59:00.220            62.391            RioGallegos          1949.719
        98   02 Jun 2027 00:33:38.606   02 Jun 2027 00:33:59.193            20.587                Anadyr1           643.344
        99   02 Jun 2027 00:34:34.351   02 Jun 2027 00:35:08.298            33.947                Anadyr2          1060.844
       100   02 Jun 2027 00:35:24.234   02 Jun 2027 00:35:39.435            15.201                Anadyr1           475.031
       101   02 Jun 2027 00:36:06.273   02 Jun 2027 00:36:47.469            41.196                Anadyr1          1287.375
       102   02 Jun 2027 00:39:26.574   02 Jun 2027 00:39:41.204            14.630                Anadyr1           457.188
       103   02 Jun 2027 00:40:07.504   02 Jun 2027 00:42:15.365           127.861               Magadan2          3995.656
       104   02 Jun 2027 00:43:05.714   02 Jun 2027 00:45:44.908           159.194              Murmansk1          4974.812
       105   02 Jun 2027 00:46:52.401   02 Jun 2027 00:47:42.757            50.356                 Moscow          1573.625
       106   02 Jun 2027 00:48:08.681   02 Jun 2027 00:49:43.241            94.560                 Moscow          2955.000
       107   02 Jun 2027 01:13:26.379   02 Jun 2027 01:14:17.251            50.872               CapeTown          1589.750
       108   02 Jun 2027 01:16:23.935   02 Jun 2027 01:16:50.530            26.595               CapeTown           831.094
       109   02 Jun 2027 02:07:29.802   02 Jun 2027 02:09:32.601           122.799                Anadyr1          3837.469
       110   02 Jun 2027 02:10:16.176   02 Jun 2027 02:10:35.473            19.297                Anadyr1           603.031
       111   02 Jun 2027 02:11:18.557   02 Jun 2027 02:12:29.687            71.130               Magadan1          2222.813
       112   02 Jun 2027 02:15:21.468   02 Jun 2027 02:15:29.451             7.983               Magadan2           249.469
       113   02 Jun 2027 02:16:26.500   02 Jun 2027 02:16:33.405             6.905                Norilsk           215.781
       114   02 Jun 2027 02:17:46.963   02 Jun 2027 02:18:15.117            28.154                Norilsk           879.813
       115   02 Jun 2027 02:19:01.005   02 Jun 2027 02:20:08.115            67.110              Murmansk2          2097.187
       116   02 Jun 2027 02:20:42.389   02 Jun 2027 02:20:50.249             7.860              Murmansk2           245.625
       117   02 Jun 2027 02:20:52.595   02 Jun 2027 02:21:35.693            43.098              Murmansk1          1346.812
       118   02 Jun 2027 02:22:14.017   02 Jun 2027 02:22:51.330            37.313                Novosib          1166.031
       119   02 Jun 2027 02:30:04.288   02 Jun 2027 02:30:09.030             4.742                 Moscow           148.187
       120   02 Jun 2027 02:34:23.524   02 Jun 2027 02:34:44.198            20.674                 Moscow           646.063
       121   02 Jun 2027 02:46:07.114   02 Jun 2027 02:46:23.547            16.433               CapeTown           513.531
       122   02 Jun 2027 02:49:48.619   02 Jun 2027 02:50:28.910            40.291               CapeTown          1259.094
       123   02 Jun 2027 02:54:59.578   02 Jun 2027 02:55:06.766             7.188               CapeTown           224.625
       124   02 Jun 2027 02:55:45.300   02 Jun 2027 02:55:48.247             2.947               CapeTown            92.094
       125   02 Jun 2027 03:49:12.120   02 Jun 2027 03:53:49.974           277.854                Anadyr2          8682.937
       126   02 Jun 2027 03:53:49.974   02 Jun 2027 03:54:25.711            35.737                Anadyr1          1116.781
       127   02 Jun 2027 03:54:38.837   02 Jun 2027 03:55:18.445            39.608               Magadan1          1237.750
       128   02 Jun 2027 05:28:05.021   02 Jun 2027 05:28:12.363             7.342               Magadan2           229.438
       129   02 Jun 2027 05:28:12.363   02 Jun 2027 05:31:24.584           192.221               Magadan1          6006.906
       130   02 Jun 2027 07:02:12.731   02 Jun 2027 07:02:45.751            33.020                Anadyr1          1031.875
       131   02 Jun 2027 07:02:55.532   02 Jun 2027 07:05:47.838           172.306                Anadyr2          5384.562
       132   02 Jun 2027 07:06:13.464   02 Jun 2027 07:07:01.710            48.246               Magadan2          1507.687
       133   02 Jun 2027 07:07:13.267   02 Jun 2027 07:07:46.540            33.273                Novosib          1039.781
       134   02 Jun 2027 08:40:37.885   02 Jun 2027 08:40:41.797             3.912                Irkutsk           122.250
       135   02 Jun 2027 08:40:53.653   02 Jun 2027 08:43:07.043           133.390                Irkutsk          4168.438
       136   02 Jun 2027 09:18:28.916   02 Jun 2027 09:19:34.620            65.704            RioGallegos          2053.250
       137   02 Jun 2027 09:22:19.667   02 Jun 2027 09:22:50.771            31.104            RioGallegos           972.000
       138   02 Jun 2027 09:23:20.518   02 Jun 2027 09:23:38.823            18.305            RioGallegos           572.031
       139   02 Jun 2027 09:23:42.588   02 Jun 2027 09:24:19.376            36.788            RioGallegos          1149.625
       140   02 Jun 2027 09:26:35.550   02 Jun 2027 09:27:05.039            29.489            RioGallegos           921.531
       141   02 Jun 2027 09:27:29.043   02 Jun 2027 09:28:01.921            32.878            RioGallegos          1027.438
       142   02 Jun 2027 09:52:49.796   02 Jun 2027 09:54:18.653            88.857                Sumatra          2776.781
       143   02 Jun 2027 09:57:26.924   02 Jun 2027 09:57:50.934            24.010                Sumatra           750.312
       144   02 Jun 2027 10:00:43.431   02 Jun 2027 10:01:27.199            43.768                Sumatra          1367.750
       145   02 Jun 2027 10:04:08.596   02 Jun 2027 10:04:54.439            45.843                Sumatra          1432.594
       146   02 Jun 2027 10:14:33.438   02 Jun 2027 10:14:52.303            18.865                Irkutsk           589.531
       147   02 Jun 2027 10:15:17.744   02 Jun 2027 10:16:03.487            45.743                Irkutsk          1429.469
       148   02 Jun 2027 10:16:12.489   02 Jun 2027 10:16:56.651            44.162                Irkutsk          1380.063
       149   02 Jun 2027 10:17:05.065   02 Jun 2027 10:17:45.820            40.755                Irkutsk          1273.594
       150   02 Jun 2027 10:17:48.455   02 Jun 2027 10:18:32.043            43.588                Novosib          1362.125
       151   02 Jun 2027 10:18:41.155   02 Jun 2027 10:18:53.712            12.557                Norilsk           392.406
       152   02 Jun 2027 11:37:31.445   02 Jun 2027 11:41:52.425           260.980                  Delhi          8155.625
       153   02 Jun 2027 11:51:21.919   02 Jun 2027 11:51:28.018             6.099                Novosib           190.594
       154   02 Jun 2027 11:52:16.545   02 Jun 2027 11:52:52.345            35.800                Novosib          1118.750
       155   02 Jun 2027 11:53:22.741   02 Jun 2027 11:54:31.723            68.982                Novosib          2155.687
       156   02 Jun 2027 13:21:16.521   02 Jun 2027 13:24:30.968           194.447                 Moscow          6076.469
       157   02 Jun 2027 13:24:47.906   02 Jun 2027 13:26:31.567           103.661              Murmansk1          3239.406
       158   02 Jun 2027 13:27:27.705   02 Jun 2027 13:28:01.500            33.795              Murmansk2          1056.094
       159   02 Jun 2027 13:28:13.459   02 Jun 2027 13:28:49.055            35.596              Murmansk2          1112.375
       160   02 Jun 2027 13:30:29.765   02 Jun 2027 13:31:47.442            77.677                Norilsk          2427.406
       161   02 Jun 2027 13:42:00.883   02 Jun 2027 13:43:55.550           114.667                Anadyr1          3583.344
       162   02 Jun 2027 14:35:51.494   02 Jun 2027 14:36:24.065            32.571               CapeTown          1017.844
       163   02 Jun 2027 14:37:41.270   02 Jun 2027 14:38:45.516            64.246               CapeTown          2007.687
       164   02 Jun 2027 14:45:54.631   02 Jun 2027 14:47:08.590            73.959               CapeTown          2311.219
       165   02 Jun 2027 15:04:19.751   02 Jun 2027 15:05:49.484            89.733              Murmansk1          2804.156
       166   02 Jun 2027 15:15:33.120   02 Jun 2027 15:18:00.195           147.075                Anadyr1          4596.094
       167   02 Jun 2027 15:21:07.888   02 Jun 2027 15:21:22.770            14.882                Anadyr2           465.062
       168   02 Jun 2027 15:26:12.155   02 Jun 2027 15:26:17.958             5.803                Anadyr2           181.344
       169   02 Jun 2027 16:17:01.314   02 Jun 2027 16:17:11.149             9.835               CapeTown           307.344
       170   02 Jun 2027 16:18:23.311   02 Jun 2027 16:18:50.039            26.728               CapeTown           835.250
       171   02 Jun 2027 16:42:38.466   02 Jun 2027 16:45:23.216           164.750              Murmansk1          5148.437
       172   02 Jun 2027 16:51:16.148   02 Jun 2027 16:53:55.510           159.362                Anadyr1          4980.063
       173   02 Jun 2027 16:54:10.539   02 Jun 2027 16:56:49.332           158.793               Magadan2          4962.281
       174   02 Jun 2027 18:27:11.703   02 Jun 2027 18:29:02.402           110.699                Anadyr2          3459.344
       175   02 Jun 2027 18:29:29.342   02 Jun 2027 18:32:02.969           153.627               Magadan1          4800.844
       176   02 Jun 2027 18:32:35.302   02 Jun 2027 18:33:27.542            52.240               Magadan1          1632.500
       177   02 Jun 2027 18:38:37.173   02 Jun 2027 18:40:11.208            94.035               Magadan1          2938.594
       178   02 Jun 2027 19:22:40.847   02 Jun 2027 19:25:42.870           182.023            RioGallegos          5688.219
       179   02 Jun 2027 19:29:19.068   02 Jun 2027 19:29:38.536            19.468            RioGallegos           608.375
       180   02 Jun 2027 20:05:07.478   02 Jun 2027 20:06:50.450           102.972                Norilsk          3217.875
       181   02 Jun 2027 20:07:40.811   02 Jun 2027 20:09:01.587            80.776                Norilsk          2524.250
       182   02 Jun 2027 20:09:46.325   02 Jun 2027 20:11:33.710           107.385                Irkutsk          3355.781
       183   02 Jun 2027 20:12:44.093   02 Jun 2027 20:13:14.682            30.589                Irkutsk           955.906
       184   02 Jun 2027 20:19:03.469   02 Jun 2027 20:19:10.400             6.931                Irkutsk           216.594
       185   02 Jun 2027 20:24:12.818   02 Jun 2027 20:27:02.157           169.339                Sumatra          5291.844
       186   02 Jun 2027 20:29:33.548   02 Jun 2027 20:30:46.307            72.759                Sumatra          2273.719
       187   02 Jun 2027 21:42:26.754   02 Jun 2027 21:42:47.225            20.471                Norilsk           639.719
       188   02 Jun 2027 21:44:49.444   02 Jun 2027 21:46:14.153            84.709                Irkutsk          2647.156
       189   02 Jun 2027 21:46:14.711   02 Jun 2027 21:48:23.365           128.654                Novosib          4020.437
       190   02 Jun 2027 21:54:20.267   02 Jun 2027 21:56:39.066           138.799                  Delhi          4337.469
       191   02 Jun 2027 23:16:31.357   02 Jun 2027 23:16:59.923            28.566                Anadyr2           892.688
       192   02 Jun 2027 23:17:04.060   02 Jun 2027 23:17:20.919            16.859                Norilsk           526.844
       193   02 Jun 2027 23:17:26.266   02 Jun 2027 23:18:40.249            73.983               Magadan2          2311.969
       194   02 Jun 2027 23:19:40.234   02 Jun 2027 23:21:50.644           130.410              Murmansk1          4075.313
       195   02 Jun 2027 23:23:00.451   02 Jun 2027 23:25:29.445           148.994              Murmansk2          4656.062
       196   02 Jun 2027 23:33:16.744   02 Jun 2027 23:33:48.068            31.324                  Delhi           978.875
       197   03 Jun 2027 00:45:20.929   03 Jun 2027 00:46:07.897            46.968                Anadyr1          1467.750
       198   03 Jun 2027 00:46:32.355   03 Jun 2027 00:47:19.917            47.562                Anadyr1          1486.312
       199   03 Jun 2027 00:48:07.363   03 Jun 2027 00:48:32.985            25.622                Anadyr2           800.688
       200   03 Jun 2027 00:51:11.561   03 Jun 2027 00:52:47.711            96.150               Magadan1          3004.687
       201   03 Jun 2027 00:53:16.183   03 Jun 2027 00:53:50.229            34.046               Magadan2          1063.938
       202   03 Jun 2027 00:55:06.246   03 Jun 2027 00:57:46.590           160.344              Murmansk1          5010.750
       203   03 Jun 2027 00:58:51.944   03 Jun 2027 00:58:57.049             5.105                 Moscow           159.531
       204   03 Jun 2027 00:59:52.551   03 Jun 2027 00:59:54.545             1.994                 Moscow            62.313
       205   03 Jun 2027 01:00:04.165   03 Jun 2027 01:00:13.564             9.399                 Moscow           293.719
       206   03 Jun 2027 01:04:17.986   03 Jun 2027 01:04:43.552            25.566                 Moscow           798.937
       207   03 Jun 2027 01:24:11.971   03 Jun 2027 01:25:53.049           101.078               CapeTown          3158.688
       208   03 Jun 2027 01:31:55.823   03 Jun 2027 01:33:19.069            83.246               CapeTown          2601.437
       209   03 Jun 2027 02:20:27.339   03 Jun 2027 02:20:45.638            18.299                Anadyr2           571.844
       210   03 Jun 2027 02:22:04.109   03 Jun 2027 02:22:04.167             0.058                Anadyr1             1.812
       211   03 Jun 2027 02:22:49.344   03 Jun 2027 02:24:04.529            75.185               Magadan2          2349.531
       212   03 Jun 2027 02:24:32.355   03 Jun 2027 02:24:59.290            26.935               Magadan1           841.719
       213   03 Jun 2027 02:25:54.377   03 Jun 2027 02:26:12.041            17.664               Magadan2           552.000
       214   03 Jun 2027 02:31:02.771   03 Jun 2027 02:32:53.683           110.912              Murmansk1          3466.000
       215   03 Jun 2027 02:33:46.867   03 Jun 2027 02:34:17.351            30.484                Novosib           952.625
       216   03 Jun 2027 02:36:51.033   03 Jun 2027 02:37:05.239            14.206                 Moscow           443.937
       217   03 Jun 2027 02:39:12.569   03 Jun 2027 02:39:32.544            19.975                 Moscow           624.219
       218   03 Jun 2027 02:42:54.797   03 Jun 2027 02:43:01.807             7.010              Murmansk2           219.063
       219   03 Jun 2027 02:43:51.087   03 Jun 2027 02:44:11.250            20.163                 Moscow           630.094
       220   03 Jun 2027 02:58:12.292   03 Jun 2027 02:58:22.146             9.854               CapeTown           307.938
       221   03 Jun 2027 02:58:45.130   03 Jun 2027 02:58:46.932             1.802               CapeTown            56.313
       222   03 Jun 2027 03:00:47.680   03 Jun 2027 03:01:19.110            31.430               CapeTown           982.188
       223   03 Jun 2027 03:06:40.977   03 Jun 2027 03:06:50.611             9.634               CapeTown           301.063
       224   03 Jun 2027 03:07:54.690   03 Jun 2027 03:08:00.110             5.420               CapeTown           169.375
       225   03 Jun 2027 03:55:49.392   03 Jun 2027 03:56:22.332            32.940               Magadan1          1029.375
       226   03 Jun 2027 04:00:34.208   03 Jun 2027 04:00:54.146            19.938               Magadan2           623.063
       227   03 Jun 2027 04:01:30.320   03 Jun 2027 04:06:51.582           321.262               Magadan2         10039.438
       228   03 Jun 2027 04:06:51.582   03 Jun 2027 04:06:57.678             6.096               Magadan1           190.500
       229   03 Jun 2027 05:39:12.575   03 Jun 2027 05:39:58.502            45.927                Irkutsk          1435.219
       230   03 Jun 2027 05:40:30.002   03 Jun 2027 05:41:08.400            38.398                Irkutsk          1199.937
       231   03 Jun 2027 05:41:18.826   03 Jun 2027 05:42:45.681            86.855                Anadyr1          2714.219
       232   03 Jun 2027 05:43:08.861   03 Jun 2027 05:43:29.954            21.093                Anadyr1           659.156
       233   03 Jun 2027 07:14:14.751   03 Jun 2027 07:15:16.332            61.581               Magadan1          1924.406
       234   03 Jun 2027 07:15:32.068   03 Jun 2027 07:15:44.129            12.061               Magadan2           376.906
       235   03 Jun 2027 07:16:12.479   03 Jun 2027 07:16:16.291             3.812               Magadan1           119.125
       236   03 Jun 2027 07:17:23.732   03 Jun 2027 07:17:40.506            16.774               Magadan1           524.187
       237   03 Jun 2027 07:17:40.506   03 Jun 2027 07:18:08.363            27.857               Magadan2           870.531
       238   03 Jun 2027 07:18:27.488   03 Jun 2027 07:18:50.087            22.599               Magadan1           706.219
       239   03 Jun 2027 07:18:51.895   03 Jun 2027 07:18:54.989             3.094              Murmansk1            96.687
       240   03 Jun 2027 07:19:05.612   03 Jun 2027 07:20:04.801            59.189              Murmansk1          1849.656
       241   03 Jun 2027 08:29:55.566   03 Jun 2027 08:30:42.738            47.172                Sumatra          1474.125
       242   03 Jun 2027 08:34:05.954   03 Jun 2027 08:34:52.995            47.041                Sumatra          1470.031
       243   03 Jun 2027 08:52:23.096   03 Jun 2027 08:52:25.563             2.467                Novosib            77.094
       244   03 Jun 2027 08:52:30.806   03 Jun 2027 08:53:54.771            83.965                Novosib          2623.906
       245   03 Jun 2027 08:54:20.151   03 Jun 2027 08:54:40.844            20.693                Irkutsk           646.656
       246   03 Jun 2027 08:55:17.052   03 Jun 2027 08:55:19.850             2.798                Norilsk            87.438
       247   03 Jun 2027 09:30:51.987   03 Jun 2027 09:31:40.256            48.269            RioGallegos          1508.406
       248   03 Jun 2027 09:33:02.432   03 Jun 2027 09:33:44.879            42.447            RioGallegos          1326.469
       249   03 Jun 2027 10:05:07.019   03 Jun 2027 10:06:33.020            86.001                Sumatra          2687.531
       250   03 Jun 2027 10:16:07.822   03 Jun 2027 10:16:35.036            27.214                  Delhi           850.438
       251   03 Jun 2027 10:28:33.079   03 Jun 2027 10:28:42.598             9.519                Novosib           297.469
       252   03 Jun 2027 10:29:05.544   03 Jun 2027 10:30:09.991            64.447                Irkutsk          2013.969
       253   03 Jun 2027 10:30:35.891   03 Jun 2027 10:30:42.602             6.711                Novosib           209.719
       254   03 Jun 2027 11:50:00.882   03 Jun 2027 11:53:14.730           193.848                  Delhi          6057.750
       255   03 Jun 2027 13:33:24.093   03 Jun 2027 13:35:09.126           105.033                 Moscow          3282.281
       256   03 Jun 2027 13:36:21.818   03 Jun 2027 13:37:52.320            90.502                 Moscow          2828.188
       257   03 Jun 2027 13:38:05.421   03 Jun 2027 13:39:31.259            85.838              Murmansk1          2682.438
       258   03 Jun 2027 13:41:20.363   03 Jun 2027 13:41:26.224             5.861              Murmansk1           183.156
       259   03 Jun 2027 13:42:25.929   03 Jun 2027 13:42:43.131            17.202              Murmansk2           537.563
       260   03 Jun 2027 13:43:33.833   03 Jun 2027 13:44:50.233            76.400                Norilsk          2387.500
       261   03 Jun 2027 13:45:58.331   03 Jun 2027 13:46:22.431            24.100                Norilsk           753.125
       262   03 Jun 2027 13:53:03.811   03 Jun 2027 13:56:05.584           181.773                Anadyr2          5680.406
       263   03 Jun 2027 15:12:31.526   03 Jun 2027 15:13:11.477            39.951                 Moscow          1248.469
       264   03 Jun 2027 15:14:49.330   03 Jun 2027 15:15:38.112            48.782              Murmansk1          1524.438
       265   03 Jun 2027 15:18:08.427   03 Jun 2027 15:19:32.802            84.375              Murmansk1          2636.719
       266   03 Jun 2027 15:27:31.013   03 Jun 2027 15:28:19.952            48.939                Anadyr2          1529.344
       267   03 Jun 2027 15:28:23.269   03 Jun 2027 15:28:39.104            15.835                Anadyr1           494.844
       268   03 Jun 2027 15:28:48.752   03 Jun 2027 15:29:07.835            19.083                Anadyr1           596.344
       269   03 Jun 2027 15:32:19.809   03 Jun 2027 15:32:56.548            36.739                Anadyr1          1148.094
       270   03 Jun 2027 15:32:58.660   03 Jun 2027 15:33:15.746            17.086                Anadyr2           533.938
       271   03 Jun 2027 15:34:30.814   03 Jun 2027 15:35:26.552            55.738                Anadyr1          1741.813
       272   03 Jun 2027 16:55:30.781   03 Jun 2027 16:57:56.744           145.963              Murmansk1          4561.344
       273   03 Jun 2027 16:58:22.514   03 Jun 2027 16:59:18.613            56.099              Murmansk1          1753.094
       274   03 Jun 2027 17:03:17.344   03 Jun 2027 17:03:45.441            28.097                Anadyr2           878.031
       275   03 Jun 2027 17:03:57.180   03 Jun 2027 17:04:18.366            21.186                Anadyr1           662.062
       276   03 Jun 2027 17:05:00.807   03 Jun 2027 17:05:10.065             9.258                Anadyr1           289.313
       277   03 Jun 2027 17:06:02.536   03 Jun 2027 17:08:13.867           131.331               Magadan2          4104.094
       278   03 Jun 2027 17:15:24.868   03 Jun 2027 17:15:49.465            24.597               Magadan1           768.656
       279   03 Jun 2027 18:39:12.816   03 Jun 2027 18:43:10.288           237.472                Anadyr2          7421.000
       280   03 Jun 2027 18:43:26.332   03 Jun 2027 18:45:13.542           107.210               Magadan2          3350.312
       281   03 Jun 2027 18:48:47.480   03 Jun 2027 18:48:57.126             9.646               Magadan2           301.438
       282   03 Jun 2027 18:50:12.147   03 Jun 2027 18:50:18.106             5.959               Magadan2           186.219
       283   03 Jun 2027 18:53:29.813   03 Jun 2027 18:54:22.765            52.952               Magadan1          1654.750
       284   03 Jun 2027 19:34:15.271   03 Jun 2027 19:37:17.498           182.227            RioGallegos          5694.594
       285   03 Jun 2027 19:39:36.293   03 Jun 2027 19:40:47.141            70.848            RioGallegos          2214.000
       286   03 Jun 2027 20:17:06.226   03 Jun 2027 20:21:02.039           235.813                Norilsk          7369.156
       287   03 Jun 2027 20:22:04.590   03 Jun 2027 20:22:50.660            46.070                Irkutsk          1439.688
       288   03 Jun 2027 20:23:34.132   03 Jun 2027 20:23:45.403            11.271                Irkutsk           352.219
       289   03 Jun 2027 20:25:15.501   03 Jun 2027 20:26:42.242            86.741                Irkutsk          2710.656
       290   03 Jun 2027 20:35:40.887   03 Jun 2027 20:36:20.870            39.983                Sumatra          1249.469
       291   03 Jun 2027 20:36:59.391   03 Jun 2027 20:37:55.233            55.842                Sumatra          1745.062
       292   03 Jun 2027 20:41:46.454   03 Jun 2027 20:42:19.917            33.463                Sumatra          1045.719
       293   03 Jun 2027 21:54:38.222   03 Jun 2027 21:54:48.067             9.845                Norilsk           307.656
       294   03 Jun 2027 21:55:18.278   03 Jun 2027 21:55:42.390            24.112                Norilsk           753.500
       295   03 Jun 2027 21:55:46.224   03 Jun 2027 21:55:54.875             8.651                Norilsk           270.344
       296   03 Jun 2027 21:56:35.113   03 Jun 2027 21:57:36.425            61.312               Magadan2          1916.000
       297   03 Jun 2027 21:57:39.726   03 Jun 2027 21:57:58.501            18.775                Novosib           586.719
       298   03 Jun 2027 21:58:39.287   03 Jun 2027 22:00:01.668            82.381                Novosib          2574.406
       299   03 Jun 2027 22:05:40.014   03 Jun 2027 22:08:11.077           151.063                  Delhi          4720.719
       300   03 Jun 2027 22:12:15.408   03 Jun 2027 22:12:48.885            33.477                  Delhi          1046.156
       301   03 Jun 2027 23:28:32.501   03 Jun 2027 23:28:57.559            25.058                Anadyr1           783.063
       302   03 Jun 2027 23:28:58.666   03 Jun 2027 23:30:26.499            87.833                Norilsk          2744.781
       303   03 Jun 2027 23:30:31.110   03 Jun 2027 23:31:24.772            53.662               Magadan1          1676.938
       304   03 Jun 2027 23:31:32.797   03 Jun 2027 23:33:51.322           138.525              Murmansk2          4328.906
       305   03 Jun 2027 23:34:27.660   03 Jun 2027 23:35:18.761            51.101              Murmansk1          1596.906
       306   03 Jun 2027 23:37:18.333   03 Jun 2027 23:37:31.611            13.278              Murmansk2           414.938
       307   03 Jun 2027 23:46:27.861   03 Jun 2027 23:47:30.004            62.143                  Delhi          1941.969
       308   04 Jun 2027 00:57:03.989   04 Jun 2027 00:57:34.440            30.451                Anadyr1           951.594
       309   04 Jun 2027 00:58:00.369   04 Jun 2027 00:58:30.957            30.588                Anadyr1           955.875
       310   04 Jun 2027 00:59:13.977   04 Jun 2027 01:00:18.668            64.691                Anadyr1          2021.594
       311   04 Jun 2027 01:02:41.555   04 Jun 2027 01:04:18.704            97.149               Magadan1          3035.906
       312   04 Jun 2027 01:04:44.179   04 Jun 2027 01:05:39.276            55.097               Magadan1          1721.781
       313   04 Jun 2027 01:07:07.123   04 Jun 2027 01:09:38.534           151.411              Murmansk1          4731.594
       314   04 Jun 2027 01:12:03.065   04 Jun 2027 01:12:17.873            14.808                 Moscow           462.750
       315   04 Jun 2027 01:17:03.876   04 Jun 2027 01:17:15.930            12.054                 Moscow           376.688
       316   04 Jun 2027 01:17:24.137   04 Jun 2027 01:17:38.138            14.001                 Moscow           437.531
       317   04 Jun 2027 01:21:42.147   04 Jun 2027 01:21:56.210            14.063                 Moscow           439.469
       318   04 Jun 2027 01:35:38.390   04 Jun 2027 01:36:42.191            63.801               CapeTown          1993.781
       319   04 Jun 2027 01:41:16.110   04 Jun 2027 01:41:24.496             8.386               CapeTown           262.062
       320   04 Jun 2027 01:45:31.856   04 Jun 2027 01:46:00.835            28.979               CapeTown           905.594
       321   04 Jun 2027 02:31:14.235   04 Jun 2027 02:32:26.760            72.525                Anadyr2          2266.406
       322   04 Jun 2027 02:33:42.765   04 Jun 2027 02:33:48.756             5.991                Anadyr1           187.219
       323   04 Jun 2027 02:34:21.392   04 Jun 2027 02:35:14.963            53.571               Magadan2          1674.094
       324   04 Jun 2027 02:35:14.963   04 Jun 2027 02:35:58.911            43.948               Magadan1          1373.375
       325   04 Jun 2027 02:39:24.454   04 Jun 2027 02:39:43.203            18.749               Magadan2           585.906
       326   04 Jun 2027 02:40:34.236   04 Jun 2027 02:40:58.445            24.209                Norilsk           756.531
       327   04 Jun 2027 02:43:04.525   04 Jun 2027 02:43:12.825             8.300              Murmansk1           259.375
       328   04 Jun 2027 02:43:15.947   04 Jun 2027 02:43:52.697            36.750              Murmansk2          1148.437
       329   04 Jun 2027 02:44:40.177   04 Jun 2027 02:44:53.529            13.352              Murmansk1           417.250
       330   04 Jun 2027 02:45:17.667   04 Jun 2027 02:45:26.947             9.280              Murmansk2           290.000
       331   04 Jun 2027 02:46:05.164   04 Jun 2027 02:46:51.853            46.689                Novosib          1459.031
       332   04 Jun 2027 02:47:38.846   04 Jun 2027 02:48:37.149            58.303                Novosib          1821.969
       333   04 Jun 2027 02:56:34.119   04 Jun 2027 02:56:38.538             4.419                 Moscow           138.094
       334   04 Jun 2027 02:56:44.081   04 Jun 2027 02:57:24.073            39.992                 Moscow          1249.750
       335   04 Jun 2027 03:13:46.161   04 Jun 2027 03:14:56.674            70.513               CapeTown          2203.531
       336   04 Jun 2027 04:13:32.484   04 Jun 2027 04:16:59.312           206.828               Magadan1          6463.375
       337   04 Jun 2027 05:51:42.622   04 Jun 2027 05:55:23.969           221.347                Anadyr1          6917.094
       338   04 Jun 2027 07:27:13.275   04 Jun 2027 07:27:17.995             4.720               Magadan2           147.500
       339   04 Jun 2027 07:27:41.450   04 Jun 2027 07:28:12.436            30.986               Magadan2           968.312
       340   04 Jun 2027 07:29:23.890   04 Jun 2027 07:29:43.659            19.769               Magadan2           617.781
       341   04 Jun 2027 07:29:55.496   04 Jun 2027 07:30:18.436            22.940              Murmansk2           716.875
       342   04 Jun 2027 07:30:27.728   04 Jun 2027 07:30:37.003             9.275               Magadan1           289.844
       343   04 Jun 2027 07:30:42.103   04 Jun 2027 07:31:07.651            25.548              Murmansk1           798.375
       344   04 Jun 2027 08:08:11.316   04 Jun 2027 08:08:23.110            11.794            RioGallegos           368.563
       345   04 Jun 2027 08:09:54.206   04 Jun 2027 08:09:55.185             0.979            RioGallegos            30.594
       346   04 Jun 2027 08:10:47.405   04 Jun 2027 08:11:17.828            30.423            RioGallegos           950.719
       347   04 Jun 2027 08:41:28.434   04 Jun 2027 08:42:19.274            50.840                Sumatra          1588.750
       348   04 Jun 2027 08:43:13.383   04 Jun 2027 08:44:07.462            54.079                Sumatra          1689.969
       349   04 Jun 2027 09:03:42.727   04 Jun 2027 09:03:58.490            15.763                Irkutsk           492.594
       350   04 Jun 2027 09:05:05.273   04 Jun 2027 09:05:11.817             6.544                Irkutsk           204.500
       351   04 Jun 2027 09:05:49.982   04 Jun 2027 09:05:53.185             3.203                Irkutsk           100.094
       352   04 Jun 2027 09:06:04.408   04 Jun 2027 09:06:05.539             1.131              Murmansk1            35.344
       353   04 Jun 2027 09:06:14.165   04 Jun 2027 09:06:14.325             0.160                Novosib             5.000
       354   04 Jun 2027 09:06:50.352   04 Jun 2027 09:07:07.597            17.245                Irkutsk           538.906
       355   04 Jun 2027 09:43:20.277   04 Jun 2027 09:43:49.805            29.528            RioGallegos           922.750
       356   04 Jun 2027 09:44:31.106   04 Jun 2027 09:45:07.397            36.291            RioGallegos          1134.094
       357   04 Jun 2027 10:17:32.227   04 Jun 2027 10:18:30.795            58.568                Sumatra          1830.250
       358   04 Jun 2027 10:25:08.376   04 Jun 2027 10:26:23.960            75.584                  Delhi          2362.000
       359   04 Jun 2027 10:39:26.957   04 Jun 2027 10:39:53.069            26.112                Irkutsk           816.000
       360   04 Jun 2027 10:40:17.003   04 Jun 2027 10:40:40.006            23.003                Novosib           718.844
       361   04 Jun 2027 10:40:43.620   04 Jun 2027 10:41:38.689            55.069                Novosib          1720.906
       362   04 Jun 2027 10:41:42.452   04 Jun 2027 10:42:14.552            32.100                Novosib          1003.125
       363   04 Jun 2027 10:42:20.417   04 Jun 2027 10:42:31.074            10.657                Norilsk           333.031
       364   04 Jun 2027 10:42:35.362   04 Jun 2027 10:42:36.032             0.670                Novosib            20.937
       365   04 Jun 2027 10:42:36.903   04 Jun 2027 10:42:47.109            10.206                Norilsk           318.937
       366   04 Jun 2027 12:02:40.697   04 Jun 2027 12:04:37.919           117.222                  Delhi          3663.188
       367   04 Jun 2027 12:05:49.985   04 Jun 2027 12:07:06.284            76.299                  Delhi          2384.344
       368   04 Jun 2027 12:12:30.648   04 Jun 2027 12:13:08.990            38.342                Novosib          1198.187
       369   04 Jun 2027 12:18:28.656   04 Jun 2027 12:18:44.823            16.167                Novosib           505.219
       370   04 Jun 2027 13:45:34.879   04 Jun 2027 13:47:07.158            92.279                 Moscow          2883.719
       371   04 Jun 2027 13:49:04.852   04 Jun 2027 13:53:21.685           256.833              Murmansk2          8026.031
       372   04 Jun 2027 13:53:21.685   04 Jun 2027 13:53:32.227            10.542              Murmansk1           329.437
       373   04 Jun 2027 13:57:16.967   04 Jun 2027 13:57:45.564            28.597              Murmansk1           893.656
       374   04 Jun 2027 14:04:37.664   04 Jun 2027 14:06:14.485            96.821                Anadyr2          3025.656
       375   04 Jun 2027 14:06:34.984   04 Jun 2027 14:07:59.655            84.671                Anadyr1          2645.969
       376   04 Jun 2027 14:09:32.435   04 Jun 2027 14:10:39.962            67.527                Anadyr2          2110.219
       377   04 Jun 2027 15:27:15.332   04 Jun 2027 15:28:18.409            63.077              Murmansk2          1971.156
       378   04 Jun 2027 15:28:18.985   04 Jun 2027 15:29:07.401            48.416              Murmansk1          1513.000
       379   04 Jun 2027 15:35:40.797   04 Jun 2027 15:35:44.689             3.892              Murmansk2           121.625
       380   04 Jun 2027 15:36:01.089   04 Jun 2027 15:36:27.614            26.525              Murmansk2           828.906
       381   04 Jun 2027 15:39:29.684   04 Jun 2027 15:41:37.962           128.278                Anadyr1          4008.688
       382   04 Jun 2027 15:44:14.682   04 Jun 2027 15:44:29.901            15.219                Anadyr2           475.594
       383   04 Jun 2027 15:45:39.268   04 Jun 2027 15:45:47.046             7.778                Anadyr1           243.062
       384   04 Jun 2027 15:46:11.683   04 Jun 2027 15:46:20.138             8.455                Anadyr1           264.219
       385   04 Jun 2027 15:50:44.488   04 Jun 2027 15:51:04.573            20.085                Anadyr1           627.656
       386   04 Jun 2027 16:42:49.019   04 Jun 2027 16:44:48.054           119.035               CapeTown          3719.844
       387   04 Jun 2027 17:08:33.143   04 Jun 2027 17:08:57.059            23.916              Murmansk1           747.375
       388   04 Jun 2027 17:08:57.059   04 Jun 2027 17:09:13.003            15.944              Murmansk2           498.250
       389   04 Jun 2027 17:09:58.559   04 Jun 2027 17:10:24.914            26.355              Murmansk2           823.594
       390   04 Jun 2027 17:11:59.013   04 Jun 2027 17:12:13.341            14.328              Murmansk1           447.750
       391   04 Jun 2027 17:15:18.653   04 Jun 2027 17:16:56.660            98.007                Anadyr2          3062.719
       392   04 Jun 2027 17:17:56.540   04 Jun 2027 17:18:59.706            63.166               Magadan1          1973.938
       393   04 Jun 2027 17:20:10.758   04 Jun 2027 17:20:36.093            25.335               Magadan1           791.719
       394   04 Jun 2027 17:23:19.496   04 Jun 2027 17:23:31.934            12.438               Magadan1           388.688
       395   04 Jun 2027 17:23:46.256   04 Jun 2027 17:23:55.303             9.047               Magadan2           282.719
       396   04 Jun 2027 17:23:58.599   04 Jun 2027 17:24:01.417             2.818               Magadan2            88.063
       397   04 Jun 2027 17:26:09.965   04 Jun 2027 17:27:47.564            97.599               Magadan1          3049.969
       398   04 Jun 2027 18:51:13.755   04 Jun 2027 18:53:05.452           111.697                Anadyr1          3490.531
       399   04 Jun 2027 18:53:30.580   04 Jun 2027 18:55:28.936           118.356               Magadan2          3698.625
       400   04 Jun 2027 18:55:50.458   04 Jun 2027 18:56:49.102            58.644               Magadan2          1832.625
       401   04 Jun 2027 19:03:40.243   04 Jun 2027 19:03:50.107             9.864               Magadan2           308.250
       402   04 Jun 2027 19:45:56.899   04 Jun 2027 19:49:23.175           206.276            RioGallegos          6446.125
       403   04 Jun 2027 19:51:07.948   04 Jun 2027 19:51:22.230            14.282            RioGallegos           446.312
       404   04 Jun 2027 19:52:15.563   04 Jun 2027 19:52:17.511             1.948            RioGallegos            60.875
       405   04 Jun 2027 20:26:53.803   04 Jun 2027 20:27:26.635            32.832                Anadyr2          1026.000
       406   04 Jun 2027 20:29:31.679   04 Jun 2027 20:31:18.071           106.392               Magadan2          3324.750
       407   04 Jun 2027 20:31:44.307   04 Jun 2027 20:33:02.893            78.586                Norilsk          2455.813
       408   04 Jun 2027 20:33:24.103   04 Jun 2027 20:34:23.530            59.427                Irkutsk          1857.094
       409   04 Jun 2027 20:34:56.303   04 Jun 2027 20:35:26.017            29.714                Irkutsk           928.562
       410   04 Jun 2027 20:36:49.100   04 Jun 2027 20:38:18.570            89.470                Novosib          2795.937
       411   04 Jun 2027 20:47:17.974   04 Jun 2027 20:48:16.262            58.288                Sumatra          1821.500
       412   04 Jun 2027 20:49:25.095   04 Jun 2027 20:50:45.484            80.389                Sumatra          2512.156
       413   04 Jun 2027 22:05:44.598   04 Jun 2027 22:06:05.783            21.185               Magadan1           662.031
       414   04 Jun 2027 22:06:45.611   04 Jun 2027 22:06:48.452             2.841                Norilsk            88.781
       415   04 Jun 2027 22:07:04.014   04 Jun 2027 22:07:45.681            41.667               Magadan1          1302.094
       416   04 Jun 2027 22:08:07.931   04 Jun 2027 22:08:23.596            15.665               Magadan1           489.531
       417   04 Jun 2027 22:08:33.654   04 Jun 2027 22:08:54.404            20.750                Norilsk           648.437
       418   04 Jun 2027 22:09:07.012   04 Jun 2027 22:09:35.667            28.655                Novosib           895.469
       419   04 Jun 2027 22:09:47.711   04 Jun 2027 22:10:02.358            14.647                Irkutsk           457.719
       420   04 Jun 2027 22:10:33.669   04 Jun 2027 22:11:39.278            65.609                Novosib          2050.281
       421   04 Jun 2027 22:17:11.628   04 Jun 2027 22:20:07.292           175.664                  Delhi          5489.500
       422   04 Jun 2027 23:36:14.930   04 Jun 2027 23:37:14.731            59.801                Anadyr1          1868.781
       423   04 Jun 2027 23:41:00.250   04 Jun 2027 23:41:03.590             3.340                Norilsk           104.375
       424   04 Jun 2027 23:41:17.398   04 Jun 2027 23:42:57.153            99.755               Magadan2          3117.344
       425   04 Jun 2027 23:42:57.153   04 Jun 2027 23:43:25.669            28.516               Magadan1           891.125
       426   04 Jun 2027 23:43:27.811   04 Jun 2027 23:45:52.299           144.488              Murmansk2          4515.250
       427   04 Jun 2027 23:47:01.869   04 Jun 2027 23:47:12.048            10.179              Murmansk2           318.094
       428   04 Jun 2027 23:49:00.194   04 Jun 2027 23:49:20.044            19.850                 Moscow           620.312
       429   04 Jun 2027 23:50:06.671   04 Jun 2027 23:51:29.979            83.308                 Moscow          2603.375
       430   05 Jun 2027 00:37:01.903   05 Jun 2027 00:37:22.129            20.226            RioGallegos           632.062
       431   05 Jun 2027 01:08:47.919   05 Jun 2027 01:08:51.016             3.097                Anadyr1            96.781
       432   05 Jun 2027 01:08:53.247   05 Jun 2027 01:09:20.148            26.901                Anadyr1           840.656
       433   05 Jun 2027 01:09:36.676   05 Jun 2027 01:09:54.446            17.770                Anadyr1           555.312
       434   05 Jun 2027 01:10:30.089   05 Jun 2027 01:11:05.815            35.726                Anadyr2          1116.438
       435   05 Jun 2027 01:11:31.643   05 Jun 2027 01:12:05.534            33.891                Anadyr2          1059.094
       436   05 Jun 2027 01:14:00.581   05 Jun 2027 01:14:25.446            24.865                Anadyr2           777.031
       437   05 Jun 2027 01:15:22.782   05 Jun 2027 01:16:39.640            76.858               Magadan1          2401.813
       438   05 Jun 2027 01:16:49.981   05 Jun 2027 01:17:04.283            14.302                Norilsk           446.938
       439   05 Jun 2027 01:17:43.404   05 Jun 2027 01:18:28.818            45.414               Magadan2          1419.188
       440   05 Jun 2027 01:19:08.275   05 Jun 2027 01:21:01.906           113.631              Murmansk1          3550.969
       441   05 Jun 2027 01:24:08.480   05 Jun 2027 01:24:22.680            14.200                 Moscow           443.750
       442   05 Jun 2027 01:24:52.363   05 Jun 2027 01:25:02.040             9.677                 Moscow           302.406
       443   05 Jun 2027 01:26:24.527   05 Jun 2027 01:28:14.483           109.956                 Moscow          3436.125
       444   05 Jun 2027 01:48:59.886   05 Jun 2027 01:49:17.480            17.594               CapeTown           549.813
       445   05 Jun 2027 01:56:29.620   05 Jun 2027 01:56:55.828            26.208               CapeTown           819.000
       446   05 Jun 2027 02:43:08.864   05 Jun 2027 02:44:48.315            99.451                Anadyr1          3107.844
       447   05 Jun 2027 02:45:34.630   05 Jun 2027 02:45:39.348             4.718                Anadyr1           147.438
       448   05 Jun 2027 02:45:54.865   05 Jun 2027 02:47:13.305            78.440               Magadan2          2451.250
       449   05 Jun 2027 02:47:34.737   05 Jun 2027 02:47:47.744            13.007               Magadan1           406.469
       450   05 Jun 2027 02:53:59.273   05 Jun 2027 02:54:04.183             4.910               Magadan1           153.438
       451   05 Jun 2027 02:54:05.433   05 Jun 2027 02:54:10.147             4.714                Norilsk           147.312
       452   05 Jun 2027 02:54:26.556   05 Jun 2027 02:54:39.122            12.566                Norilsk           392.688
       453   05 Jun 2027 02:55:06.234   05 Jun 2027 02:56:19.468            73.234              Murmansk1          2288.562
       454   05 Jun 2027 02:56:32.308   05 Jun 2027 02:56:51.569            19.261              Murmansk1           601.906
       455   05 Jun 2027 02:58:19.367   05 Jun 2027 02:59:08.046            48.679                 Moscow          1521.219
       456   05 Jun 2027 03:01:31.147   05 Jun 2027 03:01:56.221            25.074              Murmansk1           783.563
       457   05 Jun 2027 03:02:27.122   05 Jun 2027 03:02:41.597            14.475              Murmansk1           452.344
       458   05 Jun 2027 03:03:09.991   05 Jun 2027 03:03:58.024            48.033              Murmansk1          1501.031
       459   05 Jun 2027 03:03:59.223   05 Jun 2027 03:04:37.693            38.470                 Moscow          1202.187
       460   05 Jun 2027 03:04:54.399   05 Jun 2027 03:05:04.012             9.613                 Moscow           300.406
       461   05 Jun 2027 03:08:58.003   05 Jun 2027 03:09:31.893            33.890                 Moscow          1059.062
       462   05 Jun 2027 04:19:10.840   05 Jun 2027 04:21:23.900           133.060               Magadan2          4158.125
       463   05 Jun 2027 04:22:34.588   05 Jun 2027 04:22:52.761            18.173                Anadyr2           567.906
       464   05 Jun 2027 04:25:38.363   05 Jun 2027 04:26:37.444            59.081                Anadyr2          1846.281
       465   05 Jun 2027 04:26:41.637   05 Jun 2027 04:27:28.979            47.342               Magadan2          1479.438
       466   05 Jun 2027 04:27:56.712   05 Jun 2027 04:29:02.722            66.010                Anadyr1          2062.813
       467   05 Jun 2027 04:29:02.963   05 Jun 2027 04:29:59.229            56.266                Norilsk          1758.313
       468   05 Jun 2027 04:30:01.425   05 Jun 2027 04:30:50.316            48.891               Magadan2          1527.844
       469   05 Jun 2027 04:32:27.062   05 Jun 2027 04:32:53.213            26.151              Murmansk2           817.219
       470   05 Jun 2027 06:03:40.769   05 Jun 2027 06:04:34.599            53.830                Anadyr1          1682.187
       471   05 Jun 2027 06:05:22.810   05 Jun 2027 06:05:47.697            24.887                Irkutsk           777.719
       472   05 Jun 2027 06:05:48.080   05 Jun 2027 06:06:41.551            53.471                Anadyr2          1670.969
       473   05 Jun 2027 07:39:09.008   05 Jun 2027 07:39:18.454             9.446               Magadan1           295.187
       474   05 Jun 2027 07:39:48.815   05 Jun 2027 07:40:14.872            26.057               Magadan1           814.281
       475   05 Jun 2027 07:40:23.019   05 Jun 2027 07:40:34.920            11.901                Irkutsk           371.906
       476   05 Jun 2027 07:40:38.039   05 Jun 2027 07:41:32.144            54.105                Irkutsk          1690.781
       477   05 Jun 2027 07:41:43.876   05 Jun 2027 07:42:49.159            65.283                Irkutsk          2040.094
       478   05 Jun 2027 07:43:09.561   05 Jun 2027 07:43:50.858            41.297              Murmansk2          1290.531
       479   05 Jun 2027 08:17:50.914   05 Jun 2027 08:18:51.058            60.144            RioGallegos          1879.500
       480   05 Jun 2027 08:53:09.321   05 Jun 2027 08:53:53.897            44.576                Sumatra          1393.000
       481   05 Jun 2027 09:15:58.636   05 Jun 2027 09:16:08.515             9.879                Irkutsk           308.719
       482   05 Jun 2027 09:16:13.645   05 Jun 2027 09:17:02.756            49.111                Irkutsk          1534.719
