uniorb/output/strategy_4/Drop/Drop_KinoSat_110304.txt

KinoSat_110304
-------------------------
    Access    *     Start Time (UTCG)     *     Stop Time (UTCG)  *   Duration (s)        *       Station  *  Data (Mbytes)
         1   01 Jun 2027 04:07:54.083   01 Jun 2027 04:08:11.720            17.637               Magadan1          2204.625
         2   01 Jun 2027 04:08:28.362   01 Jun 2027 04:10:33.298           124.936               Magadan1         15617.000
         3   01 Jun 2027 04:10:42.595   01 Jun 2027 04:11:30.003            47.408               Magadan1          5926.000
         4   01 Jun 2027 04:11:49.704   01 Jun 2027 04:12:19.489            29.785               Magadan2          3723.125
         5   01 Jun 2027 04:12:41.173   01 Jun 2027 04:13:18.886            37.713                Irkutsk          4714.125
         6   01 Jun 2027 04:14:42.673   01 Jun 2027 04:14:51.979             9.306              Murmansk1          1163.250
         7   01 Jun 2027 04:15:06.628   01 Jun 2027 04:15:13.134             6.506                Norilsk           813.250
         8   01 Jun 2027 04:15:17.348   01 Jun 2027 04:15:24.580             7.232                Norilsk           904.000
         9   01 Jun 2027 04:48:55.349   01 Jun 2027 04:49:41.547            46.198            RioGallegos          5774.750
        10   01 Jun 2027 05:22:58.611   01 Jun 2027 05:24:02.302            63.691                Sumatra          7961.375
        11   01 Jun 2027 05:33:44.173   01 Jun 2027 05:36:28.850           164.677                  Delhi         20584.625
        12   01 Jun 2027 05:45:40.724   01 Jun 2027 05:46:06.713            25.989                Irkutsk          3248.625
        13   01 Jun 2027 05:46:31.458   01 Jun 2027 05:48:34.774           123.316                Irkutsk         15414.500
        14   01 Jun 2027 05:49:15.976   01 Jun 2027 05:49:53.605            37.629                 Moscow          4703.625
        15   01 Jun 2027 05:49:56.336   01 Jun 2027 05:50:03.881             7.545                Novosib           943.125
        16   01 Jun 2027 06:27:33.799   01 Jun 2027 06:27:49.948            16.149            RioGallegos          2018.625
        17   01 Jun 2027 07:02:30.723   01 Jun 2027 07:04:36.430           125.707                Sumatra         15713.375
        18   01 Jun 2027 07:23:32.897   01 Jun 2027 07:23:49.007            16.110              Murmansk1          2013.750
        19   01 Jun 2027 07:23:54.480   01 Jun 2027 07:24:06.969            12.489                Norilsk          1561.125
        20   01 Jun 2027 07:24:27.515   01 Jun 2027 07:24:39.211            11.696                Novosib          1462.000
        21   01 Jun 2027 07:24:44.823   01 Jun 2027 07:26:32.562           107.739                Novosib         13467.375
        22   01 Jun 2027 08:58:19.551   01 Jun 2027 09:01:37.733           198.182              Murmansk2         24772.750
        23   01 Jun 2027 09:01:49.634   01 Jun 2027 09:04:49.293           179.659                Norilsk         22457.375
        24   01 Jun 2027 09:05:17.244   01 Jun 2027 09:07:55.255           158.011              Murmansk2         19751.375
        25   01 Jun 2027 10:06:32.591   01 Jun 2027 10:14:39.203           486.612               CapeTown         60826.500
        26   01 Jun 2027 10:46:10.373   01 Jun 2027 10:48:03.893           113.520                Anadyr1         14190.000
        27   01 Jun 2027 10:48:32.920   01 Jun 2027 10:50:34.747           121.827                Anadyr1         15228.375
        28   01 Jun 2027 12:25:20.973   01 Jun 2027 12:26:02.570            41.597               Magadan2          5199.625
        29   01 Jun 2027 12:29:48.154   01 Jun 2027 12:32:03.124           134.970               Magadan1         16871.250
        30   01 Jun 2027 13:59:54.841   01 Jun 2027 14:01:07.755            72.914               Magadan2          9114.250
        31   01 Jun 2027 14:02:05.950   01 Jun 2027 14:03:06.262            60.312               Magadan1          7539.000
        32   01 Jun 2027 15:41:27.144   01 Jun 2027 15:44:40.095           192.951                Irkutsk         24118.875
        33   01 Jun 2027 15:45:06.142   01 Jun 2027 15:47:25.701           139.559                Irkutsk         17444.875
        34   01 Jun 2027 15:58:34.792   01 Jun 2027 15:58:51.882            17.090                Sumatra          2136.250
        35   01 Jun 2027 15:59:53.461   01 Jun 2027 16:01:10.074            76.613                Sumatra          9576.625
        36   01 Jun 2027 17:15:16.331   01 Jun 2027 17:16:52.181            95.850                Irkutsk         11981.250
        37   01 Jun 2027 17:17:54.347   01 Jun 2027 17:20:17.547           143.200                Novosib         17900.000
        38   01 Jun 2027 17:29:35.870   01 Jun 2027 17:31:37.405           121.535                Sumatra         15191.875
        39   01 Jun 2027 18:58:34.900   01 Jun 2027 19:00:43.625           128.725                  Delhi          4450.500
        40   02 Jun 2027 04:25:30.403   02 Jun 2027 04:26:42.594            72.191                Novosib          9023.875
        41   02 Jun 2027 04:26:46.851   02 Jun 2027 04:30:04.830           197.979              Murmansk1         24747.375
        42   02 Jun 2027 05:34:57.423   02 Jun 2027 05:37:29.031           151.608                Sumatra         18951.000
        43   02 Jun 2027 05:46:25.748   02 Jun 2027 05:48:14.370           108.622                  Delhi         13577.750
        44   02 Jun 2027 05:59:37.204   02 Jun 2027 06:01:02.274            85.070                Novosib         10633.750
        45   02 Jun 2027 06:01:34.487   02 Jun 2027 06:02:55.834            81.347                Novosib         10168.375
        46   02 Jun 2027 06:03:02.243   02 Jun 2027 06:06:21.599           199.356                Norilsk         24919.500
        47   02 Jun 2027 06:06:36.196   02 Jun 2027 06:08:29.748           113.552              Murmansk2         14194.000
        48   02 Jun 2027 07:26:02.262   02 Jun 2027 07:31:43.921           341.659                  Delhi         42707.375
        49   02 Jun 2027 07:36:58.273   02 Jun 2027 07:38:43.971           105.698                 Moscow         13212.250
        50   02 Jun 2027 07:39:10.599   02 Jun 2027 07:40:34.657            84.058              Murmansk1         10507.250
        51   02 Jun 2027 07:40:34.657   02 Jun 2027 07:44:03.377           208.720              Murmansk2         26090.000
        52   02 Jun 2027 09:13:08.866   02 Jun 2027 09:16:27.586           198.720                 Moscow         24840.000
        53   02 Jun 2027 09:17:12.319   02 Jun 2027 09:19:56.807           164.488              Murmansk2         20561.000
        54   02 Jun 2027 10:20:05.693   02 Jun 2027 10:28:40.087           514.394               CapeTown         64299.250
        55   02 Jun 2027 10:46:19.017   02 Jun 2027 10:54:40.303           501.286              Murmansk1         62660.750
        56   02 Jun 2027 10:54:40.303   02 Jun 2027 10:55:54.527            74.224              Murmansk2          9278.000
        57   02 Jun 2027 10:58:04.195   02 Jun 2027 11:07:39.898           575.703                Anadyr1         71962.875
        58   02 Jun 2027 11:59:28.638   02 Jun 2027 12:05:27.973           359.335               CapeTown         44916.875
        59   02 Jun 2027 12:37:00.016   02 Jun 2027 12:38:22.804            82.788               Magadan2         10348.500
        60   02 Jun 2027 12:41:14.466   02 Jun 2027 12:44:56.529           222.063               Magadan1         27757.875
        61   02 Jun 2027 14:18:40.902   02 Jun 2027 14:18:48.214             7.312               Magadan2           914.000
        62   02 Jun 2027 15:07:05.739   02 Jun 2027 15:09:04.777           119.038            RioGallegos         14879.750
        63   02 Jun 2027 15:52:51.526   02 Jun 2027 15:56:29.671           218.145                Irkutsk         27268.125
        64   02 Jun 2027 16:08:27.777   02 Jun 2027 16:10:26.624           118.847                Sumatra         14855.875
        65   02 Jun 2027 17:28:06.700   02 Jun 2027 17:30:08.477           121.777                Novosib         15222.125
        66   02 Jun 2027 17:34:00.756   02 Jun 2027 17:34:21.484            20.728                Novosib          2591.000
        67   02 Jun 2027 17:40:58.923   02 Jun 2027 17:42:51.137           112.214                Sumatra         14026.750
        68   02 Jun 2027 19:10:28.586   02 Jun 2027 19:13:18.269           169.683                  Delhi         21210.375
        69   02 Jun 2027 19:17:39.863   02 Jun 2027 19:18:07.649            27.786                  Delhi          3473.250
        70   02 Jun 2027 20:40:08.254   02 Jun 2027 20:41:20.358            72.104              Murmansk1          9013.000
        71   02 Jun 2027 20:41:26.613   02 Jun 2027 20:43:40.466           133.853                 Moscow         15371.125
        72   03 Jun 2027 04:13:51.417   03 Jun 2027 04:16:16.950           145.533                Sumatra         18191.625
        73   03 Jun 2027 04:37:35.074   03 Jun 2027 04:42:25.735           290.661                Norilsk         36332.625
        74   03 Jun 2027 04:42:44.380   03 Jun 2027 04:44:34.477           110.097              Murmansk2         13762.125
        75   03 Jun 2027 05:47:01.837   03 Jun 2027 05:48:44.426           102.589                Sumatra         12823.625
        76   03 Jun 2027 05:57:43.508   03 Jun 2027 06:01:06.382           202.874                  Delhi         25359.250
        77   03 Jun 2027 06:12:01.392   03 Jun 2027 06:12:53.778            52.386                Irkutsk          6548.250
        78   03 Jun 2027 06:13:22.458   03 Jun 2027 06:13:56.103            33.645              Murmansk2          4205.625
        79   03 Jun 2027 06:14:14.294   03 Jun 2027 06:14:57.003            42.709                Novosib          5338.625
        80   03 Jun 2027 06:15:18.002   03 Jun 2027 06:18:23.487           185.485                Norilsk         23185.625
        81   03 Jun 2027 06:18:31.458   03 Jun 2027 06:20:26.577           115.119              Murmansk1         14389.875
        82   03 Jun 2027 07:39:20.376   03 Jun 2027 07:43:33.067           252.691                  Delhi         31586.375
        83   03 Jun 2027 07:43:35.331   03 Jun 2027 07:44:43.087            67.756                Novosib          8469.500
        84   03 Jun 2027 07:48:57.931   03 Jun 2027 07:49:01.539             3.608                Novosib           451.000
        85   03 Jun 2027 07:49:04.554   03 Jun 2027 07:49:47.014            42.460              Murmansk1          5307.500
        86   03 Jun 2027 07:49:56.379   03 Jun 2027 07:51:19.512            83.133                Norilsk         10391.625
        87   03 Jun 2027 07:51:30.417   03 Jun 2027 07:56:03.661           273.244              Murmansk2         34155.500
        88   03 Jun 2027 09:18:53.244   03 Jun 2027 09:19:10.977            17.733                 Moscow          2216.625
        89   03 Jun 2027 09:24:12.655   03 Jun 2027 09:26:14.898           122.243              Murmansk1         15280.375
        90   03 Jun 2027 09:26:24.852   03 Jun 2027 09:28:28.253           123.401                 Moscow         15425.125
        91   03 Jun 2027 09:29:21.402   03 Jun 2027 09:31:58.429           157.027              Murmansk1         19628.375
        92   03 Jun 2027 10:33:54.063   03 Jun 2027 10:41:09.187           435.124               CapeTown         54390.500
        93   03 Jun 2027 10:58:44.463   03 Jun 2027 10:59:34.692            50.229              Murmansk2          6278.625
        94   03 Jun 2027 11:00:25.708   03 Jun 2027 11:03:41.835           196.127                 Moscow         24515.875
        95   03 Jun 2027 11:03:43.848   03 Jun 2027 11:07:55.558           251.710              Murmansk1         31463.750
        96   03 Jun 2027 11:10:12.049   03 Jun 2027 11:15:17.854           305.805                Anadyr2         38225.625
        97   03 Jun 2027 11:16:31.208   03 Jun 2027 11:18:09.516            98.308                Anadyr1         12288.500
        98   03 Jun 2027 12:48:45.154   03 Jun 2027 12:50:26.916           101.762               Magadan1         12720.250
        99   03 Jun 2027 12:50:39.705   03 Jun 2027 12:51:53.040            73.335               Magadan2          9166.875
       100   03 Jun 2027 12:54:24.411   03 Jun 2027 12:57:33.722           189.311               Magadan2         23663.875
       101   03 Jun 2027 15:17:45.036   03 Jun 2027 15:20:49.871           184.835            RioGallegos         23104.375
       102   03 Jun 2027 16:04:27.523   03 Jun 2027 16:06:17.093           109.570                Irkutsk         13696.250
       103   03 Jun 2027 16:19:22.116   03 Jun 2027 16:22:09.014           166.898                Sumatra         20862.250
       104   03 Jun 2027 16:24:41.364   03 Jun 2027 16:26:44.346           122.982                Sumatra         15372.750
       105   03 Jun 2027 17:42:25.673   03 Jun 2027 17:44:07.061           101.388                Novosib         12673.500
       106   03 Jun 2027 17:49:49.537   03 Jun 2027 17:51:59.294           129.757                  Delhi         16219.625
       107   03 Jun 2027 19:22:25.854   03 Jun 2027 19:23:28.112            62.258                  Delhi          7782.250
       108   03 Jun 2027 20:53:16.001   03 Jun 2027 20:55:56.171           160.170                 Moscow         20021.250
       109   03 Jun 2027 22:52:29.929   03 Jun 2027 22:52:49.057            19.128               CapeTown           544.125
       110   04 Jun 2027 03:13:30.441   04 Jun 2027 03:22:54.919           564.478              Murmansk2         70559.750
       111   04 Jun 2027 03:48:23.562   04 Jun 2027 03:50:09.569           106.007            RioGallegos         13250.875
       112   04 Jun 2027 04:24:57.772   04 Jun 2027 04:28:02.695           184.923                Sumatra         23115.375
       113   04 Jun 2027 04:49:20.609   04 Jun 2027 04:49:29.877             9.268                Irkutsk          1158.500
       114   04 Jun 2027 04:49:36.650   04 Jun 2027 04:54:26.794           290.144                Norilsk         36268.000
       115   04 Jun 2027 04:54:32.154   04 Jun 2027 04:57:17.374           165.220              Murmansk2         20652.500
       116   04 Jun 2027 06:07:06.149   04 Jun 2027 06:11:17.899           251.750                Sumatra         31468.750
       117   04 Jun 2027 06:14:04.732   04 Jun 2027 06:15:41.246            96.514                Novosib         12064.250
       118   04 Jun 2027 06:17:22.634   04 Jun 2027 06:21:06.973           224.339                Novosib         28042.375
       119   04 Jun 2027 06:25:23.541   04 Jun 2027 06:26:34.253            70.712                 Moscow          8839.000
       120   04 Jun 2027 06:27:24.845   04 Jun 2027 06:29:18.717           113.872              Murmansk1         14234.000
       121   04 Jun 2027 06:29:18.717   04 Jun 2027 06:32:23.971           185.254              Murmansk2         23156.750
       122   04 Jun 2027 07:51:19.251   04 Jun 2027 07:55:17.366           238.115                  Delhi         29764.375
       123   04 Jun 2027 07:55:36.236   04 Jun 2027 07:55:40.284             4.048                Novosib           506.000
       124   04 Jun 2027 08:00:58.318   04 Jun 2027 08:01:44.732            46.414              Murmansk1          5801.750
       125   04 Jun 2027 08:03:12.813   04 Jun 2027 08:08:04.213           291.400              Murmansk2         36425.000
       126   04 Jun 2027 09:30:53.778   04 Jun 2027 09:31:14.827            21.049                 Moscow          2631.125
       127   04 Jun 2027 09:35:40.535   04 Jun 2027 09:38:05.124           144.589              Murmansk1         18073.625
       128   04 Jun 2027 09:39:10.716   04 Jun 2027 09:44:00.098           289.382              Murmansk2         36172.750
       129   04 Jun 2027 09:48:57.166   04 Jun 2027 09:50:08.795            71.629                Anadyr1          8953.625
       130   04 Jun 2027 10:46:58.245   04 Jun 2027 10:53:30.750           392.505               CapeTown         49063.125
       131   04 Jun 2027 11:10:46.131   04 Jun 2027 11:11:38.076            51.945              Murmansk2          6493.125
       132   04 Jun 2027 11:11:50.685   04 Jun 2027 11:15:28.953           218.268                 Moscow         27283.500
       133   04 Jun 2027 11:15:31.763   04 Jun 2027 11:19:56.308           264.545              Murmansk1         33068.125
       134   04 Jun 2027 11:21:56.452   04 Jun 2027 11:26:31.787           275.335                Anadyr2         34416.875
       135   04 Jun 2027 13:00:34.207   04 Jun 2027 13:04:52.706           258.499               Magadan2         32312.375
       136   04 Jun 2027 14:35:52.296   04 Jun 2027 14:36:40.347            48.051               Magadan1          6006.375
       137   04 Jun 2027 15:29:05.540   04 Jun 2027 15:32:38.678           213.138            RioGallegos         26642.250
       138   04 Jun 2027 16:16:10.167   04 Jun 2027 16:20:16.058           245.891                Irkutsk         30736.375
       139   04 Jun 2027 16:30:37.214   04 Jun 2027 16:32:07.700            90.486                Sumatra         11310.750
       140   04 Jun 2027 16:36:54.028   04 Jun 2027 16:38:55.794           121.766                Sumatra         15220.750
       141   04 Jun 2027 17:54:26.721   04 Jun 2027 17:55:30.099            63.378                Novosib          7922.250
       142   04 Jun 2027 18:00:45.414   04 Jun 2027 18:03:43.052           177.638                  Delhi         22204.750
       143   04 Jun 2027 21:05:07.987   04 Jun 2027 21:08:01.253           173.266                 Moscow         21658.250
       144   04 Jun 2027 21:31:49.943   04 Jun 2027 21:33:17.846            87.903               CapeTown         10987.875
       145   04 Jun 2027 21:36:23.696   04 Jun 2027 21:36:31.892             8.196               CapeTown          1024.500
       146   05 Jun 2027 03:25:40.101   05 Jun 2027 03:25:56.859            16.758                Novosib          2094.750
       147   05 Jun 2027 03:26:06.456   05 Jun 2027 03:28:53.887           167.431              Murmansk2         20928.875
       148   05 Jun 2027 04:36:19.734   05 Jun 2027 04:36:32.904            13.170                Sumatra          1646.250
       149   05 Jun 2027 04:37:04.278   05 Jun 2027 04:38:02.901            58.623                Sumatra          7327.875
       150   05 Jun 2027 04:42:58.050   05 Jun 2027 04:43:56.017            57.967                Sumatra          7245.875
       151   05 Jun 2027 05:01:38.347   05 Jun 2027 05:06:28.048           289.701                Norilsk         36212.625
       152   05 Jun 2027 05:07:00.507   05 Jun 2027 05:09:10.080           129.573              Murmansk1         16196.625
       153   05 Jun 2027 06:19:07.479   05 Jun 2027 06:22:57.227           229.748                Sumatra         28718.500
       154   05 Jun 2027 06:26:09.694   05 Jun 2027 06:27:05.244            55.550                Novosib          6943.750
       155   05 Jun 2027 06:27:14.290   05 Jun 2027 06:31:58.169           283.879                  Delhi         35484.875
       156   05 Jun 2027 06:32:08.844   05 Jun 2027 06:32:32.484            23.640                Irkutsk          2955.000
       157   05 Jun 2027 06:37:18.882   05 Jun 2027 06:37:59.480            40.598              Murmansk2          5074.750
       158   05 Jun 2027 06:38:16.947   05 Jun 2027 06:38:57.351            40.404                Novosib          5050.500
       159   05 Jun 2027 06:39:24.120   05 Jun 2027 06:40:58.105            93.985              Murmansk1         11748.125
       160   05 Jun 2027 06:40:58.105   05 Jun 2027 06:44:21.897           203.792              Murmansk2         25474.000
       161   05 Jun 2027 08:03:14.687   05 Jun 2027 08:03:39.205            24.518                  Delhi          3064.750
       162   05 Jun 2027 08:04:46.453   05 Jun 2027 08:09:06.137           259.684                Novosib         32460.500
       163   05 Jun 2027 08:12:50.997   05 Jun 2027 08:13:32.293            41.296              Murmansk2          5162.000
       164   05 Jun 2027 08:13:46.153   05 Jun 2027 08:16:38.919           172.766                Norilsk         21595.750
       165   05 Jun 2027 08:16:50.262   05 Jun 2027 08:20:05.006           194.744              Murmansk2         24343.000
       166   05 Jun 2027 09:43:18.205   05 Jun 2027 09:43:53.563            35.358                 Moscow          4419.750
       167   05 Jun 2027 09:46:50.417   05 Jun 2027 09:47:56.614            66.197              Murmansk1          8274.625
       168   05 Jun 2027 09:48:23.187   05 Jun 2027 09:52:27.418           244.231                 Moscow         30528.875
       169   05 Jun 2027 09:52:29.109   05 Jun 2027 09:56:01.782           212.673              Murmansk2         26584.125
       170   05 Jun 2027 10:01:43.414   05 Jun 2027 10:03:53.163           129.749                Anadyr1         16218.625
       171   05 Jun 2027 11:01:04.722   05 Jun 2027 11:05:45.933           281.211               CapeTown         35151.375
       172   05 Jun 2027 11:23:22.404   05 Jun 2027 11:24:06.129            43.725                 Moscow          5465.625
       173   05 Jun 2027 11:27:00.554   05 Jun 2027 11:28:59.718           119.164              Murmansk2         14895.500
       174   05 Jun 2027 11:28:59.718   05 Jun 2027 11:31:06.375           126.657              Murmansk1         15832.125
       175   05 Jun 2027 13:12:25.993   05 Jun 2027 13:15:04.383           158.390               Magadan1         19798.750
       176   05 Jun 2027 13:15:04.383   05 Jun 2027 13:21:33.565           389.182               Magadan2         48647.750
       177   05 Jun 2027 15:40:39.436   05 Jun 2027 15:42:25.166           105.730            RioGallegos         13216.250
       178   05 Jun 2027 16:31:19.918   05 Jun 2027 16:32:11.951            52.033                Irkutsk          6504.125
       179   05 Jun 2027 16:43:21.085   05 Jun 2027 16:43:56.580            35.495                Sumatra          4436.875
       180   05 Jun 2027 16:45:39.713   05 Jun 2027 16:45:52.658            12.945                Sumatra          1618.125
       181   05 Jun 2027 16:49:00.613   05 Jun 2027 16:49:13.374            12.761                Sumatra          1595.125
       182   05 Jun 2027 18:03:35.821   05 Jun 2027 18:06:18.615           162.794                Novosib         20349.250
       183   05 Jun 2027 18:12:04.457   05 Jun 2027 18:15:31.761           207.304                  Delhi         25913.000
       184   05 Jun 2027 18:20:09.937   05 Jun 2027 18:20:48.300            38.363                  Delhi          4795.375
       185   05 Jun 2027 21:15:58.907   05 Jun 2027 21:16:40.813            41.906              Murmansk1          5238.250
       186   05 Jun 2027 21:17:01.977   05 Jun 2027 21:18:52.152           110.175                 Moscow         13771.875
       187   05 Jun 2027 21:42:02.278   05 Jun 2027 21:43:48.992           106.714               CapeTown         13339.250
       188   05 Jun 2027 21:48:31.360   05 Jun 2027 21:49:02.224            30.864               CapeTown          3858.000
       189   06 Jun 2027 03:37:44.871   06 Jun 2027 03:38:15.503            30.632              Murmansk2          3829.000
       190   06 Jun 2027 03:38:15.503   06 Jun 2027 03:39:46.022            90.519              Murmansk1         11314.875
       191   06 Jun 2027 04:47:52.207   06 Jun 2027 04:49:35.204           102.997                Sumatra         12874.625
       192   06 Jun 2027 05:13:40.140   06 Jun 2027 05:18:29.474           289.334                Norilsk         36166.750
       193   06 Jun 2027 05:18:48.018   06 Jun 2027 05:21:03.531           135.513              Murmansk1         16939.125
       194   06 Jun 2027 06:38:31.719   06 Jun 2027 06:39:48.714            76.995                Novosib          9624.375
       195   06 Jun 2027 06:40:59.511   06 Jun 2027 06:44:04.956           185.445                  Delhi         23180.625
       196   06 Jun 2027 06:44:26.410   06 Jun 2027 06:44:45.897            19.487                Irkutsk          2435.875
       197   06 Jun 2027 06:49:31.186   06 Jun 2027 06:50:01.291            30.105                 Moscow          3763.125
       198   06 Jun 2027 06:50:03.806   06 Jun 2027 06:50:56.370            52.564                Novosib          6570.500
       199   06 Jun 2027 06:51:23.776   06 Jun 2027 06:56:20.312           296.536              Murmansk1         37067.000
       200   06 Jun 2027 08:15:06.349   06 Jun 2027 08:15:51.745            45.396                  Delhi          5674.500
       201   06 Jun 2027 08:17:39.030   06 Jun 2027 08:20:55.279           196.249                Novosib         24531.125
       202   06 Jun 2027 08:25:34.603   06 Jun 2027 08:28:33.906           179.303                 Moscow         22412.875
       203   06 Jun 2027 08:28:39.416   06 Jun 2027 08:32:06.011           206.595              Murmansk1         25824.375
       204   06 Jun 2027 09:54:52.622   06 Jun 2027 09:55:59.284            66.662                 Moscow          8332.750
       205   06 Jun 2027 09:58:27.591   06 Jun 2027 09:59:37.565            69.974              Murmansk2          8746.750
       206   06 Jun 2027 09:59:37.565   06 Jun 2027 10:01:29.953           112.388              Murmansk1         14048.500
       207   06 Jun 2027 10:01:42.605   06 Jun 2027 10:04:25.715           163.110                 Moscow         20388.750
       208   06 Jun 2027 10:04:43.988   06 Jun 2027 10:08:03.448           199.460              Murmansk1         24932.500
       209   06 Jun 2027 10:11:02.201   06 Jun 2027 10:16:59.544           357.343                Anadyr1         44667.875
       210   06 Jun 2027 11:12:59.214   06 Jun 2027 11:17:55.434           296.220               CapeTown         37027.500
       211   06 Jun 2027 11:38:58.316   06 Jun 2027 11:40:57.186           118.870              Murmansk2         14858.750
       212   06 Jun 2027 11:40:57.186   06 Jun 2027 11:43:56.651           179.465              Murmansk1         22433.125
       213   06 Jun 2027 11:51:19.044   06 Jun 2027 11:55:22.149           243.105                Anadyr1         30388.125
       214   06 Jun 2027 13:24:19.814   06 Jun 2027 13:25:23.133            63.319               Magadan1          7914.875
       215   06 Jun 2027 13:25:23.133   06 Jun 2027 13:26:38.570            75.437               Magadan2          9429.625
       216   06 Jun 2027 13:28:41.216   06 Jun 2027 13:31:08.428           147.212               Magadan1         18401.500
       217   06 Jun 2027 15:52:20.698   06 Jun 2027 15:56:24.066           243.368            RioGallegos         30421.000
       218   06 Jun 2027 16:41:07.152   06 Jun 2027 16:42:37.729            90.577                Irkutsk         11322.125
       219   06 Jun 2027 16:43:28.438   06 Jun 2027 16:44:23.411            54.973                Novosib          6871.625
       220   06 Jun 2027 16:48:55.148   06 Jun 2027 16:49:15.973            20.825                Irkutsk          2603.125
       221   06 Jun 2027 16:53:41.568   06 Jun 2027 16:55:38.947           117.379                Sumatra         14672.375
       222   06 Jun 2027 16:57:53.022   06 Jun 2027 16:59:03.110            70.088                Sumatra          8761.000
       223   06 Jun 2027 17:04:53.968   06 Jun 2027 17:05:36.342            42.374                Sumatra          5296.750
       224   06 Jun 2027 18:15:30.170   06 Jun 2027 18:17:26.273           116.103                Novosib         14512.875
       225   06 Jun 2027 18:24:13.027   06 Jun 2027 18:27:24.610           191.583                  Delhi         23947.875
       226   06 Jun 2027 19:58:02.377   06 Jun 2027 19:59:55.565           113.188                 Moscow         14148.500
       227   06 Jun 2027 21:53:35.506   06 Jun 2027 21:55:22.170           106.664               CapeTown         13333.000
       228   06 Jun 2027 21:59:17.270   06 Jun 2027 22:00:10.373            53.103               CapeTown          4441.251
       229   07 Jun 2027 03:49:39.048   07 Jun 2027 03:50:37.980            58.932                Novosib          7366.500
       230   07 Jun 2027 03:50:45.975   07 Jun 2027 03:53:05.922           139.947              Murmansk1         17493.375
       231   07 Jun 2027 04:59:32.744   07 Jun 2027 05:01:27.362           114.618                Sumatra         14327.250
       232   07 Jun 2027 05:13:29.125   07 Jun 2027 05:14:33.422            64.297                  Delhi          8037.125
       233   07 Jun 2027 05:25:42.004   07 Jun 2027 05:30:31.034           289.030                Norilsk         36128.750
       234   07 Jun 2027 05:30:35.880   07 Jun 2027 05:32:57.710           141.830              Murmansk1         17728.750
       235   07 Jun 2027 06:50:29.025   07 Jun 2027 06:52:56.713           147.688                Novosib         18461.000
       236   07 Jun 2027 06:53:21.536   07 Jun 2027 06:55:20.461           118.925                Novosib         14865.625
       237   07 Jun 2027 06:55:27.318   07 Jun 2027 06:56:08.385            41.067                  Delhi          5133.375
       238   07 Jun 2027 06:56:09.080   07 Jun 2027 06:57:29.266            80.186                Irkutsk         10023.250
       239   07 Jun 2027 07:01:16.336   07 Jun 2027 07:01:34.556            18.220              Murmansk1          2277.500
       240   07 Jun 2027 07:01:35.753   07 Jun 2027 07:04:14.513           158.760                 Moscow         19845.000
       241   07 Jun 2027 07:04:26.741   07 Jun 2027 07:06:30.938           124.197                Norilsk         15524.625
       242   07 Jun 2027 07:07:04.644   07 Jun 2027 07:08:19.173            74.529              Murmansk1          9316.125
       243   07 Jun 2027 08:30:28.796   07 Jun 2027 08:32:29.445           120.649                Novosib         15081.125
       244   07 Jun 2027 08:36:33.446   07 Jun 2027 08:37:08.570            35.124              Murmansk1          4390.500
       245   07 Jun 2027 08:37:56.901   07 Jun 2027 08:39:12.870            75.969                Norilsk          9496.125
       246   07 Jun 2027 08:39:17.205   07 Jun 2027 08:44:07.194           289.989              Murmansk2         36248.625
       247   07 Jun 2027 09:47:59.728   07 Jun 2027 09:50:09.789           130.061               CapeTown         16257.625
       248   07 Jun 2027 10:06:50.726   07 Jun 2027 10:07:23.494            32.768                 Moscow          4096.000
       249   07 Jun 2027 10:10:52.880   07 Jun 2027 10:13:17.324           144.444              Murmansk1         18055.500
       250   07 Jun 2027 10:13:19.928   07 Jun 2027 10:16:22.971           183.043                 Moscow         22880.375
       251   07 Jun 2027 10:16:31.555   07 Jun 2027 10:20:05.066           213.511              Murmansk2         26688.875
       252   07 Jun 2027 10:22:45.162   07 Jun 2027 10:29:53.291           428.129                Anadyr1         53516.125
       253   07 Jun 2027 11:24:48.707   07 Jun 2027 11:29:59.679           310.972               CapeTown         38871.500
       254   07 Jun 2027 11:47:03.326   07 Jun 2027 11:47:17.491            14.165                 Moscow          1770.625
       255   07 Jun 2027 11:50:54.828   07 Jun 2027 11:52:55.203           120.375              Murmansk1         15046.875
       256   07 Jun 2027 11:52:55.203   07 Jun 2027 11:53:56.934            61.731              Murmansk2          7716.375
       257   07 Jun 2027 12:03:14.511   07 Jun 2027 12:04:15.916            61.405               Magadan2          7675.625
       258   07 Jun 2027 13:36:15.214   07 Jun 2027 13:39:17.920           182.706               Magadan1         22838.250
       259   07 Jun 2027 13:41:22.953   07 Jun 2027 13:41:33.236            10.283               Magadan1          1285.375
       260   07 Jun 2027 13:43:40.525   07 Jun 2027 13:44:21.508            40.983               Magadan2          5122.875
       261   07 Jun 2027 13:45:35.248   07 Jun 2027 13:45:46.972            11.724               Magadan2          1465.500
       262   07 Jun 2027 16:04:06.767   07 Jun 2027 16:06:41.875           155.108            RioGallegos         19388.500
       263   07 Jun 2027 16:07:21.734   07 Jun 2027 16:10:00.542           158.808            RioGallegos         19851.000
       264   07 Jun 2027 16:51:40.144   07 Jun 2027 16:53:33.909           113.765                Irkutsk         14220.625
       265   07 Jun 2027 16:56:40.272   07 Jun 2027 16:58:43.644           123.372                Novosib         15421.500
       266   07 Jun 2027 17:05:25.592   07 Jun 2027 17:07:13.655           108.063                Sumatra         13507.875
       267   07 Jun 2027 17:16:18.024   07 Jun 2027 17:17:48.732            90.708                Sumatra         11338.500
       268   07 Jun 2027 18:35:14.724   07 Jun 2027 18:39:21.118           246.394                  Delhi         30799.250
       269   07 Jun 2027 21:42:49.389   07 Jun 2027 21:43:32.154            42.765                 Moscow          5345.625
       270   07 Jun 2027 21:47:08.092   07 Jun 2027 21:47:37.493            29.401              Murmansk1          3675.125
       271   07 Jun 2027 21:48:49.203   07 Jun 2027 21:50:25.020            95.817                 Moscow         11977.125
       272   07 Jun 2027 22:05:14.841   07 Jun 2027 22:07:35.645           140.804               CapeTown          2236.250
       273   08 Jun 2027 04:01:46.189   08 Jun 2027 04:02:45.156            58.967                Novosib          7370.875
       274   08 Jun 2027 04:02:47.119   08 Jun 2027 04:06:53.212           246.093              Murmansk2         30761.625
       275   08 Jun 2027 05:11:20.010   08 Jun 2027 05:12:30.876            70.866                Sumatra          8858.250
       276   08 Jun 2027 05:14:11.163   08 Jun 2027 05:16:04.242           113.079                Sumatra         14134.875
       277   08 Jun 2027 05:37:29.701   08 Jun 2027 05:38:52.575            82.874                 Moscow         10359.250
       278   08 Jun 2027 05:38:55.233   08 Jun 2027 05:42:32.716           217.483                Norilsk         27185.375
       279   08 Jun 2027 05:42:45.134   08 Jun 2027 05:44:52.609           127.475              Murmansk1         15934.375
       280   08 Jun 2027 07:02:53.858   08 Jun 2027 07:08:08.540           314.682                  Delhi         39335.250
       281   08 Jun 2027 07:08:29.006   08 Jun 2027 07:09:28.552            59.546                Irkutsk          7443.250
       282   08 Jun 2027 07:13:07.798   08 Jun 2027 07:14:03.073            55.275              Murmansk2          6909.375
       283   08 Jun 2027 07:14:50.502   08 Jun 2027 07:14:51.482             0.980                Novosib           122.500
       284   08 Jun 2027 07:15:24.061   08 Jun 2027 07:20:18.452           294.391              Murmansk1         36798.875
       285   08 Jun 2027 08:40:16.049   08 Jun 2027 08:40:21.382             5.333                 Moscow           666.625
       286   08 Jun 2027 08:50:30.991   08 Jun 2027 08:52:39.172           128.181                 Moscow         16022.625
       287   08 Jun 2027 08:52:46.980   08 Jun 2027 08:56:08.524           201.544              Murmansk2         25193.000
       288   08 Jun 2027 10:00:29.046   08 Jun 2027 10:03:24.970           175.924               CapeTown         21990.500
       289   08 Jun 2027 10:22:54.318   08 Jun 2027 10:24:45.065           110.747              Murmansk2         13843.375
       290   08 Jun 2027 10:25:25.775   08 Jun 2027 10:28:18.981           173.206                 Moscow         21650.750
       291   08 Jun 2027 10:28:38.229   08 Jun 2027 10:30:58.553           140.324              Murmansk1         17540.500
       292   08 Jun 2027 10:30:58.553   08 Jun 2027 10:32:06.597            68.044              Murmansk2          8505.500
       293   08 Jun 2027 10:34:33.410   08 Jun 2027 10:42:39.281           485.871                Anadyr1         60733.875
       294   08 Jun 2027 11:37:03.667   08 Jun 2027 11:41:58.909           295.242               CapeTown         36905.250
       295   08 Jun 2027 11:58:57.064   08 Jun 2027 12:00:44.899           107.835                 Moscow         13479.375
       296   08 Jun 2027 12:01:47.713   08 Jun 2027 12:07:54.672           366.959              Murmansk1         45869.875
       297   08 Jun 2027 12:09:51.600   08 Jun 2027 12:22:01.891           730.291                Anadyr2         91286.375
       298   08 Jun 2027 13:48:11.859   08 Jun 2027 13:49:38.359            86.500               Magadan2         10812.500
       299   08 Jun 2027 13:50:13.661   08 Jun 2027 13:52:47.240           153.579               Magadan1         19197.375
       300   08 Jun 2027 13:55:51.682   08 Jun 2027 13:56:22.779            31.097               Magadan2          3887.125
       301   08 Jun 2027 15:30:46.219   08 Jun 2027 15:34:03.984           197.765                Irkutsk         24720.625
       302   08 Jun 2027 16:15:56.290   08 Jun 2027 16:17:14.595            78.305            RioGallegos          9788.125
       303   08 Jun 2027 16:18:44.978   08 Jun 2027 16:20:16.724            91.746            RioGallegos         11468.250
       304   08 Jun 2027 16:20:22.693   08 Jun 2027 16:21:36.147            73.454            RioGallegos          9181.750
       305   08 Jun 2027 17:05:04.472   08 Jun 2027 17:08:40.270           215.798                Novosib         26974.750
       306   08 Jun 2027 17:20:15.947   08 Jun 2027 17:21:23.468            67.521                Sumatra          8440.125
       307   08 Jun 2027 18:44:01.071   08 Jun 2027 18:44:35.367            34.296                Novosib          4287.000
       308   08 Jun 2027 18:46:59.749   08 Jun 2027 18:49:14.563           134.814                  Delhi         16851.750
       309   08 Jun 2027 18:49:18.425   08 Jun 2027 18:51:21.013           122.588                  Delhi         15323.500
       310   08 Jun 2027 20:18:14.395   08 Jun 2027 20:22:04.492           230.097                 Moscow         18791.125
       311   09 Jun 2027 04:13:47.212   09 Jun 2027 04:17:44.426           237.214                Norilsk         29651.750
       312   09 Jun 2027 05:23:13.264   09 Jun 2027 05:25:19.925           126.661                Sumatra         15832.625
       313   09 Jun 2027 05:33:58.207   09 Jun 2027 05:36:43.381           165.174                  Delhi         20646.750
       314   09 Jun 2027 05:49:36.244   09 Jun 2027 05:51:20.776           104.532                 Moscow         13066.500
       315   09 Jun 2027 05:51:21.640   09 Jun 2027 05:54:34.492           192.852                Norilsk         24106.500
       316   09 Jun 2027 05:54:58.119   09 Jun 2027 05:56:48.185           110.066              Murmansk1         13758.250
       317   09 Jun 2027 07:15:27.473   09 Jun 2027 07:20:05.334           277.861                  Delhi         34732.625
       318   09 Jun 2027 07:20:05.992   09 Jun 2027 07:20:33.380            27.388                 Moscow          3423.500
       319   09 Jun 2027 07:20:53.546   09 Jun 2027 07:21:26.762            33.216                Irkutsk          4152.000
       320   09 Jun 2027 07:25:04.873   09 Jun 2027 07:26:19.891            75.018              Murmansk2          9377.250
       321   09 Jun 2027 07:26:24.785   09 Jun 2027 07:30:34.147           249.362                Norilsk         31170.250
       322   09 Jun 2027 07:30:45.202   09 Jun 2027 07:32:18.101            92.899              Murmansk2         11612.375
       323   09 Jun 2027 09:01:48.988   09 Jun 2027 09:02:56.410            67.422                Norilsk          8427.750
       324   09 Jun 2027 09:03:20.537   09 Jun 2027 09:08:09.987           289.450              Murmansk2         36181.250
       325   09 Jun 2027 10:15:59.255   09 Jun 2027 10:16:16.801            17.546               CapeTown          2193.250
       326   09 Jun 2027 10:34:55.846   09 Jun 2027 10:36:45.066           109.220              Murmansk1         13652.500
       327   09 Jun 2027 10:37:00.822   09 Jun 2027 10:40:13.495           192.673                 Moscow         24084.125
       328   09 Jun 2027 10:40:25.493   09 Jun 2027 10:44:08.013           222.520              Murmansk2         27815.000
       329   09 Jun 2027 10:46:24.972   09 Jun 2027 10:55:19.520           534.548                Anadyr1         66818.500
       330   09 Jun 2027 11:44:23.629   09 Jun 2027 11:53:53.199           569.570               CapeTown         71196.250
       331   09 Jun 2027 12:11:10.929   09 Jun 2027 12:19:52.362           521.433              Murmansk2         65179.125
       332   09 Jun 2027 12:21:51.698   09 Jun 2027 12:24:30.376           158.678                Anadyr2         19834.750
       333   09 Jun 2027 12:25:35.307   09 Jun 2027 12:29:22.516           227.209               Magadan2         28401.125
       334   09 Jun 2027 14:00:09.519   09 Jun 2027 14:01:22.215            72.696               Magadan1          9087.000
       335   09 Jun 2027 14:03:21.224   09 Jun 2027 14:04:47.445            86.221               Magadan2         10777.625
       336   09 Jun 2027 15:41:41.195   09 Jun 2027 15:44:54.699           193.504                Irkutsk         24188.000
       337   09 Jun 2027 15:58:46.116   09 Jun 2027 16:01:28.051           161.935                Sumatra         20241.875
       338   09 Jun 2027 17:15:30.989   09 Jun 2027 17:17:06.540            95.551                Irkutsk         11943.875
       339   09 Jun 2027 17:18:09.667   09 Jun 2027 17:20:32.243           142.576                Novosib         17822.000
       340   09 Jun 2027 17:21:49.470   09 Jun 2027 17:23:49.345           119.875                Novosib         14984.375
       341   09 Jun 2027 17:31:54.018   09 Jun 2027 17:32:09.697            15.679                Sumatra          1959.875
       342   09 Jun 2027 18:56:02.189   09 Jun 2027 18:56:30.023            27.834                Novosib          3479.250
       343   09 Jun 2027 18:58:49.491   09 Jun 2027 19:02:46.871           237.380                  Delhi         29672.500
       344   09 Jun 2027 20:29:55.220   09 Jun 2027 20:31:51.845           116.625                 Moscow         14578.125
       345   09 Jun 2027 20:38:32.894   09 Jun 2027 20:38:58.223            25.329                 Moscow          2166.500
       346   10 Jun 2027 04:25:46.181   10 Jun 2027 04:26:57.376            71.195                Novosib          8899.375
       347   10 Jun 2027 04:27:01.621   10 Jun 2027 04:30:18.061           196.440                Norilsk         24555.000
       348   10 Jun 2027 05:35:12.156   10 Jun 2027 05:37:43.065           150.909                Sumatra         18863.625
       349   10 Jun 2027 05:46:40.693   10 Jun 2027 05:47:55.075            74.382                  Delhi          9297.750
       350   10 Jun 2027 05:51:18.413   10 Jun 2027 05:52:53.852            95.439                  Delhi         11929.875
       351   10 Jun 2027 06:00:50.959   10 Jun 2027 06:01:21.853            30.894              Murmansk2          3861.750
       352   10 Jun 2027 06:01:43.527   10 Jun 2027 06:03:17.815            94.288                 Moscow         11786.000
       353   10 Jun 2027 06:03:29.303   10 Jun 2027 06:06:36.337           187.034                Norilsk         23379.250
       354   10 Jun 2027 06:06:50.734   10 Jun 2027 06:08:44.408           113.674              Murmansk1         14209.250
       355   10 Jun 2027 07:26:16.666   10 Jun 2027 07:31:58.508           341.842                  Delhi         42730.250
       356   10 Jun 2027 07:37:12.355   10 Jun 2027 07:38:59.574           107.219                 Moscow         13402.375
       357   10 Jun 2027 07:39:25.438   10 Jun 2027 07:40:49.250            83.812              Murmansk2         10476.500
       358   10 Jun 2027 07:40:49.250   10 Jun 2027 07:44:18.087           208.837              Murmansk1         26104.625
       359   10 Jun 2027 09:13:23.574   10 Jun 2027 09:16:42.310           198.736                 Moscow         24842.000
       360   10 Jun 2027 09:17:05.289   10 Jun 2027 09:20:11.538           186.249              Murmansk1         23281.125
       361   10 Jun 2027 10:22:11.467   10 Jun 2027 10:28:55.275           403.808               CapeTown         50476.000
       362   10 Jun 2027 10:46:33.750   10 Jun 2027 10:48:41.377           127.627              Murmansk2         15953.375
       363   10 Jun 2027 10:48:41.377   10 Jun 2027 10:54:55.489           374.112              Murmansk1         46764.000
       364   10 Jun 2027 10:54:55.489   10 Jun 2027 10:56:09.256            73.767              Murmansk2          9220.875
       365   10 Jun 2027 10:58:18.816   10 Jun 2027 11:07:55.091           576.275                Anadyr2         72034.375
       366   10 Jun 2027 12:01:18.612   10 Jun 2027 12:05:42.494           263.882               CapeTown         32985.250
       367   10 Jun 2027 12:23:48.393   10 Jun 2027 12:28:45.087           296.694              Murmansk1         37086.750
       368   10 Jun 2027 12:37:14.466   10 Jun 2027 12:38:38.179            83.713               Magadan2         10464.125
       369   10 Jun 2027 12:41:27.977   10 Jun 2027 12:45:11.936           223.959               Magadan1         27994.875
       370   10 Jun 2027 14:16:48.103   10 Jun 2027 14:17:15.234            27.131               Magadan2          3391.375
       371   10 Jun 2027 15:07:18.291   10 Jun 2027 15:09:19.298           121.007            RioGallegos         15125.875
       372   10 Jun 2027 15:53:05.818   10 Jun 2027 15:56:44.332           218.514                Irkutsk         27314.250
       373   10 Jun 2027 16:08:41.320   10 Jun 2027 16:10:41.086           119.766                Sumatra         14970.750
       374   10 Jun 2027 16:12:36.964   10 Jun 2027 16:14:53.909           136.945                Sumatra         17118.125
       375   10 Jun 2027 17:29:06.697   10 Jun 2027 17:30:23.721            77.024                Novosib          9628.000
       376   10 Jun 2027 17:34:15.996   10 Jun 2027 17:37:01.985           165.989                Novosib         20748.625
       377   10 Jun 2027 19:10:43.230   10 Jun 2027 19:13:32.228           168.998                  Delhi         21124.750
       378   10 Jun 2027 20:37:43.707   10 Jun 2027 20:38:07.816            24.109              Murmansk1          3013.625
       379   10 Jun 2027 20:41:35.470   10 Jun 2027 20:42:25.869            50.399              Murmansk1          6299.875
       380   10 Jun 2027 20:43:56.114   10 Jun 2027 20:45:53.382           117.268                 Moscow         11548.375
       381   11 Jun 2027 04:14:05.207   11 Jun 2027 04:16:31.475           146.268                Sumatra         18283.500
       382   11 Jun 2027 04:37:49.925   11 Jun 2027 04:42:40.457           290.532                Norilsk         36316.500
       383   11 Jun 2027 04:42:59.114   11 Jun 2027 04:45:40.009           160.895              Murmansk1         20111.875
       384   11 Jun 2027 05:12:47.838   11 Jun 2027 05:12:51.984             4.146            RioGallegos           518.250
       385   11 Jun 2027 05:47:16.650   11 Jun 2027 05:48:55.575            98.925                Sumatra         12365.625
       386   11 Jun 2027 05:57:58.511   11 Jun 2027 06:01:21.752           203.241                  Delhi         25405.125
       387   11 Jun 2027 06:12:15.909   11 Jun 2027 06:13:07.868            51.959                Irkutsk          6494.875
       388   11 Jun 2027 06:13:37.575   11 Jun 2027 06:15:11.725            94.150                Novosib         11768.750
       389   11 Jun 2027 06:15:34.745   11 Jun 2027 06:18:38.225           183.480                Norilsk         22935.000
       390   11 Jun 2027 06:18:47.398   11 Jun 2027 06:20:41.241           113.843              Murmansk1         14230.375
       391   11 Jun 2027 07:39:35.018   11 Jun 2027 07:43:47.592           252.574                  Delhi         31571.750
       392   11 Jun 2027 07:43:50.478   11 Jun 2027 07:44:57.566            67.088                Novosib          8386.000
       393   11 Jun 2027 07:49:21.533   11 Jun 2027 07:49:58.508            36.975              Murmansk2          4621.875
       394   11 Jun 2027 07:50:11.422   11 Jun 2027 07:51:35.390            83.968                Norilsk         10496.000
       395   11 Jun 2027 07:51:45.046   11 Jun 2027 07:53:11.666            86.620              Murmansk1         10827.500
       396   11 Jun 2027 07:53:11.666   11 Jun 2027 07:56:18.371           186.705              Murmansk2         23338.125
       397   11 Jun 2027 09:19:07.966   11 Jun 2027 09:19:25.194            17.228                 Moscow          2153.500
       398   11 Jun 2027 09:24:28.040   11 Jun 2027 09:26:16.334           108.294              Murmansk1         13536.750
       399   11 Jun 2027 09:26:19.369   11 Jun 2027 09:28:42.968           143.599                 Moscow         17949.875
       400   11 Jun 2027 09:29:36.211   11 Jun 2027 09:32:13.163           156.952              Murmansk1         19619.000
       401   11 Jun 2027 10:34:09.676   11 Jun 2027 10:41:24.255           434.579               CapeTown         54322.375
       402   11 Jun 2027 10:58:59.099   11 Jun 2027 10:59:50.463            51.364              Murmansk2          6420.500
       403   11 Jun 2027 11:00:40.367   11 Jun 2027 11:03:56.393           196.026                 Moscow         24503.250
       404   11 Jun 2027 11:04:00.485   11 Jun 2027 11:08:10.285           249.800              Murmansk2         31225.000
       405   11 Jun 2027 11:10:27.229   11 Jun 2027 11:15:32.375           305.146                Anadyr1         38143.250
       406   11 Jun 2027 11:16:06.433   11 Jun 2027 11:16:46.388            39.955                Anadyr2          4994.375
       407   11 Jun 2027 11:18:24.057   11 Jun 2027 11:19:33.898            69.841                Anadyr2          8730.125
       408   11 Jun 2027 12:48:59.675   11 Jun 2027 12:53:11.058           251.383               Magadan2         31422.875
       409   11 Jun 2027 12:54:39.687   11 Jun 2027 12:57:56.372           196.685               Magadan1         24585.625
       410   11 Jun 2027 15:18:08.407   11 Jun 2027 15:21:04.465           176.058            RioGallegos         22007.250
       411   11 Jun 2027 16:06:32.333   11 Jun 2027 16:08:36.543           124.210                Irkutsk         15526.250
       412   11 Jun 2027 16:19:36.069   11 Jun 2027 16:20:27.874            51.805                Sumatra          6475.625
       413   11 Jun 2027 16:24:56.458   11 Jun 2027 16:26:59.507           123.049                Sumatra         15381.125
       414   11 Jun 2027 17:50:03.031   11 Jun 2027 17:52:13.787           130.756                  Delhi         16344.500
       415   11 Jun 2027 19:22:40.548   11 Jun 2027 19:24:47.031           126.483                  Delhi         15810.375
       416   11 Jun 2027 20:50:07.132   11 Jun 2027 20:50:32.054            24.922              Murmansk1          3115.250
       417   11 Jun 2027 20:53:30.574   11 Jun 2027 20:54:09.443            38.869                 Moscow          4858.625
       418   11 Jun 2027 20:54:11.382   11 Jun 2027 20:54:27.100            15.718              Murmansk2          1964.750
       419   11 Jun 2027 20:56:11.292   11 Jun 2027 20:57:50.028            98.736                 Moscow         12342.000
       420   11 Jun 2027 22:52:44.669   11 Jun 2027 22:53:02.742            18.073               CapeTown          2259.125
       421   12 Jun 2027 03:13:44.966   12 Jun 2027 03:23:09.446           564.480              Murmansk1         70560.000
       422   12 Jun 2027 03:48:38.157   12 Jun 2027 03:53:32.950           294.793            RioGallegos         36849.125
       423   12 Jun 2027 04:25:11.847   12 Jun 2027 04:28:17.331           185.484                Sumatra         23185.500
       424   12 Jun 2027 04:49:34.391   12 Jun 2027 04:49:44.602            10.211                Irkutsk          1276.375
       425   12 Jun 2027 04:49:48.920   12 Jun 2027 04:51:07.308            78.388                Novosib          9798.500
       426   12 Jun 2027 04:51:08.822   12 Jun 2027 04:54:41.519           212.697                Norilsk         26587.125
       427   12 Jun 2027 04:54:46.894   12 Jun 2027 04:57:31.970           165.076              Murmansk1         20634.500
       428   12 Jun 2027 06:07:20.839   12 Jun 2027 06:11:32.366           251.527                Sumatra         31440.875
       429   12 Jun 2027 06:14:19.490   12 Jun 2027 06:15:55.402            95.912                Novosib         11989.000
       430   12 Jun 2027 06:17:37.354   12 Jun 2027 06:21:22.215           224.861                Novosib         28107.625
       431   12 Jun 2027 06:25:41.243   12 Jun 2027 06:26:01.019            19.776                 Moscow          2472.000
       432   12 Jun 2027 06:26:41.651   12 Jun 2027 06:27:12.247            30.596                Novosib          3824.500
       433   12 Jun 2027 06:27:39.649   12 Jun 2027 06:32:38.644           298.995              Murmansk2         37374.375
       434   12 Jun 2027 07:53:56.451   12 Jun 2027 07:55:56.133           119.682                Novosib         14960.250
       435   12 Jun 2027 07:55:58.635   12 Jun 2027 07:56:18.309            19.674                 Moscow          2459.250
       436   12 Jun 2027 07:56:31.390   12 Jun 2027 07:57:13.435            42.045                Novosib          5255.625
       437   12 Jun 2027 08:01:15.206   12 Jun 2027 08:01:59.967            44.761              Murmansk2          5595.125
       438   12 Jun 2027 08:03:27.660   12 Jun 2027 08:04:59.124            91.464              Murmansk1         11433.000
       439   12 Jun 2027 08:04:59.124   12 Jun 2027 08:08:18.934           199.810              Murmansk2         24976.250
       440   12 Jun 2027 09:31:08.491   12 Jun 2027 09:32:02.037            53.546                 Moscow          6693.250
       441   12 Jun 2027 09:35:50.994   12 Jun 2027 09:38:22.093           151.099              Murmansk2         18887.375
       442   12 Jun 2027 09:39:25.574   12 Jun 2027 09:44:14.835           289.261              Murmansk1         36157.625
       443   12 Jun 2027 09:49:12.856   12 Jun 2027 09:50:26.057            73.201                Anadyr2          9150.125
       444   12 Jun 2027 10:47:41.715   12 Jun 2027 10:53:45.721           364.006               CapeTown         45500.750
       445   12 Jun 2027 11:11:00.766   12 Jun 2027 11:11:52.812            52.046              Murmansk2          6505.750
       446   12 Jun 2027 11:12:07.542   12 Jun 2027 11:15:43.458           215.916                 Moscow         26989.500
       447   12 Jun 2027 11:15:48.431   12 Jun 2027 11:20:11.029           262.598              Murmansk2         32824.750
       448   12 Jun 2027 11:22:11.117   12 Jun 2027 11:25:00.841           169.724                Anadyr2         21215.500
       449   12 Jun 2027 11:26:21.856   12 Jun 2027 11:26:46.603            24.747                Anadyr1          3093.375
       450   12 Jun 2027 13:00:48.776   12 Jun 2027 13:05:07.477           258.701               Magadan1         32337.625
       451   12 Jun 2027 13:07:03.843   12 Jun 2027 13:10:16.590           192.747               Magadan2         24093.375
       452   12 Jun 2027 15:29:19.797   12 Jun 2027 15:32:53.334           213.537            RioGallegos         26692.125
       453   12 Jun 2027 16:30:51.384   12 Jun 2027 16:34:12.589           201.205                Sumatra         25150.625
       454   12 Jun 2027 17:51:57.961   12 Jun 2027 17:54:41.830           163.869                Novosib         20483.625
       455   12 Jun 2027 17:55:45.443   12 Jun 2027 17:56:18.720            33.277                Novosib          4159.625
       456   12 Jun 2027 18:00:59.414   12 Jun 2027 18:03:57.642           178.228                  Delhi         22278.500
       457   12 Jun 2027 21:06:40.844   12 Jun 2027 21:08:16.311            95.467                 Moscow         11933.375
       458   12 Jun 2027 21:30:50.308   12 Jun 2027 21:32:04.940            74.632               CapeTown          9329.000
       459   12 Jun 2027 21:33:57.666   12 Jun 2027 21:36:38.673           161.007               CapeTown          7930.125
       460   13 Jun 2027 03:25:58.117   13 Jun 2027 03:26:35.455            37.338                Novosib          4667.250
       461   13 Jun 2027 03:26:41.507   13 Jun 2027 03:28:28.751           107.244              Murmansk2         13405.500
       462   13 Jun 2027 04:36:33.985   13 Jun 2027 04:36:42.636             8.651                Sumatra          1081.375
       463   13 Jun 2027 04:37:19.508   13 Jun 2027 04:38:17.653            58.145                Sumatra          7268.125
       464   13 Jun 2027 04:43:12.986   13 Jun 2027 04:44:09.423            56.437                Sumatra          7054.625
       465   13 Jun 2027 05:01:53.204   13 Jun 2027 05:06:42.777           289.573                Norilsk         36196.625
       466   13 Jun 2027 05:07:14.997   13 Jun 2027 05:09:24.686           129.689              Murmansk2         16211.125
       467   13 Jun 2027 06:19:22.100   13 Jun 2027 06:23:11.588           229.488                Sumatra         28686.000
       468   13 Jun 2027 06:26:24.495   13 Jun 2027 06:27:19.459            54.964                Novosib          6870.500
       469   13 Jun 2027 06:27:29.097   13 Jun 2027 06:32:12.998           283.901                  Delhi         35487.625
       470   13 Jun 2027 06:32:23.386   13 Jun 2027 06:32:47.057            23.671                Irkutsk          2958.875
       471   13 Jun 2027 06:37:04.855   13 Jun 2027 06:37:29.637            24.782                 Moscow          3097.750
       472   13 Jun 2027 06:37:34.473   13 Jun 2027 06:38:16.754            42.281              Murmansk2          5285.125
       473   13 Jun 2027 06:38:31.711   13 Jun 2027 06:39:12.054            40.343                Novosib          5042.875
       474   13 Jun 2027 06:39:38.933   13 Jun 2027 06:44:36.578           297.645              Murmansk1         37205.625
       475   13 Jun 2027 08:03:29.241   13 Jun 2027 08:03:54.036            24.795                  Delhi          3099.375
       476   13 Jun 2027 08:05:01.751   13 Jun 2027 08:09:21.862           260.111                Novosib         32513.875
       477   13 Jun 2027 08:13:07.801   13 Jun 2027 08:13:47.540            39.739              Murmansk2          4967.375
       478   13 Jun 2027 08:14:00.809   13 Jun 2027 08:18:37.591           276.782                Norilsk         34597.750
       479   13 Jun 2027 08:19:06.905   13 Jun 2027 08:20:19.731            72.826              Murmansk2          9103.250
       480   13 Jun 2027 09:43:32.861   13 Jun 2027 09:44:08.380            35.519                 Moscow          4439.875
       481   13 Jun 2027 09:47:05.047   13 Jun 2027 09:48:12.056            67.009              Murmansk2          8376.125
       482   13 Jun 2027 09:48:37.889   13 Jun 2027 09:52:42.111           244.222                 Moscow         30527.750
