uniorb/output/strategy_4/Drop/Drop_KinoSat_111303.txt

KinoSat_111303
-------------------------
    Access    *     Start Time (UTCG)     *     Stop Time (UTCG)  *   Duration (s)        *       Station  *  Data (Mbytes)
         1   01 Jun 2027 03:49:36.889   01 Jun 2027 03:49:58.094            21.205                Norilsk           662.656
         2   01 Jun 2027 03:50:02.441   01 Jun 2027 03:51:11.319            68.878                 Moscow          2152.437
         3   01 Jun 2027 03:51:21.780   01 Jun 2027 03:52:32.163            70.383              Murmansk1          2199.469
         4   01 Jun 2027 03:52:32.163   01 Jun 2027 03:53:25.628            53.465              Murmansk2          1670.781
         5   01 Jun 2027 03:53:42.087   01 Jun 2027 03:53:45.065             2.978              Murmansk1            93.063
         6   01 Jun 2027 03:53:46.894   01 Jun 2027 03:54:19.558            32.664                 Moscow          1020.750
         7   01 Jun 2027 04:08:05.193   01 Jun 2027 04:10:37.699           152.506               CapeTown          4765.812
         8   01 Jun 2027 05:11:34.294   01 Jun 2027 05:11:41.962             7.668               Magadan2           239.625
         9   01 Jun 2027 05:11:52.678   01 Jun 2027 05:12:04.905            12.227               Magadan2           382.094
        10   01 Jun 2027 05:12:17.982   01 Jun 2027 05:16:04.857           226.875                Anadyr2          7089.844
        11   01 Jun 2027 05:16:04.857   01 Jun 2027 05:16:30.320            25.463                Anadyr1           795.719
        12   01 Jun 2027 05:17:38.990   01 Jun 2027 05:17:44.524             5.534                Anadyr1           172.937
        13   01 Jun 2027 06:48:35.213   01 Jun 2027 06:49:12.117            36.904               Magadan1          1153.250
        14   01 Jun 2027 06:49:23.722   01 Jun 2027 06:49:56.683            32.961                Norilsk          1030.031
        15   01 Jun 2027 06:50:02.873   01 Jun 2027 06:50:18.089            15.216                Irkutsk           475.500
        16   01 Jun 2027 06:50:42.000   01 Jun 2027 06:53:29.310           167.310                Anadyr1          5228.438
        17   01 Jun 2027 06:53:38.357   01 Jun 2027 06:53:47.781             9.424              Murmansk2           294.500
        18   01 Jun 2027 06:53:47.781   01 Jun 2027 06:54:16.124            28.343              Murmansk1           885.719
        19   01 Jun 2027 06:54:16.124   01 Jun 2027 06:54:41.199            25.075              Murmansk2           783.594
        20   01 Jun 2027 06:57:18.015   01 Jun 2027 06:58:14.321            56.306                 Moscow          1759.562
        21   01 Jun 2027 07:30:51.125   01 Jun 2027 07:31:31.572            40.447            RioGallegos          1263.969
        22   01 Jun 2027 08:21:47.250   01 Jun 2027 08:22:45.857            58.607               Magadan2          1831.469
        23   01 Jun 2027 08:23:27.972   01 Jun 2027 08:23:51.786            23.814                Norilsk           744.187
        24   01 Jun 2027 08:24:12.397   01 Jun 2027 08:27:06.731           174.334                Irkutsk          5447.938
        25   01 Jun 2027 08:27:32.635   01 Jun 2027 08:27:48.854            16.219                Irkutsk           506.844
        26   01 Jun 2027 08:28:10.312   01 Jun 2027 08:33:01.004           290.692              Murmansk1          9084.125
        27   01 Jun 2027 09:03:55.175   01 Jun 2027 09:06:10.462           135.287            RioGallegos          4227.719
        28   01 Jun 2027 09:40:16.784   01 Jun 2027 09:40:39.183            22.399                Sumatra           699.969
        29   01 Jun 2027 09:45:10.753   01 Jun 2027 09:45:18.911             8.158                Sumatra           254.937
        30   01 Jun 2027 10:00:25.863   01 Jun 2027 10:00:35.448             9.585                Norilsk           299.531
        31   01 Jun 2027 10:00:37.276   01 Jun 2027 10:03:11.936           154.660                Irkutsk          4833.125
        32   01 Jun 2027 10:03:19.661   01 Jun 2027 10:04:31.228            71.567              Murmansk1          2236.469
        33   01 Jun 2027 10:04:46.380   01 Jun 2027 10:05:04.447            18.067                Irkutsk           564.594
        34   01 Jun 2027 10:05:54.094   01 Jun 2027 10:06:47.120            53.026              Murmansk2          1657.062
        35   01 Jun 2027 10:08:17.900   01 Jun 2027 10:08:26.756             8.856                Norilsk           276.750
        36   01 Jun 2027 10:40:32.522   01 Jun 2027 10:45:02.375           269.853            RioGallegos          8432.906
        37   01 Jun 2027 11:14:51.614   01 Jun 2027 11:15:23.518            31.904                Sumatra           997.000
        38   01 Jun 2027 11:16:46.278   01 Jun 2027 11:18:57.179           130.901                Sumatra          4090.656
        39   01 Jun 2027 11:37:23.598   01 Jun 2027 11:40:16.911           173.313                Irkutsk          5416.031
        40   01 Jun 2027 11:40:21.329   01 Jun 2027 11:41:12.378            51.049                Novosib          1595.281
        41   01 Jun 2027 11:42:02.898   01 Jun 2027 11:42:09.889             6.991                 Moscow           218.469
        42   01 Jun 2027 12:59:36.786   01 Jun 2027 13:01:25.190           108.404                  Delhi          3387.625
        43   01 Jun 2027 13:07:54.580   01 Jun 2027 13:08:21.098            26.518                Novosib           828.687
        44   01 Jun 2027 13:09:15.182   01 Jun 2027 13:09:47.081            31.899                Novosib           996.844
        45   01 Jun 2027 13:10:49.025   01 Jun 2027 13:12:56.129           127.104                Novosib          3972.000
        46   01 Jun 2027 13:13:06.633   01 Jun 2027 13:13:31.143            24.510              Murmansk2           765.938
        47   01 Jun 2027 13:13:47.686   01 Jun 2027 13:15:05.835            78.149                Norilsk          2442.156
        48   01 Jun 2027 13:16:07.712   01 Jun 2027 13:16:31.296            23.584                Norilsk           737.000
        49   01 Jun 2027 14:43:15.570   01 Jun 2027 14:46:28.194           192.624                 Moscow          6019.500
        50   01 Jun 2027 14:46:47.076   01 Jun 2027 14:49:59.253           192.177              Murmansk2          6005.531
        51   01 Jun 2027 14:53:52.065   01 Jun 2027 14:55:55.621           123.556                Norilsk          3861.125
        52   01 Jun 2027 15:03:28.584   01 Jun 2027 15:03:56.726            28.142                Anadyr2           879.437
        53   01 Jun 2027 15:04:09.538   01 Jun 2027 15:04:26.058            16.520                Anadyr2           516.250
        54   01 Jun 2027 15:04:38.409   01 Jun 2027 15:05:05.210            26.801                Anadyr2           837.531
        55   01 Jun 2027 15:57:01.529   01 Jun 2027 15:57:56.474            54.945               CapeTown          1717.031
        56   01 Jun 2027 15:58:48.046   01 Jun 2027 15:58:58.241            10.195               CapeTown           318.594
        57   01 Jun 2027 16:04:23.575   01 Jun 2027 16:04:31.913             8.338               CapeTown           260.563
        58   01 Jun 2027 16:06:22.899   01 Jun 2027 16:06:28.962             6.063               CapeTown           189.469
        59   01 Jun 2027 16:07:28.217   01 Jun 2027 16:07:51.204            22.987               CapeTown           718.344
        60   01 Jun 2027 16:21:56.808   01 Jun 2027 16:22:47.445            50.637                 Moscow          1582.406
        61   01 Jun 2027 16:24:29.617   01 Jun 2027 16:25:27.143            57.526              Murmansk2          1797.687
        62   01 Jun 2027 16:28:38.963   01 Jun 2027 16:29:41.512            62.549              Murmansk1          1954.656
        63   01 Jun 2027 16:33:52.797   01 Jun 2027 16:34:23.253            30.456              Murmansk1           951.750
        64   01 Jun 2027 16:37:28.829   01 Jun 2027 16:38:40.606            71.777                Anadyr1          2243.031
        65   01 Jun 2027 16:40:56.021   01 Jun 2027 16:41:54.309            58.288                Anadyr2          1821.500
        66   01 Jun 2027 16:44:25.121   01 Jun 2027 16:44:38.353            13.232                Anadyr2           413.500
        67   01 Jun 2027 16:45:03.997   01 Jun 2027 16:45:23.209            19.212                Anadyr2           600.375
        68   01 Jun 2027 16:46:46.634   01 Jun 2027 16:47:01.837            15.203                Anadyr1           475.094
        69   01 Jun 2027 16:48:01.865   01 Jun 2027 16:48:23.567            21.702                Anadyr1           678.188
        70   01 Jun 2027 17:33:02.752   01 Jun 2027 17:33:56.398            53.646               CapeTown          1676.438
        71   01 Jun 2027 17:39:06.943   01 Jun 2027 17:39:31.676            24.733               CapeTown           772.906
        72   01 Jun 2027 17:43:15.669   01 Jun 2027 17:43:44.668            28.999               CapeTown           906.219
        73   01 Jun 2027 18:04:49.829   01 Jun 2027 18:09:29.800           279.971              Murmansk2          8749.094
        74   01 Jun 2027 18:09:47.052   01 Jun 2027 18:09:54.000             6.948              Murmansk1           217.125
        75   01 Jun 2027 18:16:04.096   01 Jun 2027 18:17:25.888            81.792               Magadan2          2556.000
        76   01 Jun 2027 18:20:55.037   01 Jun 2027 18:21:03.226             8.189               Magadan1           255.906
        77   01 Jun 2027 18:23:09.573   01 Jun 2027 18:23:18.502             8.929               Magadan1           279.031
        78   01 Jun 2027 18:23:47.054   01 Jun 2027 18:23:57.172            10.118               Magadan2           316.187
        79   01 Jun 2027 18:24:06.667   01 Jun 2027 18:24:28.674            22.007               Magadan1           687.719
        80   01 Jun 2027 18:25:43.676   01 Jun 2027 18:26:06.090            22.414               Magadan2           700.437
        81   01 Jun 2027 19:49:09.354   01 Jun 2027 19:55:42.845           393.491                Anadyr1         12296.594
        82   01 Jun 2027 19:55:49.807   01 Jun 2027 19:56:01.359            11.552                Anadyr1           361.000
        83   01 Jun 2027 19:56:07.521   01 Jun 2027 19:56:13.399             5.878               Magadan1           183.688
        84   01 Jun 2027 19:56:17.087   01 Jun 2027 19:56:22.820             5.733               Magadan1           179.156
        85   01 Jun 2027 19:58:14.929   01 Jun 2027 19:58:32.418            17.489               Magadan1           546.531
        86   01 Jun 2027 20:02:27.361   01 Jun 2027 20:03:04.099            36.738               Magadan1          1148.062
        87   01 Jun 2027 20:44:27.778   01 Jun 2027 20:47:17.296           169.518            RioGallegos          5297.437
        88   01 Jun 2027 20:50:26.558   01 Jun 2027 20:50:52.312            25.754            RioGallegos           804.812
        89   01 Jun 2027 21:24:54.997   01 Jun 2027 21:27:09.901           134.904                Anadyr2          4215.750
        90   01 Jun 2027 21:27:24.630   01 Jun 2027 21:28:35.319            70.689               Magadan1          2209.031
        91   01 Jun 2027 21:28:48.333   01 Jun 2027 21:29:00.682            12.349               Magadan1           385.906
        92   01 Jun 2027 21:29:16.663   01 Jun 2027 21:30:13.852            57.189                Norilsk          1787.156
        93   01 Jun 2027 21:30:36.621   01 Jun 2027 21:30:41.109             4.488                Norilsk           140.250
        94   01 Jun 2027 21:30:46.531   01 Jun 2027 21:30:46.596             0.065                Norilsk             2.031
        95   01 Jun 2027 21:31:38.316   01 Jun 2027 21:32:49.574            71.258                Irkutsk          2226.813
        96   01 Jun 2027 21:45:58.495   01 Jun 2027 21:48:47.220           168.725                Sumatra          5272.656
        97   01 Jun 2027 22:30:50.680   01 Jun 2027 22:31:13.114            22.434            RioGallegos           701.062
        98   01 Jun 2027 23:00:01.595   01 Jun 2027 23:00:13.269            11.674                Anadyr2           364.812
        99   01 Jun 2027 23:00:13.269   01 Jun 2027 23:01:19.783            66.514                Anadyr1          2078.563
       100   01 Jun 2027 23:02:28.997   01 Jun 2027 23:02:39.130            10.133                Anadyr1           316.656
       101   01 Jun 2027 23:02:54.078   01 Jun 2027 23:04:55.122           121.044                Norilsk          3782.625
       102   01 Jun 2027 23:04:55.484   01 Jun 2027 23:05:21.423            25.939               Magadan2           810.594
       103   01 Jun 2027 23:05:27.907   01 Jun 2027 23:06:01.111            33.204               Magadan2          1037.625
       104   01 Jun 2027 23:06:46.636   01 Jun 2027 23:09:01.780           135.144                Irkutsk          4223.250
       105   01 Jun 2027 23:16:02.270   01 Jun 2027 23:16:53.995            51.725                  Delhi          1616.406
       106   01 Jun 2027 23:19:14.431   01 Jun 2027 23:19:59.669            45.238                  Delhi          1413.687
       107   01 Jun 2027 23:31:13.198   01 Jun 2027 23:31:26.284            13.086                Sumatra           408.938
       108   01 Jun 2027 23:32:16.631   01 Jun 2027 23:32:35.183            18.552                Sumatra           579.750
       109   01 Jun 2027 23:54:59.234   01 Jun 2027 23:55:21.633            22.399            RioGallegos           699.969
       110   01 Jun 2027 23:57:33.051   01 Jun 2027 23:57:47.114            14.063            RioGallegos           439.469
       111   02 Jun 2027 00:01:18.038   02 Jun 2027 00:02:06.122            48.084            RioGallegos          1502.625
       112   02 Jun 2027 00:33:55.807   02 Jun 2027 00:34:34.351            38.544                Anadyr2          1204.500
       113   02 Jun 2027 00:35:08.298   02 Jun 2027 00:36:06.273            57.975                Anadyr2          1811.719
       114   02 Jun 2027 00:36:14.773   02 Jun 2027 00:36:26.007            11.234                Anadyr2           351.062
       115   02 Jun 2027 00:36:47.469   02 Jun 2027 00:36:48.385             0.916                Anadyr1            28.625
       116   02 Jun 2027 00:38:54.529   02 Jun 2027 00:39:10.554            16.025                Norilsk           500.781
       117   02 Jun 2027 00:39:24.463   02 Jun 2027 00:40:07.504            43.041               Magadan2          1345.031
       118   02 Jun 2027 00:40:07.504   02 Jun 2027 00:41:30.111            82.607               Magadan1          2581.469
       119   02 Jun 2027 00:41:33.179   02 Jun 2027 00:43:05.714            92.535              Murmansk1          2891.719
       120   02 Jun 2027 00:43:14.389   02 Jun 2027 00:43:17.949             3.560                Novosib           111.250
       121   02 Jun 2027 00:43:27.145   02 Jun 2027 00:43:39.728            12.583                Novosib           393.219
       122   02 Jun 2027 00:43:42.887   02 Jun 2027 00:44:24.015            41.128              Murmansk2          1285.250
       123   02 Jun 2027 00:44:53.118   02 Jun 2027 00:45:05.896            12.778              Murmansk2           399.312
       124   02 Jun 2027 00:45:59.777   02 Jun 2027 00:46:56.947            57.170                Novosib          1786.563
       125   02 Jun 2027 00:50:01.805   02 Jun 2027 00:52:19.902           138.097                  Delhi          4315.531
       126   02 Jun 2027 01:32:26.986   02 Jun 2027 01:33:29.826            62.840            RioGallegos          1963.750
       127   02 Jun 2027 01:35:06.970   02 Jun 2027 01:35:57.439            50.469            RioGallegos          1577.156
       128   02 Jun 2027 01:37:19.899   02 Jun 2027 01:37:44.007            24.108            RioGallegos           753.375
       129   02 Jun 2027 02:08:44.259   02 Jun 2027 02:09:00.903            16.644                Anadyr2           520.125
       130   02 Jun 2027 02:09:32.601   02 Jun 2027 02:10:02.932            30.331                Anadyr1           947.844
       131   02 Jun 2027 02:13:01.430   02 Jun 2027 02:14:04.652            63.222               Magadan1          1975.687
       132   02 Jun 2027 02:14:47.722   02 Jun 2027 02:15:11.286            23.564                Norilsk           736.375
       133   02 Jun 2027 02:17:03.068   02 Jun 2027 02:17:41.984            38.916              Murmansk2          1216.125
       134   02 Jun 2027 02:18:25.059   02 Jun 2027 02:18:51.124            26.065              Murmansk1           814.531
       135   02 Jun 2027 02:18:52.701   02 Jun 2027 02:19:02.894            10.193                Novosib           318.531
       136   02 Jun 2027 02:19:53.720   02 Jun 2027 02:20:29.697            35.977                Novosib          1124.281
       137   02 Jun 2027 02:21:08.315   02 Jun 2027 02:21:37.985            29.670                Irkutsk           927.187
       138   02 Jun 2027 02:23:38.509   02 Jun 2027 02:25:50.901           132.392                Novosib          4137.250
       139   02 Jun 2027 04:02:21.863   02 Jun 2027 04:03:58.648            96.785                 Moscow          3024.531
       140   02 Jun 2027 04:03:59.948   02 Jun 2027 04:05:52.003           112.055              Murmansk2          3501.719
       141   02 Jun 2027 04:06:54.211   02 Jun 2027 04:09:03.971           129.760                 Moscow          4055.000
       142   02 Jun 2027 05:23:30.558   02 Jun 2027 05:26:00.654           150.096                Anadyr1          4690.500
       143   02 Jun 2027 05:26:00.654   02 Jun 2027 05:28:06.544           125.890                Anadyr2          3934.063
       144   02 Jun 2027 07:02:45.751   02 Jun 2027 07:02:55.532             9.781                Anadyr2           305.656
       145   02 Jun 2027 07:03:18.405   02 Jun 2027 07:03:48.198            29.793               Magadan1           931.031
       146   02 Jun 2027 07:03:48.198   02 Jun 2027 07:04:14.914            26.716               Magadan2           834.875
       147   02 Jun 2027 07:04:38.404   02 Jun 2027 07:05:23.084            44.680               Magadan1          1396.250
       148   02 Jun 2027 08:37:28.755   02 Jun 2027 08:38:13.136            44.381                Irkutsk          1386.906
       149   02 Jun 2027 08:38:22.262   02 Jun 2027 08:40:52.360           150.098               Magadan1          4690.562
       150   02 Jun 2027 10:12:15.757   02 Jun 2027 10:12:40.502            24.745                Irkutsk           773.281
       151   02 Jun 2027 10:12:47.553   02 Jun 2027 10:12:50.766             3.213                Novosib           100.406
       152   02 Jun 2027 10:12:51.089   02 Jun 2027 10:13:06.471            15.382                Novosib           480.688
       153   02 Jun 2027 10:13:20.229   02 Jun 2027 10:13:42.137            21.908                Irkutsk           684.625
       154   02 Jun 2027 10:13:50.769   02 Jun 2027 10:14:33.438            42.669                Irkutsk          1333.406
       155   02 Jun 2027 10:14:54.894   02 Jun 2027 10:15:56.101            61.207                Novosib          1912.719
       156   02 Jun 2027 10:16:03.487   02 Jun 2027 10:16:12.489             9.002                Irkutsk           281.312
       157   02 Jun 2027 10:16:14.642   02 Jun 2027 10:16:15.162             0.520                Norilsk            16.250
       158   02 Jun 2027 10:16:25.366   02 Jun 2027 10:16:35.702            10.336                Novosib           323.000
       159   02 Jun 2027 10:16:36.438   02 Jun 2027 10:16:40.964             4.526                Novosib           141.438
       160   02 Jun 2027 10:16:44.994   02 Jun 2027 10:16:56.110            11.116                Norilsk           347.375
       161   02 Jun 2027 10:52:57.268   02 Jun 2027 10:53:47.657            50.389            RioGallegos          1574.656
       162   02 Jun 2027 10:55:39.209   02 Jun 2027 10:55:55.371            16.162            RioGallegos           505.062
       163   02 Jun 2027 11:27:11.369   02 Jun 2027 11:28:42.367            90.998                Sumatra          2843.688
       164   02 Jun 2027 11:48:16.466   02 Jun 2027 11:48:20.540             4.074                Irkutsk           127.313
       165   02 Jun 2027 11:49:28.377   02 Jun 2027 11:50:07.234            38.857                Irkutsk          1214.281
       166   02 Jun 2027 11:50:29.950   02 Jun 2027 11:50:33.928             3.978                Norilsk           124.312
       167   02 Jun 2027 11:50:36.417   02 Jun 2027 11:50:39.614             3.197                Novosib            99.906
       168   02 Jun 2027 11:50:49.063   02 Jun 2027 11:51:21.919            32.856                Novosib          1026.750
       169   02 Jun 2027 11:51:28.018   02 Jun 2027 11:51:44.597            16.579                Novosib           518.094
       170   02 Jun 2027 11:52:15.460   02 Jun 2027 11:52:33.609            18.149                Norilsk           567.156
       171   02 Jun 2027 13:12:09.333   02 Jun 2027 13:15:17.371           188.038                  Delhi          5876.188
       172   02 Jun 2027 13:20:35.286   02 Jun 2027 13:21:53.969            78.683                Novosib          2458.844
       173   02 Jun 2027 13:22:45.615   02 Jun 2027 13:23:47.506            61.891                Novosib          1934.094
       174   02 Jun 2027 13:24:06.304   02 Jun 2027 13:24:39.080            32.776              Murmansk1          1024.250
       175   02 Jun 2027 13:24:43.862   02 Jun 2027 13:25:49.438            65.576                Norilsk          2049.250
       176   02 Jun 2027 13:28:33.654   02 Jun 2027 13:29:20.585            46.931                Norilsk          1466.594
       177   02 Jun 2027 14:55:24.236   02 Jun 2027 14:57:19.023           114.787                 Moscow          3587.094
       178   02 Jun 2027 14:58:55.312   02 Jun 2027 15:02:01.165           185.853              Murmansk2          5807.906
       179   02 Jun 2027 15:02:19.870   02 Jun 2027 15:02:23.837             3.967              Murmansk1           123.969
       180   02 Jun 2027 15:03:58.661   02 Jun 2027 15:04:05.376             6.715              Murmansk1           209.844
       181   02 Jun 2027 15:05:49.484   02 Jun 2027 15:05:58.618             9.134              Murmansk1           285.437
       182   02 Jun 2027 15:06:10.452   02 Jun 2027 15:06:16.109             5.657              Murmansk1           176.781
       183   02 Jun 2027 15:06:28.156   02 Jun 2027 15:08:30.300           122.144                Norilsk          3817.000
       184   02 Jun 2027 15:15:03.050   02 Jun 2027 15:15:33.120            30.070                Anadyr1           939.687
       185   02 Jun 2027 15:16:01.359   02 Jun 2027 15:16:21.422            20.063                Anadyr2           626.969
       186   02 Jun 2027 15:17:04.631   02 Jun 2027 15:17:53.079            48.448                Anadyr2          1514.000
       187   02 Jun 2027 16:11:56.771   02 Jun 2027 16:12:02.795             6.024               CapeTown           188.250
       188   02 Jun 2027 16:15:48.430   02 Jun 2027 16:16:10.241            21.811               CapeTown           681.594
       189   02 Jun 2027 16:17:11.149   02 Jun 2027 16:18:23.311            72.162               CapeTown          2255.062
       190   02 Jun 2027 16:34:44.016   02 Jun 2027 16:35:32.211            48.195                 Moscow          1506.094
       191   02 Jun 2027 16:36:54.046   02 Jun 2027 16:36:57.925             3.879              Murmansk2           121.219
       192   02 Jun 2027 16:38:18.714   02 Jun 2027 16:39:30.602            71.888              Murmansk1          2246.500
       193   02 Jun 2027 16:49:27.160   02 Jun 2027 16:50:54.305            87.145                Anadyr1          2723.281
       194   02 Jun 2027 16:50:54.305   02 Jun 2027 16:51:03.535             9.230                Anadyr2           288.437
       195   02 Jun 2027 16:51:12.582   02 Jun 2027 16:51:50.291            37.709                Anadyr2          1178.406
       196   02 Jun 2027 16:59:46.165   02 Jun 2027 16:59:52.881             6.716                Anadyr2           209.875
       197   02 Jun 2027 17:00:17.058   02 Jun 2027 17:00:37.322            20.264                Anadyr2           633.250
       198   02 Jun 2027 17:45:19.436   02 Jun 2027 17:46:08.199            48.763               CapeTown          1523.844
       199   02 Jun 2027 17:50:08.817   02 Jun 2027 17:50:47.815            38.998               CapeTown          1218.687
       200   02 Jun 2027 18:17:44.474   02 Jun 2027 18:21:07.139           202.665              Murmansk1          6333.281
       201   02 Jun 2027 18:21:07.139   02 Jun 2027 18:21:46.860            39.721              Murmansk2          1241.281
       202   02 Jun 2027 18:26:00.538   02 Jun 2027 18:26:33.485            32.947                Anadyr2          1029.594
       203   02 Jun 2027 18:27:56.977   02 Jun 2027 18:29:20.841            83.864               Magadan2          2620.750
       204   02 Jun 2027 18:35:41.034   02 Jun 2027 18:35:46.222             5.188               Magadan2           162.125
       205   02 Jun 2027 18:35:59.622   02 Jun 2027 18:36:31.275            31.653               Magadan2           989.156
       206   02 Jun 2027 20:01:10.553   02 Jun 2027 20:03:16.587           126.034                Anadyr2          3938.562
       207   02 Jun 2027 20:03:25.689   02 Jun 2027 20:05:21.128           115.439                Anadyr1          3607.469
       208   02 Jun 2027 20:05:25.672   02 Jun 2027 20:07:53.159           147.487               Magadan1          4608.969
       209   02 Jun 2027 20:11:47.958   02 Jun 2027 20:12:23.683            35.725               Magadan2          1116.406
       210   02 Jun 2027 20:14:43.957   02 Jun 2027 20:15:02.994            19.037               Magadan2           594.906
       211   02 Jun 2027 20:56:05.133   02 Jun 2027 20:58:34.674           149.541            RioGallegos          4673.156
       212   02 Jun 2027 20:59:57.522   02 Jun 2027 21:00:26.493            28.971            RioGallegos           905.344
       213   02 Jun 2027 21:00:52.953   02 Jun 2027 21:01:01.257             8.304            RioGallegos           259.500
       214   02 Jun 2027 21:02:14.089   02 Jun 2027 21:02:36.331            22.242            RioGallegos           695.062
       215   02 Jun 2027 21:36:53.236   02 Jun 2027 21:37:29.578            36.342                Anadyr2          1135.688
       216   02 Jun 2027 21:39:02.305   02 Jun 2027 21:39:28.115            25.810                Norilsk           806.563
       217   02 Jun 2027 21:40:01.271   02 Jun 2027 21:41:28.015            86.744               Magadan1          2710.750
       218   02 Jun 2027 21:41:28.015   02 Jun 2027 21:42:45.931            77.916               Magadan2          2434.875
       219   02 Jun 2027 21:43:26.915   02 Jun 2027 21:44:49.444            82.529                Irkutsk          2579.031
       220   02 Jun 2027 21:52:35.387   02 Jun 2027 21:52:54.336            18.949                Irkutsk           592.156
       221   02 Jun 2027 21:57:29.740   02 Jun 2027 21:58:57.514            87.774                Sumatra          2742.937
       222   02 Jun 2027 22:00:36.261   02 Jun 2027 22:01:24.699            48.438                Sumatra          1513.687
       223   02 Jun 2027 23:11:52.064   02 Jun 2027 23:12:03.574            11.510                Anadyr2           359.687
       224   02 Jun 2027 23:12:10.331   02 Jun 2027 23:12:13.564             3.233                Anadyr2           101.031
       225   02 Jun 2027 23:13:14.665   02 Jun 2027 23:13:18.891             4.226                Anadyr2           132.062
       226   02 Jun 2027 23:13:41.060   02 Jun 2027 23:14:34.175            53.115                Anadyr1          1659.844
       227   02 Jun 2027 23:14:56.089   02 Jun 2027 23:16:28.620            92.531                Norilsk          2891.594
       228   02 Jun 2027 23:16:52.887   02 Jun 2027 23:17:29.572            36.685               Magadan1          1146.406
       229   02 Jun 2027 23:18:04.617   02 Jun 2027 23:18:40.249            35.632               Magadan1          1113.500
       230   02 Jun 2027 23:19:07.282   02 Jun 2027 23:19:54.722            47.440                Novosib          1482.500
       231   02 Jun 2027 23:20:31.014   02 Jun 2027 23:20:45.331            14.317                Novosib           447.406
       232   02 Jun 2027 23:23:12.544   02 Jun 2027 23:24:02.107            49.563                Novosib          1548.844
       233   02 Jun 2027 23:25:51.026   02 Jun 2027 23:27:54.190           123.164                Novosib          3848.875
       234   02 Jun 2027 23:30:23.871   02 Jun 2027 23:31:15.422            51.551                  Delhi          1610.969
       235   03 Jun 2027 00:16:50.963   03 Jun 2027 00:18:01.234            70.271            RioGallegos          2195.969
       236   03 Jun 2027 00:47:19.917   03 Jun 2027 00:47:42.751            22.834                Anadyr2           713.563
       237   03 Jun 2027 00:48:01.755   03 Jun 2027 00:48:36.150            34.395                Anadyr1          1074.844
       238   03 Jun 2027 00:50:56.345   03 Jun 2027 00:52:00.596            64.251                Norilsk          2007.844
       239   03 Jun 2027 00:52:08.958   03 Jun 2027 00:52:47.711            38.753               Magadan2          1211.031
       240   03 Jun 2027 00:52:47.711   03 Jun 2027 00:53:16.183            28.472               Magadan1           889.750
       241   03 Jun 2027 00:53:26.942   03 Jun 2027 00:55:06.246            99.304              Murmansk1          3103.250
       242   03 Jun 2027 00:55:31.162   03 Jun 2027 00:56:02.456            31.294              Murmansk2           977.938
       243   03 Jun 2027 00:56:14.331   03 Jun 2027 00:56:23.788             9.457              Murmansk2           295.531
       244   03 Jun 2027 00:56:54.380   03 Jun 2027 00:57:46.590            52.210              Murmansk2          1631.563
       245   03 Jun 2027 01:06:56.831   03 Jun 2027 01:07:09.981            13.150                  Delhi           410.938
       246   03 Jun 2027 01:11:05.144   03 Jun 2027 01:11:40.429            35.285                  Delhi          1102.656
       247   03 Jun 2027 01:45:05.182   03 Jun 2027 01:45:42.587            37.405            RioGallegos          1168.906
       248   03 Jun 2027 01:46:11.493   03 Jun 2027 01:47:13.392            61.899            RioGallegos          1934.344
       249   03 Jun 2027 02:18:56.348   03 Jun 2027 02:19:37.811            41.463                Anadyr1          1295.719
       250   03 Jun 2027 02:20:27.339   03 Jun 2027 02:21:50.584            83.245                Anadyr1          2601.406
       251   03 Jun 2027 02:24:30.708   03 Jun 2027 02:25:45.028            74.320               Magadan2          2322.500
       252   03 Jun 2027 02:28:10.397   03 Jun 2027 02:28:23.329            12.932                Norilsk           404.125
       253   03 Jun 2027 02:29:04.200   03 Jun 2027 02:30:03.464            59.264              Murmansk1          1852.000
       254   03 Jun 2027 02:30:51.158   03 Jun 2027 02:31:11.911            20.753              Murmansk2           648.531
       255   03 Jun 2027 02:31:55.673   03 Jun 2027 02:32:14.965            19.292                Novosib           602.875
       256   03 Jun 2027 02:32:34.032   03 Jun 2027 02:32:50.162            16.130                 Moscow           504.063
       257   03 Jun 2027 02:34:50.096   03 Jun 2027 02:34:58.679             8.583                Novosib           268.219
       258   03 Jun 2027 02:38:10.334   03 Jun 2027 02:38:28.308            17.974                Novosib           561.688
       259   03 Jun 2027 02:39:57.046   03 Jun 2027 02:41:20.060            83.014                 Moscow          2594.187
       260   03 Jun 2027 03:06:50.611   03 Jun 2027 03:07:03.175            12.564               CapeTown           392.625
       261   03 Jun 2027 03:55:54.811   03 Jun 2027 03:56:15.860            21.049                Anadyr1           657.781
       262   03 Jun 2027 04:13:50.698   03 Jun 2027 04:14:31.306            40.608              Murmansk2          1269.000
       263   03 Jun 2027 04:14:38.041   03 Jun 2027 04:14:54.668            16.627              Murmansk1           519.594
       264   03 Jun 2027 04:15:26.584   03 Jun 2027 04:17:04.095            97.511              Murmansk1          3047.219
       265   03 Jun 2027 04:17:27.750   03 Jun 2027 04:17:57.270            29.520              Murmansk2           922.500
       266   03 Jun 2027 04:19:43.659   03 Jun 2027 04:19:55.184            11.525                 Moscow           360.156
       267   03 Jun 2027 04:42:13.028   03 Jun 2027 04:42:50.407            37.379               CapeTown          1168.094
       268   03 Jun 2027 04:43:49.293   03 Jun 2027 04:44:38.047            48.754               CapeTown          1523.563
       269   03 Jun 2027 05:35:30.113   03 Jun 2027 05:36:11.643            41.530               Magadan2          1297.813
       270   03 Jun 2027 05:36:11.643   03 Jun 2027 05:39:25.122           193.479               Magadan1          6046.219
       271   03 Jun 2027 05:39:31.376   03 Jun 2027 05:40:45.516            74.140               Magadan2          2316.875
       272   03 Jun 2027 07:13:28.053   03 Jun 2027 07:14:40.670            72.617                Anadyr2          2269.281
       273   03 Jun 2027 07:16:36.713   03 Jun 2027 07:17:23.120            46.407                Anadyr1          1450.219
       274   03 Jun 2027 08:46:36.691   03 Jun 2027 08:46:37.096             0.405               Magadan2            12.656
       275   03 Jun 2027 08:47:46.777   03 Jun 2027 08:47:59.423            12.646                Irkutsk           395.187
       276   03 Jun 2027 08:48:10.705   03 Jun 2027 08:48:48.116            37.411               Magadan2          1169.094
       277   03 Jun 2027 08:49:17.609   03 Jun 2027 08:49:27.221             9.612               Magadan1           300.375
       278   03 Jun 2027 08:49:51.352   03 Jun 2027 08:50:23.928            32.576               Magadan2          1018.000
       279   03 Jun 2027 08:50:30.476   03 Jun 2027 08:50:42.470            11.994                Irkutsk           374.812
       280   03 Jun 2027 08:50:50.785   03 Jun 2027 08:51:13.265            22.480                Irkutsk           702.500
       281   03 Jun 2027 08:51:17.243   03 Jun 2027 08:51:51.971            34.728                Irkutsk          1085.250
       282   03 Jun 2027 08:51:56.582   03 Jun 2027 08:52:59.888            63.306                Irkutsk          1978.313
       283   03 Jun 2027 09:35:47.091   03 Jun 2027 09:35:57.811            10.720            RioGallegos           335.000
       284   03 Jun 2027 10:03:18.624   03 Jun 2027 10:05:07.019           108.395                Sumatra          3387.344
       285   03 Jun 2027 10:24:53.592   03 Jun 2027 10:25:06.243            12.651                Irkutsk           395.344
       286   03 Jun 2027 10:25:08.212   03 Jun 2027 10:25:22.072            13.860                Irkutsk           433.125
       287   03 Jun 2027 10:25:23.636   03 Jun 2027 10:25:30.502             6.866                Novosib           214.563
       288   03 Jun 2027 10:25:36.935   03 Jun 2027 10:26:44.003            67.068                Novosib          2095.875
       289   03 Jun 2027 10:26:53.116   03 Jun 2027 10:27:44.877            51.761                Novosib          1617.531
       290   03 Jun 2027 10:27:58.619   03 Jun 2027 10:29:04.717            66.098                Irkutsk          2065.563
       291   03 Jun 2027 11:05:27.498   03 Jun 2027 11:06:09.921            42.423            RioGallegos          1325.719
       292   03 Jun 2027 11:39:39.805   03 Jun 2027 11:40:12.027            32.222                Sumatra          1006.937
       293   03 Jun 2027 11:43:51.472   03 Jun 2027 11:44:51.987            60.515                Sumatra          1891.094
       294   03 Jun 2027 13:25:09.216   03 Jun 2027 13:25:29.500            20.284                  Delhi           633.875
       295   03 Jun 2027 13:26:21.094   03 Jun 2027 13:27:07.467            46.373                  Delhi          1449.156
       296   03 Jun 2027 13:27:57.762   03 Jun 2027 13:29:42.548           104.786                  Delhi          3274.562
       297   03 Jun 2027 13:33:16.195   03 Jun 2027 13:33:47.120            30.925                  Delhi           966.406
       298   03 Jun 2027 13:34:40.753   03 Jun 2027 13:35:04.341            23.588                Novosib           737.125
       299   03 Jun 2027 13:35:45.329   03 Jun 2027 13:37:03.586            78.257                Novosib          2445.531
       300   03 Jun 2027 13:38:04.119   03 Jun 2027 13:38:23.464            19.345                Novosib           604.531
       301   03 Jun 2027 13:40:35.986   03 Jun 2027 13:41:47.808            71.822                Norilsk          2244.438
       302   03 Jun 2027 14:49:02.644   03 Jun 2027 14:50:12.413            69.769               CapeTown          2180.281
       303   03 Jun 2027 14:51:39.296   03 Jun 2027 14:52:27.325            48.029               CapeTown          1500.906
       304   03 Jun 2027 15:07:36.184   03 Jun 2027 15:08:49.121            72.937                 Moscow          2279.281
       305   03 Jun 2027 15:11:05.333   03 Jun 2027 15:11:43.753            38.420              Murmansk2          1200.625
       306   03 Jun 2027 15:14:24.682   03 Jun 2027 15:14:49.330            24.648              Murmansk1           770.250
       307   03 Jun 2027 15:15:59.427   03 Jun 2027 15:16:07.236             7.809              Murmansk2           244.031
       308   03 Jun 2027 15:16:19.156   03 Jun 2027 15:17:13.358            54.202              Murmansk1          1693.812
       309   03 Jun 2027 15:21:57.768   03 Jun 2027 15:22:25.861            28.093              Murmansk1           877.906
       310   03 Jun 2027 15:26:27.355   03 Jun 2027 15:28:03.999            96.644                Anadyr1          3020.125
       311   03 Jun 2027 15:29:07.835   03 Jun 2027 15:30:01.253            53.418                Anadyr2          1669.313
       312   03 Jun 2027 16:27:06.011   03 Jun 2027 16:27:43.253            37.242               CapeTown          1163.812
       313   03 Jun 2027 16:33:00.694   03 Jun 2027 16:33:03.712             3.018               CapeTown            94.313
       314   03 Jun 2027 16:47:42.620   03 Jun 2027 16:48:06.282            23.662                 Moscow           739.438
       315   03 Jun 2027 16:48:37.585   03 Jun 2027 16:49:16.155            38.570                 Moscow          1205.312
       316   03 Jun 2027 16:49:20.946   03 Jun 2027 16:49:57.776            36.830              Murmansk2          1150.937
       317   03 Jun 2027 16:52:05.907   03 Jun 2027 16:52:08.368             2.461              Murmansk1            76.906
       318   03 Jun 2027 16:52:08.987   03 Jun 2027 16:52:11.362             2.375                 Moscow            74.219
       319   03 Jun 2027 16:52:44.573   03 Jun 2027 16:53:40.038            55.465              Murmansk2          1733.281
       320   03 Jun 2027 16:57:56.744   03 Jun 2027 16:58:22.514            25.770              Murmansk1           805.313
       321   03 Jun 2027 17:01:26.209   03 Jun 2027 17:02:20.783            54.574                Anadyr1          1705.437
       322   03 Jun 2027 17:02:55.736   03 Jun 2027 17:03:07.024            11.288                Anadyr1           352.750
       323   03 Jun 2027 17:03:17.615   03 Jun 2027 17:03:40.798            23.183                Anadyr1           724.469
       324   03 Jun 2027 17:04:57.554   03 Jun 2027 17:05:00.807             3.253                Anadyr1           101.656
       325   03 Jun 2027 17:08:22.668   03 Jun 2027 17:08:32.696            10.028                Anadyr2           313.375
       326   03 Jun 2027 17:08:35.560   03 Jun 2027 17:08:50.863            15.303                Anadyr2           478.219
       327   03 Jun 2027 17:10:37.172   03 Jun 2027 17:11:00.273            23.101                Anadyr2           721.906
       328   03 Jun 2027 17:12:31.936   03 Jun 2027 17:12:52.859            20.923                Anadyr2           653.844
       329   03 Jun 2027 18:00:53.660   03 Jun 2027 18:01:04.205            10.545               CapeTown           329.531
       330   03 Jun 2027 18:02:58.400   03 Jun 2027 18:03:36.753            38.353               CapeTown          1198.531
       331   03 Jun 2027 18:30:51.193   03 Jun 2027 18:34:17.426           206.233              Murmansk1          6444.781
       332   03 Jun 2027 18:37:16.316   03 Jun 2027 18:37:46.312            29.996                Anadyr1           937.375
       333   03 Jun 2027 18:38:01.221   03 Jun 2027 18:38:29.919            28.698                Anadyr1           896.812
       334   03 Jun 2027 18:39:51.699   03 Jun 2027 18:40:27.798            36.099               Magadan1          1128.094
       335   03 Jun 2027 18:40:50.374   03 Jun 2027 18:41:08.575            18.201               Magadan2           568.781
       336   03 Jun 2027 18:42:34.356   03 Jun 2027 18:43:05.932            31.576               Magadan2           986.750
       337   03 Jun 2027 18:43:31.076   03 Jun 2027 18:44:12.287            41.211               Magadan1          1287.844
       338   03 Jun 2027 18:48:57.126   03 Jun 2027 18:49:59.978            62.852               Magadan2          1964.125
       339   03 Jun 2027 20:13:11.564   03 Jun 2027 20:16:56.675           225.111                Anadyr1          7034.719
       340   03 Jun 2027 20:17:05.160   03 Jun 2027 20:18:47.470           102.310               Magadan1          3197.188
       341   03 Jun 2027 20:18:47.470   03 Jun 2027 20:18:53.372             5.902               Magadan2           184.437
       342   03 Jun 2027 20:19:25.509   03 Jun 2027 20:19:41.259            15.750               Magadan1           492.188
       343   03 Jun 2027 20:20:18.462   03 Jun 2027 20:20:27.256             8.794               Magadan1           274.813
       344   03 Jun 2027 20:20:58.813   03 Jun 2027 20:21:20.557            21.744               Magadan1           679.500
       345   03 Jun 2027 20:27:30.341   03 Jun 2027 20:28:04.518            34.177               Magadan1          1068.031
       346   03 Jun 2027 21:07:48.675   03 Jun 2027 21:10:25.856           157.181            RioGallegos          4911.906
       347   03 Jun 2027 21:48:50.804   03 Jun 2027 21:49:31.229            40.425                Anadyr1          1263.281
       348   03 Jun 2027 21:51:02.259   03 Jun 2027 21:51:18.510            16.251                Norilsk           507.844
       349   03 Jun 2027 21:51:30.195   03 Jun 2027 21:53:35.505           125.310               Magadan2          3915.937
       350   03 Jun 2027 21:54:11.272   03 Jun 2027 21:54:38.222            26.950                Norilsk           842.188
       351   03 Jun 2027 21:55:18.390   03 Jun 2027 21:56:17.244            58.854                Irkutsk          1839.188
       352   03 Jun 2027 21:56:52.438   03 Jun 2027 21:57:13.109            20.671                Irkutsk           645.969
       353   03 Jun 2027 21:57:58.501   03 Jun 2027 21:58:39.287            40.786                Novosib          1274.563
       354   03 Jun 2027 22:00:01.668   03 Jun 2027 22:00:27.051            25.383                Novosib           793.219
       355   03 Jun 2027 22:01:06.290   03 Jun 2027 22:01:15.199             8.909                Novosib           278.406
       356   03 Jun 2027 22:09:09.384   03 Jun 2027 22:09:50.175            40.791                Sumatra          1274.719
       357   03 Jun 2027 22:10:52.217   03 Jun 2027 22:11:18.504            26.287                Sumatra           821.469
       358   03 Jun 2027 22:12:31.205   03 Jun 2027 22:13:38.305            67.100                Sumatra          2096.875
       359   03 Jun 2027 23:23:41.225   03 Jun 2027 23:24:14.137            32.912                Anadyr1          1028.500
       360   03 Jun 2027 23:25:15.845   03 Jun 2027 23:25:21.082             5.237                Anadyr1           163.656
       361   03 Jun 2027 23:26:10.362   03 Jun 2027 23:26:32.579            22.217                Anadyr1           694.281
       362   03 Jun 2027 23:26:58.176   03 Jun 2027 23:27:23.255            25.079                Norilsk           783.719
       363   03 Jun 2027 23:27:36.808   03 Jun 2027 23:28:51.756            74.948               Magadan1          2342.125
       364   03 Jun 2027 23:29:00.640   03 Jun 2027 23:29:31.565            30.925               Magadan1           966.406
       365   03 Jun 2027 23:30:26.499   03 Jun 2027 23:30:38.109            11.610                Norilsk           362.813
       366   03 Jun 2027 23:30:40.269   03 Jun 2027 23:30:47.224             6.955                Norilsk           217.344
       367   03 Jun 2027 23:30:49.933   03 Jun 2027 23:31:24.206            34.273                Irkutsk          1071.031
       368   03 Jun 2027 23:31:59.145   03 Jun 2027 23:32:58.133            58.988                Irkutsk          1843.375
       369   03 Jun 2027 23:33:19.036   03 Jun 2027 23:33:28.398             9.362                Novosib           292.562
       370   03 Jun 2027 23:37:54.952   03 Jun 2027 23:38:22.653            27.701                Novosib           865.656
       371   03 Jun 2027 23:39:01.185   03 Jun 2027 23:41:03.801           122.616                  Delhi          3831.750
       372   03 Jun 2027 23:47:30.004   03 Jun 2027 23:48:12.356            42.352                  Delhi          1323.500
       373   04 Jun 2027 00:27:02.107   04 Jun 2027 00:27:03.508             1.401            RioGallegos            43.781
       374   04 Jun 2027 00:27:40.367   04 Jun 2027 00:27:46.212             5.845            RioGallegos           182.656
       375   04 Jun 2027 00:28:50.061   04 Jun 2027 00:29:53.698            63.637            RioGallegos          1988.656
       376   04 Jun 2027 00:58:30.957   04 Jun 2027 00:59:13.977            43.020                Anadyr1          1344.375
       377   04 Jun 2027 00:59:50.043   04 Jun 2027 01:00:08.902            18.859                Anadyr2           589.344
       378   04 Jun 2027 01:02:25.269   04 Jun 2027 01:02:53.032            27.763                Anadyr2           867.594
       379   04 Jun 2027 01:02:58.020   04 Jun 2027 01:03:14.715            16.695                Norilsk           521.719
       380   04 Jun 2027 01:03:49.127   04 Jun 2027 01:05:11.522            82.395               Magadan2          2574.844
       381   04 Jun 2027 01:05:22.818   04 Jun 2027 01:05:36.135            13.317              Murmansk1           416.156
       382   04 Jun 2027 01:05:39.885   04 Jun 2027 01:07:51.856           131.971              Murmansk2          4124.094
       383   04 Jun 2027 01:08:55.477   04 Jun 2027 01:09:38.534            43.057              Murmansk2          1345.531
       384   04 Jun 2027 01:12:30.469   04 Jun 2027 01:13:16.831            46.362                 Moscow          1448.813
       385   04 Jun 2027 01:24:00.227   04 Jun 2027 01:24:26.894            26.667                  Delhi           833.344
       386   04 Jun 2027 02:30:40.605   04 Jun 2027 02:32:47.000           126.395                Anadyr1          3949.844
       387   04 Jun 2027 02:32:47.000   04 Jun 2027 02:33:42.765            55.765                Anadyr2          1742.656
       388   04 Jun 2027 02:35:58.911   04 Jun 2027 02:37:05.393            66.482               Magadan1          2077.563
       389   04 Jun 2027 02:38:47.313   04 Jun 2027 02:39:15.809            28.496                Norilsk           890.500
       390   04 Jun 2027 02:41:05.579   04 Jun 2027 02:42:07.195            61.616              Murmansk1          1925.500
       391   04 Jun 2027 02:43:04.893   04 Jun 2027 02:44:47.128           102.235                Novosib          3194.844
       392   04 Jun 2027 02:50:02.896   04 Jun 2027 02:50:12.841             9.945                Novosib           310.781
       393   04 Jun 2027 02:50:28.432   04 Jun 2027 02:50:41.880            13.448                Novosib           420.250
       394   04 Jun 2027 02:56:27.428   04 Jun 2027 02:56:34.119             6.691                 Moscow           209.094
       395   04 Jun 2027 02:56:38.538   04 Jun 2027 02:56:44.081             5.543                 Moscow           173.219
       396   04 Jun 2027 03:10:19.245   04 Jun 2027 03:11:01.605            42.360               CapeTown          1323.750
       397   04 Jun 2027 03:15:09.916   04 Jun 2027 03:15:17.546             7.630               CapeTown           238.438
       398   04 Jun 2027 04:12:38.244   04 Jun 2027 04:13:54.501            76.257                Anadyr2          2383.031
       399   04 Jun 2027 04:25:38.439   04 Jun 2027 04:28:08.049           149.610                 Moscow          4675.312
       400   04 Jun 2027 04:28:34.132   04 Jun 2027 04:30:00.912            86.780              Murmansk1          2711.875
       401   04 Jun 2027 04:31:20.611   04 Jun 2027 04:32:52.751            92.140                 Moscow          2879.375
       402   04 Jun 2027 05:48:06.561   04 Jun 2027 05:51:32.976           206.415               Magadan2          6450.469
       403   04 Jun 2027 05:51:42.622   04 Jun 2027 05:52:10.041            27.419                Anadyr2           856.844
       404   04 Jun 2027 05:52:15.034   04 Jun 2027 05:53:28.295            73.261               Magadan1          2289.406
       405   04 Jun 2027 07:25:05.533   04 Jun 2027 07:25:45.257            39.724                Anadyr2          1241.375
       406   04 Jun 2027 07:25:48.446   04 Jun 2027 07:26:24.724            36.278               Magadan2          1133.687
       407   04 Jun 2027 07:26:59.490   04 Jun 2027 07:28:02.942            63.452                Anadyr1          1982.875
       408   04 Jun 2027 08:58:20.266   04 Jun 2027 08:58:35.196            14.930               Magadan2           466.562
       409   04 Jun 2027 08:59:30.586   04 Jun 2027 08:59:44.366            13.780                Irkutsk           430.625
       410   04 Jun 2027 08:59:57.583   04 Jun 2027 09:01:09.189            71.606                Irkutsk          2237.687
       411   04 Jun 2027 09:01:25.337   04 Jun 2027 09:02:14.596            49.259                Irkutsk          1539.344
       412   04 Jun 2027 09:02:28.093   04 Jun 2027 09:02:44.506            16.413                Irkutsk           512.906
       413   04 Jun 2027 09:03:13.623   04 Jun 2027 09:03:17.106             3.483                Norilsk           108.844
       414   04 Jun 2027 09:03:20.624   04 Jun 2027 09:03:24.672             4.048                Irkutsk           126.500
       415   04 Jun 2027 09:03:37.412   04 Jun 2027 09:04:23.431            46.019               Magadan2          1438.094
       416   04 Jun 2027 09:05:50.820   04 Jun 2027 09:05:51.712             0.892                Novosib            27.875
       417   04 Jun 2027 09:39:48.960   04 Jun 2027 09:40:32.674            43.714            RioGallegos          1366.062
       418   04 Jun 2027 09:40:57.241   04 Jun 2027 09:41:10.938            13.697            RioGallegos           428.031
       419   04 Jun 2027 09:41:13.337   04 Jun 2027 09:42:14.031            60.694            RioGallegos          1896.687
       420   04 Jun 2027 10:15:46.625   04 Jun 2027 10:17:32.227           105.602                Sumatra          3300.063
       421   04 Jun 2027 10:37:04.939   04 Jun 2027 10:37:26.483            21.544                Novosib           673.250
       422   04 Jun 2027 10:37:35.523   04 Jun 2027 10:38:09.759            34.236                Irkutsk          1069.875
       423   04 Jun 2027 10:38:48.567   04 Jun 2027 10:38:50.269             1.702                Novosib            53.187
       424   04 Jun 2027 10:38:58.799   04 Jun 2027 10:39:04.099             5.300                Norilsk           165.625
       425   04 Jun 2027 10:39:25.170   04 Jun 2027 10:39:36.344            11.174                Novosib           349.187
       426   04 Jun 2027 10:39:43.196   04 Jun 2027 10:40:17.003            33.807                Novosib          1056.469
       427   04 Jun 2027 10:40:33.915   04 Jun 2027 10:40:44.628            10.713                Norilsk           334.781
       428   04 Jun 2027 10:41:09.728   04 Jun 2027 10:41:10.795             1.067                Norilsk            33.344
       429   04 Jun 2027 11:18:04.260   04 Jun 2027 11:18:56.143            51.883            RioGallegos          1621.344
       430   04 Jun 2027 11:19:23.920   04 Jun 2027 11:19:55.955            32.035            RioGallegos          1001.094
       431   04 Jun 2027 11:52:20.313   04 Jun 2027 11:53:04.965            44.652                Sumatra          1395.375
       432   04 Jun 2027 11:55:45.966   04 Jun 2027 11:57:15.429            89.463                Sumatra          2795.719
       433   04 Jun 2027 12:12:26.641   04 Jun 2027 12:12:38.505            11.864                Irkutsk           370.750
       434   04 Jun 2027 12:13:42.363   04 Jun 2027 12:14:50.032            67.669                Novosib          2114.656
       435   04 Jun 2027 13:38:12.792   04 Jun 2027 13:38:26.847            14.055                  Delhi           439.219
       436   04 Jun 2027 13:39:03.004   04 Jun 2027 13:39:42.231            39.227                  Delhi          1225.844
       437   04 Jun 2027 13:41:59.566   04 Jun 2027 13:42:19.826            20.260                  Delhi           633.125
       438   04 Jun 2027 13:43:32.641   04 Jun 2027 13:44:13.632            40.991                 Moscow          1280.969
       439   04 Jun 2027 13:44:36.259   04 Jun 2027 13:45:34.879            58.620                 Moscow          1831.875
       440   04 Jun 2027 13:46:26.294   04 Jun 2027 13:47:46.026            79.732                Novosib          2491.625
       441   04 Jun 2027 13:47:59.139   04 Jun 2027 13:48:31.019            31.880              Murmansk2           996.250
       442   04 Jun 2027 13:49:02.410   04 Jun 2027 13:50:45.848           103.438                Novosib          3232.438
       443   04 Jun 2027 14:59:31.619   04 Jun 2027 15:01:43.662           132.043               CapeTown          4126.344
       444   04 Jun 2027 15:05:05.030   04 Jun 2027 15:05:57.556            52.526               CapeTown          1641.438
       445   04 Jun 2027 15:20:54.446   04 Jun 2027 15:21:22.016            27.570                 Moscow           861.562
       446   04 Jun 2027 15:23:17.191   04 Jun 2027 15:24:07.365            50.174              Murmansk1          1567.937
       447   04 Jun 2027 15:26:14.157   04 Jun 2027 15:26:25.787            11.630              Murmansk1           363.438
       448   04 Jun 2027 15:28:09.170   04 Jun 2027 15:28:18.985             9.815              Murmansk1           306.719
       449   04 Jun 2027 15:29:56.750   04 Jun 2027 15:30:13.403            16.653              Murmansk2           520.406
       450   04 Jun 2027 15:32:11.145   04 Jun 2027 15:32:14.426             3.281              Murmansk1           102.531
       451   04 Jun 2027 15:33:59.628   04 Jun 2027 15:34:32.304            32.676              Murmansk2          1021.125
       452   04 Jun 2027 15:38:13.141   04 Jun 2027 15:40:15.671           122.530                Anadyr2          3829.063
       453   04 Jun 2027 15:40:38.956   04 Jun 2027 15:40:52.068            13.112                Anadyr2           409.750
       454   04 Jun 2027 15:41:12.927   04 Jun 2027 15:42:02.441            49.514                Anadyr2          1547.313
       455   04 Jun 2027 16:41:38.506   04 Jun 2027 16:41:44.237             5.731               CapeTown           179.094
       456   04 Jun 2027 16:42:11.992   04 Jun 2027 16:42:21.063             9.071               CapeTown           283.469
       457   04 Jun 2027 16:45:23.717   04 Jun 2027 16:45:30.616             6.899               CapeTown           215.594
       458   04 Jun 2027 17:01:02.008   04 Jun 2027 17:01:19.175            17.167                 Moscow           536.469
       459   04 Jun 2027 17:01:50.477   04 Jun 2027 17:02:20.378            29.901              Murmansk2           934.406
       460   04 Jun 2027 17:02:21.365   04 Jun 2027 17:03:08.943            47.578              Murmansk1          1486.813
       461   04 Jun 2027 17:04:07.384   04 Jun 2027 17:05:38.010            90.626              Murmansk1          2832.062
       462   04 Jun 2027 17:13:25.839   04 Jun 2027 17:14:31.020            65.181                Anadyr2          2036.906
       463   04 Jun 2027 17:14:46.607   04 Jun 2027 17:14:54.845             8.238                Anadyr1           257.438
       464   04 Jun 2027 17:15:12.970   04 Jun 2027 17:15:18.653             5.683                Anadyr2           177.594
       465   04 Jun 2027 17:15:38.058   04 Jun 2027 17:15:42.023             3.965                Anadyr1           123.906
       466   04 Jun 2027 17:18:11.269   04 Jun 2027 17:20:10.758           119.489               Magadan2          3734.031
       467   04 Jun 2027 18:49:17.875   04 Jun 2027 18:51:13.755           115.880                Anadyr1          3621.250
       468   04 Jun 2027 18:51:14.992   04 Jun 2027 18:53:58.673           163.681                Anadyr2          5115.031
       469   04 Jun 2027 18:54:20.181   04 Jun 2027 18:54:59.843            39.662               Magadan1          1239.437
       470   04 Jun 2027 18:55:06.657   04 Jun 2027 18:55:28.936            22.279               Magadan1           696.219
       471   04 Jun 2027 18:56:49.102   04 Jun 2027 18:57:46.700            57.598               Magadan2          1799.937
       472   04 Jun 2027 20:25:12.344   04 Jun 2027 20:27:19.797           127.453                Anadyr1          3982.906
       473   04 Jun 2027 20:27:26.635   04 Jun 2027 20:28:56.634            89.999                Anadyr2          2812.469
       474   04 Jun 2027 20:29:05.770   04 Jun 2027 20:31:44.307           158.537                Norilsk          4954.281
       475   04 Jun 2027 20:35:32.519   04 Jun 2027 20:36:37.925            65.406               Magadan2          2043.938
       476   04 Jun 2027 21:19:36.428   04 Jun 2027 21:21:44.866           128.438            RioGallegos          4013.687
       477   04 Jun 2027 21:22:19.023   04 Jun 2027 21:23:02.338            43.315            RioGallegos          1353.594
       478   04 Jun 2027 22:00:47.618   04 Jun 2027 22:01:13.652            26.034                Anadyr2           813.562
       479   04 Jun 2027 22:01:28.387   04 Jun 2027 22:01:32.737             4.350                Anadyr2           135.937
       480   04 Jun 2027 22:03:01.561   04 Jun 2027 22:03:07.943             6.382                Anadyr1           199.437
       481   04 Jun 2027 22:03:24.183   04 Jun 2027 22:05:32.761           128.578                Norilsk          4018.062
       482   04 Jun 2027 22:06:09.304   04 Jun 2027 22:06:45.611            36.307                Norilsk          1134.594
