uniorb/output/strategy_4/Drop/Drop_KinoSat_111408.txt

KinoSat_111408
-------------------------
    Access    *     Start Time (UTCG)     *     Stop Time (UTCG)  *   Duration (s)        *       Station  *  Data (Mbytes)
         1   01 Jun 2027 04:34:08.098   01 Jun 2027 04:35:06.428            58.330              Murmansk1          1822.813
         2   01 Jun 2027 04:35:06.428   01 Jun 2027 04:35:20.959            14.531              Murmansk2           454.094
         3   01 Jun 2027 04:35:29.865   01 Jun 2027 04:35:38.778             8.913              Murmansk1           278.531
         4   01 Jun 2027 04:36:04.842   01 Jun 2027 04:36:34.856            30.014              Murmansk2           937.937
         5   01 Jun 2027 05:56:05.325   01 Jun 2027 05:56:28.503            23.178                Anadyr2           724.312
         6   01 Jun 2027 05:56:59.516   01 Jun 2027 06:00:16.963           197.447                Anadyr2          6170.219
         7   01 Jun 2027 07:33:31.445   01 Jun 2027 07:33:59.792            28.347                Anadyr1           885.844
         8   01 Jun 2027 07:34:13.553   01 Jun 2027 07:36:11.801           118.248                Anadyr2          3695.250
         9   01 Jun 2027 07:36:26.853   01 Jun 2027 07:36:53.168            26.315               Magadan1           822.344
        10   01 Jun 2027 07:37:28.246   01 Jun 2027 07:37:34.909             6.663                Anadyr2           208.219
        11   01 Jun 2027 09:08:48.215   01 Jun 2027 09:09:29.304            41.089                Novosib          1284.031
        12   01 Jun 2027 09:09:49.242   01 Jun 2027 09:12:58.265           189.023               Magadan1          5906.969
        13   01 Jun 2027 10:44:57.411   01 Jun 2027 10:45:09.583            12.172                Novosib           380.375
        14   01 Jun 2027 10:45:28.566   01 Jun 2027 10:45:59.269            30.703                Novosib           959.469
        15   01 Jun 2027 10:46:11.156   01 Jun 2027 10:47:30.207            79.051                Irkutsk          2470.344
        16   01 Jun 2027 10:47:58.794   01 Jun 2027 10:49:24.497            85.703                Novosib          2678.219
        17   01 Jun 2027 10:49:27.451   01 Jun 2027 10:50:35.956            68.505              Murmansk1          2140.781
        18   01 Jun 2027 10:50:35.956   01 Jun 2027 10:50:46.370            10.414              Murmansk2           325.438
        19   01 Jun 2027 11:25:25.378   01 Jun 2027 11:26:15.724            50.346            RioGallegos          1573.313
        20   01 Jun 2027 11:27:21.960   01 Jun 2027 11:28:01.369            39.409            RioGallegos          1231.531
        21   01 Jun 2027 11:29:11.527   01 Jun 2027 11:30:31.465            79.938            RioGallegos          2498.062
        22   01 Jun 2027 11:59:38.066   01 Jun 2027 12:00:53.455            75.389                Sumatra          2355.906
        23   01 Jun 2027 12:03:12.155   01 Jun 2027 12:03:36.916            24.761                Sumatra           773.781
        24   01 Jun 2027 12:04:02.674   01 Jun 2027 12:04:56.511            53.837                Sumatra          1682.406
        25   01 Jun 2027 12:14:01.877   01 Jun 2027 12:14:37.646            35.769                Novosib          1117.781
        26   01 Jun 2027 12:14:49.032   01 Jun 2027 12:15:26.732            37.700                Novosib          1178.125
        27   01 Jun 2027 12:17:07.462   01 Jun 2027 12:18:02.995            55.533                Novosib          1735.406
        28   01 Jun 2027 12:18:18.865   01 Jun 2027 12:20:36.410           137.545                Norilsk          4298.281
        29   01 Jun 2027 12:22:26.999   01 Jun 2027 12:22:31.989             4.990                Norilsk           155.938
        30   01 Jun 2027 13:44:45.258   01 Jun 2027 13:49:42.701           297.443                  Delhi          9295.094
        31   01 Jun 2027 13:54:44.708   01 Jun 2027 13:55:46.413            61.705                Novosib          1928.281
        32   01 Jun 2027 13:55:49.283   01 Jun 2027 13:55:55.678             6.395              Murmansk2           199.844
        33   01 Jun 2027 13:56:12.409   01 Jun 2027 13:56:14.676             2.267              Murmansk1            70.844
        34   01 Jun 2027 13:56:40.518   01 Jun 2027 13:57:48.834            68.316                Norilsk          2134.875
        35   01 Jun 2027 13:58:42.544   01 Jun 2027 13:59:14.420            31.876                Norilsk           996.125
        36   01 Jun 2027 14:00:14.806   01 Jun 2027 14:00:42.262            27.456                Norilsk           858.000
        37   01 Jun 2027 14:02:26.835   01 Jun 2027 14:02:55.287            28.452                Norilsk           889.125
        38   01 Jun 2027 15:27:41.267   01 Jun 2027 15:29:29.343           108.076                 Moscow          3377.375
        39   01 Jun 2027 15:31:11.314   01 Jun 2027 15:32:30.815            79.501              Murmansk1          2484.406
        40   01 Jun 2027 15:34:11.178   01 Jun 2027 15:34:58.827            47.649              Murmansk1          1489.031
        41   01 Jun 2027 15:38:44.959   01 Jun 2027 15:39:35.898            50.939              Murmansk2          1591.844
        42   01 Jun 2027 15:40:09.872   01 Jun 2027 15:40:21.918            12.046                Norilsk           376.437
        43   01 Jun 2027 15:46:43.638   01 Jun 2027 15:47:57.515            73.877                Anadyr1          2308.656
        44   01 Jun 2027 15:48:27.836   01 Jun 2027 15:48:34.745             6.909                Anadyr1           215.906
        45   01 Jun 2027 16:40:59.572   01 Jun 2027 16:41:33.345            33.773               CapeTown          1055.406
        46   01 Jun 2027 16:47:33.992   01 Jun 2027 16:47:52.196            18.204               CapeTown           568.875
        47   01 Jun 2027 17:07:28.688   01 Jun 2027 17:11:38.682           249.994                 Moscow          7812.313
        48   01 Jun 2027 17:14:39.177   01 Jun 2027 17:15:00.277            21.100              Murmansk1           659.375
        49   01 Jun 2027 17:17:26.996   01 Jun 2027 17:18:05.531            38.535              Murmansk2          1204.219
        50   01 Jun 2027 17:22:20.216   01 Jun 2027 17:22:29.034             8.818                Anadyr2           275.562
        51   01 Jun 2027 17:22:35.634   01 Jun 2027 17:22:58.160            22.526                Anadyr2           703.937
        52   01 Jun 2027 17:23:19.376   01 Jun 2027 17:23:33.807            14.431                Anadyr2           450.969
        53   01 Jun 2027 17:24:07.730   01 Jun 2027 17:24:30.448            22.718                Anadyr1           709.938
        54   01 Jun 2027 17:26:42.101   01 Jun 2027 17:27:31.459            49.358                Anadyr1          1542.437
        55   01 Jun 2027 18:21:57.066   01 Jun 2027 18:22:43.099            46.033               CapeTown          1438.531
        56   01 Jun 2027 18:50:33.224   01 Jun 2027 18:54:25.255           232.031              Murmansk2          7250.969
        57   01 Jun 2027 18:54:38.161   01 Jun 2027 18:54:39.048             0.887              Murmansk1            27.719
        58   01 Jun 2027 18:57:25.720   01 Jun 2027 18:57:28.496             2.776                Anadyr2            86.750
        59   01 Jun 2027 19:00:03.258   01 Jun 2027 19:01:56.928           113.670               Magadan1          3552.187
        60   01 Jun 2027 19:04:53.449   01 Jun 2027 19:05:48.145            54.696               Magadan1          1709.250
        61   01 Jun 2027 20:33:21.320   01 Jun 2027 20:37:04.844           223.524                Anadyr1          6985.125
        62   01 Jun 2027 20:37:13.645   01 Jun 2027 20:40:01.639           167.994               Magadan1          5249.812
        63   01 Jun 2027 20:42:40.651   01 Jun 2027 20:42:58.835            18.184               Magadan2           568.250
        64   01 Jun 2027 20:44:40.350   01 Jun 2027 20:44:52.841            12.491               Magadan1           390.344
        65   01 Jun 2027 20:46:13.635   01 Jun 2027 20:46:31.674            18.039               Magadan2           563.719
        66   01 Jun 2027 20:48:13.420   01 Jun 2027 20:48:32.514            19.094               Magadan2           596.687
        67   01 Jun 2027 21:28:03.963   01 Jun 2027 21:30:25.254           141.291            RioGallegos          4415.344
        68   01 Jun 2027 21:36:52.422   01 Jun 2027 21:37:10.071            17.649            RioGallegos           551.531
        69   01 Jun 2027 22:09:02.041   01 Jun 2027 22:11:06.433           124.392                Anadyr1          3887.250
        70   01 Jun 2027 22:11:11.884   01 Jun 2027 22:11:19.846             7.962                Norilsk           248.812
        71   01 Jun 2027 22:11:39.262   01 Jun 2027 22:13:03.180            83.918               Magadan1          2622.437
        72   01 Jun 2027 22:15:31.091   01 Jun 2027 22:16:03.111            32.020                Irkutsk          1000.625
        73   01 Jun 2027 22:16:12.231   01 Jun 2027 22:16:51.121            38.890                Irkutsk          1215.313
        74   01 Jun 2027 22:18:03.779   01 Jun 2027 22:18:41.302            37.523                Irkutsk          1172.594
        75   01 Jun 2027 22:23:57.329   01 Jun 2027 22:24:18.128            20.799                Irkutsk           649.969
        76   01 Jun 2027 22:24:55.233   01 Jun 2027 22:24:59.722             4.489                Irkutsk           140.281
        77   01 Jun 2027 22:29:57.540   01 Jun 2027 22:30:23.417            25.877                Sumatra           808.656
        78   01 Jun 2027 22:31:30.997   01 Jun 2027 22:32:40.754            69.757                Sumatra          2179.906
        79   01 Jun 2027 22:39:27.928   01 Jun 2027 22:41:00.036            92.108                Sumatra          2878.375
        80   01 Jun 2027 23:43:55.767   01 Jun 2027 23:43:57.872             2.105                Anadyr2            65.781
        81   01 Jun 2027 23:45:02.844   01 Jun 2027 23:45:22.807            19.963                Anadyr2           623.844
        82   01 Jun 2027 23:45:33.190   01 Jun 2027 23:46:13.470            40.280                Anadyr1          1258.750
        83   01 Jun 2027 23:47:07.271   01 Jun 2027 23:47:27.595            20.324                Norilsk           635.125
        84   01 Jun 2027 23:47:46.286   01 Jun 2027 23:48:31.298            45.012               Magadan2          1406.625
        85   01 Jun 2027 23:48:31.298   01 Jun 2027 23:49:19.406            48.108               Magadan1          1503.375
        86   01 Jun 2027 23:50:59.092   01 Jun 2027 23:51:49.421            50.329                Irkutsk          1572.781
        87   01 Jun 2027 23:52:04.930   01 Jun 2027 23:53:10.987            66.057                Novosib          2064.281
        88   01 Jun 2027 23:56:04.374   01 Jun 2027 23:57:14.260            69.886                Novosib          2183.938
        89   02 Jun 2027 00:02:07.457   02 Jun 2027 00:02:22.220            14.763                  Delhi           461.344
        90   02 Jun 2027 00:03:15.740   02 Jun 2027 00:04:18.814            63.074                  Delhi          1971.062
        91   02 Jun 2027 00:42:33.070   02 Jun 2027 00:43:07.442            34.372            RioGallegos          1074.125
        92   02 Jun 2027 00:46:56.464   02 Jun 2027 00:47:18.806            22.342            RioGallegos           698.187
        93   02 Jun 2027 01:17:36.248   02 Jun 2027 01:17:53.163            16.915                Anadyr1           528.594
        94   02 Jun 2027 01:18:17.772   02 Jun 2027 01:19:39.606            81.834                Anadyr2          2557.312
        95   02 Jun 2027 01:20:04.315   02 Jun 2027 01:20:33.515            29.200                Anadyr2           912.500
        96   02 Jun 2027 01:23:07.414   02 Jun 2027 01:23:35.586            28.172                Norilsk           880.375
        97   02 Jun 2027 01:23:40.672   02 Jun 2027 01:25:05.477            84.805               Magadan1          2650.156
        98   02 Jun 2027 01:25:33.720   02 Jun 2027 01:27:07.884            94.164              Murmansk2          2942.625
        99   02 Jun 2027 01:27:42.855   02 Jun 2027 01:28:08.171            25.316              Murmansk1           791.125
       100   02 Jun 2027 01:28:16.762   02 Jun 2027 01:28:21.758             4.996              Murmansk1           156.125
       101   02 Jun 2027 01:30:32.294   02 Jun 2027 01:32:10.793            98.499                Novosib          3078.094
       102   02 Jun 2027 02:18:07.430   02 Jun 2027 02:18:51.377            43.947            RioGallegos          1373.344
       103   02 Jun 2027 02:19:25.254   02 Jun 2027 02:19:29.957             4.703            RioGallegos           146.969
       104   02 Jun 2027 02:50:56.517   02 Jun 2027 02:53:27.213           150.696                Anadyr1          4709.250
       105   02 Jun 2027 02:56:21.540   02 Jun 2027 02:57:40.637            79.097               Magadan2          2471.781
       106   02 Jun 2027 02:59:04.553   02 Jun 2027 02:59:18.721            14.168                Norilsk           442.750
       107   02 Jun 2027 03:07:16.393   02 Jun 2027 03:07:51.752            35.359                Norilsk          1104.969
       108   02 Jun 2027 03:08:11.003   02 Jun 2027 03:08:44.633            33.630              Murmansk1          1050.937
       109   02 Jun 2027 03:08:47.694   02 Jun 2027 03:09:13.810            26.116                Novosib           816.125
       110   02 Jun 2027 03:09:25.035   02 Jun 2027 03:09:54.784            29.749                Norilsk           929.656
       111   02 Jun 2027 03:10:00.573   02 Jun 2027 03:11:55.017           114.444                Novosib          3576.375
       112   02 Jun 2027 03:13:16.699   02 Jun 2027 03:13:17.528             0.829                Novosib            25.906
       113   02 Jun 2027 03:29:20.534   02 Jun 2027 03:32:22.635           182.101               CapeTown          5690.656
       114   02 Jun 2027 04:25:16.509   02 Jun 2027 04:26:24.481            67.972                Anadyr2          2124.125
       115   02 Jun 2027 04:26:24.481   02 Jun 2027 04:27:52.389            87.908                Anadyr1          2747.125
       116   02 Jun 2027 04:46:46.212   02 Jun 2027 04:48:10.966            84.754                 Moscow          2648.563
       117   02 Jun 2027 06:01:18.932   02 Jun 2027 06:02:34.000            75.068               Magadan1          2345.875
       118   02 Jun 2027 06:02:43.058   02 Jun 2027 06:03:08.914            25.856                Anadyr1           808.000
       119   02 Jun 2027 06:07:56.192   02 Jun 2027 06:08:58.792            62.600               Magadan2          1956.250
       120   02 Jun 2027 06:09:38.516   02 Jun 2027 06:11:16.108            97.592                Anadyr2          3049.750
       121   02 Jun 2027 06:11:19.772   02 Jun 2027 06:13:36.972           137.200               Magadan1          4287.500
       122   02 Jun 2027 07:45:58.040   02 Jun 2027 07:48:12.388           134.348                Anadyr2          4198.375
       123   02 Jun 2027 09:20:21.986   02 Jun 2027 09:20:49.102            27.116               Magadan2           847.375
       124   02 Jun 2027 09:21:06.528   02 Jun 2027 09:21:10.769             4.241               Magadan1           132.531
       125   02 Jun 2027 09:21:25.713   02 Jun 2027 09:21:52.365            26.652               Magadan1           832.875
       126   02 Jun 2027 09:21:52.365   02 Jun 2027 09:22:29.731            37.366               Magadan2          1167.688
       127   02 Jun 2027 09:23:43.490   02 Jun 2027 09:23:55.729            12.239                Irkutsk           382.469
       128   02 Jun 2027 09:24:12.022   02 Jun 2027 09:24:38.625            26.603                Novosib           831.344
       129   02 Jun 2027 09:25:09.091   02 Jun 2027 09:25:13.262             4.171                Irkutsk           130.344
       130   02 Jun 2027 09:25:34.164   02 Jun 2027 09:25:59.104            24.940                Novosib           779.375
       131   02 Jun 2027 09:59:58.143   02 Jun 2027 10:01:00.849            62.706            RioGallegos          1959.563
       132   02 Jun 2027 10:35:17.290   02 Jun 2027 10:35:55.422            38.132                Sumatra          1191.625
       133   02 Jun 2027 10:41:32.028   02 Jun 2027 10:41:43.427            11.399                Sumatra           356.219
       134   02 Jun 2027 10:47:58.156   02 Jun 2027 10:48:21.379            23.223                  Delhi           725.719
       135   02 Jun 2027 10:52:25.682   02 Jun 2027 10:53:08.182            42.500                  Delhi          1328.125
       136   02 Jun 2027 10:56:34.609   02 Jun 2027 10:56:41.644             7.035                Novosib           219.844
       137   02 Jun 2027 10:57:11.056   02 Jun 2027 10:57:56.754            45.698                Norilsk          1428.063
       138   02 Jun 2027 10:58:15.104   02 Jun 2027 10:58:47.381            32.277                Irkutsk          1008.656
       139   02 Jun 2027 10:58:57.748   02 Jun 2027 10:59:49.268            51.520                Novosib          1610.000
       140   02 Jun 2027 11:00:02.067   02 Jun 2027 11:00:46.628            44.561                Novosib          1392.531
       141   02 Jun 2027 11:00:51.706   02 Jun 2027 11:00:54.976             3.270                Norilsk           102.188
       142   02 Jun 2027 11:37:59.578   02 Jun 2027 11:38:30.530            30.952            RioGallegos           967.250
       143   02 Jun 2027 11:39:26.173   02 Jun 2027 11:40:01.893            35.720            RioGallegos          1116.250
       144   02 Jun 2027 11:42:18.186   02 Jun 2027 11:43:03.074            44.888            RioGallegos          1402.750
       145   02 Jun 2027 12:12:13.579   02 Jun 2027 12:12:31.678            18.099                Sumatra           565.594
       146   02 Jun 2027 12:12:49.027   02 Jun 2027 12:12:58.945             9.918                Sumatra           309.937
       147   02 Jun 2027 12:13:59.514   02 Jun 2027 12:15:18.613            79.099                Sumatra          2471.844
       148   02 Jun 2027 12:27:30.062   02 Jun 2027 12:29:06.626            96.564                Novosib          3017.625
       149   02 Jun 2027 12:36:08.788   02 Jun 2027 12:36:41.836            33.048              Murmansk2          1032.750
       150   02 Jun 2027 13:57:39.442   02 Jun 2027 14:00:03.113           143.671                  Delhi          4489.719
       151   02 Jun 2027 14:04:42.885   02 Jun 2027 14:05:29.628            46.743                 Moscow          1460.719
       152   02 Jun 2027 14:06:11.001   02 Jun 2027 14:09:10.329           179.328                Novosib          5604.000
       153   02 Jun 2027 14:09:13.269   02 Jun 2027 14:09:46.879            33.610                Norilsk          1050.312
       154   02 Jun 2027 14:12:12.713   02 Jun 2027 14:12:44.622            31.909                Norilsk           997.156
       155   02 Jun 2027 14:14:27.730   02 Jun 2027 14:14:30.505             2.775                Norilsk            86.719
       156   02 Jun 2027 15:20:06.788   02 Jun 2027 15:22:02.531           115.743               CapeTown          3616.969
       157   02 Jun 2027 15:25:47.606   02 Jun 2027 15:25:54.763             7.157               CapeTown           223.656
       158   02 Jun 2027 15:39:55.413   02 Jun 2027 15:41:02.887            67.474                 Moscow          2108.563
       159   02 Jun 2027 15:43:22.511   02 Jun 2027 15:44:32.573            70.062              Murmansk1          2189.437
       160   02 Jun 2027 15:46:14.381   02 Jun 2027 15:46:29.230            14.849              Murmansk2           464.031
       161   02 Jun 2027 15:49:53.875   02 Jun 2027 15:50:00.448             6.573              Murmansk1           205.406
       162   02 Jun 2027 15:50:19.889   02 Jun 2027 15:50:47.101            27.212              Murmansk1           850.375
       163   02 Jun 2027 15:58:27.329   02 Jun 2027 15:59:29.447            62.118                Anadyr1          1941.188
       164   02 Jun 2027 15:59:29.447   02 Jun 2027 15:59:34.104             4.657                Anadyr2           145.531
       165   02 Jun 2027 16:00:33.981   02 Jun 2027 16:01:46.751            72.770                Anadyr2          2274.062
       166   02 Jun 2027 16:52:56.580   02 Jun 2027 16:53:42.468            45.888               CapeTown          1434.000
       167   02 Jun 2027 16:56:37.364   02 Jun 2027 16:56:42.585             5.221               CapeTown           163.156
       168   02 Jun 2027 16:58:47.492   02 Jun 2027 16:58:55.711             8.219               CapeTown           256.844
       169   02 Jun 2027 16:59:58.891   02 Jun 2027 17:00:30.235            31.344               CapeTown           979.500
       170   02 Jun 2027 17:20:38.200   02 Jun 2027 17:22:39.640           121.440                 Moscow          3795.000
       171   02 Jun 2027 17:23:19.405   02 Jun 2027 17:23:27.422             8.017              Murmansk1           250.531
       172   02 Jun 2027 17:24:17.723   02 Jun 2027 17:24:46.533            28.810              Murmansk1           900.312
       173   02 Jun 2027 17:26:18.568   02 Jun 2027 17:26:59.542            40.974              Murmansk1          1280.438
       174   02 Jun 2027 17:33:35.787   02 Jun 2027 17:34:17.831            42.044                Anadyr1          1313.875
       175   02 Jun 2027 17:34:31.607   02 Jun 2027 17:34:47.514            15.907                Anadyr1           497.094
       176   02 Jun 2027 17:35:48.905   02 Jun 2027 17:35:53.467             4.562                Anadyr2           142.562
       177   02 Jun 2027 17:37:21.924   02 Jun 2027 17:38:08.555            46.631                Anadyr2          1457.219
       178   02 Jun 2027 17:38:51.438   02 Jun 2027 17:39:59.343            67.905               Magadan1          2122.031
       179   02 Jun 2027 17:40:01.344   02 Jun 2027 17:40:52.103            50.759               Magadan2          1586.219
       180   02 Jun 2027 19:03:56.931   02 Jun 2027 19:06:00.096           123.165              Murmansk2          3848.906
       181   02 Jun 2027 19:09:27.314   02 Jun 2027 19:10:05.375            38.061                Anadyr2          1189.406
       182   02 Jun 2027 19:10:25.790   02 Jun 2027 19:11:02.477            36.687                Anadyr2          1146.469
       183   02 Jun 2027 19:11:42.302   02 Jun 2027 19:12:48.150            65.848                Anadyr2          2057.750
       184   02 Jun 2027 19:13:35.218   02 Jun 2027 19:14:57.966            82.748               Magadan2          2585.875
       185   02 Jun 2027 20:45:22.239   02 Jun 2027 20:49:07.812           225.573                Anadyr1          7049.156
       186   02 Jun 2027 20:49:13.717   02 Jun 2027 20:51:46.059           152.342               Magadan2          4760.688
       187   02 Jun 2027 20:51:46.059   02 Jun 2027 20:52:04.135            18.076               Magadan1           564.875
       188   02 Jun 2027 20:58:09.426   02 Jun 2027 20:58:16.452             7.026               Magadan1           219.562
       189   02 Jun 2027 20:58:24.330   02 Jun 2027 20:58:42.177            17.847               Magadan1           557.719
       190   02 Jun 2027 20:59:43.198   02 Jun 2027 21:00:32.163            48.965               Magadan2          1530.156
       191   02 Jun 2027 21:39:50.380   02 Jun 2027 21:42:09.026           138.646            RioGallegos          4332.688
       192   02 Jun 2027 21:42:18.482   02 Jun 2027 21:43:11.432            52.950            RioGallegos          1654.688
       193   02 Jun 2027 22:20:59.196   02 Jun 2027 22:21:42.969            43.773                Anadyr2          1367.906
       194   02 Jun 2027 22:23:12.270   02 Jun 2027 22:23:20.873             8.603                Norilsk           268.844
       195   02 Jun 2027 22:23:42.214   02 Jun 2027 22:25:32.806           110.592               Magadan2          3456.000
       196   02 Jun 2027 22:25:32.806   02 Jun 2027 22:25:41.835             9.029               Magadan1           282.156
       197   02 Jun 2027 22:27:24.088   02 Jun 2027 22:28:13.197            49.109                Irkutsk          1534.656
       198   02 Jun 2027 22:29:11.554   02 Jun 2027 22:29:51.567            40.013                Irkutsk          1250.406
       199   02 Jun 2027 22:30:18.867   02 Jun 2027 22:30:21.850             2.983                Novosib            93.219
       200   02 Jun 2027 22:30:51.954   02 Jun 2027 22:31:34.512            42.558                Novosib          1329.938
       201   02 Jun 2027 22:32:42.776   02 Jun 2027 22:32:52.761             9.985                Novosib           312.031
       202   02 Jun 2027 22:41:10.212   02 Jun 2027 22:43:31.293           141.081                Sumatra          4408.781
       203   02 Jun 2027 23:55:44.141   02 Jun 2027 23:57:01.217            77.076                Anadyr1          2408.625
       204   02 Jun 2027 23:58:08.697   02 Jun 2027 23:58:28.079            19.382                Anadyr2           605.687
       205   02 Jun 2027 23:59:09.441   02 Jun 2027 23:59:26.652            17.211                Norilsk           537.844
       206   02 Jun 2027 23:59:48.672   03 Jun 2027 00:01:19.036            90.364               Magadan1          2823.875
       207   03 Jun 2027 00:02:26.485   03 Jun 2027 00:02:56.527            30.042                Norilsk           938.813
       208   03 Jun 2027 00:03:01.715   03 Jun 2027 00:04:08.335            66.620                Irkutsk          2081.875
       209   03 Jun 2027 00:04:12.228   03 Jun 2027 00:05:11.213            58.985                Novosib          1843.281
       210   03 Jun 2027 00:07:26.774   03 Jun 2027 00:08:04.274            37.500                Novosib          1171.875
       211   03 Jun 2027 00:10:58.889   03 Jun 2027 00:11:28.641            29.752                  Delhi           929.750
       212   03 Jun 2027 00:12:46.280   03 Jun 2027 00:14:13.673            87.393                  Delhi          2731.031
       213   03 Jun 2027 00:55:37.220   03 Jun 2027 00:55:56.488            19.268            RioGallegos           602.125
       214   03 Jun 2027 00:59:15.129   03 Jun 2027 00:59:47.358            32.229            RioGallegos          1007.156
       215   03 Jun 2027 01:29:17.407   03 Jun 2027 01:29:35.514            18.107                Anadyr2           565.844
       216   03 Jun 2027 01:29:45.688   03 Jun 2027 01:30:25.762            40.074                Anadyr1          1252.312
       217   03 Jun 2027 01:30:52.576   03 Jun 2027 01:30:58.805             6.229                Anadyr2           194.656
       218   03 Jun 2027 01:31:40.920   03 Jun 2027 01:32:11.485            30.565                Anadyr2           955.156
       219   03 Jun 2027 01:34:14.956   03 Jun 2027 01:34:22.041             7.085                Anadyr1           221.406
       220   03 Jun 2027 01:34:51.157   03 Jun 2027 01:35:14.629            23.472                Anadyr1           733.500
       221   03 Jun 2027 01:35:19.788   03 Jun 2027 01:35:25.080             5.292                Norilsk           165.375
       222   03 Jun 2027 01:35:40.271   03 Jun 2027 01:37:07.074            86.803               Magadan2          2712.594
       223   03 Jun 2027 01:37:30.679   03 Jun 2027 01:39:30.554           119.875              Murmansk1          3746.094
       224   03 Jun 2027 01:40:42.366   03 Jun 2027 01:41:59.637            77.271                Irkutsk          2414.719
       225   03 Jun 2027 01:48:15.524   03 Jun 2027 01:48:21.869             6.345                  Delhi           198.281
       226   03 Jun 2027 01:50:59.693   03 Jun 2027 01:51:33.867            34.174                  Delhi          1067.937
       227   03 Jun 2027 01:52:40.777   03 Jun 2027 01:53:24.958            44.181                  Delhi          1380.656
       228   03 Jun 2027 03:02:41.423   03 Jun 2027 03:02:58.756            17.333                Anadyr2           541.656
       229   03 Jun 2027 03:02:58.756   03 Jun 2027 03:04:36.506            97.750                Anadyr1          3054.687
       230   03 Jun 2027 03:08:27.922   03 Jun 2027 03:08:59.246            31.324               Magadan1           978.875
       231   03 Jun 2027 03:20:53.324   03 Jun 2027 03:21:00.168             6.844                Norilsk           213.875
       232   03 Jun 2027 03:21:14.954   03 Jun 2027 03:24:24.250           189.296              Murmansk1          5915.500
       233   03 Jun 2027 03:24:42.547   03 Jun 2027 03:24:58.609            16.062              Murmansk2           501.938
       234   03 Jun 2027 03:24:58.609   03 Jun 2027 03:25:20.365            21.756              Murmansk1           679.875
       235   03 Jun 2027 03:25:55.785   03 Jun 2027 03:27:14.844            79.059                 Moscow          2470.594
       236   03 Jun 2027 03:40:59.847   03 Jun 2027 03:44:14.519           194.672               CapeTown          6083.500
       237   03 Jun 2027 04:37:12.838   03 Jun 2027 04:42:15.845           303.007                Anadyr1          9468.969
       238   03 Jun 2027 04:44:25.098   03 Jun 2027 04:44:46.464            21.366                Anadyr2           667.688
       239   03 Jun 2027 04:45:23.515   03 Jun 2027 04:45:45.125            21.610               Magadan2           675.313
       240   03 Jun 2027 04:45:49.483   03 Jun 2027 04:46:38.486            49.003                Anadyr1          1531.344
       241   03 Jun 2027 04:57:59.743   03 Jun 2027 04:58:16.786            17.043                 Moscow           532.594
       242   03 Jun 2027 04:59:23.096   03 Jun 2027 04:59:27.432             4.336                 Moscow           135.500
       243   03 Jun 2027 04:59:33.633   03 Jun 2027 05:00:16.245            42.612                 Moscow          1331.625
       244   03 Jun 2027 05:17:07.963   03 Jun 2027 05:18:26.516            78.553               CapeTown          2454.781
       245   03 Jun 2027 06:18:30.986   03 Jun 2027 06:19:06.155            35.169                Anadyr1          1099.031
       246   03 Jun 2027 06:19:11.549   03 Jun 2027 06:19:38.027            26.478                Anadyr1           827.438
       247   03 Jun 2027 06:19:40.374   03 Jun 2027 06:19:50.920            10.546               Magadan2           329.562
       248   03 Jun 2027 06:19:50.920   03 Jun 2027 06:19:51.976             1.056               Magadan1            33.000
       249   03 Jun 2027 06:19:59.389   03 Jun 2027 06:21:42.302           102.913               Magadan2          3216.031
       250   03 Jun 2027 06:21:52.587   03 Jun 2027 06:22:17.041            24.454               Magadan2           764.188
       251   03 Jun 2027 06:22:20.925   03 Jun 2027 06:23:07.055            46.130                Anadyr1          1441.562
       252   03 Jun 2027 07:53:41.462   03 Jun 2027 07:54:19.352            37.890                Anadyr1          1184.063
       253   03 Jun 2027 07:54:58.384   03 Jun 2027 07:55:16.343            17.959                Anadyr2           561.219
       254   03 Jun 2027 07:55:39.721   03 Jun 2027 07:56:02.640            22.919               Magadan2           716.219
       255   03 Jun 2027 07:56:07.115   03 Jun 2027 07:56:42.466            35.351               Magadan2          1104.719
       256   03 Jun 2027 07:57:22.627   03 Jun 2027 07:57:30.004             7.377                Irkutsk           230.531
       257   03 Jun 2027 07:57:49.763   03 Jun 2027 07:57:52.410             2.647               Magadan1            82.719
       258   03 Jun 2027 07:57:55.342   03 Jun 2027 07:58:08.013            12.671                Anadyr1           395.969
       259   03 Jun 2027 07:58:17.367   03 Jun 2027 07:59:08.258            50.891                Anadyr2          1590.344
       260   03 Jun 2027 07:59:16.021   03 Jun 2027 07:59:16.760             0.739               Magadan1            23.094
       261   03 Jun 2027 07:59:24.940   03 Jun 2027 07:59:57.409            32.469               Magadan2          1014.656
       262   03 Jun 2027 08:00:12.564   03 Jun 2027 08:01:24.215            71.651                Anadyr2          2239.094
       263   03 Jun 2027 09:30:16.363   03 Jun 2027 09:30:35.252            18.889               Magadan2           590.281
       264   03 Jun 2027 09:32:03.582   03 Jun 2027 09:32:54.124            50.542               Magadan2          1579.437
       265   03 Jun 2027 09:33:19.869   03 Jun 2027 09:33:23.766             3.897               Magadan1           121.781
       266   03 Jun 2027 09:33:24.331   03 Jun 2027 09:33:59.369            35.038                Irkutsk          1094.938
       267   03 Jun 2027 09:34:30.745   03 Jun 2027 09:35:01.168            30.423                Irkutsk           950.719
       268   03 Jun 2027 09:35:21.449   03 Jun 2027 09:35:39.065            17.616                Irkutsk           550.500
       269   03 Jun 2027 09:35:40.781   03 Jun 2027 09:35:44.189             3.408                Novosib           106.500
       270   03 Jun 2027 09:35:46.169   03 Jun 2027 09:36:37.649            51.480               Magadan1          1608.750
       271   03 Jun 2027 09:37:02.007   03 Jun 2027 09:37:18.218            16.211                Irkutsk           506.594
       272   03 Jun 2027 09:37:31.265   03 Jun 2027 09:37:48.116            16.851                Novosib           526.594
       273   03 Jun 2027 10:12:01.491   03 Jun 2027 10:12:54.054            52.563            RioGallegos          1642.594
       274   03 Jun 2027 10:17:22.595   03 Jun 2027 10:17:51.144            28.549            RioGallegos           892.156
       275   03 Jun 2027 10:47:04.719   03 Jun 2027 10:47:46.837            42.118                Sumatra          1316.187
       276   03 Jun 2027 11:00:07.178   03 Jun 2027 11:00:30.885            23.707                  Delhi           740.844
       277   03 Jun 2027 11:08:28.152   03 Jun 2027 11:08:32.514             4.362                Novosib           136.312
       278   03 Jun 2027 11:09:04.746   03 Jun 2027 11:09:18.144            13.398                Norilsk           418.687
       279   03 Jun 2027 11:09:34.154   03 Jun 2027 11:09:57.918            23.764                Irkutsk           742.625
       280   03 Jun 2027 11:10:28.788   03 Jun 2027 11:10:38.424             9.636                Irkutsk           301.125
       281   03 Jun 2027 11:10:46.116   03 Jun 2027 11:11:02.063            15.947                Novosib           498.344
       282   03 Jun 2027 11:11:11.498   03 Jun 2027 11:11:38.550            27.052                Novosib           845.375
       283   03 Jun 2027 11:11:42.462   03 Jun 2027 11:12:49.237            66.775                Novosib          2086.719
       284   03 Jun 2027 11:12:55.338   03 Jun 2027 11:12:57.067             1.729                Norilsk            54.031
       285   03 Jun 2027 11:13:24.197   03 Jun 2027 11:13:25.853             1.656                Norilsk            51.750
       286   03 Jun 2027 11:50:41.273   03 Jun 2027 11:51:29.504            48.231            RioGallegos          1507.219
       287   03 Jun 2027 11:52:57.523   03 Jun 2027 11:54:08.161            70.638            RioGallegos          2207.438
       288   03 Jun 2027 12:25:05.389   03 Jun 2027 12:25:25.112            19.723                Sumatra           616.344
       289   03 Jun 2027 12:30:42.881   03 Jun 2027 12:30:46.593             3.712                Sumatra           116.000
       290   03 Jun 2027 12:34:41.523   03 Jun 2027 12:35:02.763            21.240                  Delhi           663.750
       291   03 Jun 2027 12:38:28.195   03 Jun 2027 12:38:54.983            26.788                Novosib           837.125
       292   03 Jun 2027 12:39:32.873   03 Jun 2027 12:40:01.477            28.604                Novosib           893.875
       293   03 Jun 2027 12:40:58.381   03 Jun 2027 12:42:20.355            81.974                Irkutsk          2561.687
       294   03 Jun 2027 12:42:59.185   03 Jun 2027 12:43:48.551            49.366                Norilsk          1542.687
       295   03 Jun 2027 14:11:01.544   03 Jun 2027 14:14:22.844           201.300                  Delhi          6290.625
       296   03 Jun 2027 14:16:45.496   03 Jun 2027 14:17:35.585            50.089                 Moscow          1565.281
       297   03 Jun 2027 14:18:56.576   03 Jun 2027 14:20:31.257            94.681              Murmansk2          2958.781
       298   03 Jun 2027 14:20:41.812   03 Jun 2027 14:21:00.872            19.060              Murmansk1           595.625
       299   03 Jun 2027 14:21:48.869   03 Jun 2027 14:21:58.609             9.740                Norilsk           304.375
       300   03 Jun 2027 14:22:39.576   03 Jun 2027 14:23:44.275            64.699                Norilsk          2021.844
       301   03 Jun 2027 15:31:08.251   03 Jun 2027 15:33:38.809           150.558               CapeTown          4704.938
       302   03 Jun 2027 15:53:05.271   03 Jun 2027 15:53:36.218            30.947                 Moscow           967.094
       303   03 Jun 2027 15:55:35.605   03 Jun 2027 15:56:34.465            58.860              Murmansk1          1839.375
       304   03 Jun 2027 15:58:05.112   03 Jun 2027 15:58:16.275            11.163              Murmansk2           348.844
       305   03 Jun 2027 15:58:16.275   03 Jun 2027 15:58:30.502            14.227              Murmansk1           444.594
       306   03 Jun 2027 16:10:16.147   03 Jun 2027 16:11:43.803            87.656                Anadyr1          2739.250
       307   03 Jun 2027 16:12:41.102   03 Jun 2027 16:14:01.775            80.673                Anadyr1          2521.031
       308   03 Jun 2027 17:04:56.477   03 Jun 2027 17:07:25.867           149.390               CapeTown          4668.438
       309   03 Jun 2027 17:34:20.270   03 Jun 2027 17:34:46.194            25.924              Murmansk2           810.125
       310   03 Jun 2027 17:35:02.596   03 Jun 2027 17:36:37.203            94.607                 Moscow          2956.469
       311   03 Jun 2027 17:45:35.784   03 Jun 2027 17:45:38.972             3.188                Anadyr1            99.625
       312   03 Jun 2027 17:46:05.347   03 Jun 2027 17:47:25.090            79.743                Anadyr2          2491.969
       313   03 Jun 2027 17:48:26.780   03 Jun 2027 17:48:44.192            17.412                Anadyr2           544.125
       314   03 Jun 2027 17:48:47.253   03 Jun 2027 17:49:11.343            24.090                Anadyr2           752.812
       315   03 Jun 2027 17:49:48.573   03 Jun 2027 17:51:18.083            89.510               Magadan2          2797.188
       316   03 Jun 2027 17:51:42.256   03 Jun 2027 17:51:59.995            17.739               Magadan1           554.344
       317   03 Jun 2027 19:21:28.950   03 Jun 2027 19:25:14.553           225.603                Anadyr1          7050.094
       318   03 Jun 2027 19:25:39.226   03 Jun 2027 19:28:51.973           192.747               Magadan1          6023.344
       319   03 Jun 2027 20:57:22.899   03 Jun 2027 21:00:19.103           176.204                Anadyr1          5506.375
       320   03 Jun 2027 21:00:20.155   03 Jun 2027 21:03:18.986           178.831               Magadan1          5588.469
       321   03 Jun 2027 21:03:29.812   03 Jun 2027 21:04:05.913            36.101                Norilsk          1128.156
       322   03 Jun 2027 21:06:25.900   03 Jun 2027 21:08:21.978           116.078                Irkutsk          3627.437
       323   03 Jun 2027 21:51:40.243   03 Jun 2027 21:52:11.387            31.144            RioGallegos           973.250
       324   03 Jun 2027 21:52:59.960   03 Jun 2027 21:53:53.932            53.972            RioGallegos          1686.625
       325   03 Jun 2027 22:32:55.538   03 Jun 2027 22:33:37.624            42.086                Anadyr1          1315.187
       326   03 Jun 2027 22:35:13.127   03 Jun 2027 22:37:02.818           109.691                Norilsk          3427.844
       327   03 Jun 2027 22:37:07.641   03 Jun 2027 22:37:47.320            39.679               Magadan1          1239.969
       328   03 Jun 2027 22:39:10.929   03 Jun 2027 22:39:33.964            23.035               Magadan2           719.844
       329   03 Jun 2027 22:39:47.920   03 Jun 2027 22:40:05.791            17.871               Magadan1           558.469
       330   03 Jun 2027 22:40:11.465   03 Jun 2027 22:40:54.349            42.884                Irkutsk          1340.125
       331   03 Jun 2027 22:41:15.173   03 Jun 2027 22:42:09.326            54.153                Novosib          1692.281
       332   03 Jun 2027 22:43:10.810   03 Jun 2027 22:43:29.050            18.240                Novosib           570.000
       333   03 Jun 2027 22:44:27.506   03 Jun 2027 22:44:51.093            23.587                Novosib           737.094
       334   03 Jun 2027 22:53:00.734   03 Jun 2027 22:53:40.255            39.521                Sumatra          1235.031
       335   03 Jun 2027 22:56:27.074   03 Jun 2027 22:56:28.475             1.401                Sumatra            43.781
       336   03 Jun 2027 22:57:44.097   03 Jun 2027 22:59:11.115            87.018                Sumatra          2719.313
       337   04 Jun 2027 00:07:31.216   04 Jun 2027 00:08:58.316            87.100                Anadyr1          2721.875
       338   04 Jun 2027 00:09:48.384   04 Jun 2027 00:10:22.887            34.503                Anadyr1          1078.219
       339   04 Jun 2027 00:11:11.640   04 Jun 2027 00:12:27.494            75.854                Norilsk          2370.437
       340   04 Jun 2027 00:12:30.616   04 Jun 2027 00:12:48.102            17.486               Magadan1           546.438
       341   04 Jun 2027 00:13:03.451   04 Jun 2027 00:13:16.470            13.019               Magadan1           406.844
       342   04 Jun 2027 00:14:45.736   04 Jun 2027 00:14:47.715             1.979               Magadan2            61.844
       343   04 Jun 2027 00:15:05.122   04 Jun 2027 00:15:49.234            44.112                Irkutsk          1378.500
       344   04 Jun 2027 00:16:16.467   04 Jun 2027 00:17:27.321            70.854                Novosib          2214.188
       345   04 Jun 2027 00:18:32.082   04 Jun 2027 00:19:02.983            30.901                Novosib           965.656
       346   04 Jun 2027 00:19:32.512   04 Jun 2027 00:20:01.358            28.846                Novosib           901.437
       347   04 Jun 2027 00:22:44.180   04 Jun 2027 00:23:30.018            45.838                  Delhi          1432.438
       348   04 Jun 2027 00:24:59.507   04 Jun 2027 00:26:08.967            69.460                  Delhi          2170.625
       349   04 Jun 2027 01:06:30.152   04 Jun 2027 01:06:34.735             4.583            RioGallegos           143.219
       350   04 Jun 2027 01:07:11.182   04 Jun 2027 01:07:36.332            25.150            RioGallegos           785.938
       351   04 Jun 2027 01:10:25.957   04 Jun 2027 01:10:39.437            13.480            RioGallegos           421.250
       352   04 Jun 2027 01:12:01.833   04 Jun 2027 01:12:31.645            29.812            RioGallegos           931.625
       353   04 Jun 2027 01:40:58.433   04 Jun 2027 01:41:20.509            22.076                Anadyr1           689.875
       354   04 Jun 2027 01:42:19.611   04 Jun 2027 01:42:58.724            39.113                Anadyr1          1222.281
       355   04 Jun 2027 01:43:27.169   04 Jun 2027 01:43:42.176            15.007                Anadyr1           468.969
       356   04 Jun 2027 01:43:42.176   04 Jun 2027 01:43:58.734            16.558                Anadyr2           517.437
       357   04 Jun 2027 01:46:22.354   04 Jun 2027 01:46:42.493            20.139                Anadyr1           629.344
       358   04 Jun 2027 01:47:07.937   04 Jun 2027 01:47:21.075            13.138                Anadyr2           410.563
       359   04 Jun 2027 01:47:22.732   04 Jun 2027 01:49:03.393           100.661               Magadan2          3145.656
       360   04 Jun 2027 01:49:28.848   04 Jun 2027 01:51:04.334            95.486              Murmansk2          2983.937
       361   04 Jun 2027 01:51:25.841   04 Jun 2027 01:52:00.074            34.233                Novosib          1069.781
       362   04 Jun 2027 01:54:19.040   04 Jun 2027 01:54:34.552            15.512                 Moscow           484.750
       363   04 Jun 2027 01:54:43.286   04 Jun 2027 01:54:59.004            15.718                Irkutsk           491.188
       364   04 Jun 2027 01:58:21.153   04 Jun 2027 01:59:59.847            98.694                 Moscow          3084.187
       365   04 Jun 2027 03:16:36.667   04 Jun 2027 03:16:40.037             3.370                Anadyr1           105.312
       366   04 Jun 2027 03:17:34.939   04 Jun 2027 03:18:00.137            25.198                Anadyr2           787.438
       367   04 Jun 2027 03:18:12.257   04 Jun 2027 03:18:21.776             9.519                Anadyr1           297.469
       368   04 Jun 2027 03:18:50.400   04 Jun 2027 03:18:55.605             5.205                Anadyr1           162.656
       369   04 Jun 2027 03:18:55.605   04 Jun 2027 03:19:23.487            27.882                Anadyr2           871.312
       370   04 Jun 2027 03:20:23.011   04 Jun 2027 03:20:35.483            12.472               Magadan1           389.750
       371   04 Jun 2027 03:21:47.997   04 Jun 2027 03:21:52.278             4.281               Magadan1           133.781
       372   04 Jun 2027 03:22:54.978   04 Jun 2027 03:23:32.797            37.819               Magadan1          1181.844
       373   04 Jun 2027 03:32:21.096   04 Jun 2027 03:32:49.415            28.319                Norilsk           884.969
       374   04 Jun 2027 03:34:12.865   04 Jun 2027 03:34:53.991            41.126              Murmansk2          1285.188
       375   04 Jun 2027 03:35:50.012   04 Jun 2027 03:36:18.626            28.614                Novosib           894.188
       376   04 Jun 2027 03:36:44.199   04 Jun 2027 03:37:35.306            51.107              Murmansk2          1597.094
       377   04 Jun 2027 03:37:38.478   04 Jun 2027 03:41:15.121           216.643                 Moscow          6770.094
       378   04 Jun 2027 03:52:44.753   04 Jun 2027 03:57:04.595           259.842               CapeTown          8120.062
       379   04 Jun 2027 04:49:10.941   04 Jun 2027 04:50:27.289            76.348                Anadyr2          2385.875
       380   04 Jun 2027 04:52:12.451   04 Jun 2027 04:52:55.684            43.233                Anadyr1          1351.031
       381   04 Jun 2027 04:54:29.813   04 Jun 2027 04:54:36.250             6.437                Anadyr1           201.156
       382   04 Jun 2027 04:55:53.971   04 Jun 2027 04:57:31.725            97.754                Anadyr1          3054.812
       383   04 Jun 2027 04:57:31.725   04 Jun 2027 05:00:02.698           150.973                Anadyr2          4717.906
       384   04 Jun 2027 05:00:08.625   04 Jun 2027 05:00:26.354            17.729                Anadyr2           554.031
       385   04 Jun 2027 05:00:27.135   04 Jun 2027 05:01:36.194            69.059               Magadan2          2158.094
       386   04 Jun 2027 05:02:01.077   04 Jun 2027 05:02:05.634             4.557                Anadyr2           142.406
       387   04 Jun 2027 05:29:38.403   04 Jun 2027 05:29:45.375             6.972               CapeTown           217.875
       388   04 Jun 2027 05:31:15.690   04 Jun 2027 05:32:46.921            91.231               CapeTown          2850.969
       389   04 Jun 2027 06:29:50.998   04 Jun 2027 06:30:12.642            21.644                Anadyr1           676.375
       390   04 Jun 2027 06:30:17.939   04 Jun 2027 06:30:32.541            14.602                Anadyr2           456.312
       391   04 Jun 2027 06:31:07.535   04 Jun 2027 06:31:11.721             4.186               Magadan2           130.812
       392   04 Jun 2027 06:31:17.113   04 Jun 2027 06:31:34.632            17.519               Magadan2           547.469
       393   04 Jun 2027 06:31:45.165   04 Jun 2027 06:31:52.866             7.701               Magadan1           240.656
       394   04 Jun 2027 06:32:02.667   04 Jun 2027 06:33:42.687           100.020               Magadan2          3125.625
       395   04 Jun 2027 06:33:45.002   04 Jun 2027 06:33:55.391            10.389               Magadan1           324.656
       396   04 Jun 2027 06:34:12.869   04 Jun 2027 06:34:31.509            18.640               Magadan1           582.500
       397   04 Jun 2027 06:34:31.509   04 Jun 2027 06:35:03.365            31.856               Magadan2           995.500
       398   04 Jun 2027 06:35:04.430   04 Jun 2027 06:35:38.992            34.562                Anadyr2          1080.063
       399   04 Jun 2027 06:35:38.992   04 Jun 2027 06:35:45.047             6.055                Anadyr1           189.219
       400   04 Jun 2027 08:05:19.617   04 Jun 2027 08:05:56.761            37.144                Anadyr2          1160.750
       401   04 Jun 2027 08:06:17.926   04 Jun 2027 08:08:28.164           130.238                Anadyr2          4069.937
       402   04 Jun 2027 08:08:40.789   04 Jun 2027 08:09:53.035            72.246               Magadan1          2257.688
       403   04 Jun 2027 08:10:19.152   04 Jun 2027 08:10:28.215             9.063                Anadyr2           283.219
       404   04 Jun 2027 08:10:57.249   04 Jun 2027 08:11:34.194            36.945               Magadan2          1154.531
       405   04 Jun 2027 08:11:59.544   04 Jun 2027 08:12:28.507            28.963               Magadan1           905.094
       406   04 Jun 2027 08:13:50.049   04 Jun 2027 08:13:59.160             9.111              Murmansk2           284.719
       407   04 Jun 2027 08:14:07.754   04 Jun 2027 08:14:14.855             7.101              Murmansk2           221.906
       408   04 Jun 2027 08:19:02.801   04 Jun 2027 08:19:05.228             2.427              Murmansk2            75.844
       409   04 Jun 2027 08:19:28.038   04 Jun 2027 08:19:54.766            26.728              Murmansk2           835.250
       410   04 Jun 2027 08:49:02.074   04 Jun 2027 08:49:10.295             8.221            RioGallegos           256.906
       411   04 Jun 2027 08:49:47.684   04 Jun 2027 08:49:53.454             5.770            RioGallegos           180.313
       412   04 Jun 2027 08:53:10.826   04 Jun 2027 08:53:33.265            22.439            RioGallegos           701.219
       413   04 Jun 2027 08:58:15.011   04 Jun 2027 08:58:23.475             8.464            RioGallegos           264.500
       414   04 Jun 2027 09:44:04.822   04 Jun 2027 09:44:06.210             1.388                Irkutsk            43.375
       415   04 Jun 2027 09:45:17.291   04 Jun 2027 09:45:30.448            13.157                Irkutsk           411.156
       416   04 Jun 2027 09:45:31.457   04 Jun 2027 09:45:44.366            12.909               Magadan2           403.406
       417   04 Jun 2027 09:45:56.469   04 Jun 2027 09:46:43.436            46.967               Magadan1          1467.719
       418   04 Jun 2027 09:47:07.232   04 Jun 2027 09:47:09.616             2.384                Norilsk            74.500
       419   04 Jun 2027 09:47:11.915   04 Jun 2027 09:47:22.347            10.432                Irkutsk           326.000
       420   04 Jun 2027 09:47:44.185   04 Jun 2027 09:48:21.286            37.101               Magadan1          1159.406
       421   04 Jun 2027 09:48:48.022   04 Jun 2027 09:49:27.103            39.081                Novosib          1221.281
       422   04 Jun 2027 10:24:08.316   04 Jun 2027 10:24:54.537            46.221            RioGallegos          1444.406
       423   04 Jun 2027 10:58:58.202   04 Jun 2027 10:59:18.159            19.957                Sumatra           623.656
       424   04 Jun 2027 11:00:20.425   04 Jun 2027 11:02:04.204           103.779                Sumatra          3243.094
       425   04 Jun 2027 11:21:33.621   04 Jun 2027 11:22:25.844            52.223                Irkutsk          1631.969
       426   04 Jun 2027 11:22:46.479   04 Jun 2027 11:23:04.693            18.214                Irkutsk           569.187
       427   04 Jun 2027 11:23:05.893   04 Jun 2027 11:23:17.755            11.862                Novosib           370.688
       428   04 Jun 2027 11:23:20.556   04 Jun 2027 11:24:30.472            69.916                Norilsk          2184.875
       429   04 Jun 2027 11:24:49.268   04 Jun 2027 11:24:59.163             9.895                Novosib           309.219
       430   04 Jun 2027 11:25:21.788   04 Jun 2027 11:25:29.033             7.245                Norilsk           226.406
       431   04 Jun 2027 12:03:33.019   04 Jun 2027 12:04:13.268            40.249            RioGallegos          1257.781
       432   04 Jun 2027 12:04:59.044   04 Jun 2027 12:06:01.382            62.338            RioGallegos          1948.062
       433   04 Jun 2027 12:38:33.277   04 Jun 2027 12:39:01.511            28.234                Sumatra           882.312
       434   04 Jun 2027 12:39:34.298   04 Jun 2027 12:42:06.873           152.575                Sumatra          4767.969
       435   04 Jun 2027 12:54:50.753   04 Jun 2027 12:55:01.470            10.717                Norilsk           334.906
       436   04 Jun 2027 12:56:20.503   04 Jun 2027 12:56:44.306            23.803                Norilsk           743.844
       437   04 Jun 2027 12:58:53.596   04 Jun 2027 12:59:15.182            21.586                Norilsk           674.562
       438   04 Jun 2027 14:27:34.687   04 Jun 2027 14:29:57.551           142.864                 Moscow          4464.500
       439   04 Jun 2027 14:30:57.819   04 Jun 2027 14:32:42.191           104.372              Murmansk2          3261.625
       440   04 Jun 2027 14:34:27.643   04 Jun 2027 14:35:42.301            74.658                Norilsk          2333.062
       441   04 Jun 2027 14:36:49.077   04 Jun 2027 14:38:27.947            98.870                Norilsk          3089.688
       442   04 Jun 2027 14:39:13.776   04 Jun 2027 14:39:22.868             9.092                Norilsk           284.125
       443   04 Jun 2027 15:42:30.650   04 Jun 2027 15:42:50.363            19.713               CapeTown           616.031
       444   04 Jun 2027 15:43:40.736   04 Jun 2027 15:45:21.587           100.851               CapeTown          3151.594
       445   04 Jun 2027 16:04:34.989   04 Jun 2027 16:04:42.841             7.852                 Moscow           245.375
       446   04 Jun 2027 16:05:07.082   04 Jun 2027 16:05:44.256            37.174                 Moscow          1161.687
       447   04 Jun 2027 16:07:50.647   04 Jun 2027 16:09:59.590           128.943              Murmansk2          4029.469
       448   04 Jun 2027 16:22:08.191   04 Jun 2027 16:23:30.272            82.081                Anadyr1          2565.031
       449   04 Jun 2027 16:24:42.251   04 Jun 2027 16:24:54.508            12.257                Anadyr2           383.031
       450   04 Jun 2027 17:16:59.151   04 Jun 2027 17:19:16.812           137.661               CapeTown          4301.906
       451   04 Jun 2027 17:46:54.564   04 Jun 2027 17:47:40.989            46.425              Murmansk2          1450.781
       452   04 Jun 2027 17:47:56.389   04 Jun 2027 17:48:20.196            23.807              Murmansk1           743.969
       453   04 Jun 2027 17:49:00.030   04 Jun 2027 17:49:40.791            40.761              Murmansk1          1273.781
       454   04 Jun 2027 17:50:22.693   04 Jun 2027 17:52:01.736            99.043              Murmansk2          3095.094
       455   04 Jun 2027 17:52:09.849   04 Jun 2027 17:52:11.131             1.282              Murmansk2            40.062
       456   04 Jun 2027 17:57:36.194   04 Jun 2027 17:57:40.198             4.004                Anadyr2           125.125
       457   04 Jun 2027 17:58:45.873   04 Jun 2027 17:59:10.960            25.087                Anadyr1           783.969
       458   04 Jun 2027 18:00:41.171   04 Jun 2027 18:01:02.046            20.875                Anadyr2           652.344
       459   04 Jun 2027 18:01:17.619   04 Jun 2027 18:03:21.324           123.705               Magadan1          3865.781
       460   04 Jun 2027 18:07:08.140   04 Jun 2027 18:07:20.757            12.617               Magadan1           394.281
       461   04 Jun 2027 19:33:30.588   04 Jun 2027 19:35:16.338           105.750                Anadyr1          3304.688
       462   04 Jun 2027 19:35:36.383   04 Jun 2027 19:37:16.016            99.633                Anadyr2          3113.531
       463   04 Jun 2027 19:37:24.645   04 Jun 2027 19:39:34.124           129.479               Magadan1          4046.219
       464   04 Jun 2027 19:41:54.919   04 Jun 2027 19:42:08.329            13.410               Magadan2           419.063
       465   04 Jun 2027 19:42:34.808   04 Jun 2027 19:43:30.421            55.613               Magadan2          1737.906
       466   04 Jun 2027 19:46:37.090   04 Jun 2027 19:46:44.406             7.316               Magadan1           228.625
       467   04 Jun 2027 19:46:44.406   04 Jun 2027 19:47:16.280            31.874               Magadan2           996.063
       468   04 Jun 2027 21:09:23.245   04 Jun 2027 21:11:32.935           129.690                Anadyr1          4052.813
       469   04 Jun 2027 21:11:40.334   04 Jun 2027 21:17:01.232           320.898                Norilsk         10028.062
       470   04 Jun 2027 21:18:33.697   04 Jun 2027 21:19:23.113            49.416                Irkutsk          1544.250
       471   04 Jun 2027 21:23:13.575   04 Jun 2027 21:23:15.048             1.473                Irkutsk            46.031
       472   04 Jun 2027 21:34:30.649   04 Jun 2027 21:37:12.151           161.502                Sumatra          5046.938
       473   04 Jun 2027 22:44:50.973   04 Jun 2027 22:45:38.883            47.910                Anadyr2          1497.188
       474   04 Jun 2027 22:46:19.150   04 Jun 2027 22:47:16.724            57.574                Anadyr1          1799.187
       475   04 Jun 2027 22:47:48.260   04 Jun 2027 22:48:40.263            52.003               Magadan2          1625.094
       476   04 Jun 2027 22:49:01.534   04 Jun 2027 22:49:27.937            26.403               Magadan2           825.094
       477   04 Jun 2027 22:51:15.583   04 Jun 2027 22:52:22.988            67.405                Irkutsk          2106.406
       478   04 Jun 2027 22:52:40.937   04 Jun 2027 22:52:43.146             2.209                Novosib            69.031
       479   04 Jun 2027 22:54:23.894   04 Jun 2027 22:54:30.492             6.598                Novosib           206.188
       480   04 Jun 2027 22:54:39.874   04 Jun 2027 22:55:34.865            54.991                Novosib          1718.469
       481   04 Jun 2027 23:04:57.091   04 Jun 2027 23:05:48.145            51.054                Sumatra          1595.437
       482   04 Jun 2027 23:07:44.768   04 Jun 2027 23:07:57.584            12.816                Sumatra           400.500
