uniorb/output/strategy_4/Drop/Drop_KinoSat_110409.txt

KinoSat_110409
-------------------------
    Access    *     Start Time (UTCG)     *     Stop Time (UTCG)  *   Duration (s)        *       Station  *  Data (Mbytes)
         1   01 Jun 2027 03:12:47.740   01 Jun 2027 03:13:05.032            17.292               Magadan2          2161.500
         2   01 Jun 2027 03:13:14.215   01 Jun 2027 03:13:34.003            19.788               Magadan2          2473.500
         3   01 Jun 2027 03:13:49.494   01 Jun 2027 03:14:13.261            23.767               Magadan1          2970.875
         4   01 Jun 2027 03:14:19.730   01 Jun 2027 03:14:58.918            39.188                Anadyr2          4898.500
         5   01 Jun 2027 03:15:05.988   01 Jun 2027 03:15:40.641            34.653                Anadyr2          4331.625
         6   01 Jun 2027 03:15:41.686   01 Jun 2027 03:16:14.608            32.922               Magadan1          4115.250
         7   01 Jun 2027 03:16:26.047   01 Jun 2027 03:16:35.883             9.836               Magadan1          1229.500
         8   01 Jun 2027 03:16:42.579   01 Jun 2027 03:17:09.075            26.496                Anadyr2          3312.000
         9   01 Jun 2027 03:17:09.075   01 Jun 2027 03:17:25.819            16.744                Anadyr1          2093.000
        10   01 Jun 2027 03:17:29.651   01 Jun 2027 03:18:54.211            84.560                Anadyr1         10570.000
        11   01 Jun 2027 03:18:58.277   01 Jun 2027 03:19:50.727            52.450                Anadyr1          6556.250
        12   01 Jun 2027 03:20:14.012   01 Jun 2027 03:20:23.079             9.067                Anadyr1          1133.375
        13   01 Jun 2027 04:51:16.091   01 Jun 2027 04:51:38.627            22.536               Magadan2          2817.000
        14   01 Jun 2027 04:51:48.191   01 Jun 2027 04:53:21.263            93.072                Irkutsk         11634.000
        15   01 Jun 2027 04:53:41.814   01 Jun 2027 04:55:58.760           136.946                Irkutsk         17118.250
        16   01 Jun 2027 05:31:31.065   01 Jun 2027 05:32:19.893            48.828            RioGallegos          6103.500
        17   01 Jun 2027 06:06:16.404   01 Jun 2027 06:08:15.532           119.128                Sumatra         14891.000
        18   01 Jun 2027 06:16:45.316   01 Jun 2027 06:17:32.366            47.050                  Delhi          5881.250
        19   01 Jun 2027 06:28:37.322   01 Jun 2027 06:29:15.673            38.351                Novosib          4793.875
        20   01 Jun 2027 06:29:35.995   01 Jun 2027 06:30:56.655            80.660                Novosib         10082.500
        21   01 Jun 2027 06:31:18.823   01 Jun 2027 06:32:28.157            69.334              Murmansk1          8666.750
        22   01 Jun 2027 06:32:40.537   01 Jun 2027 06:33:12.659            32.122              Murmansk1          4015.250
        23   01 Jun 2027 06:33:17.781   01 Jun 2027 06:33:49.968            32.187                Novosib          4023.375
        24   01 Jun 2027 07:11:16.622   01 Jun 2027 07:11:22.868             6.246            RioGallegos           780.750
        25   01 Jun 2027 07:46:57.305   01 Jun 2027 07:48:10.484            73.179                Sumatra          9147.375
        26   01 Jun 2027 07:50:31.158   01 Jun 2027 07:50:57.625            26.467                  Delhi          3308.375
        27   01 Jun 2027 08:06:26.552   01 Jun 2027 08:06:32.463             5.911                 Moscow           738.875
        28   01 Jun 2027 08:06:38.852   01 Jun 2027 08:06:58.709            19.857              Murmansk2          2482.125
        29   01 Jun 2027 08:07:05.521   01 Jun 2027 08:07:37.826            32.305                 Moscow          4038.125
        30   01 Jun 2027 08:07:38.555   01 Jun 2027 08:08:07.692            29.137                Novosib          3642.125
        31   01 Jun 2027 08:08:23.542   01 Jun 2027 08:09:11.290            47.748              Murmansk2          5968.500
        32   01 Jun 2027 09:41:25.584   01 Jun 2027 09:47:45.778           380.194                 Moscow         47524.250
        33   01 Jun 2027 09:47:48.894   01 Jun 2027 09:51:14.757           205.863              Murmansk2         25732.875
        34   01 Jun 2027 10:49:39.989   01 Jun 2027 10:53:14.458           214.469               CapeTown         26808.625
        35   01 Jun 2027 10:55:35.376   01 Jun 2027 10:56:58.762            83.386               CapeTown         10423.250
        36   01 Jun 2027 11:29:26.727   01 Jun 2027 11:33:46.862           260.135                Anadyr1         32516.875
        37   01 Jun 2027 11:38:24.402   01 Jun 2027 11:38:37.519            13.117                Anadyr1          1639.625
        38   01 Jun 2027 13:08:30.890   01 Jun 2027 13:12:18.693           227.803               Magadan1         28475.375
        39   01 Jun 2027 13:14:56.790   01 Jun 2027 13:15:44.038            47.248               Magadan2          5906.000
        40   01 Jun 2027 16:24:30.339   01 Jun 2027 16:30:26.712           356.373                Irkutsk         44546.625
        41   01 Jun 2027 16:40:48.173   01 Jun 2027 16:41:57.687            69.514                Sumatra          8689.250
        42   01 Jun 2027 16:43:13.513   01 Jun 2027 16:43:49.235            35.722                Sumatra          4465.250
        43   01 Jun 2027 17:59:36.009   01 Jun 2027 18:03:05.322           209.313                Novosib         26164.125
        44   01 Jun 2027 21:08:48.274   01 Jun 2027 21:10:01.743            73.469              Murmansk1          9183.625
        45   01 Jun 2027 21:12:53.724   01 Jun 2027 21:16:36.980           223.256                 Moscow         23168.375
        46   02 Jun 2027 03:29:35.751   02 Jun 2027 03:30:54.771            79.020                Anadyr1          9877.500
        47   02 Jun 2027 03:31:33.310   02 Jun 2027 03:32:48.932            75.622               Magadan1          9452.750
        48   02 Jun 2027 04:45:56.060   02 Jun 2027 04:47:25.590            89.530                Sumatra         11191.250
        49   02 Jun 2027 05:04:31.976   02 Jun 2027 05:05:07.881            35.905               Magadan1          4488.125
        50   02 Jun 2027 05:05:15.711   02 Jun 2027 05:06:17.787            62.076               Magadan2          7759.500
        51   02 Jun 2027 05:06:37.077   02 Jun 2027 05:07:00.999            23.922               Magadan1          2990.250
        52   02 Jun 2027 05:07:35.189   02 Jun 2027 05:08:21.385            46.196                Irkutsk          5774.500
        53   02 Jun 2027 05:08:46.428   02 Jun 2027 05:13:31.001           284.573                Norilsk         35571.625
        54   02 Jun 2027 05:15:06.798   02 Jun 2027 05:16:37.121            90.323              Murmansk1         11290.375
        55   02 Jun 2027 05:43:42.750   02 Jun 2027 05:46:33.339           170.589            RioGallegos         21323.625
        56   02 Jun 2027 06:18:17.371   02 Jun 2027 06:20:30.485           133.114                Sumatra         16639.250
        57   02 Jun 2027 06:30:39.004   02 Jun 2027 06:30:55.953            16.949                Sumatra          2118.625
        58   02 Jun 2027 06:32:01.839   02 Jun 2027 06:32:17.316            15.477                  Delhi          1934.625
        59   02 Jun 2027 06:32:43.510   02 Jun 2027 06:34:02.195            78.685                Irkutsk          9835.625
        60   02 Jun 2027 06:43:35.190   02 Jun 2027 06:44:01.782            26.592              Murmansk1          3324.000
        61   02 Jun 2027 06:44:45.501   02 Jun 2027 06:46:48.960           123.459                 Moscow         15432.375
        62   02 Jun 2027 06:46:57.518   02 Jun 2027 06:49:41.218           163.700                Norilsk         20462.500
        63   02 Jun 2027 06:49:50.276   02 Jun 2027 06:51:47.388           117.112              Murmansk2         14639.000
        64   02 Jun 2027 07:24:34.016   02 Jun 2027 07:26:57.331           143.315            RioGallegos         17914.375
        65   02 Jun 2027 08:02:41.786   02 Jun 2027 08:08:53.974           372.188                  Delhi         46523.500
        66   02 Jun 2027 08:10:38.355   02 Jun 2027 08:15:33.800           295.445                Novosib         36930.625
        67   02 Jun 2027 08:20:17.271   02 Jun 2027 08:25:12.569           295.298              Murmansk1         36912.250
        68   02 Jun 2027 08:25:12.569   02 Jun 2027 08:25:58.514            45.945              Murmansk2          5743.125
        69   02 Jun 2027 08:26:57.971   02 Jun 2027 08:27:22.374            24.403              Murmansk1          3050.375
        70   02 Jun 2027 09:46:52.556   02 Jun 2027 09:47:47.521            54.965                 Moscow          6870.625
        71   02 Jun 2027 09:51:39.763   02 Jun 2027 09:52:09.648            29.885              Murmansk1          3735.625
        72   02 Jun 2027 09:55:29.687   02 Jun 2027 10:01:13.627           343.940                Norilsk         42992.500
        73   02 Jun 2027 10:01:22.121   02 Jun 2027 10:02:29.968            67.847              Murmansk2          8480.875
        74   02 Jun 2027 10:02:29.968   02 Jun 2027 10:03:16.325            46.357              Murmansk1          5794.625
        75   02 Jun 2027 11:02:09.956   02 Jun 2027 11:07:49.646           339.690               CapeTown         42461.250
        76   02 Jun 2027 11:24:31.537   02 Jun 2027 11:28:35.387           243.850                 Moscow         30481.250
        77   02 Jun 2027 11:29:06.631   02 Jun 2027 11:34:42.066           335.435              Murmansk2         41929.375
        78   02 Jun 2027 11:34:42.066   02 Jun 2027 11:36:53.717           131.651              Murmansk1         16456.375
        79   02 Jun 2027 11:37:14.007   02 Jun 2027 11:37:36.688            22.681              Murmansk1          2835.125
        80   02 Jun 2027 11:41:21.240   02 Jun 2027 11:46:48.012           326.772                Anadyr1         40846.500
        81   02 Jun 2027 13:20:12.653   02 Jun 2027 13:21:30.856            78.203               Magadan2          9775.375
        82   02 Jun 2027 13:21:30.856   02 Jun 2027 13:23:51.664           140.808               Magadan1         17601.000
        83   02 Jun 2027 13:25:15.566   02 Jun 2027 13:27:04.912           109.346               Magadan2         13668.250
        84   02 Jun 2027 15:49:42.884   02 Jun 2027 15:52:13.458           150.574            RioGallegos         18821.750
        85   02 Jun 2027 16:36:00.164   02 Jun 2027 16:39:40.165           220.001                Irkutsk         27500.125
        86   02 Jun 2027 16:40:59.585   02 Jun 2027 16:42:30.218            90.633                Irkutsk         11329.125
        87   02 Jun 2027 16:51:17.670   02 Jun 2027 16:53:34.353           136.683                Sumatra         17085.375
        88   02 Jun 2027 18:13:14.640   02 Jun 2027 18:15:06.524           111.884                Novosib         13985.500
        89   02 Jun 2027 18:22:19.855   02 Jun 2027 18:23:28.423            68.568                  Delhi          8571.000
        90   02 Jun 2027 21:21:19.725   02 Jun 2027 21:22:48.300            88.575              Murmansk1         11071.875
        91   02 Jun 2027 21:26:55.292   02 Jun 2027 21:28:50.239           114.947                 Moscow         14368.375
        92   02 Jun 2027 21:51:09.161   02 Jun 2027 21:53:28.314           139.153               CapeTown         17394.125
        93   02 Jun 2027 21:55:37.682   02 Jun 2027 21:57:18.329           100.647               CapeTown         12580.875
        94   03 Jun 2027 03:43:45.337   03 Jun 2027 03:44:24.473            39.136                Irkutsk          4892.000
        95   03 Jun 2027 03:44:46.844   03 Jun 2027 03:49:37.861           291.017                Norilsk         36377.125
        96   03 Jun 2027 04:56:47.045   03 Jun 2027 04:59:25.503           158.458                Sumatra         19807.250
        97   03 Jun 2027 05:20:47.883   03 Jun 2027 05:20:50.568             2.685                Norilsk           335.625
        98   03 Jun 2027 05:21:03.761   03 Jun 2027 05:26:53.901           350.140              Murmansk1         43767.500
        99   03 Jun 2027 05:27:14.711   03 Jun 2027 05:27:33.622            18.911              Murmansk1          2363.875
       100   03 Jun 2027 05:27:42.816   03 Jun 2027 05:28:41.147            58.331              Murmansk1          7291.375
       101   03 Jun 2027 05:55:58.393   03 Jun 2027 05:58:23.328           144.935            RioGallegos         18116.875
       102   03 Jun 2027 05:59:20.244   03 Jun 2027 05:59:51.493            31.249            RioGallegos          3906.125
       103   03 Jun 2027 06:30:24.005   03 Jun 2027 06:33:10.990           166.985                Sumatra         20873.125
       104   03 Jun 2027 06:43:16.546   03 Jun 2027 06:44:55.107            98.561                  Delhi         12320.125
       105   03 Jun 2027 06:45:08.102   03 Jun 2027 06:49:20.405           252.303                Irkutsk         31537.875
       106   03 Jun 2027 06:55:10.945   03 Jun 2027 06:55:29.447            18.502              Murmansk2          2312.750
       107   03 Jun 2027 06:56:32.389   03 Jun 2027 06:58:16.179           103.790                Novosib         12973.750
       108   03 Jun 2027 06:58:29.722   03 Jun 2027 07:03:44.425           314.703              Murmansk1         39337.875
       109   03 Jun 2027 08:14:58.609   03 Jun 2027 08:22:58.596           479.987                  Delhi         59998.375
       110   03 Jun 2027 08:23:07.111   03 Jun 2027 08:27:08.502           241.391                Novosib         30173.875
       111   03 Jun 2027 08:27:19.184   03 Jun 2027 08:27:40.169            20.985                Norilsk          2623.125
       112   03 Jun 2027 08:32:22.126   03 Jun 2027 08:33:34.153            72.027                Novosib          9003.375
       113   03 Jun 2027 08:33:45.471   03 Jun 2027 08:37:47.634           242.163              Murmansk2         30270.375
       114   03 Jun 2027 08:39:09.778   03 Jun 2027 08:39:22.751            12.973              Murmansk2          1621.625
       115   03 Jun 2027 09:58:55.085   03 Jun 2027 10:00:13.267            78.182                 Moscow          9772.750
       116   03 Jun 2027 10:02:25.747   03 Jun 2027 10:04:24.101           118.354              Murmansk2         14794.250
       117   03 Jun 2027 10:07:16.172   03 Jun 2027 10:11:47.211           271.039                 Moscow         33879.875
       118   03 Jun 2027 10:12:39.168   03 Jun 2027 10:15:17.958           158.790              Murmansk2         19848.750
       119   03 Jun 2027 11:17:57.901   03 Jun 2027 11:19:07.479            69.578               CapeTown          8697.250
       120   03 Jun 2027 11:37:04.542   03 Jun 2027 11:40:55.852           231.310                 Moscow         28913.750
       121   03 Jun 2027 11:41:06.045   03 Jun 2027 11:49:45.678           519.633              Murmansk1         64954.125
       122   03 Jun 2027 11:50:16.336   03 Jun 2027 11:50:50.058            33.722              Murmansk2          4215.250
       123   03 Jun 2027 11:53:17.250   03 Jun 2027 11:57:44.563           267.313                Anadyr2         33414.125
       124   03 Jun 2027 11:59:48.358   03 Jun 2027 12:00:16.479            28.121                Anadyr2          3515.125
       125   03 Jun 2027 12:00:59.460   03 Jun 2027 12:02:25.459            85.999                Anadyr2         10749.875
       126   03 Jun 2027 12:02:49.439   03 Jun 2027 12:03:41.711            52.272                Anadyr2          6534.000
       127   03 Jun 2027 12:49:56.345   03 Jun 2027 12:51:03.639            67.294               CapeTown          8411.750
       128   03 Jun 2027 12:56:28.506   03 Jun 2027 12:58:19.088           110.582               CapeTown         13822.750
       129   03 Jun 2027 13:31:59.481   03 Jun 2027 13:36:07.888           248.407               Magadan2         31050.875
       130   03 Jun 2027 16:00:46.370   03 Jun 2027 16:03:59.502           193.132            RioGallegos         24141.500
       131   03 Jun 2027 16:48:31.081   03 Jun 2027 16:51:32.837           181.756                Irkutsk         22719.500
       132   03 Jun 2027 17:02:21.720   03 Jun 2027 17:05:18.329           176.609                Sumatra         22076.125
       133   03 Jun 2027 17:07:06.467   03 Jun 2027 17:07:57.375            50.908                Sumatra          6363.500
       134   03 Jun 2027 17:09:51.535   03 Jun 2027 17:11:23.759            92.224                Sumatra         11528.000
       135   03 Jun 2027 18:27:08.308   03 Jun 2027 18:28:56.850           108.542                Novosib         13567.750
       136   03 Jun 2027 18:32:43.348   03 Jun 2027 18:34:35.762           112.414                  Delhi         14051.750
       137   03 Jun 2027 21:34:33.933   03 Jun 2027 21:36:09.698            95.765              Murmansk1         11970.625
       138   03 Jun 2027 21:42:41.084   03 Jun 2027 21:43:51.597            70.513                 Moscow          8814.125
       139   03 Jun 2027 22:02:19.822   03 Jun 2027 22:04:57.856           158.034               CapeTown         19754.250
       140   04 Jun 2027 03:56:44.456   04 Jun 2027 04:02:00.519           316.063              Murmansk1         39507.875
       141   04 Jun 2027 05:08:00.394   04 Jun 2027 05:11:12.725           192.331                Sumatra         24041.375
       142   04 Jun 2027 05:32:36.209   04 Jun 2027 05:34:13.157            96.948                Novosib         12118.500
       143   04 Jun 2027 05:34:16.351   04 Jun 2027 05:37:46.151           209.800                Norilsk         26225.000
       144   04 Jun 2027 05:37:47.217   04 Jun 2027 05:39:15.815            88.598              Murmansk2         11074.750
       145   04 Jun 2027 05:39:15.815   04 Jun 2027 05:40:33.385            77.570              Murmansk1          9696.250
       146   04 Jun 2027 06:08:18.340   04 Jun 2027 06:10:04.545           106.205            RioGallegos         13275.625
       147   04 Jun 2027 06:11:35.277   04 Jun 2027 06:12:15.717            40.440            RioGallegos          5055.000
       148   04 Jun 2027 06:42:36.710   04 Jun 2027 06:45:08.666           151.956                Sumatra         18994.500
       149   04 Jun 2027 06:51:14.393   04 Jun 2027 06:53:20.916           126.523                  Delhi         15815.375
       150   04 Jun 2027 06:57:25.195   04 Jun 2027 06:58:48.427            83.232                Novosib         10404.000
       151   04 Jun 2027 06:59:47.348   04 Jun 2027 07:01:37.609           110.261                Irkutsk         13782.625
       152   04 Jun 2027 07:01:54.002   04 Jun 2027 07:02:00.723             6.721                Norilsk           840.125
       153   04 Jun 2027 07:02:03.409   04 Jun 2027 07:02:36.267            32.858                Novosib          4107.250
       154   04 Jun 2027 07:07:50.722   04 Jun 2027 07:11:12.166           201.444                 Moscow         25180.500
       155   04 Jun 2027 07:11:25.647   04 Jun 2027 07:13:54.461           148.814              Murmansk1         18601.750
       156   04 Jun 2027 07:13:54.461   04 Jun 2027 07:15:42.025           107.564              Murmansk2         13445.500
       157   04 Jun 2027 08:27:22.542   04 Jun 2027 08:33:07.508           344.966                  Delhi         43120.750
       158   04 Jun 2027 08:34:42.768   04 Jun 2027 08:35:09.988            27.220                  Delhi          3402.500
       159   04 Jun 2027 08:35:41.326   04 Jun 2027 08:39:29.811           228.485                Novosib         28560.625
       160   04 Jun 2027 08:44:43.422   04 Jun 2027 08:45:22.657            39.235                Novosib          4904.375
       161   04 Jun 2027 08:45:33.239   04 Jun 2027 08:51:23.395           350.156              Murmansk2         43769.500
       162   04 Jun 2027 10:11:00.593   04 Jun 2027 10:16:21.305           320.712                 Moscow         40089.000
       163   04 Jun 2027 10:16:36.465   04 Jun 2027 10:18:22.502           106.037              Murmansk2         13254.625
       164   04 Jun 2027 10:19:05.784   04 Jun 2027 10:25:30.365           384.581              Murmansk1         48072.625
       165   04 Jun 2027 10:31:16.997   04 Jun 2027 10:34:18.100           181.103                Anadyr1         22637.875
       166   04 Jun 2027 11:52:15.753   04 Jun 2027 11:53:23.566            67.813              Murmansk1          8476.625
       167   04 Jun 2027 11:53:23.566   04 Jun 2027 11:56:12.997           169.431              Murmansk2         21178.875
       168   04 Jun 2027 11:56:38.260   04 Jun 2027 11:56:57.570            19.310              Murmansk2          2413.750
       169   04 Jun 2027 11:57:34.109   04 Jun 2027 11:58:13.935            39.826              Murmansk2          4978.250
       170   04 Jun 2027 11:58:51.559   04 Jun 2027 11:59:03.070            11.511              Murmansk1          1438.875
       171   04 Jun 2027 11:59:15.666   04 Jun 2027 11:59:36.796            21.130              Murmansk1          2641.250
       172   04 Jun 2027 12:00:04.830   04 Jun 2027 12:00:55.747            50.917              Murmansk1          6364.625
       173   04 Jun 2027 12:06:12.828   04 Jun 2027 12:06:45.209            32.381                Anadyr2          4047.625
       174   04 Jun 2027 13:43:49.686   04 Jun 2027 13:46:00.971           131.285               Magadan1         16410.625
       175   04 Jun 2027 13:46:00.971   04 Jun 2027 13:49:31.162           210.191               Magadan2         26273.875
       176   04 Jun 2027 16:12:13.233   04 Jun 2027 16:15:49.003           215.770            RioGallegos         26971.250
       177   04 Jun 2027 16:17:07.026   04 Jun 2027 16:18:37.472            90.446            RioGallegos         11305.750
       178   04 Jun 2027 16:20:09.333   04 Jun 2027 16:20:15.038             5.705            RioGallegos           713.125
       179   04 Jun 2027 17:02:13.282   04 Jun 2027 17:05:25.696           192.414                Irkutsk         24051.750
       180   04 Jun 2027 17:15:47.986   04 Jun 2027 17:18:31.544           163.558                Sumatra         20444.750
       181   04 Jun 2027 18:37:33.641   04 Jun 2027 18:39:10.635            96.994                Novosib         12124.250
       182   04 Jun 2027 18:43:46.556   04 Jun 2027 18:44:50.111            63.555                  Delhi          7944.375
       183   04 Jun 2027 18:46:46.277   04 Jun 2027 18:46:52.485             6.208                  Delhi           776.000
       184   04 Jun 2027 18:49:11.114   04 Jun 2027 18:51:13.588           122.474                  Delhi         15309.250
       185   04 Jun 2027 21:47:31.539   04 Jun 2027 21:49:55.547           144.008              Murmansk2         18001.000
       186   04 Jun 2027 21:51:07.966   04 Jun 2027 21:52:43.586            95.620                 Moscow         11952.500
       187   04 Jun 2027 22:14:56.379   04 Jun 2027 22:16:52.428           116.049               CapeTown           682.499
       188   05 Jun 2027 04:08:45.458   05 Jun 2027 04:09:13.823            28.365              Murmansk2          3545.625
       189   05 Jun 2027 05:19:26.851   05 Jun 2027 05:20:36.500            69.649                Sumatra          8706.125
       190   05 Jun 2027 05:24:09.291   05 Jun 2027 05:25:11.803            62.512                Sumatra          7814.000
       191   05 Jun 2027 05:44:40.120   05 Jun 2027 05:52:26.372           466.252              Murmansk1         58281.500
       192   05 Jun 2027 06:20:43.079   05 Jun 2027 06:21:49.013            65.934            RioGallegos          8241.750
       193   05 Jun 2027 06:22:50.271   05 Jun 2027 06:23:23.291            33.020            RioGallegos          4127.500
       194   05 Jun 2027 06:54:56.393   05 Jun 2027 06:58:54.917           238.524                Sumatra         29815.500
       195   05 Jun 2027 07:02:57.766   05 Jun 2027 07:03:05.663             7.897                  Delhi           987.125
       196   05 Jun 2027 07:08:03.154   05 Jun 2027 07:10:04.263           121.109                  Delhi         15138.625
       197   05 Jun 2027 07:10:14.143   05 Jun 2027 07:13:59.142           224.999                Irkutsk         28124.875
       198   05 Jun 2027 07:14:32.516   05 Jun 2027 07:15:12.436            39.920                Norilsk          4990.000
       199   05 Jun 2027 07:20:21.740   05 Jun 2027 07:21:28.642            66.902              Murmansk1          8362.750
       200   05 Jun 2027 07:21:37.636   05 Jun 2027 07:22:15.234            37.598                 Moscow          4699.750
       201   05 Jun 2027 07:22:20.866   05 Jun 2027 07:25:46.871           206.005                Norilsk         25750.625
       202   05 Jun 2027 07:25:55.155   05 Jun 2027 07:26:11.893            16.738              Murmansk2          2092.250
       203   05 Jun 2027 07:26:11.893   05 Jun 2027 07:26:30.727            18.834              Murmansk1          2354.250
       204   05 Jun 2027 07:27:04.862   05 Jun 2027 07:27:40.135            35.273              Murmansk1          4409.125
       205   05 Jun 2027 08:39:55.163   05 Jun 2027 08:42:01.069           125.906                  Delhi         15738.250
       206   05 Jun 2027 08:42:24.416   05 Jun 2027 08:43:54.466            90.050                  Delhi         11256.250
       207   05 Jun 2027 08:48:22.152   05 Jun 2027 08:51:55.459           213.307                Novosib         26663.375
       208   05 Jun 2027 08:56:13.901   05 Jun 2027 08:57:07.271            53.370                Novosib          6671.250
       209   05 Jun 2027 08:57:08.921   05 Jun 2027 09:03:24.257           375.336              Murmansk2         46917.000
       210   05 Jun 2027 10:26:40.308   05 Jun 2027 10:32:28.776           348.468              Murmansk1         43558.500
       211   05 Jun 2027 10:33:16.094   05 Jun 2027 10:34:09.146            53.052              Murmansk2          6631.500
       212   05 Jun 2027 10:34:10.602   05 Jun 2027 10:36:22.701           132.099                Norilsk         16512.375
       213   05 Jun 2027 10:42:36.069   05 Jun 2027 10:47:39.781           303.712                Anadyr1         37964.000
       214   05 Jun 2027 12:04:40.085   05 Jun 2027 12:08:04.555           204.470              Murmansk1         25558.750
       215   05 Jun 2027 12:24:22.916   05 Jun 2027 12:25:03.557            40.641                Anadyr1          5080.125
       216   05 Jun 2027 12:26:06.110   05 Jun 2027 12:26:27.446            21.336                Anadyr1          2667.000
       217   05 Jun 2027 13:55:42.313   05 Jun 2027 13:58:27.009           164.696               Magadan2         20587.000
       218   05 Jun 2027 13:59:45.621   05 Jun 2027 14:01:14.986            89.365               Magadan1         11170.625
       219   05 Jun 2027 16:23:50.406   05 Jun 2027 16:30:25.660           395.254            RioGallegos         49406.750
       220   05 Jun 2027 17:12:06.916   05 Jun 2027 17:13:41.085            94.169                Irkutsk         11771.125
       221   05 Jun 2027 17:15:18.804   05 Jun 2027 17:15:23.658             4.854                Irkutsk           606.750
       222   05 Jun 2027 17:20:39.368   05 Jun 2027 17:22:05.943            86.575                Irkutsk         10821.875
       223   05 Jun 2027 17:25:13.728   05 Jun 2027 17:26:51.164            97.436                Sumatra         12179.500
       224   05 Jun 2027 17:29:04.671   05 Jun 2027 17:29:42.753            38.082                Sumatra          4760.250
       225   05 Jun 2027 17:31:45.710   05 Jun 2027 17:32:02.739            17.029                Sumatra          2128.625
       226   05 Jun 2027 18:46:52.340   05 Jun 2027 18:48:30.103            97.763                Novosib         12220.375
       227   05 Jun 2027 18:49:37.817   05 Jun 2027 18:51:13.467            95.650                Novosib         11956.250
       228   05 Jun 2027 18:55:11.024   05 Jun 2027 18:56:51.426           100.402                  Delhi         12550.250
       229   05 Jun 2027 20:27:39.900   05 Jun 2027 20:29:47.986           128.086                 Moscow         16010.750
       230   05 Jun 2027 21:56:49.438   05 Jun 2027 21:58:35.626           106.188              Murmansk1         13273.500
       231   05 Jun 2027 22:25:09.954   05 Jun 2027 22:26:30.813            80.859               CapeTown          1794.125
       232   06 Jun 2027 05:31:02.659   06 Jun 2027 05:32:53.443           110.784                Sumatra         13848.000
       233   06 Jun 2027 05:42:11.072   06 Jun 2027 05:42:53.437            42.365                Sumatra          5295.625
       234   06 Jun 2027 05:44:46.340   06 Jun 2027 05:45:09.000            22.660                  Delhi          2832.500
       235   06 Jun 2027 05:56:13.371   06 Jun 2027 06:04:20.102           486.731              Murmansk2         60841.375
       236   06 Jun 2027 06:40:42.641   06 Jun 2027 06:41:48.997            66.356            RioGallegos          8294.500
       237   06 Jun 2027 06:42:56.405   06 Jun 2027 06:43:03.622             7.217            RioGallegos           902.125
       238   06 Jun 2027 07:07:24.738   06 Jun 2027 07:10:06.918           162.180                Sumatra         20272.500
       239   06 Jun 2027 07:14:24.035   06 Jun 2027 07:16:38.370           134.335                Sumatra         16791.875
       240   06 Jun 2027 07:16:52.717   06 Jun 2027 07:17:46.939            54.222                  Delhi          6777.750
       241   06 Jun 2027 07:18:50.457   06 Jun 2027 07:19:25.476            35.019                  Delhi          4377.375
       242   06 Jun 2027 07:21:40.608   06 Jun 2027 07:23:58.126           137.518                Novosib         17189.750
       243   06 Jun 2027 07:24:05.855   06 Jun 2027 07:26:25.526           139.671                Irkutsk         17458.875
       244   06 Jun 2027 07:26:30.047   06 Jun 2027 07:27:49.265            79.218                 Moscow          9902.250
       245   06 Jun 2027 07:32:33.676   06 Jun 2027 07:35:29.063           175.387                 Moscow         21923.375
       246   06 Jun 2027 07:35:41.567   06 Jun 2027 07:37:55.545           133.978              Murmansk1         16747.250
       247   06 Jun 2027 07:37:55.545   06 Jun 2027 07:38:17.868            22.323              Murmansk2          2790.375
       248   06 Jun 2027 07:39:18.019   06 Jun 2027 07:39:38.714            20.695              Murmansk1          2586.875
       249   06 Jun 2027 08:52:39.395   06 Jun 2027 08:56:13.679           214.284                  Delhi         26785.500
       250   06 Jun 2027 09:00:51.922   06 Jun 2027 09:01:29.317            37.395                  Delhi          4674.375
       251   06 Jun 2027 09:01:42.398   06 Jun 2027 09:04:22.815           160.417                Novosib         20052.125
       252   06 Jun 2027 09:09:05.872   06 Jun 2027 09:13:41.182           275.310                Norilsk         34413.750
       253   06 Jun 2027 09:14:32.386   06 Jun 2027 09:14:46.585            14.199              Murmansk1          1774.875
       254   06 Jun 2027 09:14:46.585   06 Jun 2027 09:15:25.325            38.740              Murmansk2          4842.500
       255   06 Jun 2027 10:38:50.218   06 Jun 2027 10:43:35.289           285.071              Murmansk1         35633.875
       256   06 Jun 2027 10:44:25.859   06 Jun 2027 10:45:14.419            48.560              Murmansk1          6070.000
       257   06 Jun 2027 10:46:18.759   06 Jun 2027 10:48:33.981           135.222              Murmansk2         16902.750
       258   06 Jun 2027 10:54:13.765   06 Jun 2027 11:00:40.309           386.544                Anadyr1         48318.000
       259   06 Jun 2027 12:17:06.888   06 Jun 2027 12:20:40.961           214.073              Murmansk2         26759.125
       260   06 Jun 2027 12:29:11.261   06 Jun 2027 12:31:02.009           110.748                Anadyr2         13843.500
       261   06 Jun 2027 12:31:54.992   06 Jun 2027 12:32:08.873            13.881                Anadyr2          1735.125
       262   06 Jun 2027 12:33:44.549   06 Jun 2027 12:33:44.784             0.235                Anadyr2            29.375
       263   06 Jun 2027 14:07:36.777   06 Jun 2027 14:11:56.637           259.860               Magadan2         32482.500
       264   06 Jun 2027 16:35:33.734   06 Jun 2027 16:41:40.458           366.724            RioGallegos         45840.500
       265   06 Jun 2027 17:23:03.266   06 Jun 2027 17:25:44.254           160.988                Irkutsk         20123.500
       266   06 Jun 2027 17:25:45.411   06 Jun 2027 17:28:13.940           148.529                Novosib         18566.125
       267   06 Jun 2027 17:38:43.436   06 Jun 2027 17:40:29.297           105.861                Sumatra         13232.625
       268   06 Jun 2027 19:06:45.592   06 Jun 2027 19:10:16.939           211.347                  Delhi         26418.375
       269   06 Jun 2027 20:37:11.006   06 Jun 2027 20:37:36.358            25.352              Murmansk2          3169.000
       270   06 Jun 2027 20:38:25.001   06 Jun 2027 20:40:50.756           145.755                 Moscow         18219.375
       271   06 Jun 2027 22:08:50.553   06 Jun 2027 22:09:10.756            20.203              Murmansk2          2525.375
       272   06 Jun 2027 22:36:45.642   06 Jun 2027 22:38:46.755           121.113               CapeTown          1629.376
       273   07 Jun 2027 04:32:59.491   07 Jun 2027 04:33:10.451            10.960                Norilsk          1370.000
       274   07 Jun 2027 04:33:14.454   07 Jun 2027 04:33:59.798            45.344                Novosib          5668.000
       275   07 Jun 2027 04:34:08.668   07 Jun 2027 04:36:09.140           120.472              Murmansk2         15059.000
       276   07 Jun 2027 05:42:45.921   07 Jun 2027 05:44:31.491           105.570                Sumatra         13196.250
       277   07 Jun 2027 05:45:22.063   07 Jun 2027 05:47:09.244           107.181                Sumatra         13397.625
       278   07 Jun 2027 05:54:55.674   07 Jun 2027 05:55:30.880            35.206                  Delhi          4400.750
       279   07 Jun 2027 06:08:46.231   07 Jun 2027 06:09:37.127            50.896                 Moscow          6362.000
       280   07 Jun 2027 06:09:37.668   07 Jun 2027 06:13:22.638           224.970                Norilsk         28121.250
       281   07 Jun 2027 06:13:30.277   07 Jun 2027 06:16:14.557           164.280              Murmansk2         20535.000
       282   07 Jun 2027 06:45:50.087   07 Jun 2027 06:47:22.433            92.346            RioGallegos         11543.250
       283   07 Jun 2027 06:48:30.266   07 Jun 2027 06:48:51.279            21.013            RioGallegos          2626.625
       284   07 Jun 2027 06:49:26.127   07 Jun 2027 06:49:34.002             7.875            RioGallegos           984.375
       285   07 Jun 2027 07:20:05.172   07 Jun 2027 07:23:50.274           225.102                Sumatra         28137.750
       286   07 Jun 2027 07:26:41.178   07 Jun 2027 07:28:13.292            92.114                  Delhi         11514.250
       287   07 Jun 2027 07:29:51.710   07 Jun 2027 07:31:39.857           108.147                  Delhi         13518.375
       288   07 Jun 2027 07:33:53.194   07 Jun 2027 07:36:43.639           170.445                Novosib         21305.625
       289   07 Jun 2027 07:36:59.737   07 Jun 2027 07:39:23.232           143.495                Irkutsk         17936.875
       290   07 Jun 2027 07:44:23.215   07 Jun 2027 07:47:36.076           192.861                 Moscow         24107.625
       291   07 Jun 2027 07:48:01.895   07 Jun 2027 07:49:13.046            71.151              Murmansk1          8893.875
       292   07 Jun 2027 07:49:13.046   07 Jun 2027 07:49:43.087            30.041              Murmansk2          3755.125
       293   07 Jun 2027 07:51:19.037   07 Jun 2027 07:51:37.732            18.695              Murmansk2          2336.875
       294   07 Jun 2027 09:05:41.844   07 Jun 2027 09:08:40.464           178.620                  Delhi         22327.500
       295   07 Jun 2027 09:15:43.106   07 Jun 2027 09:15:56.406            13.300                Novosib          1662.500
       296   07 Jun 2027 09:19:58.933   07 Jun 2027 09:20:14.960            16.027                Novosib          2003.375
       297   07 Jun 2027 09:20:16.485   07 Jun 2027 09:20:55.188            38.703                 Moscow          4837.875
       298   07 Jun 2027 09:21:25.093   07 Jun 2027 09:27:26.553           361.460              Murmansk2         45182.500
       299   07 Jun 2027 10:27:16.045   07 Jun 2027 10:29:53.209           157.164               CapeTown         19645.500
       300   07 Jun 2027 10:31:19.684   07 Jun 2027 10:32:17.365            57.681               CapeTown          7210.125
       301   07 Jun 2027 10:34:00.142   07 Jun 2027 10:34:01.867             1.725               CapeTown           215.625
       302   07 Jun 2027 10:47:36.448   07 Jun 2027 10:50:33.441           176.993                 Moscow         22124.125
       303   07 Jun 2027 10:51:01.956   07 Jun 2027 10:55:42.309           280.353              Murmansk2         35044.125
       304   07 Jun 2027 10:57:22.083   07 Jun 2027 10:57:45.139            23.056              Murmansk1          2882.000
       305   07 Jun 2027 10:58:27.589   07 Jun 2027 10:58:51.782            24.193              Murmansk2          3024.125
       306   07 Jun 2027 10:59:18.309   07 Jun 2027 11:00:33.286            74.977              Murmansk1          9372.125
       307   07 Jun 2027 11:01:03.251   07 Jun 2027 11:01:07.480             4.229              Murmansk2           528.625
       308   07 Jun 2027 11:01:43.910   07 Jun 2027 11:03:24.502           100.592              Murmansk2         12574.000
       309   07 Jun 2027 11:05:59.084   07 Jun 2027 11:10:07.007           247.923                Anadyr1         30990.375
       310   07 Jun 2027 11:10:19.640   07 Jun 2027 11:12:41.747           142.107                Anadyr2         17763.375
       311   07 Jun 2027 12:09:26.431   07 Jun 2027 12:10:05.255            38.824               CapeTown          4853.000
       312   07 Jun 2027 12:28:51.398   07 Jun 2027 12:30:12.202            80.804                 Moscow         10100.500
       313   07 Jun 2027 12:41:22.829   07 Jun 2027 12:42:13.421            50.592                Anadyr1          6324.000
       314   07 Jun 2027 12:44:56.256   07 Jun 2027 12:45:45.493            49.237                Anadyr2          6154.625
       315   07 Jun 2027 12:45:58.576   07 Jun 2027 12:47:39.283           100.707               Magadan2         12588.375
       316   07 Jun 2027 12:47:39.283   07 Jun 2027 12:48:07.413            28.130               Magadan1          3516.250
       317   07 Jun 2027 14:19:32.675   07 Jun 2027 14:21:18.687           106.012               Magadan1         13251.500
       318   07 Jun 2027 14:22:24.624   07 Jun 2027 14:23:58.591            93.967               Magadan2         11745.875
       319   07 Jun 2027 16:47:21.255   07 Jun 2027 16:53:11.713           350.458            RioGallegos         43807.250
       320   07 Jun 2027 17:36:45.176   07 Jun 2027 17:39:19.879           154.703                Novosib         19337.875
       321   07 Jun 2027 17:40:00.662   07 Jun 2027 17:40:01.932             1.270                Novosib           158.750
       322   07 Jun 2027 17:42:26.796   07 Jun 2027 17:42:33.462             6.666                Novosib           833.250
       323   07 Jun 2027 17:48:39.991   07 Jun 2027 17:50:17.382            97.391                Sumatra         12173.875
       324   07 Jun 2027 17:51:28.754   07 Jun 2027 17:53:13.640           104.886                Sumatra         13110.750
       325   07 Jun 2027 19:18:27.175   07 Jun 2027 19:22:33.201           246.026                  Delhi         30753.250
       326   07 Jun 2027 20:49:48.866   07 Jun 2027 20:52:50.463           181.597                 Moscow         22699.625
       327   07 Jun 2027 22:52:37.297   07 Jun 2027 22:52:55.901            18.604               CapeTown          2325.500
       328   08 Jun 2027 04:44:58.766   08 Jun 2027 04:49:57.646           298.880                Norilsk         37360.000
       329   08 Jun 2027 04:50:03.743   08 Jun 2027 04:53:23.351           199.608              Murmansk1         24951.000
       330   08 Jun 2027 05:19:37.791   08 Jun 2027 05:22:50.898           193.107            RioGallegos         24138.375
       331   08 Jun 2027 05:23:23.879   08 Jun 2027 05:23:50.462            26.583            RioGallegos          3322.875
       332   08 Jun 2027 05:24:40.527   08 Jun 2027 05:26:45.588           125.061            RioGallegos         15632.625
       333   08 Jun 2027 05:54:35.566   08 Jun 2027 05:55:40.680            65.114                Sumatra          8139.250
       334   08 Jun 2027 05:57:33.867   08 Jun 2027 05:58:36.800            62.933                Sumatra          7866.625
       335   08 Jun 2027 06:05:48.812   08 Jun 2027 06:07:44.574           115.762                  Delhi         14470.250
       336   08 Jun 2027 06:08:22.617   08 Jun 2027 06:13:06.170           283.553                Irkutsk         35444.125
       337   08 Jun 2027 06:13:12.317   08 Jun 2027 06:15:18.677           126.360                Novosib         15795.000
       338   08 Jun 2027 06:20:19.915   08 Jun 2027 06:20:35.155            15.240                 Moscow          1905.000
       339   08 Jun 2027 06:20:39.349   08 Jun 2027 06:23:57.451           198.102                Norilsk         24762.750
       340   08 Jun 2027 06:23:59.678   08 Jun 2027 06:25:28.735            89.057              Murmansk1         11132.125
       341   08 Jun 2027 06:25:28.735   08 Jun 2027 06:28:01.754           153.019              Murmansk2         19127.375
       342   08 Jun 2027 06:58:35.192   08 Jun 2027 07:00:33.387           118.195            RioGallegos         14774.375
       343   08 Jun 2027 07:00:35.765   08 Jun 2027 07:01:29.790            54.025            RioGallegos          6753.125
       344   08 Jun 2027 07:33:06.205   08 Jun 2027 07:36:12.776           186.571                Sumatra         23321.375
       345   08 Jun 2027 07:39:19.209   08 Jun 2027 07:39:57.736            38.527                  Delhi          4815.875
       346   08 Jun 2027 07:40:51.645   08 Jun 2027 07:41:06.853            15.208                  Delhi          1901.000
       347   08 Jun 2027 07:46:09.299   08 Jun 2027 07:49:39.780           210.481                Novosib         26310.125
       348   08 Jun 2027 07:50:12.672   08 Jun 2027 07:51:55.434           102.762                Irkutsk         12845.250
       349   08 Jun 2027 07:56:24.238   08 Jun 2027 07:58:08.803           104.565                Novosib         13070.625
       350   08 Jun 2027 07:58:36.544   08 Jun 2027 08:01:06.764           150.220              Murmansk1         18777.500
       351   08 Jun 2027 08:01:06.764   08 Jun 2027 08:01:38.955            32.191              Murmansk2          4023.875
       352   08 Jun 2027 08:03:20.236   08 Jun 2027 08:03:37.149            16.913              Murmansk2          2114.125
       353   08 Jun 2027 09:19:27.875   08 Jun 2027 09:21:16.762           108.887                  Delhi         13610.875
       354   08 Jun 2027 09:32:02.254   08 Jun 2027 09:32:19.920            17.666                Norilsk          2208.250
       355   08 Jun 2027 09:33:14.555   08 Jun 2027 09:37:37.625           263.070                Norilsk         32883.750
       356   08 Jun 2027 09:38:13.612   08 Jun 2027 09:39:27.930            74.318              Murmansk1          9289.750
       357   08 Jun 2027 10:38:27.280   08 Jun 2027 10:47:05.899           518.619               CapeTown         64827.375
       358   08 Jun 2027 10:59:55.556   08 Jun 2027 11:09:48.272           592.716                 Moscow         74089.500
       359   08 Jun 2027 11:10:04.713   08 Jun 2027 11:15:25.980           321.267              Murmansk2         40158.375
       360   08 Jun 2027 11:17:48.759   08 Jun 2027 11:22:03.783           255.024                Anadyr2         31878.000
       361   08 Jun 2027 11:22:50.494   08 Jun 2027 11:23:34.418            43.924                Anadyr1          5490.500
       362   08 Jun 2027 11:24:53.239   08 Jun 2027 11:26:14.283            81.044                Anadyr1         10130.500
       363   08 Jun 2027 12:12:31.068   08 Jun 2027 12:17:30.672           299.604               CapeTown         37450.500
       364   08 Jun 2027 12:42:08.589   08 Jun 2027 12:42:25.616            17.027              Murmansk2          2128.375
       365   08 Jun 2027 12:53:59.938   08 Jun 2027 12:54:08.065             8.127                Anadyr2          1015.875
       366   08 Jun 2027 12:57:11.994   08 Jun 2027 13:00:06.585           174.591               Magadan2         21823.875
       367   08 Jun 2027 13:00:22.308   08 Jun 2027 13:02:58.508           156.200               Magadan1         19525.000
       368   08 Jun 2027 16:13:33.411   08 Jun 2027 16:18:07.531           274.120                Irkutsk         34265.000
       369   08 Jun 2027 17:00:44.594   08 Jun 2027 17:01:51.428            66.834            RioGallegos          8354.250
       370   08 Jun 2027 17:46:52.010   08 Jun 2027 17:48:45.503           113.493                Irkutsk         14186.625
       371   08 Jun 2027 17:48:59.942   08 Jun 2027 17:51:19.744           139.802                Novosib         17475.250
       372   08 Jun 2027 19:30:14.126   08 Jun 2027 19:34:33.828           259.702                  Delhi         32462.750
       373   08 Jun 2027 20:57:03.926   08 Jun 2027 20:57:18.536            14.610              Murmansk2          1826.250
       374   08 Jun 2027 20:57:36.434   08 Jun 2027 20:58:31.507            55.073              Murmansk1          6884.125
       375   08 Jun 2027 21:01:25.142   08 Jun 2027 21:02:44.773            79.631                 Moscow          9953.875
       376   09 Jun 2027 03:19:34.017   09 Jun 2027 03:20:10.572            36.555                Norilsk          4569.375
       377   09 Jun 2027 03:20:38.041   09 Jun 2027 03:20:42.578             4.537                Anadyr2           567.125
       378   09 Jun 2027 03:20:52.377   09 Jun 2027 03:21:05.714            13.337               Magadan1          1667.125
       379   09 Jun 2027 03:21:10.625   09 Jun 2027 03:27:59.637           409.012              Murmansk1         51126.500
       380   09 Jun 2027 03:27:59.637   09 Jun 2027 03:28:21.423            21.786              Murmansk2          2723.250
       381   09 Jun 2027 03:29:01.883   09 Jun 2027 03:29:58.937            57.054              Murmansk2          7131.750
       382   09 Jun 2027 04:36:37.709   09 Jun 2027 04:37:11.894            34.185                Sumatra          4273.125
       383   09 Jun 2027 04:38:10.277   09 Jun 2027 04:38:15.090             4.813                Sumatra           601.625
       384   09 Jun 2027 04:56:59.866   09 Jun 2027 05:01:45.775           285.909                Norilsk         35738.625
       385   09 Jun 2027 05:01:46.892   09 Jun 2027 05:05:13.417           206.525              Murmansk2         25815.625
       386   09 Jun 2027 05:31:45.828   09 Jun 2027 05:35:25.415           219.587            RioGallegos         27448.375
       387   09 Jun 2027 05:36:07.064   09 Jun 2027 05:36:39.571            32.507            RioGallegos          4063.375
       388   09 Jun 2027 05:38:26.734   09 Jun 2027 05:39:09.488            42.754            RioGallegos          5344.250
       389   09 Jun 2027 05:39:57.549   09 Jun 2027 05:40:01.157             3.608            RioGallegos           451.000
       390   09 Jun 2027 05:40:37.490   09 Jun 2027 05:41:16.849            39.359            RioGallegos          4919.875
       391   09 Jun 2027 06:06:31.023   09 Jun 2027 06:08:31.419           120.396                Sumatra         15049.500
       392   09 Jun 2027 06:16:59.414   09 Jun 2027 06:19:51.901           172.487                  Delhi         21560.875
       393   09 Jun 2027 06:20:38.426   09 Jun 2027 06:24:26.592           228.166                Irkutsk         28520.750
       394   09 Jun 2027 06:24:32.648   09 Jun 2027 06:25:17.715            45.067                Novosib          5633.375
       395   09 Jun 2027 06:32:34.639   09 Jun 2027 06:34:47.619           132.980                 Moscow         16622.500
       396   09 Jun 2027 06:34:56.320   09 Jun 2027 06:40:05.529           309.209              Murmansk2         38651.125
       397   09 Jun 2027 07:11:32.069   09 Jun 2027 07:17:55.240           383.171            RioGallegos         47896.375
       398   09 Jun 2027 07:47:15.460   09 Jun 2027 07:49:23.582           128.122                Sumatra         16015.250
       399   09 Jun 2027 07:52:22.398   09 Jun 2027 07:53:51.376            88.978                  Delhi         11122.250
       400   09 Jun 2027 07:58:43.031   09 Jun 2027 08:04:38.988           355.957                Novosib         44494.625
       401   09 Jun 2027 08:08:35.366   09 Jun 2027 08:13:53.482           318.116                Norilsk         39764.500
       402   09 Jun 2027 08:15:21.584   09 Jun 2027 08:15:36.921            15.337              Murmansk1          1917.125
       403   09 Jun 2027 09:35:07.525   09 Jun 2027 09:35:41.276            33.751                 Moscow          4218.875
       404   09 Jun 2027 09:45:07.090   09 Jun 2027 09:51:29.413           382.323              Murmansk1         47790.375
       405   09 Jun 2027 10:49:54.278   09 Jun 2027 10:59:09.280           555.002               CapeTown         69375.250
       406   09 Jun 2027 11:12:18.757   09 Jun 2027 11:22:15.095           596.338                 Moscow         74542.250
       407   09 Jun 2027 11:22:29.249   09 Jun 2027 11:27:27.321           298.072              Murmansk1         37259.000
       408   09 Jun 2027 11:29:41.282   09 Jun 2027 11:37:02.475           441.193                Anadyr2         55149.125
       409   09 Jun 2027 11:37:02.475   09 Jun 2027 11:38:39.225            96.750                Anadyr1         12093.750
       410   09 Jun 2027 12:24:34.432   09 Jun 2027 12:29:38.933           304.501               CapeTown         38062.625
       411   09 Jun 2027 13:08:45.251   09 Jun 2027 13:12:06.362           201.111               Magadan1         25138.875
       412   09 Jun 2027 14:47:59.942   09 Jun 2027 14:48:42.629            42.687               Magadan2          5335.875
       413   09 Jun 2027 16:24:44.513   09 Jun 2027 16:30:41.802           357.289                Irkutsk         44661.125
       414   09 Jun 2027 16:41:01.230   09 Jun 2027 16:42:12.009            70.779                Sumatra          8847.375
       415   09 Jun 2027 16:43:28.659   09 Jun 2027 16:44:03.923            35.264                Sumatra          4408.000
       416   09 Jun 2027 17:59:50.408   09 Jun 2027 18:03:20.323           209.915                Novosib         26239.375
       417   09 Jun 2027 19:44:57.534   09 Jun 2027 19:45:21.617            24.083                  Delhi          3010.375
       418   09 Jun 2027 21:09:02.901   09 Jun 2027 21:10:16.259            73.358              Murmansk1          9169.750
       419   09 Jun 2027 21:13:08.183   09 Jun 2027 21:18:59.679           351.496                 Moscow         43937.000
       420   09 Jun 2027 21:43:56.459   09 Jun 2027 21:45:39.220           102.761               CapeTown         12845.125
       421   10 Jun 2027 03:31:46.067   10 Jun 2027 03:32:15.385            29.318                Norilsk          3664.750
       422   10 Jun 2027 03:33:06.515   10 Jun 2027 03:38:16.917           310.402                Norilsk         38800.250
       423   10 Jun 2027 03:38:24.321   10 Jun 2027 03:42:40.600           256.279              Murmansk1         32034.875
       424   10 Jun 2027 03:42:40.600   10 Jun 2027 03:42:48.769             8.169              Murmansk2          1021.125
       425   10 Jun 2027 04:08:14.115   10 Jun 2027 04:09:15.977            61.862            RioGallegos          7732.750
       426   10 Jun 2027 04:46:09.608   10 Jun 2027 04:47:40.988            91.380                Sumatra         11422.500
       427   10 Jun 2027 05:09:01.157   10 Jun 2027 05:13:58.753           297.596                Norilsk         37199.500
       428   10 Jun 2027 05:14:11.899   10 Jun 2027 05:17:04.185           172.286              Murmansk1         21535.750
       429   10 Jun 2027 05:43:57.560   10 Jun 2027 05:47:00.586           183.026            RioGallegos         22878.250
       430   10 Jun 2027 05:47:32.092   10 Jun 2027 05:48:16.160            44.068            RioGallegos          5508.500
       431   10 Jun 2027 05:53:28.817   10 Jun 2027 05:53:44.298            15.481            RioGallegos          1935.125
       432   10 Jun 2027 05:56:16.500   10 Jun 2027 05:56:19.872             3.372            RioGallegos           421.500
       433   10 Jun 2027 06:18:32.063   10 Jun 2027 06:21:56.657           204.594                Sumatra         25574.250
       434   10 Jun 2027 06:28:21.218   10 Jun 2027 06:29:03.158            41.940                  Delhi          5242.500
       435   10 Jun 2027 06:29:46.828   10 Jun 2027 06:31:38.814           111.986                  Delhi         13998.250
       436   10 Jun 2027 06:32:58.427   10 Jun 2027 06:37:21.912           263.485                Irkutsk         32935.625
       437   10 Jun 2027 06:43:51.559   10 Jun 2027 06:44:18.713            27.154              Murmansk2          3394.250
       438   10 Jun 2027 06:45:00.040   10 Jun 2027 06:47:03.772           123.732                 Moscow         15466.500
       439   10 Jun 2027 06:47:12.163   10 Jun 2027 06:49:55.882           163.719                Norilsk         20464.875
       440   10 Jun 2027 06:50:04.763   10 Jun 2027 06:51:22.044            77.281              Murmansk2          9660.125
       441   10 Jun 2027 06:51:40.447   10 Jun 2027 06:52:01.986            21.539              Murmansk2          2692.375
       442   10 Jun 2027 07:24:49.850   10 Jun 2027 07:27:12.473           142.623            RioGallegos         17827.875
       443   10 Jun 2027 08:02:56.597   10 Jun 2027 08:09:09.331           372.734                  Delhi         46591.750
       444   10 Jun 2027 08:10:53.324   10 Jun 2027 08:15:49.177           295.853                Novosib         36981.625
       445   10 Jun 2027 08:15:58.238   10 Jun 2027 08:16:19.210            20.972                Norilsk          2621.500
       446   10 Jun 2027 08:20:32.020   10 Jun 2027 08:25:53.251           321.231              Murmansk1         40153.875
       447   10 Jun 2027 08:25:53.251   10 Jun 2027 08:27:37.016           103.765              Murmansk2         12970.625
       448   10 Jun 2027 09:51:54.719   10 Jun 2027 09:52:26.544            31.825              Murmansk2          3978.125
       449   10 Jun 2027 09:55:43.950   10 Jun 2027 10:01:28.183           344.233                Norilsk         43029.125
       450   10 Jun 2027 10:01:51.842   10 Jun 2027 10:02:37.475            45.633              Murmansk2          5704.125
       451   10 Jun 2027 10:02:37.475   10 Jun 2027 10:03:30.985            53.510              Murmansk1          6688.750
       452   10 Jun 2027 11:02:25.065   10 Jun 2027 11:08:03.655           338.590               CapeTown         42323.750
       453   10 Jun 2027 11:24:46.555   10 Jun 2027 11:28:50.225           243.670                 Moscow         30458.750
       454   10 Jun 2027 11:28:53.418   10 Jun 2027 11:36:35.953           462.535              Murmansk1         57816.875
       455   10 Jun 2027 11:37:00.882   10 Jun 2027 11:37:30.116            29.234              Murmansk1          3654.250
       456   10 Jun 2027 11:37:51.531   10 Jun 2027 11:37:59.942             8.411              Murmansk1          1051.375
       457   10 Jun 2027 11:41:35.819   10 Jun 2027 11:46:00.084           264.265                Anadyr2         33033.125
       458   10 Jun 2027 11:49:09.542   10 Jun 2027 11:51:07.079           117.537                Anadyr1         14692.125
       459   10 Jun 2027 12:36:40.579   10 Jun 2027 12:39:04.858           144.279               CapeTown         18034.875
       460   10 Jun 2027 13:07:22.844   10 Jun 2027 13:09:05.064           102.220              Murmansk1         12777.500
       461   10 Jun 2027 13:20:27.102   10 Jun 2027 13:24:06.654           219.552               Magadan1         27444.000
       462   10 Jun 2027 15:49:56.499   10 Jun 2027 15:52:27.935           151.436            RioGallegos         18929.500
       463   10 Jun 2027 16:36:14.492   10 Jun 2027 16:39:54.753           220.261                Irkutsk         27532.625
       464   10 Jun 2027 16:41:14.717   10 Jun 2027 16:42:45.239            90.522                Irkutsk         11315.250
       465   10 Jun 2027 16:51:31.462   10 Jun 2027 16:53:48.784           137.322                Sumatra         17165.250
       466   10 Jun 2027 16:55:54.532   10 Jun 2027 16:58:00.461           125.929                Sumatra         15741.125
       467   10 Jun 2027 18:15:21.543   10 Jun 2027 18:15:37.488            15.945                Novosib          1993.125
       468   10 Jun 2027 18:17:33.793   10 Jun 2027 18:17:39.300             5.507                Novosib           688.375
       469   10 Jun 2027 18:22:32.339   10 Jun 2027 18:23:42.780            70.441                  Delhi          8805.125
       470   10 Jun 2027 18:24:20.674   10 Jun 2027 18:25:46.484            85.810                  Delhi         10726.250
       471   10 Jun 2027 21:21:35.682   10 Jun 2027 21:23:30.928           115.246              Murmansk1         14405.750
       472   10 Jun 2027 21:27:10.284   10 Jun 2027 21:28:01.662            51.378                 Moscow          6422.250
       473   10 Jun 2027 21:28:53.669   10 Jun 2027 21:29:04.892            11.223                 Moscow          1402.875
       474   10 Jun 2027 21:51:23.106   10 Jun 2027 21:53:42.688           139.582               CapeTown         17447.750
       475   10 Jun 2027 21:55:29.632   10 Jun 2027 21:55:52.560            22.928               CapeTown          2866.000
       476   11 Jun 2027 03:45:03.259   11 Jun 2027 03:50:15.125           311.866                Norilsk         38983.250
       477   11 Jun 2027 03:50:16.532   11 Jun 2027 03:54:36.014           259.482              Murmansk2         32435.250
       478   11 Jun 2027 04:20:02.515   11 Jun 2027 04:20:15.649            13.134            RioGallegos          1641.750
       479   11 Jun 2027 04:57:00.991   11 Jun 2027 04:59:39.984           158.993                Sumatra         19874.125
       480   11 Jun 2027 05:20:50.096   11 Jun 2027 05:22:23.353            93.257                Novosib         11657.125
       481   11 Jun 2027 05:22:24.958   11 Jun 2027 05:27:08.443           283.485              Murmansk2         35435.625
       482   11 Jun 2027 05:27:57.573   11 Jun 2027 05:28:55.683            58.110              Murmansk2          7263.750
