uniorb/output/strategy_4/Drop/Drop_KinoSat_111407.txt

KinoSat_111407
-------------------------
    Access    *     Start Time (UTCG)     *     Stop Time (UTCG)  *   Duration (s)        *       Station  *  Data (Mbytes)
         1   01 Jun 2027 03:04:21.230   01 Jun 2027 03:04:44.506            23.276                Novosib           727.375
         2   01 Jun 2027 03:04:52.878   01 Jun 2027 03:05:53.130            60.252                 Moscow          1882.875
         3   01 Jun 2027 03:06:16.329   01 Jun 2027 03:08:24.522           128.193              Murmansk2          4006.031
         4   01 Jun 2027 03:08:33.905   01 Jun 2027 03:09:22.474            48.569              Murmansk2          1517.781
         5   01 Jun 2027 03:26:59.895   01 Jun 2027 03:27:49.974            50.079               CapeTown          1564.969
         6   01 Jun 2027 04:43:20.143   01 Jun 2027 04:45:44.390           144.247                 Moscow          4507.719
         7   01 Jun 2027 04:46:01.032   01 Jun 2027 04:47:43.386           102.354              Murmansk2          3198.562
         8   01 Jun 2027 05:03:31.349   01 Jun 2027 05:03:55.320            23.971               CapeTown           749.094
         9   01 Jun 2027 06:06:32.974   01 Jun 2027 06:09:52.683           199.709                Anadyr1          6240.906
        10   01 Jun 2027 06:09:52.683   01 Jun 2027 06:10:19.687            27.004                Anadyr2           843.875
        11   01 Jun 2027 06:10:45.463   01 Jun 2027 06:11:31.649            46.186                Anadyr2          1443.312
        12   01 Jun 2027 07:43:13.481   01 Jun 2027 07:43:25.425            11.944               Magadan1           373.250
        13   01 Jun 2027 07:43:25.425   01 Jun 2027 07:45:06.277           100.852               Magadan2          3151.625
        14   01 Jun 2027 07:45:28.795   01 Jun 2027 07:47:08.315            99.520               Magadan2          3110.000
        15   01 Jun 2027 09:18:12.308   01 Jun 2027 09:18:37.631            25.323               Magadan1           791.344
        16   01 Jun 2027 09:18:39.799   01 Jun 2027 09:19:04.345            24.546                Novosib           767.063
        17   01 Jun 2027 09:19:26.077   01 Jun 2027 09:22:25.887           179.810               Magadan1          5619.062
        18   01 Jun 2027 09:22:44.779   01 Jun 2027 09:22:46.516             1.737                Irkutsk            54.281
        19   01 Jun 2027 09:23:36.119   01 Jun 2027 09:23:53.643            17.524                Novosib           547.625
        20   01 Jun 2027 10:32:55.051   01 Jun 2027 10:33:30.891            35.840                Sumatra          1120.000
        21   01 Jun 2027 10:34:31.150   01 Jun 2027 10:34:47.608            16.458                Sumatra           514.312
        22   01 Jun 2027 10:36:48.174   01 Jun 2027 10:37:27.186            39.012                Sumatra          1219.125
        23   01 Jun 2027 10:53:21.375   01 Jun 2027 10:57:08.180           226.805                Irkutsk          7087.656
        24   01 Jun 2027 10:57:19.812   01 Jun 2027 10:57:42.434            22.622                Irkutsk           706.937
        25   01 Jun 2027 10:58:45.968   01 Jun 2027 10:58:48.716             2.748                Irkutsk            85.875
        26   01 Jun 2027 12:25:17.155   01 Jun 2027 12:26:29.035            71.880                Irkutsk          2246.250
        27   01 Jun 2027 12:26:59.108   01 Jun 2027 12:27:58.515            59.407                Irkutsk          1856.469
        28   01 Jun 2027 12:29:18.521   01 Jun 2027 12:30:19.523            61.002                Irkutsk          1906.313
        29   01 Jun 2027 13:55:01.083   01 Jun 2027 13:59:42.878           281.795                  Delhi          8806.094
        30   01 Jun 2027 14:04:31.390   01 Jun 2027 14:04:39.253             7.863              Murmansk2           245.719
        31   01 Jun 2027 14:04:39.253   01 Jun 2027 14:05:43.370            64.117              Murmansk1          2003.656
        32   01 Jun 2027 14:05:48.216   01 Jun 2027 14:06:11.503            23.287              Murmansk2           727.719
        33   01 Jun 2027 14:06:40.687   01 Jun 2027 14:07:11.367            30.680                Norilsk           958.750
        34   01 Jun 2027 14:07:42.348   01 Jun 2027 14:08:07.691            25.343                Novosib           791.969
        35   01 Jun 2027 14:08:18.225   01 Jun 2027 14:08:54.884            36.659                Norilsk          1145.594
        36   01 Jun 2027 14:09:47.647   01 Jun 2027 14:10:18.392            30.745                Norilsk           960.781
        37   01 Jun 2027 15:17:58.255   01 Jun 2027 15:19:12.357            74.102               CapeTown          2315.688
        38   01 Jun 2027 15:37:26.591   01 Jun 2027 15:38:28.244            61.653                 Moscow          1926.656
        39   01 Jun 2027 15:40:54.436   01 Jun 2027 15:42:34.581           100.145              Murmansk2          3129.531
        40   01 Jun 2027 15:43:43.880   01 Jun 2027 15:44:03.225            19.345              Murmansk2           604.531
        41   01 Jun 2027 15:44:03.225   01 Jun 2027 15:44:30.437            27.212              Murmansk1           850.375
        42   01 Jun 2027 15:56:04.537   01 Jun 2027 15:57:32.369            87.832                Anadyr2          2744.750
        43   01 Jun 2027 15:57:47.799   01 Jun 2027 15:58:05.894            18.095                Anadyr2           565.469
        44   01 Jun 2027 15:58:30.189   01 Jun 2027 15:59:23.882            53.693                Anadyr2          1677.906
        45   01 Jun 2027 16:50:31.324   01 Jun 2027 16:52:55.932           144.608               CapeTown          4519.000
        46   01 Jun 2027 17:17:56.419   01 Jun 2027 17:18:50.811            54.392                 Moscow          1699.750
        47   01 Jun 2027 17:19:17.251   01 Jun 2027 17:21:54.478           157.227              Murmansk1          4913.344
        48   01 Jun 2027 17:23:33.977   01 Jun 2027 17:24:16.326            42.349              Murmansk2          1323.406
        49   01 Jun 2027 17:31:10.217   01 Jun 2027 17:31:11.873             1.656                Anadyr2            51.750
        50   01 Jun 2027 17:36:58.146   01 Jun 2027 17:38:11.010            72.864               Magadan1          2277.000
        51   01 Jun 2027 18:27:37.223   01 Jun 2027 18:28:42.289            65.066               CapeTown          2033.313
        52   01 Jun 2027 18:31:22.189   01 Jun 2027 18:32:55.402            93.213               CapeTown          2912.906
        53   01 Jun 2027 19:01:10.012   01 Jun 2027 19:03:46.401           156.389              Murmansk2          4887.156
        54   01 Jun 2027 19:07:01.352   01 Jun 2027 19:07:02.856             1.504                Anadyr1            47.000
        55   01 Jun 2027 19:07:42.636   01 Jun 2027 19:07:56.766            14.130                Anadyr2           441.562
        56   01 Jun 2027 19:08:08.173   01 Jun 2027 19:08:30.941            22.768                Anadyr2           711.500
        57   01 Jun 2027 19:09:34.120   01 Jun 2027 19:11:25.978           111.858               Magadan2          3495.563
        58   01 Jun 2027 19:11:58.229   01 Jun 2027 19:12:31.965            33.736               Magadan2          1054.250
        59   01 Jun 2027 20:42:56.443   01 Jun 2027 20:45:03.960           127.517                Anadyr1          3984.906
        60   01 Jun 2027 20:45:13.124   01 Jun 2027 20:50:18.024           304.900               Magadan1          9528.125
        61   01 Jun 2027 20:52:46.511   01 Jun 2027 20:53:15.381            28.870               Magadan1           902.187
        62   01 Jun 2027 21:37:27.221   01 Jun 2027 21:40:43.030           195.809            RioGallegos          6119.031
        63   01 Jun 2027 21:46:52.152   01 Jun 2027 21:46:52.787             0.635            RioGallegos            19.844
        64   01 Jun 2027 22:18:34.219   01 Jun 2027 22:19:58.240            84.021                Anadyr2          2625.656
        65   01 Jun 2027 22:20:27.553   01 Jun 2027 22:21:23.126            55.573                Anadyr2          1736.656
        66   01 Jun 2027 22:21:26.198   01 Jun 2027 22:22:38.577            72.379               Magadan2          2261.844
        67   01 Jun 2027 22:24:03.958   01 Jun 2027 22:24:13.891             9.933                Norilsk           310.406
        68   01 Jun 2027 22:24:37.134   01 Jun 2027 22:25:13.385            36.251               Magadan2          1132.844
        69   01 Jun 2027 22:25:32.295   01 Jun 2027 22:25:45.858            13.563                Irkutsk           423.844
        70   01 Jun 2027 22:26:02.738   01 Jun 2027 22:26:16.912            14.174               Magadan1           442.938
        71   01 Jun 2027 22:26:34.797   01 Jun 2027 22:27:28.783            53.986                Irkutsk          1687.063
        72   01 Jun 2027 22:27:44.911   01 Jun 2027 22:27:48.578             3.667                Novosib           114.594
        73   01 Jun 2027 22:27:51.494   01 Jun 2027 22:28:21.085            29.591                Novosib           924.719
        74   01 Jun 2027 22:28:57.209   01 Jun 2027 22:29:55.588            58.379                Novosib          1824.344
        75   01 Jun 2027 22:38:47.292   01 Jun 2027 22:39:27.928            40.636                Sumatra          1269.875
        76   01 Jun 2027 22:44:50.420   01 Jun 2027 22:45:10.010            19.590                Sumatra           612.188
        77   01 Jun 2027 22:48:12.641   01 Jun 2027 22:48:54.605            41.964                Sumatra          1311.375
        78   01 Jun 2027 23:53:21.011   01 Jun 2027 23:54:56.277            95.266                Anadyr2          2977.063
        79   01 Jun 2027 23:56:05.918   01 Jun 2027 23:56:10.483             4.565                Anadyr1           142.656
        80   01 Jun 2027 23:56:43.363   01 Jun 2027 23:57:00.996            17.633                Norilsk           551.031
        81   01 Jun 2027 23:57:22.584   01 Jun 2027 23:58:59.637            97.053               Magadan2          3032.906
        82   01 Jun 2027 23:59:54.299   02 Jun 2027 00:00:46.802            52.503               Magadan2          1640.719
        83   02 Jun 2027 00:00:58.583   02 Jun 2027 00:02:52.928           114.345                Novosib          3573.281
        84   02 Jun 2027 00:05:38.980   02 Jun 2027 00:06:33.223            54.243                Novosib          1695.094
        85   02 Jun 2027 00:08:36.963   02 Jun 2027 00:09:02.128            25.165                  Delhi           786.406
        86   02 Jun 2027 00:09:45.121   02 Jun 2027 00:10:00.937            15.816                  Delhi           494.250
        87   02 Jun 2027 00:14:36.871   02 Jun 2027 00:14:50.763            13.892                  Delhi           434.125
        88   02 Jun 2027 00:18:53.548   02 Jun 2027 00:19:10.114            16.566                  Delhi           517.687
        89   02 Jun 2027 00:22:19.428   02 Jun 2027 00:22:36.335            16.907                Sumatra           528.344
        90   02 Jun 2027 00:49:01.887   02 Jun 2027 00:50:08.884            66.997            RioGallegos          2093.656
        91   02 Jun 2027 00:58:43.823   02 Jun 2027 00:59:26.844            43.021            RioGallegos          1344.406
        92   02 Jun 2027 01:26:55.668   02 Jun 2027 01:27:21.585            25.917                Anadyr1           809.906
        93   02 Jun 2027 01:28:19.735   02 Jun 2027 01:28:33.310            13.575                Anadyr2           424.219
        94   02 Jun 2027 01:29:15.193   02 Jun 2027 01:29:52.898            37.705                Anadyr2          1178.281
        95   02 Jun 2027 01:32:09.071   02 Jun 2027 01:32:28.592            19.521                Anadyr2           610.031
        96   02 Jun 2027 01:32:43.093   02 Jun 2027 01:33:24.283            41.190                Norilsk          1287.187
        97   02 Jun 2027 01:33:29.484   02 Jun 2027 01:34:42.623            73.139               Magadan1          2285.594
        98   02 Jun 2027 01:34:42.623   02 Jun 2027 01:35:17.857            35.234               Magadan2          1101.063
        99   02 Jun 2027 01:35:59.950   02 Jun 2027 01:37:42.511           102.561              Murmansk2          3205.031
       100   02 Jun 2027 01:38:19.794   02 Jun 2027 01:38:36.231            16.437                Novosib           513.656
       101   02 Jun 2027 01:40:04.405   02 Jun 2027 01:40:39.464            35.059                Irkutsk          1095.594
       102   02 Jun 2027 01:45:56.289   02 Jun 2027 01:45:57.991             1.702                  Delhi            53.187
       103   02 Jun 2027 01:46:32.318   02 Jun 2027 01:48:29.867           117.549                  Delhi          3673.406
       104   02 Jun 2027 03:00:18.807   02 Jun 2027 03:02:10.894           112.087                Anadyr2          3502.719
       105   02 Jun 2027 03:17:43.680   02 Jun 2027 03:18:22.180            38.500                Novosib          1203.125
       106   02 Jun 2027 03:18:26.722   02 Jun 2027 03:20:59.442           152.720              Murmansk1          4772.500
       107   02 Jun 2027 03:21:32.139   02 Jun 2027 03:22:51.423            79.284              Murmansk2          2477.625
       108   02 Jun 2027 03:22:55.018   02 Jun 2027 03:25:29.856           154.838                 Moscow          4838.687
       109   02 Jun 2027 03:38:37.993   02 Jun 2027 03:41:50.172           192.179               CapeTown          6005.594
       110   02 Jun 2027 03:44:52.101   02 Jun 2027 03:45:07.430            15.329               CapeTown           479.031
       111   02 Jun 2027 04:34:47.822   02 Jun 2027 04:36:00.075            72.253                Anadyr1          2257.906
       112   02 Jun 2027 04:36:00.075   02 Jun 2027 04:38:02.365           122.290                Anadyr2          3821.563
       113   02 Jun 2027 04:42:13.701   02 Jun 2027 04:43:27.490            73.789                Anadyr2          2305.906
       114   02 Jun 2027 06:10:45.351   02 Jun 2027 06:11:19.772            34.421               Magadan1          1075.656
       115   02 Jun 2027 06:16:43.862   02 Jun 2027 06:19:07.565           143.703                Anadyr2          4490.719
       116   02 Jun 2027 06:19:15.982   02 Jun 2027 06:19:26.332            10.350               Magadan1           323.437
       117   02 Jun 2027 06:19:33.198   02 Jun 2027 06:21:08.700            95.502               Magadan1          2984.438
       118   02 Jun 2027 07:55:20.895   02 Jun 2027 07:55:59.780            38.885               Magadan2          1215.156
       119   02 Jun 2027 07:56:14.164   02 Jun 2027 07:56:52.023            37.859               Magadan2          1183.094
       120   02 Jun 2027 07:57:09.208   02 Jun 2027 07:57:31.216            22.008               Magadan2           687.750
       121   02 Jun 2027 07:57:46.854   02 Jun 2027 07:59:00.046            73.192                Anadyr1          2287.250
       122   02 Jun 2027 09:29:01.649   02 Jun 2027 09:29:02.654             1.005                Irkutsk            31.406
       123   02 Jun 2027 09:29:15.133   02 Jun 2027 09:29:27.112            11.979                Novosib           374.344
       124   02 Jun 2027 09:29:32.556   02 Jun 2027 09:30:54.204            81.648               Magadan2          2551.500
       125   02 Jun 2027 09:31:12.177   02 Jun 2027 09:31:28.338            16.161               Magadan2           505.031
       126   02 Jun 2027 09:31:28.338   02 Jun 2027 09:32:08.098            39.760               Magadan1          1242.500
       127   02 Jun 2027 09:32:32.994   02 Jun 2027 09:32:50.975            17.981                Irkutsk           561.906
       128   02 Jun 2027 09:32:54.706   02 Jun 2027 09:33:26.984            32.278                Norilsk          1008.688
       129   02 Jun 2027 09:33:36.264   02 Jun 2027 09:34:38.116            61.852                Irkutsk          1932.875
       130   02 Jun 2027 09:37:50.856   02 Jun 2027 09:37:52.472             1.616                Norilsk            50.500
       131   02 Jun 2027 10:09:34.896   02 Jun 2027 10:10:35.762            60.866            RioGallegos          1902.062
       132   02 Jun 2027 10:10:59.630   02 Jun 2027 10:11:55.096            55.466            RioGallegos          1733.312
       133   02 Jun 2027 10:45:23.502   02 Jun 2027 10:47:14.849           111.347                Sumatra          3479.594
       134   02 Jun 2027 11:04:48.708   02 Jun 2027 11:05:17.033            28.325                Irkutsk           885.156
       135   02 Jun 2027 11:06:05.718   02 Jun 2027 11:06:24.327            18.609                Novosib           581.531
       136   02 Jun 2027 11:06:36.404   02 Jun 2027 11:06:52.083            15.679                Novosib           489.969
       137   02 Jun 2027 11:07:07.675   02 Jun 2027 11:07:29.910            22.235                Novosib           694.844
       138   02 Jun 2027 11:08:00.039   02 Jun 2027 11:08:15.006            14.967                Irkutsk           467.719
       139   02 Jun 2027 11:08:21.736   02 Jun 2027 11:08:44.640            22.904                Norilsk           715.750
       140   02 Jun 2027 11:08:56.109   02 Jun 2027 11:09:17.485            21.376                Novosib           668.000
       141   02 Jun 2027 11:09:35.035   02 Jun 2027 11:09:42.130             7.095                Irkutsk           221.719
       142   02 Jun 2027 11:10:23.569   02 Jun 2027 11:10:26.173             2.604                Novosib            81.375
       143   02 Jun 2027 11:11:04.699   02 Jun 2027 11:11:19.027            14.328              Murmansk1           447.750
       144   02 Jun 2027 11:48:06.373   02 Jun 2027 11:49:03.112            56.739            RioGallegos          1773.094
       145   02 Jun 2027 11:51:44.201   02 Jun 2027 11:52:55.028            70.827            RioGallegos          2213.344
       146   02 Jun 2027 12:22:52.810   02 Jun 2027 12:24:43.196           110.386                Sumatra          3449.562
       147   02 Jun 2027 12:37:06.613   02 Jun 2027 12:37:15.776             9.163                Novosib           286.344
       148   02 Jun 2027 12:38:17.932   02 Jun 2027 12:38:20.067             2.135                Irkutsk            66.719
       149   02 Jun 2027 12:38:39.664   02 Jun 2027 12:39:26.807            47.143                Novosib          1473.219
       150   02 Jun 2027 12:40:02.445   02 Jun 2027 12:41:20.639            78.194                Norilsk          2443.562
       151   02 Jun 2027 14:08:15.244   02 Jun 2027 14:09:28.367            73.123                  Delhi          2285.094
       152   02 Jun 2027 14:11:56.757   02 Jun 2027 14:12:25.603            28.846                  Delhi           901.437
       153   02 Jun 2027 14:13:14.306   02 Jun 2027 14:14:19.829            65.523                 Moscow          2047.594
       154   02 Jun 2027 14:15:03.237   02 Jun 2027 14:15:13.535            10.298                 Moscow           321.812
       155   02 Jun 2027 14:16:30.876   02 Jun 2027 14:19:51.779           200.903              Murmansk1          6278.219
       156   02 Jun 2027 14:20:39.637   02 Jun 2027 14:20:39.968             0.331                Novosib            10.344
       157   02 Jun 2027 14:21:04.287   02 Jun 2027 14:21:44.449            40.162                Norilsk          1255.062
       158   02 Jun 2027 14:22:20.698   02 Jun 2027 14:24:02.452           101.754                Norilsk          3179.813
       159   02 Jun 2027 15:28:52.369   02 Jun 2027 15:31:17.460           145.091               CapeTown          4534.094
       160   02 Jun 2027 15:53:07.130   02 Jun 2027 15:53:45.638            38.508              Murmansk1          1203.375
       161   02 Jun 2027 15:55:40.489   02 Jun 2027 15:55:50.263             9.774              Murmansk1           305.438
       162   02 Jun 2027 15:56:04.448   02 Jun 2027 15:56:34.485            30.037              Murmansk1           938.656
       163   02 Jun 2027 16:07:52.502   02 Jun 2027 16:10:07.149           134.647                Anadyr2          4207.719
       164   02 Jun 2027 16:10:53.745   02 Jun 2027 16:11:18.351            24.606                Anadyr2           768.938
       165   02 Jun 2027 17:03:04.003   02 Jun 2027 17:05:02.548           118.545               CapeTown          3704.531
       166   02 Jun 2027 17:31:33.859   02 Jun 2027 17:32:11.960            38.101                 Moscow          1190.656
       167   02 Jun 2027 17:32:41.864   02 Jun 2027 17:33:12.206            30.342              Murmansk1           948.187
       168   02 Jun 2027 17:34:11.201   02 Jun 2027 17:34:32.896            21.695                 Moscow           677.969
       169   02 Jun 2027 17:35:19.934   02 Jun 2027 17:35:54.498            34.564              Murmansk1          1080.125
       170   02 Jun 2027 17:36:25.086   02 Jun 2027 17:37:35.880            70.794              Murmansk2          2212.312
       171   02 Jun 2027 17:43:10.118   02 Jun 2027 17:43:13.212             3.094                Anadyr1            96.687
       172   02 Jun 2027 17:44:12.556   02 Jun 2027 17:44:42.989            30.433                Anadyr2           951.031
       173   02 Jun 2027 17:45:00.668   02 Jun 2027 17:45:08.282             7.614                Anadyr2           237.938
       174   02 Jun 2027 17:46:04.088   02 Jun 2027 17:46:12.455             8.367                Anadyr1           261.469
       175   02 Jun 2027 17:46:47.882   02 Jun 2027 17:47:29.678            41.796                Anadyr1          1306.125
       176   02 Jun 2027 17:47:31.688   02 Jun 2027 17:48:28.829            57.141               Magadan1          1785.656
       177   02 Jun 2027 17:48:44.006   02 Jun 2027 17:48:59.069            15.063               Magadan1           470.719
       178   02 Jun 2027 19:19:02.985   02 Jun 2027 19:22:48.648           225.663                Anadyr1          7051.969
       179   02 Jun 2027 19:23:16.172   02 Jun 2027 19:25:08.939           112.767               Magadan1          3523.969
       180   02 Jun 2027 19:25:08.939   02 Jun 2027 19:26:25.824            76.885               Magadan2          2402.656
       181   02 Jun 2027 20:54:57.161   02 Jun 2027 20:57:05.533           128.372                Anadyr2          4011.625
       182   02 Jun 2027 20:57:12.504   02 Jun 2027 20:58:39.279            86.775                Anadyr1          2711.719
       183   02 Jun 2027 20:58:41.486   02 Jun 2027 21:01:03.953           142.467                Norilsk          4452.094
       184   02 Jun 2027 21:01:42.186   02 Jun 2027 21:02:34.185            51.999                Norilsk          1624.969
       185   02 Jun 2027 21:04:24.034   02 Jun 2027 21:06:01.573            97.539                Irkutsk          3048.094
       186   02 Jun 2027 21:49:16.458   02 Jun 2027 21:50:28.021            71.563            RioGallegos          2236.344
       187   02 Jun 2027 21:50:32.935   02 Jun 2027 21:51:12.445            39.510            RioGallegos          1234.687
       188   02 Jun 2027 21:52:33.223   02 Jun 2027 21:52:35.655             2.432            RioGallegos            76.000
       189   02 Jun 2027 22:30:30.737   02 Jun 2027 22:31:19.290            48.553                Anadyr1          1517.281
       190   02 Jun 2027 22:32:47.289   02 Jun 2027 22:32:57.776            10.487                Norilsk           327.719
       191   02 Jun 2027 22:33:18.978   02 Jun 2027 22:34:42.900            83.922               Magadan2          2622.563
       192   02 Jun 2027 22:34:42.900   02 Jun 2027 22:35:26.253            43.353               Magadan1          1354.781
       193   02 Jun 2027 22:36:50.250   02 Jun 2027 22:37:23.648            33.398               Magadan1          1043.687
       194   02 Jun 2027 22:37:53.133   02 Jun 2027 22:39:11.177            78.044                Irkutsk          2438.875
       195   02 Jun 2027 22:39:42.134   02 Jun 2027 22:39:59.471            17.337                Novosib           541.781
       196   02 Jun 2027 22:40:35.977   02 Jun 2027 22:41:12.766            36.789                Novosib          1149.656
       197   02 Jun 2027 22:50:36.564   02 Jun 2027 22:52:57.081           140.517                Sumatra          4391.156
       198   03 Jun 2027 00:05:08.352   03 Jun 2027 00:06:33.709            85.357                Anadyr1          2667.406
       199   03 Jun 2027 00:07:47.722   03 Jun 2027 00:08:01.193            13.471                Anadyr1           420.969
       200   03 Jun 2027 00:08:45.557   03 Jun 2027 00:10:36.543           110.986                Norilsk          3468.312
       201   03 Jun 2027 00:10:39.176   03 Jun 2027 00:11:29.965            50.789               Magadan2          1587.156
       202   03 Jun 2027 00:12:38.734   03 Jun 2027 00:13:25.323            46.589                Irkutsk          1455.906
       203   03 Jun 2027 00:14:15.937   03 Jun 2027 00:14:47.421            31.484                Novosib           983.875
       204   03 Jun 2027 00:16:04.006   03 Jun 2027 00:16:35.111            31.105                Novosib           972.031
       205   03 Jun 2027 00:17:36.631   03 Jun 2027 00:18:11.359            34.728                Novosib          1085.250
       206   03 Jun 2027 00:20:21.148   03 Jun 2027 00:20:38.482            17.334                  Delhi           541.687
       207   03 Jun 2027 00:21:39.408   03 Jun 2027 00:21:43.726             4.318                  Delhi           134.937
       208   03 Jun 2027 00:22:29.112   03 Jun 2027 00:23:44.041            74.929                  Delhi          2341.531
       209   03 Jun 2027 00:32:13.697   03 Jun 2027 00:32:20.232             6.535                  Delhi           204.219
       210   03 Jun 2027 01:01:11.559   03 Jun 2027 01:01:46.830            35.271            RioGallegos          1102.219
       211   03 Jun 2027 01:08:00.657   03 Jun 2027 01:08:18.462            17.805            RioGallegos           556.406
       212   03 Jun 2027 01:09:11.844   03 Jun 2027 01:09:33.348            21.504            RioGallegos           672.000
       213   03 Jun 2027 01:38:36.706   03 Jun 2027 01:38:51.059            14.353                Anadyr2           448.531
       214   03 Jun 2027 01:39:15.387   03 Jun 2027 01:39:55.524            40.137                Anadyr2          1254.281
       215   03 Jun 2027 01:40:33.310   03 Jun 2027 01:40:58.082            24.772                Anadyr2           774.125
       216   03 Jun 2027 01:43:14.144   03 Jun 2027 01:43:45.825            31.681                Anadyr1           990.031
       217   03 Jun 2027 01:44:11.207   03 Jun 2027 01:44:13.762             2.555                Anadyr2            79.844
       218   03 Jun 2027 01:44:44.580   03 Jun 2027 01:45:20.481            35.901                Norilsk          1121.906
       219   03 Jun 2027 01:45:24.430   03 Jun 2027 01:46:38.484            74.054               Magadan1          2314.188
       220   03 Jun 2027 01:47:03.508   03 Jun 2027 01:48:39.744            96.236              Murmansk1          3007.375
       221   03 Jun 2027 01:48:39.744   03 Jun 2027 01:48:44.397             4.653              Murmansk2           145.406
       222   03 Jun 2027 01:48:48.992   03 Jun 2027 01:49:06.237            17.245                Novosib           538.906
       223   03 Jun 2027 01:49:19.867   03 Jun 2027 01:49:38.426            18.559                Irkutsk           579.969
       224   03 Jun 2027 01:51:00.341   03 Jun 2027 01:52:06.338            65.997                Irkutsk          2062.406
       225   03 Jun 2027 01:57:13.950   03 Jun 2027 01:57:23.098             9.148                  Delhi           285.875
       226   03 Jun 2027 02:00:40.077   03 Jun 2027 02:00:59.228            19.151                  Delhi           598.469
       227   03 Jun 2027 02:04:18.280   03 Jun 2027 02:04:33.664            15.384                  Delhi           480.750
       228   03 Jun 2027 03:12:18.157   03 Jun 2027 03:12:32.690            14.533                Anadyr2           454.156
       229   03 Jun 2027 03:16:58.010   03 Jun 2027 03:17:39.541            41.531               Magadan2          1297.844
       230   03 Jun 2027 03:17:57.024   03 Jun 2027 03:18:16.351            19.327               Magadan2           603.969
       231   03 Jun 2027 03:18:32.517   03 Jun 2027 03:19:01.845            29.328               Magadan2           916.500
       232   03 Jun 2027 03:31:43.775   03 Jun 2027 03:33:59.579           135.804                Novosib          4243.875
       233   03 Jun 2027 03:34:30.277   03 Jun 2027 03:36:14.677           104.400                 Moscow          3262.500
       234   03 Jun 2027 03:36:57.040   03 Jun 2027 03:37:32.769            35.729                 Moscow          1116.531
       235   03 Jun 2027 03:50:21.787   03 Jun 2027 03:53:46.039           204.252               CapeTown          6382.875
       236   03 Jun 2027 04:46:45.553   03 Jun 2027 04:51:48.399           302.846                Anadyr2          9463.937
       237   03 Jun 2027 04:53:44.002   03 Jun 2027 04:56:37.551           173.549               Magadan1          5423.406
       238   03 Jun 2027 04:56:37.551   03 Jun 2027 04:56:44.409             6.858               Magadan2           214.313
       239   03 Jun 2027 04:57:22.124   03 Jun 2027 04:59:09.938           107.814               Magadan2          3369.187
       240   03 Jun 2027 04:59:35.945   03 Jun 2027 04:59:39.669             3.724                Anadyr2           116.375
       241   03 Jun 2027 05:09:08.896   03 Jun 2027 05:09:34.121            25.225                 Moscow           788.281
       242   03 Jun 2027 05:27:05.808   03 Jun 2027 05:28:05.034            59.226               CapeTown          1850.813
       243   03 Jun 2027 05:30:09.237   03 Jun 2027 05:30:23.714            14.477               CapeTown           452.406
       244   03 Jun 2027 05:31:08.288   03 Jun 2027 05:31:13.280             4.992               CapeTown           156.000
       245   03 Jun 2027 05:31:25.670   03 Jun 2027 05:32:18.396            52.726               CapeTown          1647.688
       246   03 Jun 2027 06:27:26.426   03 Jun 2027 06:27:39.754            13.328                Anadyr1           416.500
       247   03 Jun 2027 06:27:41.248   03 Jun 2027 06:28:42.834            61.586               Magadan2          1924.562
       248   03 Jun 2027 06:29:21.217   03 Jun 2027 06:29:26.891             5.674               Magadan1           177.313
       249   03 Jun 2027 06:29:36.234   03 Jun 2027 06:29:56.429            20.195               Magadan2           631.094
       250   03 Jun 2027 06:30:07.760   03 Jun 2027 06:30:36.210            28.450                Anadyr1           889.062
       251   03 Jun 2027 06:30:58.451   03 Jun 2027 06:31:56.302            57.851                Anadyr2          1807.844
       252   03 Jun 2027 06:32:06.887   03 Jun 2027 06:32:53.265            46.378               Magadan1          1449.312
       253   03 Jun 2027 06:33:14.367   03 Jun 2027 06:33:28.406            14.039               Magadan1           438.719
       254   03 Jun 2027 08:02:44.987   03 Jun 2027 08:03:27.628            42.641                Anadyr1          1332.531
       255   03 Jun 2027 08:03:52.603   03 Jun 2027 08:04:36.928            44.325                Anadyr1          1385.156
       256   03 Jun 2027 08:04:39.141   03 Jun 2027 08:06:02.288            83.147                Anadyr1          2598.344
       257   03 Jun 2027 08:06:15.221   03 Jun 2027 08:06:19.893             4.672               Magadan2           146.000
       258   03 Jun 2027 08:06:49.128   03 Jun 2027 08:07:26.690            37.562                Anadyr1          1173.813
       259   03 Jun 2027 08:07:48.213   03 Jun 2027 08:07:48.964             0.751               Magadan2            23.469
       260   03 Jun 2027 08:07:52.997   03 Jun 2027 08:08:51.246            58.249                Anadyr1          1820.281
       261   03 Jun 2027 08:08:55.710   03 Jun 2027 08:09:33.403            37.693               Magadan1          1177.906
       262   03 Jun 2027 08:09:46.638   03 Jun 2027 08:10:51.949            65.311                Anadyr1          2040.969
       263   03 Jun 2027 09:40:10.462   03 Jun 2027 09:41:37.813            87.351               Magadan1          2729.719
       264   03 Jun 2027 09:42:57.630   03 Jun 2027 09:43:14.084            16.454               Magadan2           514.188
       265   03 Jun 2027 09:43:30.307   03 Jun 2027 09:44:15.727            45.420               Magadan2          1419.375
       266   03 Jun 2027 09:44:20.666   03 Jun 2027 09:44:44.095            23.429                Irkutsk           732.156
       267   03 Jun 2027 09:44:51.632   03 Jun 2027 09:45:19.930            28.298                Norilsk           884.313
       268   03 Jun 2027 09:45:32.109   03 Jun 2027 09:46:21.583            49.474                Novosib          1546.062
       269   03 Jun 2027 09:46:29.167   03 Jun 2027 09:46:55.969            26.802                Irkutsk           837.562
       270   03 Jun 2027 10:21:40.995   03 Jun 2027 10:22:30.317            49.322            RioGallegos          1541.312
       271   03 Jun 2027 10:28:51.525   03 Jun 2027 10:29:52.412            60.887            RioGallegos          1902.719
       272   03 Jun 2027 10:59:50.404   03 Jun 2027 10:59:52.660             2.256                Sumatra            70.500
       273   03 Jun 2027 11:07:39.728   03 Jun 2027 11:09:40.810           121.082                  Delhi          3783.813
       274   03 Jun 2027 11:17:48.545   03 Jun 2027 11:18:07.862            19.317                Novosib           603.656
       275   03 Jun 2027 11:18:50.103   03 Jun 2027 11:19:08.160            18.057                Irkutsk           564.281
       276   03 Jun 2027 11:19:14.496   03 Jun 2027 11:19:40.048            25.552                Novosib           798.500
       277   03 Jun 2027 11:20:03.145   03 Jun 2027 11:20:16.876            13.731                Irkutsk           429.094
       278   03 Jun 2027 11:20:39.485   03 Jun 2027 11:20:56.131            16.646                Novosib           520.188
       279   03 Jun 2027 11:21:13.381   03 Jun 2027 11:22:23.752            70.371                Novosib          2199.094
       280   03 Jun 2027 11:22:29.775   03 Jun 2027 11:22:56.469            26.694                Norilsk           834.188
       281   03 Jun 2027 12:00:55.750   03 Jun 2027 12:01:45.671            49.921            RioGallegos          1560.031
       282   03 Jun 2027 12:06:43.661   03 Jun 2027 12:07:23.507            39.846            RioGallegos          1245.188
       283   03 Jun 2027 12:35:43.905   03 Jun 2027 12:36:36.442            52.537                Sumatra          1641.781
       284   03 Jun 2027 12:43:47.005   03 Jun 2027 12:44:51.753            64.748                  Delhi          2023.375
       285   03 Jun 2027 12:48:17.039   03 Jun 2027 12:49:08.994            51.955                Novosib          1623.594
       286   03 Jun 2027 12:53:17.267   03 Jun 2027 12:53:50.197            32.930              Murmansk2          1029.062
       287   03 Jun 2027 12:54:18.288   03 Jun 2027 12:55:09.824            51.536                Norilsk          1610.500
       288   03 Jun 2027 14:25:09.668   03 Jun 2027 14:27:28.517           138.849                 Moscow          4339.031
       289   03 Jun 2027 14:27:38.565   03 Jun 2027 14:27:48.512             9.947                 Moscow           310.844
       290   03 Jun 2027 14:28:01.532   03 Jun 2027 14:28:23.850            22.318                 Moscow           697.438
       291   03 Jun 2027 14:28:31.816   03 Jun 2027 14:30:54.581           142.765              Murmansk1          4461.406
       292   03 Jun 2027 14:31:06.206   03 Jun 2027 14:32:40.908            94.702                Novosib          2959.437
       293   03 Jun 2027 14:32:48.856   03 Jun 2027 14:33:02.703            13.847                Norilsk           432.719
       294   03 Jun 2027 14:36:02.392   03 Jun 2027 14:36:49.949            47.557                Norilsk          1486.156
       295   03 Jun 2027 15:40:11.645   03 Jun 2027 15:41:19.029            67.384               CapeTown          2105.750
       296   03 Jun 2027 15:42:47.189   03 Jun 2027 15:42:59.069            11.880               CapeTown           371.250
       297   03 Jun 2027 15:46:18.117   03 Jun 2027 15:47:15.330            57.213               CapeTown          1787.906
       298   03 Jun 2027 16:02:04.551   03 Jun 2027 16:02:07.627             3.076                 Moscow            96.125
       299   03 Jun 2027 16:02:41.040   03 Jun 2027 16:03:16.648            35.608                 Moscow          1112.750
       300   03 Jun 2027 16:05:21.770   03 Jun 2027 16:06:10.319            48.549              Murmansk2          1517.156
       301   03 Jun 2027 16:08:05.892   03 Jun 2027 16:09:35.879            89.987              Murmansk2          2812.094
       302   03 Jun 2027 16:19:43.984   03 Jun 2027 16:21:10.264            86.280                Anadyr1          2696.250
       303   03 Jun 2027 16:23:06.244   03 Jun 2027 16:23:14.424             8.180                Anadyr1           255.625
       304   03 Jun 2027 17:14:32.753   03 Jun 2027 17:16:52.690           139.937               CapeTown          4373.031
       305   03 Jun 2027 17:44:21.633   03 Jun 2027 17:45:04.250            42.617              Murmansk1          1331.781
       306   03 Jun 2027 17:45:54.318   03 Jun 2027 17:47:16.177            81.859              Murmansk2          2558.094
       307   03 Jun 2027 17:47:56.539   03 Jun 2027 17:49:36.129            99.590              Murmansk2          3112.187
       308   03 Jun 2027 17:55:10.451   03 Jun 2027 17:55:52.239            41.788                Anadyr1          1305.875
       309   03 Jun 2027 17:58:57.194   03 Jun 2027 18:00:56.864           119.670               Magadan1          3739.688
       310   03 Jun 2027 19:31:04.625   03 Jun 2027 19:34:56.174           231.549                Anadyr2          7235.906
       311   03 Jun 2027 19:35:02.444   03 Jun 2027 19:38:17.119           194.675               Magadan1          6083.594
       312   03 Jun 2027 21:06:57.580   03 Jun 2027 21:10:30.326           212.746                Anadyr2          6648.312
       313   03 Jun 2027 21:10:31.491   03 Jun 2027 21:12:30.632           119.141               Magadan2          3723.156
       314   03 Jun 2027 21:13:06.415   03 Jun 2027 21:13:31.611            25.196               Magadan1           787.375
       315   03 Jun 2027 21:14:35.426   03 Jun 2027 21:15:19.882            44.456                Norilsk          1389.250
       316   03 Jun 2027 21:16:07.129   03 Jun 2027 21:17:39.324            92.195                Irkutsk          2881.094
       317   03 Jun 2027 22:01:08.455   03 Jun 2027 22:01:52.825            44.370            RioGallegos          1386.562
       318   03 Jun 2027 22:06:39.263   03 Jun 2027 22:07:14.953            35.690            RioGallegos          1115.312
       319   03 Jun 2027 22:10:38.042   03 Jun 2027 22:10:46.970             8.928            RioGallegos           279.000
       320   03 Jun 2027 22:42:26.364   03 Jun 2027 22:43:12.871            46.507                Anadyr2          1453.344
       321   03 Jun 2027 22:43:21.181   03 Jun 2027 22:44:51.393            90.212                Anadyr1          2819.125
       322   03 Jun 2027 22:44:59.592   03 Jun 2027 22:46:58.137           118.545                Norilsk          3704.531
       323   03 Jun 2027 22:48:13.447   03 Jun 2027 22:48:28.866            15.419               Magadan1           481.844
       324   03 Jun 2027 22:48:50.546   03 Jun 2027 22:49:57.028            66.482                Irkutsk          2077.562
       325   03 Jun 2027 22:50:19.834   03 Jun 2027 22:51:32.656            72.822                Novosib          2275.688
       326   03 Jun 2027 22:56:36.949   03 Jun 2027 22:56:40.186             3.237                Novosib           101.156
       327   03 Jun 2027 23:02:31.747   03 Jun 2027 23:03:34.988            63.241                Sumatra          1976.281
       328   03 Jun 2027 23:11:34.103   03 Jun 2027 23:12:06.325            32.222                Sumatra          1006.938
       329   04 Jun 2027 00:16:54.420   04 Jun 2027 00:18:52.587           118.167                Anadyr1          3692.719
       330   04 Jun 2027 00:19:30.157   04 Jun 2027 00:19:42.451            12.294                Anadyr2           384.188
       331   04 Jun 2027 00:20:47.753   04 Jun 2027 00:21:01.173            13.420                Norilsk           419.375
       332   04 Jun 2027 00:21:26.386   04 Jun 2027 00:23:04.006            97.620               Magadan2          3050.625
       333   04 Jun 2027 00:23:40.472   04 Jun 2027 00:23:55.389            14.917               Magadan2           466.156
       334   04 Jun 2027 00:24:30.034   04 Jun 2027 00:25:26.965            56.931               Magadan1          1779.094
       335   04 Jun 2027 00:25:29.297   04 Jun 2027 00:26:07.739            38.442              Murmansk2          1201.313
       336   04 Jun 2027 00:26:07.739   04 Jun 2027 00:26:27.995            20.256              Murmansk1           633.000
       337   04 Jun 2027 00:26:48.005   04 Jun 2027 00:26:56.168             8.163                Novosib           255.094
       338   04 Jun 2027 00:27:35.435   04 Jun 2027 00:27:45.872            10.437                Novosib           326.156
       339   04 Jun 2027 00:28:30.580   04 Jun 2027 00:28:48.164            17.584                Novosib           549.500
       340   04 Jun 2027 00:29:31.512   04 Jun 2027 00:29:46.822            15.310                Novosib           478.437
       341   04 Jun 2027 00:32:10.290   04 Jun 2027 00:33:01.732            51.442                  Delhi          1607.562
       342   04 Jun 2027 00:34:05.605   04 Jun 2027 00:34:18.662            13.057                  Delhi           408.031
       343   04 Jun 2027 00:38:54.247   04 Jun 2027 00:39:34.980            40.733                  Delhi          1272.906
       344   04 Jun 2027 00:42:30.067   04 Jun 2027 00:42:42.178            12.111                  Delhi           378.469
       345   04 Jun 2027 01:13:22.882   04 Jun 2027 01:13:54.838            31.956            RioGallegos           998.625
       346   04 Jun 2027 01:16:12.544   04 Jun 2027 01:16:47.523            34.979            RioGallegos          1093.094
       347   04 Jun 2027 01:21:44.716   04 Jun 2027 01:22:24.794            40.078            RioGallegos          1252.438
       348   04 Jun 2027 01:50:17.753   04 Jun 2027 01:51:10.852            53.099                Anadyr2          1659.344
       349   04 Jun 2027 01:52:05.522   04 Jun 2027 01:52:16.506            10.984                Anadyr2           343.250
       350   04 Jun 2027 01:52:48.497   04 Jun 2027 01:53:11.658            23.161                Anadyr1           723.781
       351   04 Jun 2027 01:56:30.047   04 Jun 2027 01:58:08.351            98.304               Magadan2          3072.000
       352   04 Jun 2027 01:59:02.427   04 Jun 2027 01:59:48.668            46.241              Murmansk1          1445.031
       353   04 Jun 2027 01:59:48.668   04 Jun 2027 02:00:35.056            46.388              Murmansk2          1449.625
       354   04 Jun 2027 02:00:37.020   04 Jun 2027 02:01:28.471            51.451                Novosib          1607.844
       355   04 Jun 2027 02:03:16.323   04 Jun 2027 02:03:41.477            25.154                 Moscow           786.063
       356   04 Jun 2027 02:04:21.109   04 Jun 2027 02:04:57.060            35.951                Irkutsk          1123.469
       357   04 Jun 2027 02:09:46.307   04 Jun 2027 02:10:01.221            14.914                  Delhi           466.063
       358   04 Jun 2027 02:13:05.668   04 Jun 2027 02:13:40.876            35.208                  Delhi          1100.250
       359   04 Jun 2027 02:35:00.539   04 Jun 2027 02:35:54.439            53.900               CapeTown          1684.375
       360   04 Jun 2027 03:23:51.596   04 Jun 2027 03:23:58.003             6.407                Anadyr2           200.219
       361   04 Jun 2027 03:24:40.659   04 Jun 2027 03:24:52.267            11.608                Anadyr1           362.750
       362   04 Jun 2027 03:26:11.407   04 Jun 2027 03:26:15.523             4.116                Anadyr2           128.625
       363   04 Jun 2027 03:31:02.173   04 Jun 2027 03:31:51.967            49.794                Anadyr2          1556.062
       364   04 Jun 2027 03:42:52.449   04 Jun 2027 03:43:42.981            50.532                Norilsk          1579.125
       365   04 Jun 2027 03:44:18.955   04 Jun 2027 03:44:25.362             6.407                Norilsk           200.219
       366   04 Jun 2027 03:45:42.568   04 Jun 2027 03:47:20.063            97.495              Murmansk2          3046.719
       367   04 Jun 2027 03:47:20.063   04 Jun 2027 03:47:20.155             0.092              Murmansk1             2.875
       368   04 Jun 2027 03:47:21.024   04 Jun 2027 03:50:56.529           215.505                 Moscow          6734.531
       369   04 Jun 2027 05:00:02.698   04 Jun 2027 05:00:26.354            23.656                Anadyr1           739.250
       370   04 Jun 2027 05:00:32.752   04 Jun 2027 05:02:30.494           117.742               Magadan2          3679.437
       371   04 Jun 2027 05:02:33.505   04 Jun 2027 05:03:15.820            42.315                Anadyr1          1322.344
       372   04 Jun 2027 05:05:25.314   04 Jun 2027 05:09:50.900           265.586               Magadan1          8299.562
       373   04 Jun 2027 05:10:00.318   04 Jun 2027 05:11:12.990            72.672               Magadan1          2271.000
       374   04 Jun 2027 05:11:33.776   04 Jun 2027 05:11:41.302             7.526                Anadyr1           235.188
       375   04 Jun 2027 05:18:35.375   04 Jun 2027 05:18:40.448             5.073                Norilsk           158.531
       376   04 Jun 2027 05:45:15.081   04 Jun 2027 05:45:31.471            16.390               CapeTown           512.187
       377   04 Jun 2027 05:49:06.245   04 Jun 2027 05:49:19.694            13.449               CapeTown           420.281
       378   04 Jun 2027 06:39:20.980   04 Jun 2027 06:40:07.991            47.011                Anadyr2          1469.094
       379   04 Jun 2027 06:40:11.064   04 Jun 2027 06:40:17.695             6.631                Anadyr2           207.219
       380   04 Jun 2027 06:40:57.811   04 Jun 2027 06:41:07.690             9.879                Anadyr2           308.719
       381   04 Jun 2027 06:41:07.690   04 Jun 2027 06:41:38.900            31.210                Anadyr1           975.313
       382   04 Jun 2027 06:42:02.091   04 Jun 2027 06:43:15.694            73.603               Magadan2          2300.094
       383   04 Jun 2027 06:43:21.532   04 Jun 2027 06:43:33.636            12.104               Magadan2           378.250
       384   04 Jun 2027 06:43:51.346   04 Jun 2027 06:43:57.943             6.597                Anadyr2           206.156
       385   04 Jun 2027 06:44:02.908   04 Jun 2027 06:44:14.987            12.079               Magadan2           377.469
       386   04 Jun 2027 06:44:14.987   04 Jun 2027 06:45:15.205            60.218               Magadan1          1881.813
       387   04 Jun 2027 08:15:31.332   04 Jun 2027 08:15:50.495            19.163                Anadyr2           598.844
       388   04 Jun 2027 08:16:17.715   04 Jun 2027 08:18:02.779           105.064                Anadyr1          3283.250
       389   04 Jun 2027 08:18:15.460   04 Jun 2027 08:19:27.516            72.056               Magadan2          2251.750
       390   04 Jun 2027 08:19:54.681   04 Jun 2027 08:20:16.099            21.418                Anadyr1           669.313
       391   04 Jun 2027 08:20:21.580   04 Jun 2027 08:20:32.284            10.704               Magadan2           334.500
       392   04 Jun 2027 08:20:41.116   04 Jun 2027 08:20:45.630             4.514               Magadan2           141.062
       393   04 Jun 2027 08:20:45.630   04 Jun 2027 08:21:35.313            49.683               Magadan1          1552.594
       394   04 Jun 2027 08:22:07.940   04 Jun 2027 08:22:08.026             0.086               Magadan1             2.688
       395   04 Jun 2027 08:26:44.629   04 Jun 2027 08:26:49.862             5.233                Norilsk           163.531
       396   04 Jun 2027 08:58:23.475   04 Jun 2027 08:58:47.691            24.216            RioGallegos           756.750
       397   04 Jun 2027 08:58:55.755   04 Jun 2027 08:59:31.507            35.752            RioGallegos          1117.250
       398   04 Jun 2027 09:07:10.112   04 Jun 2027 09:07:46.928            36.816            RioGallegos          1150.500
       399   04 Jun 2027 09:37:13.385   04 Jun 2027 09:38:06.012            52.627                Sumatra          1644.594
       400   04 Jun 2027 09:53:20.057   04 Jun 2027 09:53:45.433            25.376                Irkutsk           793.000
       401   04 Jun 2027 09:55:09.046   04 Jun 2027 09:55:50.534            41.488                Irkutsk          1296.500
       402   04 Jun 2027 09:55:53.993   04 Jun 2027 09:56:53.652            59.659                Irkutsk          1864.344
       403   04 Jun 2027 09:57:06.029   04 Jun 2027 09:57:13.824             7.795                Norilsk           243.594
       404   04 Jun 2027 09:57:16.163   04 Jun 2027 09:57:37.636            21.473               Magadan1           671.031
       405   04 Jun 2027 09:58:01.685   04 Jun 2027 09:58:04.766             3.081                Irkutsk            96.281
       406   04 Jun 2027 09:58:15.800   04 Jun 2027 09:58:17.272             1.472                Irkutsk            46.000
       407   04 Jun 2027 09:58:30.835   04 Jun 2027 09:58:46.573            15.738                Irkutsk           491.812
       408   04 Jun 2027 09:58:50.925   04 Jun 2027 09:58:57.213             6.288                Novosib           196.500
       409   04 Jun 2027 09:58:57.653   04 Jun 2027 09:59:09.592            11.939                Novosib           373.094
       410   04 Jun 2027 10:33:50.709   04 Jun 2027 10:34:28.982            38.273            RioGallegos          1196.031
       411   04 Jun 2027 10:35:10.575   04 Jun 2027 10:35:24.463            13.888            RioGallegos           434.000
       412   04 Jun 2027 10:44:48.215   04 Jun 2027 10:45:18.943            30.728            RioGallegos           960.250
       413   04 Jun 2027 11:08:31.463   04 Jun 2027 11:09:06.373            34.910                Sumatra          1090.937
       414   04 Jun 2027 11:21:16.569   04 Jun 2027 11:21:47.757            31.188                  Delhi           974.625
       415   04 Jun 2027 11:27:29.876   04 Jun 2027 11:27:49.823            19.947                  Delhi           623.344
       416   04 Jun 2027 11:28:42.453   04 Jun 2027 11:28:42.616             0.163                  Delhi             5.094
       417   04 Jun 2027 11:29:59.810   04 Jun 2027 11:30:58.291            58.481                Irkutsk          1827.531
       418   04 Jun 2027 11:31:24.497   04 Jun 2027 11:31:58.099            33.602                Novosib          1050.063
       419   04 Jun 2027 11:32:10.956   04 Jun 2027 11:32:24.847            13.891                Norilsk           434.094
       420   04 Jun 2027 11:32:28.046   04 Jun 2027 11:32:38.016             9.970                Irkutsk           311.562
       421   04 Jun 2027 11:32:42.922   04 Jun 2027 11:32:48.599             5.677                Novosib           177.406
       422   04 Jun 2027 11:32:51.010   04 Jun 2027 11:34:06.574            75.564                Norilsk          2361.375
       423   04 Jun 2027 11:34:18.993   04 Jun 2027 11:34:39.008            20.015                Irkutsk           625.469
       424   04 Jun 2027 11:34:50.357   04 Jun 2027 11:34:55.059             4.702                Norilsk           146.937
       425   04 Jun 2027 11:35:24.644   04 Jun 2027 11:35:31.074             6.430                Norilsk           200.937
       426   04 Jun 2027 12:14:27.155   04 Jun 2027 12:15:32.532            65.377            RioGallegos          2043.031
       427   04 Jun 2027 12:53:42.010   04 Jun 2027 12:54:54.791            72.781                  Delhi          2274.406
       428   04 Jun 2027 12:55:50.609   04 Jun 2027 12:57:09.489            78.880                  Delhi          2465.000
       429   04 Jun 2027 13:00:38.829   04 Jun 2027 13:00:46.816             7.987                Novosib           249.594
       430   04 Jun 2027 13:03:02.783   04 Jun 2027 13:04:54.358           111.575                Novosib          3486.719
       431   04 Jun 2027 13:14:13.756   04 Jun 2027 13:15:05.750            51.994                Norilsk          1624.812
       432   04 Jun 2027 14:37:07.826   04 Jun 2027 14:38:19.417            71.591                 Moscow          2237.219
       433   04 Jun 2027 14:38:34.034   04 Jun 2027 14:40:20.488           106.454                 Moscow          3326.687
       434   04 Jun 2027 14:40:34.268   04 Jun 2027 14:42:17.005           102.737              Murmansk1          3210.531
       435   04 Jun 2027 14:42:32.076   04 Jun 2027 14:43:08.074            35.998              Murmansk1          1124.937
       436   04 Jun 2027 14:44:35.396   04 Jun 2027 14:45:31.246            55.850                Norilsk          1745.313
       437   04 Jun 2027 14:46:24.946   04 Jun 2027 14:46:25.260             0.314                Norilsk             9.813
       438   04 Jun 2027 14:48:01.577   04 Jun 2027 14:48:11.667            10.090                Norilsk           315.313
       439   04 Jun 2027 15:51:43.277   04 Jun 2027 15:54:45.860           182.583               CapeTown          5705.719
       440   04 Jun 2027 16:14:29.778   04 Jun 2027 16:14:59.045            29.267                 Moscow           914.594
       441   04 Jun 2027 16:17:38.422   04 Jun 2027 16:19:27.800           109.378              Murmansk2          3418.063
       442   04 Jun 2027 16:27:23.786   04 Jun 2027 16:27:26.311             2.525              Murmansk2            78.906
       443   04 Jun 2027 16:31:37.860   04 Jun 2027 16:32:51.265            73.405                Anadyr2          2293.906
       444   04 Jun 2027 16:32:51.265   04 Jun 2027 16:33:15.410            24.145                Anadyr1           754.531
       445   04 Jun 2027 16:34:17.607   04 Jun 2027 16:34:30.237            12.630                Anadyr1           394.687
       446   04 Jun 2027 16:35:10.181   04 Jun 2027 16:35:32.393            22.212                Anadyr1           694.125
       447   04 Jun 2027 16:37:58.741   04 Jun 2027 16:38:39.890            41.149                Anadyr2          1285.906
       448   04 Jun 2027 16:40:48.367   04 Jun 2027 16:40:55.903             7.536                Anadyr1           235.500
       449   04 Jun 2027 17:26:37.628   04 Jun 2027 17:27:17.467            39.839               CapeTown          1244.969
       450   04 Jun 2027 17:28:18.688   04 Jun 2027 17:28:46.472            27.784               CapeTown           868.250
       451   04 Jun 2027 17:35:38.141   04 Jun 2027 17:36:17.912            39.771               CapeTown          1242.844
       452   04 Jun 2027 17:56:58.522   04 Jun 2027 17:58:03.085            64.563              Murmansk1          2017.594
       453   04 Jun 2027 17:58:41.500   04 Jun 2027 18:01:35.628           174.128              Murmansk2          5441.500
       454   04 Jun 2027 18:07:11.133   04 Jun 2027 18:07:14.298             3.165                Anadyr1            98.906
       455   04 Jun 2027 18:10:01.255   04 Jun 2027 18:10:09.664             8.409                Anadyr1           262.781
       456   04 Jun 2027 18:10:30.012   04 Jun 2027 18:10:54.010            23.998                Anadyr1           749.938
       457   04 Jun 2027 18:11:23.077   04 Jun 2027 18:11:24.257             1.180               Magadan2            36.875
       458   04 Jun 2027 18:11:54.313   04 Jun 2027 18:12:33.494            39.181               Magadan1          1224.406
       459   04 Jun 2027 18:13:32.726   04 Jun 2027 18:13:48.035            15.309               Magadan2           478.406
       460   04 Jun 2027 18:15:10.101   04 Jun 2027 18:16:34.370            84.269               Magadan2          2633.406
       461   04 Jun 2027 19:43:06.246   04 Jun 2027 19:44:51.114           104.868                Anadyr2          3277.125
       462   04 Jun 2027 19:45:03.580   04 Jun 2027 19:46:52.645           109.065                Anadyr1          3408.281
       463   04 Jun 2027 19:47:16.280   04 Jun 2027 19:48:39.612            83.332               Magadan2          2604.125
       464   04 Jun 2027 19:48:39.612   04 Jun 2027 19:49:46.798            67.186               Magadan1          2099.562
       465   04 Jun 2027 19:53:51.708   04 Jun 2027 19:53:53.608             1.900               Magadan2            59.375
       466   04 Jun 2027 19:53:54.766   04 Jun 2027 19:54:06.369            11.603               Magadan2           362.594
       467   04 Jun 2027 19:57:01.091   04 Jun 2027 19:57:20.725            19.634               Magadan2           613.562
       468   04 Jun 2027 20:41:07.292   04 Jun 2027 20:42:15.237            67.945            RioGallegos          2123.281
       469   04 Jun 2027 21:18:57.633   04 Jun 2027 21:21:08.240           130.607                Anadyr1          4081.469
       470   04 Jun 2027 21:21:10.124   04 Jun 2027 21:24:45.719           215.595                Norilsk          6737.344
       471   04 Jun 2027 21:26:18.990   04 Jun 2027 21:26:36.440            17.450               Magadan1           545.312
       472   04 Jun 2027 21:26:46.819   04 Jun 2027 21:28:43.067           116.248                Irkutsk          3632.750
       473   04 Jun 2027 21:29:14.284   04 Jun 2027 21:29:20.110             5.826                Irkutsk           182.063
       474   04 Jun 2027 21:42:17.734   04 Jun 2027 21:43:47.198            89.464                Sumatra          2795.750
       475   04 Jun 2027 21:45:05.244   04 Jun 2027 21:46:32.209            86.965                Sumatra          2717.656
       476   04 Jun 2027 22:55:02.227   04 Jun 2027 22:55:13.944            11.717                Anadyr2           366.156
       477   04 Jun 2027 22:55:42.709   04 Jun 2027 22:56:49.420            66.711                Anadyr1          2084.719
       478   04 Jun 2027 22:56:49.910   04 Jun 2027 22:57:01.311            11.401                Norilsk           356.281
       479   04 Jun 2027 22:57:19.235   04 Jun 2027 22:58:07.757            48.522                Norilsk          1516.312
       480   04 Jun 2027 22:59:41.475   04 Jun 2027 23:00:09.303            27.828               Magadan1           869.625
       481   04 Jun 2027 23:00:48.175   04 Jun 2027 23:01:57.656            69.481                Irkutsk          2171.281
       482   04 Jun 2027 23:02:08.051   04 Jun 2027 23:03:28.971            80.920                Novosib          2528.750
