uniorb/output/strategy_4/Drop/Drop_KinoSat_111709.txt

KinoSat_111709
-------------------------
    Access    *     Start Time (UTCG)     *     Stop Time (UTCG)  *   Duration (s)        *       Station  *  Data (Mbytes)
         1   01 Jun 2027 04:10:50.835   01 Jun 2027 04:11:36.993            46.158                Norilsk          1442.437
         2   01 Jun 2027 04:11:49.777   01 Jun 2027 04:13:04.118            74.341              Murmansk1          2323.156
         3   01 Jun 2027 04:13:04.118   01 Jun 2027 04:13:53.393            49.275              Murmansk2          1539.844
         4   01 Jun 2027 04:13:58.769   01 Jun 2027 04:14:27.528            28.759                Norilsk           898.719
         5   01 Jun 2027 04:14:36.799   01 Jun 2027 04:16:43.470           126.671                Novosib          3958.469
         6   01 Jun 2027 04:18:17.812   01 Jun 2027 04:18:48.136            30.324                 Moscow           947.625
         7   01 Jun 2027 04:42:46.135   01 Jun 2027 04:43:02.607            16.472               CapeTown           514.750
         8   01 Jun 2027 04:43:31.738   01 Jun 2027 04:43:43.570            11.832               CapeTown           369.750
         9   01 Jun 2027 05:48:24.567   01 Jun 2027 05:48:52.112            27.545                Norilsk           860.781
        10   01 Jun 2027 05:49:10.108   01 Jun 2027 05:52:51.113           221.005              Murmansk2          6906.406
        11   01 Jun 2027 06:07:35.870   01 Jun 2027 06:08:10.795            34.925               CapeTown          1091.406
        12   01 Jun 2027 06:10:26.614   01 Jun 2027 06:12:09.159           102.545               CapeTown          3204.531
        13   01 Jun 2027 07:11:45.918   01 Jun 2027 07:13:13.970            88.052                Anadyr2          2751.625
        14   01 Jun 2027 07:13:13.970   01 Jun 2027 07:14:02.138            48.168                Anadyr1          1505.250
        15   01 Jun 2027 08:48:51.312   01 Jun 2027 08:50:37.152           105.840               Magadan1          3307.500
        16   01 Jun 2027 08:50:57.544   01 Jun 2027 08:51:39.188            41.644                Anadyr1          1301.375
        17   01 Jun 2027 10:22:57.023   01 Jun 2027 10:23:09.762            12.739               Magadan2           398.094
        18   01 Jun 2027 10:23:34.345   01 Jun 2027 10:27:56.304           261.959               Magadan2          8186.219
        19   01 Jun 2027 12:00:02.892   01 Jun 2027 12:05:49.457           346.565                Novosib         10830.156
        20   01 Jun 2027 12:05:50.268   01 Jun 2027 12:08:03.765           133.497              Murmansk2          4171.781
        21   01 Jun 2027 12:08:03.765   01 Jun 2027 12:08:16.181            12.416              Murmansk1           388.000
        22   01 Jun 2027 12:08:21.913   01 Jun 2027 12:08:40.799            18.886              Murmansk1           590.188
        23   01 Jun 2027 12:08:50.753   01 Jun 2027 12:11:50.337           179.584              Murmansk2          5612.000
        24   01 Jun 2027 12:47:45.442   01 Jun 2027 12:51:09.483           204.041            RioGallegos          6376.281
        25   01 Jun 2027 13:18:57.610   01 Jun 2027 13:19:59.115            61.505                Sumatra          1922.031
        26   01 Jun 2027 13:20:29.490   01 Jun 2027 13:21:36.171            66.681                Sumatra          2083.781
        27   01 Jun 2027 13:22:27.026   01 Jun 2027 13:25:13.291           166.265                Sumatra          5195.781
        28   01 Jun 2027 13:32:37.816   01 Jun 2027 13:34:38.679           120.863                  Delhi          3776.969
        29   01 Jun 2027 13:35:55.083   01 Jun 2027 13:38:13.004           137.921                Irkutsk          4310.031
        30   01 Jun 2027 15:01:58.220   01 Jun 2027 15:03:06.191            67.971                  Delhi          2124.094
        31   01 Jun 2027 15:04:45.970   01 Jun 2027 15:06:57.878           131.908                  Delhi          4122.125
        32   01 Jun 2027 15:08:52.886   01 Jun 2027 15:09:11.513            18.627                  Delhi           582.094
        33   01 Jun 2027 15:09:45.333   01 Jun 2027 15:09:49.227             3.894                Novosib           121.687
        34   01 Jun 2027 15:13:05.361   01 Jun 2027 15:15:03.179           117.818                Novosib          3681.813
        35   01 Jun 2027 15:21:03.974   01 Jun 2027 15:21:14.541            10.567                Norilsk           330.219
        36   01 Jun 2027 16:24:57.719   01 Jun 2027 16:25:30.245            32.526               CapeTown          1016.437
        37   01 Jun 2027 16:26:22.192   01 Jun 2027 16:26:56.338            34.146               CapeTown          1067.063
        38   01 Jun 2027 16:44:24.233   01 Jun 2027 16:45:42.394            78.161                 Moscow          2442.531
        39   01 Jun 2027 16:49:15.488   01 Jun 2027 16:49:40.065            24.577              Murmansk1           768.031
        40   01 Jun 2027 16:51:33.042   01 Jun 2027 16:51:54.748            21.706                 Moscow           678.312
        41   01 Jun 2027 16:52:33.516   01 Jun 2027 16:52:46.385            12.869                 Moscow           402.156
        42   01 Jun 2027 16:53:30.383   01 Jun 2027 16:54:15.231            44.848              Murmansk2          1401.500
        43   01 Jun 2027 16:54:24.538   01 Jun 2027 16:55:19.363            54.825                Norilsk          1713.281
        44   01 Jun 2027 17:01:43.698   01 Jun 2027 17:02:48.314            64.616                Anadyr1          2019.250
        45   01 Jun 2027 17:03:35.244   01 Jun 2027 17:04:03.080            27.836                Anadyr1           869.875
        46   01 Jun 2027 17:07:08.417   01 Jun 2027 17:07:38.509            30.092                Anadyr1           940.375
        47   01 Jun 2027 17:59:44.642   01 Jun 2027 18:00:00.865            16.223               CapeTown           506.969
        48   01 Jun 2027 18:02:32.987   01 Jun 2027 18:02:57.211            24.224               CapeTown           757.000
        49   01 Jun 2027 18:03:31.732   01 Jun 2027 18:04:09.513            37.781               CapeTown          1180.656
        50   01 Jun 2027 18:07:52.051   01 Jun 2027 18:08:10.359            18.308               CapeTown           572.125
        51   01 Jun 2027 18:22:41.542   01 Jun 2027 18:26:39.968           238.426                 Moscow          7450.813
        52   01 Jun 2027 18:32:50.979   01 Jun 2027 18:34:47.551           116.572              Murmansk2          3642.875
        53   01 Jun 2027 19:32:51.518   01 Jun 2027 19:33:55.719            64.201               CapeTown          2006.281
        54   01 Jun 2027 19:35:22.440   01 Jun 2027 19:36:00.694            38.254               CapeTown          1195.438
        55   01 Jun 2027 19:40:01.231   01 Jun 2027 19:42:31.267           150.036               CapeTown          4688.625
        56   01 Jun 2027 20:05:45.426   01 Jun 2027 20:09:43.281           237.855              Murmansk2          7432.969
        57   01 Jun 2027 21:48:26.606   01 Jun 2027 21:52:25.596           238.990                Anadyr2          7468.438
        58   01 Jun 2027 21:52:44.763   01 Jun 2027 21:54:43.473           118.710               Magadan2          3709.688
        59   01 Jun 2027 21:54:55.645   01 Jun 2027 21:55:26.762            31.117               Magadan2           972.406
        60   01 Jun 2027 21:56:15.907   01 Jun 2027 21:56:47.674            31.767               Magadan2           992.719
        61   01 Jun 2027 21:59:02.777   01 Jun 2027 21:59:42.327            39.550               Magadan2          1235.937
        62   01 Jun 2027 22:00:49.159   01 Jun 2027 22:01:13.506            24.347               Magadan1           760.844
        63   01 Jun 2027 22:43:05.662   01 Jun 2027 22:45:04.293           118.631            RioGallegos          3707.219
        64   01 Jun 2027 22:47:24.582   01 Jun 2027 22:47:37.888            13.306            RioGallegos           415.812
        65   01 Jun 2027 22:51:27.304   01 Jun 2027 22:51:44.578            17.274            RioGallegos           539.812
        66   01 Jun 2027 23:24:07.204   01 Jun 2027 23:26:14.872           127.668                Anadyr1          3989.625
        67   01 Jun 2027 23:26:15.800   01 Jun 2027 23:27:55.197            99.397                Norilsk          3106.156
        68   01 Jun 2027 23:27:58.609   01 Jun 2027 23:28:33.257            34.648               Magadan1          1082.750
        69   01 Jun 2027 23:29:20.956   01 Jun 2027 23:29:28.383             7.427               Magadan2           232.094
        70   01 Jun 2027 23:30:08.790   01 Jun 2027 23:30:20.988            12.198               Magadan1           381.188
        71   01 Jun 2027 23:30:34.154   01 Jun 2027 23:31:47.849            73.695                Irkutsk          2302.969
        72   01 Jun 2027 23:32:45.862   01 Jun 2027 23:33:37.285            51.423                Irkutsk          1606.969
        73   01 Jun 2027 23:34:59.681   01 Jun 2027 23:35:45.837            46.156                Novosib          1442.375
        74   01 Jun 2027 23:44:27.930   01 Jun 2027 23:44:59.898            31.968                Sumatra           999.000
        75   01 Jun 2027 23:45:06.384   01 Jun 2027 23:46:02.495            56.111                Sumatra          1753.469
        76   01 Jun 2027 23:54:29.945   01 Jun 2027 23:55:55.383            85.438                Sumatra          2669.937
        77   02 Jun 2027 00:26:48.051   02 Jun 2027 00:27:04.577            16.526            RioGallegos           516.438
        78   02 Jun 2027 00:28:31.979   02 Jun 2027 00:29:40.462            68.483            RioGallegos          2140.094
        79   02 Jun 2027 00:59:48.391   02 Jun 2027 01:00:28.388            39.997                Anadyr2          1249.906
        80   02 Jun 2027 01:01:15.583   02 Jun 2027 01:01:23.099             7.516                Anadyr2           234.875
        81   02 Jun 2027 01:01:34.165   02 Jun 2027 01:01:37.633             3.468                Anadyr2           108.375
        82   02 Jun 2027 01:02:12.057   02 Jun 2027 01:03:55.771           103.714                Norilsk          3241.063
        83   02 Jun 2027 01:04:05.899   02 Jun 2027 01:04:37.353            31.454               Magadan2           982.938
        84   02 Jun 2027 01:06:04.319   02 Jun 2027 01:08:03.932           119.613                Irkutsk          3737.906
        85   02 Jun 2027 01:08:05.736   02 Jun 2027 01:09:40.377            94.641                Novosib          2957.531
        86   02 Jun 2027 01:18:38.711   02 Jun 2027 01:19:03.672            24.961                  Delhi           780.031
        87   02 Jun 2027 01:21:04.792   02 Jun 2027 01:21:50.015            45.223                Sumatra          1413.219
        88   02 Jun 2027 01:23:34.242   02 Jun 2027 01:24:56.907            82.665                Sumatra          2583.281
        89   02 Jun 2027 01:30:36.132   02 Jun 2027 01:30:54.073            17.941                Sumatra           560.656
        90   02 Jun 2027 01:56:04.788   02 Jun 2027 01:57:29.906            85.118            RioGallegos          2659.937
        91   02 Jun 2027 02:33:26.078   02 Jun 2027 02:33:29.371             3.293                Anadyr2           102.906
        92   02 Jun 2027 02:33:34.820   02 Jun 2027 02:34:10.902            36.082                Anadyr2          1127.563
        93   02 Jun 2027 02:38:12.490   02 Jun 2027 02:39:19.819            67.329                Norilsk          2104.031
        94   02 Jun 2027 02:40:36.729   02 Jun 2027 02:42:04.109            87.380              Murmansk1          2730.625
        95   02 Jun 2027 02:42:28.506   02 Jun 2027 02:43:54.284            85.778                Novosib          2680.562
        96   02 Jun 2027 02:45:25.696   02 Jun 2027 02:45:30.066             4.370                Novosib           136.563
        97   02 Jun 2027 02:45:59.051   02 Jun 2027 02:46:23.656            24.605                Novosib           768.906
        98   02 Jun 2027 02:49:28.862   02 Jun 2027 02:51:18.884           110.022                  Delhi          3438.187
        99   02 Jun 2027 04:22:44.116   02 Jun 2027 04:23:05.865            21.749              Murmansk2           679.656
       100   02 Jun 2027 04:23:32.029   02 Jun 2027 04:24:52.335            80.306                Norilsk          2509.563
       101   02 Jun 2027 04:25:03.570   02 Jun 2027 04:25:50.379            46.809                Norilsk          1462.781
       102   02 Jun 2027 04:25:52.860   02 Jun 2027 04:26:53.751            60.891              Murmansk2          1902.844
       103   02 Jun 2027 04:27:00.338   02 Jun 2027 04:28:17.783            77.445                Novosib          2420.156
       104   02 Jun 2027 04:28:54.757   02 Jun 2027 04:30:43.600           108.843                 Moscow          3401.344
       105   02 Jun 2027 04:44:22.006   02 Jun 2027 04:47:26.363           184.357               CapeTown          5761.156
       106   02 Jun 2027 04:48:16.444   02 Jun 2027 04:49:04.184            47.740               CapeTown          1491.875
       107   02 Jun 2027 04:50:21.309   02 Jun 2027 04:50:47.484            26.175               CapeTown           817.969
       108   02 Jun 2027 04:50:57.100   02 Jun 2027 04:50:58.197             1.097               CapeTown            34.281
       109   02 Jun 2027 06:01:18.298   02 Jun 2027 06:01:54.212            35.914              Murmansk2          1122.313
       110   02 Jun 2027 07:24:14.442   02 Jun 2027 07:24:23.363             8.921                Norilsk           278.781
       111   02 Jun 2027 07:24:29.104   02 Jun 2027 07:29:02.732           273.628                Anadyr2          8550.875
       112   02 Jun 2027 07:35:44.278   02 Jun 2027 07:35:57.408            13.130                 Moscow           410.313
       113   02 Jun 2027 07:36:58.273   02 Jun 2027 07:37:14.675            16.402                 Moscow           512.563
       114   02 Jun 2027 09:00:52.899   02 Jun 2027 09:03:17.800           144.901               Magadan2          4528.156
       115   02 Jun 2027 10:35:25.097   02 Jun 2027 10:35:47.625            22.528               Magadan2           704.000
       116   02 Jun 2027 10:36:02.049   02 Jun 2027 10:36:27.386            25.337               Magadan2           791.781
       117   02 Jun 2027 10:38:22.454   02 Jun 2027 10:38:40.867            18.413                Irkutsk           575.406
       118   02 Jun 2027 10:38:52.189   02 Jun 2027 10:39:43.146            50.957                Irkutsk          1592.406
       119   02 Jun 2027 10:39:49.224   02 Jun 2027 10:40:18.601            29.377                Irkutsk           918.031
       120   02 Jun 2027 10:40:30.087   02 Jun 2027 10:40:36.756             6.669                Norilsk           208.406
       121   02 Jun 2027 11:15:03.297   02 Jun 2027 11:15:31.513            28.216            RioGallegos           881.750
       122   02 Jun 2027 11:16:03.153   02 Jun 2027 11:16:07.101             3.948            RioGallegos           123.375
       123   02 Jun 2027 11:16:28.762   02 Jun 2027 11:17:24.355            55.593            RioGallegos          1737.281
       124   02 Jun 2027 11:50:19.733   02 Jun 2027 11:50:57.619            37.886                Sumatra          1183.938
       125   02 Jun 2027 12:03:38.712   02 Jun 2027 12:04:21.748            43.036                Irkutsk          1344.875
       126   02 Jun 2027 12:05:30.824   02 Jun 2027 12:06:45.474            74.650                Irkutsk          2332.812
       127   02 Jun 2027 12:17:14.868   02 Jun 2027 12:17:18.571             3.703                Norilsk           115.719
       128   02 Jun 2027 12:17:51.422   02 Jun 2027 12:18:01.002             9.580                Norilsk           299.375
       129   02 Jun 2027 12:19:09.470   02 Jun 2027 12:19:18.206             8.736                Norilsk           273.000
       130   02 Jun 2027 12:20:37.200   02 Jun 2027 12:21:02.975            25.775                Norilsk           805.469
       131   02 Jun 2027 12:53:24.048   02 Jun 2027 12:55:25.905           121.857            RioGallegos          3808.031
       132   02 Jun 2027 13:27:25.340   02 Jun 2027 13:30:54.783           209.443                Sumatra          6545.094
       133   02 Jun 2027 13:44:19.467   02 Jun 2027 13:47:35.154           195.687                Irkutsk          6115.219
       134   02 Jun 2027 15:12:54.140   02 Jun 2027 15:14:59.102           124.962                  Delhi          3905.063
       135   02 Jun 2027 15:21:24.543   02 Jun 2027 15:25:06.576           222.033                Novosib          6938.531
       136   02 Jun 2027 16:34:59.318   02 Jun 2027 16:35:51.350            52.032               CapeTown          1626.000
       137   02 Jun 2027 16:38:06.067   02 Jun 2027 16:40:01.403           115.336               CapeTown          3604.250
       138   02 Jun 2027 16:59:15.488   02 Jun 2027 17:00:47.834            92.346              Murmansk2          2885.813
       139   02 Jun 2027 17:13:28.780   02 Jun 2027 17:14:26.433            57.653                Anadyr2          1801.656
       140   02 Jun 2027 17:14:44.146   02 Jun 2027 17:15:03.509            19.363                Anadyr1           605.094
       141   02 Jun 2027 17:15:54.781   02 Jun 2027 17:16:08.113            13.332                Anadyr2           416.625
       142   02 Jun 2027 17:16:08.113   02 Jun 2027 17:16:08.434             0.321                Anadyr1            10.031
       143   02 Jun 2027 17:16:26.682   02 Jun 2027 17:16:51.592            24.910                Anadyr2           778.437
       144   02 Jun 2027 17:19:45.758   02 Jun 2027 17:20:02.630            16.872                Anadyr2           527.250
       145   02 Jun 2027 18:08:01.210   02 Jun 2027 18:08:43.848            42.638               CapeTown          1332.437
       146   02 Jun 2027 18:13:49.356   02 Jun 2027 18:13:56.491             7.135               CapeTown           222.969
       147   02 Jun 2027 18:14:53.159   02 Jun 2027 18:15:07.951            14.792               CapeTown           462.250
       148   02 Jun 2027 18:16:47.179   02 Jun 2027 18:16:56.232             9.053               CapeTown           282.906
       149   02 Jun 2027 18:35:54.211   02 Jun 2027 18:39:14.010           199.799                 Moscow          6243.719
       150   02 Jun 2027 18:40:53.617   02 Jun 2027 18:41:59.622            66.005              Murmansk2          2062.656
       151   02 Jun 2027 18:48:40.204   02 Jun 2027 18:48:48.129             7.925                Anadyr1           247.656
       152   02 Jun 2027 18:49:07.529   02 Jun 2027 18:49:35.263            27.734                Anadyr1           866.687
       153   02 Jun 2027 18:49:47.841   02 Jun 2027 18:50:16.079            28.238                Anadyr1           882.437
       154   02 Jun 2027 18:53:41.000   02 Jun 2027 18:53:52.396            11.396               Magadan1           356.125
       155   02 Jun 2027 18:54:50.867   02 Jun 2027 18:55:12.192            21.325               Magadan1           666.406
       156   02 Jun 2027 19:45:19.374   02 Jun 2027 19:46:04.493            45.119               CapeTown          1409.969
       157   02 Jun 2027 19:48:41.057   02 Jun 2027 19:49:02.965            21.908               CapeTown           684.625
       158   02 Jun 2027 20:19:13.746   02 Jun 2027 20:21:00.368           106.622              Murmansk1          3331.938
       159   02 Jun 2027 20:25:34.793   02 Jun 2027 20:26:11.919            37.126                Anadyr1          1160.187
       160   02 Jun 2027 20:27:02.828   02 Jun 2027 20:28:42.411            99.583               Magadan2          3111.969
       161   02 Jun 2027 20:28:44.530   02 Jun 2027 20:30:16.181            91.651               Magadan1          2864.094
       162   02 Jun 2027 20:32:51.056   02 Jun 2027 20:32:59.615             8.559               Magadan1           267.469
       163   02 Jun 2027 20:33:08.057   02 Jun 2027 20:33:15.037             6.980               Magadan1           218.125
       164   02 Jun 2027 20:35:43.272   02 Jun 2027 20:36:06.882            23.610               Magadan2           737.813
       165   02 Jun 2027 22:00:27.653   02 Jun 2027 22:02:25.043           117.390                Anadyr1          3668.438
       166   02 Jun 2027 22:02:29.975   02 Jun 2027 22:04:10.851           100.876                Anadyr2          3152.375
       167   02 Jun 2027 22:04:46.289   02 Jun 2027 22:08:47.716           241.427               Magadan1          7544.594
       168   02 Jun 2027 22:12:57.364   02 Jun 2027 22:13:38.418            41.054               Magadan1          1282.937
       169   02 Jun 2027 22:54:52.887   02 Jun 2027 22:56:38.793           105.906            RioGallegos          3309.563
       170   02 Jun 2027 22:57:51.583   02 Jun 2027 22:58:16.695            25.112            RioGallegos           784.750
       171   02 Jun 2027 23:03:23.316   02 Jun 2027 23:04:19.427            56.111            RioGallegos          1753.469
       172   02 Jun 2027 23:36:04.399   02 Jun 2027 23:36:07.950             3.551                Anadyr2           110.969
       173   02 Jun 2027 23:36:07.950   02 Jun 2027 23:36:53.254            45.304                Anadyr1          1415.750
       174   02 Jun 2027 23:36:56.929   02 Jun 2027 23:37:12.643            15.714                Anadyr2           491.062
       175   02 Jun 2027 23:37:55.068   02 Jun 2027 23:38:14.675            19.607                Anadyr2           612.719
       176   02 Jun 2027 23:38:16.475   02 Jun 2027 23:39:57.269           100.794                Norilsk          3149.812
       177   02 Jun 2027 23:39:57.965   02 Jun 2027 23:40:14.836            16.871               Magadan2           527.219
       178   02 Jun 2027 23:40:24.669   02 Jun 2027 23:40:43.942            19.273               Magadan2           602.281
       179   02 Jun 2027 23:42:27.676   02 Jun 2027 23:43:16.640            48.964                Irkutsk          1530.125
       180   02 Jun 2027 23:43:54.179   02 Jun 2027 23:44:27.719            33.540                Irkutsk          1048.125
       181   02 Jun 2027 23:45:36.400   02 Jun 2027 23:46:51.640            75.240                Novosib          2351.250
       182   02 Jun 2027 23:56:13.206   02 Jun 2027 23:58:42.430           149.224                Sumatra          4663.250
       183   03 Jun 2027 00:35:54.952   03 Jun 2027 00:35:58.571             3.619            RioGallegos           113.094
       184   03 Jun 2027 00:37:51.105   03 Jun 2027 00:38:01.907            10.802            RioGallegos           337.563
       185   03 Jun 2027 00:39:12.663   03 Jun 2027 00:39:46.248            33.585            RioGallegos          1049.531
       186   03 Jun 2027 01:10:48.214   03 Jun 2027 01:11:23.256            35.042                Anadyr1          1095.063
       187   03 Jun 2027 01:11:49.129   03 Jun 2027 01:12:29.730            40.601                Anadyr1          1268.781
       188   03 Jun 2027 01:13:02.669   03 Jun 2027 01:13:04.420             1.751                Anadyr1            54.719
       189   03 Jun 2027 01:14:14.403   03 Jun 2027 01:16:07.793           113.390                Norilsk          3543.438
       190   03 Jun 2027 01:16:10.342   03 Jun 2027 01:16:22.729            12.387               Magadan1           387.094
       191   03 Jun 2027 01:17:54.558   03 Jun 2027 01:18:02.020             7.462                Norilsk           233.187
       192   03 Jun 2027 01:18:07.256   03 Jun 2027 01:20:03.295           116.039                Irkutsk          3626.219
       193   03 Jun 2027 01:20:03.545   03 Jun 2027 01:20:26.077            22.532                Novosib           704.125
       194   03 Jun 2027 01:21:14.711   03 Jun 2027 01:22:45.202            90.491                Irkutsk          2827.844
       195   03 Jun 2027 01:32:25.546   03 Jun 2027 01:32:32.004             6.458                  Delhi           201.812
       196   03 Jun 2027 01:33:12.257   03 Jun 2027 01:35:23.826           131.569                  Delhi          4111.531
       197   03 Jun 2027 02:10:05.828   03 Jun 2027 02:10:09.423             3.595            RioGallegos           112.344
       198   03 Jun 2027 02:12:12.254   03 Jun 2027 02:12:59.833            47.579            RioGallegos          1486.844
       199   03 Jun 2027 02:44:44.625   03 Jun 2027 02:45:27.482            42.857                Anadyr2          1339.281
       200   03 Jun 2027 02:50:14.249   03 Jun 2027 02:52:01.669           107.420                Norilsk          3356.875
       201   03 Jun 2027 02:52:34.161   03 Jun 2027 02:52:52.604            18.443              Murmansk2           576.344
       202   03 Jun 2027 02:53:31.992   03 Jun 2027 02:54:09.282            37.290              Murmansk1          1165.313
       203   03 Jun 2027 02:54:13.272   03 Jun 2027 02:54:21.256             7.984                Novosib           249.500
       204   03 Jun 2027 02:54:43.801   03 Jun 2027 02:55:44.429            60.628                Irkutsk          1894.625
       205   03 Jun 2027 02:56:31.438   03 Jun 2027 02:56:57.681            26.243                Irkutsk           820.094
       206   03 Jun 2027 02:57:46.174   03 Jun 2027 02:58:19.278            33.104                Irkutsk          1034.500
       207   03 Jun 2027 03:00:14.780   03 Jun 2027 03:00:18.443             3.663              Murmansk2           114.469
       208   03 Jun 2027 03:00:19.113   03 Jun 2027 03:01:02.149            43.036                Irkutsk          1344.875
       209   03 Jun 2027 03:01:12.072   03 Jun 2027 03:01:28.726            16.654              Murmansk1           520.437
       210   03 Jun 2027 03:01:39.400   03 Jun 2027 03:01:56.495            17.095                Novosib           534.219
       211   03 Jun 2027 03:02:08.294   03 Jun 2027 03:03:56.503           108.209                  Delhi          3381.531
       212   03 Jun 2027 04:35:21.218   03 Jun 2027 04:36:36.340            75.122                Norilsk          2347.562
       213   03 Jun 2027 04:36:58.539   03 Jun 2027 04:38:23.033            84.494                Novosib          2640.438
       214   03 Jun 2027 04:39:02.207   03 Jun 2027 04:39:49.274            47.067                Novosib          1470.844
       215   03 Jun 2027 04:39:56.153   03 Jun 2027 04:40:59.222            63.069                 Moscow          1970.906
       216   03 Jun 2027 04:41:16.115   03 Jun 2027 04:42:09.514            53.399                 Moscow          1668.719
       217   03 Jun 2027 04:56:02.221   03 Jun 2027 04:57:26.304            84.083               CapeTown          2627.594
       218   03 Jun 2027 04:58:59.170   03 Jun 2027 04:59:19.106            19.936               CapeTown           623.000
       219   03 Jun 2027 05:52:17.460   03 Jun 2027 05:54:08.846           111.386                Anadyr1          3480.813
       220   03 Jun 2027 05:59:49.650   03 Jun 2027 06:01:50.375           120.725                Anadyr1          3772.656
       221   03 Jun 2027 06:12:27.658   03 Jun 2027 06:13:04.047            36.389              Murmansk1          1137.156
       222   03 Jun 2027 06:32:16.956   03 Jun 2027 06:33:21.341            64.385               CapeTown          2012.031
       223   03 Jun 2027 06:36:34.800   03 Jun 2027 06:37:32.023            57.223               CapeTown          1788.219
       224   03 Jun 2027 07:33:26.011   03 Jun 2027 07:34:13.655            47.644                Anadyr1          1488.875
       225   03 Jun 2027 07:34:19.266   03 Jun 2027 07:34:19.824             0.558               Magadan2            17.437
       226   03 Jun 2027 07:34:56.542   03 Jun 2027 07:35:22.245            25.703               Magadan1           803.219
       227   03 Jun 2027 07:35:45.117   03 Jun 2027 07:36:22.866            37.749                Anadyr1          1179.656
       228   03 Jun 2027 07:36:32.530   03 Jun 2027 07:36:53.964            21.434               Magadan1           669.813
       229   03 Jun 2027 07:37:17.033   03 Jun 2027 07:37:40.731            23.698                Anadyr2           740.562
       230   03 Jun 2027 07:37:41.365   03 Jun 2027 07:37:53.510            12.145               Magadan2           379.531
       231   03 Jun 2027 07:39:05.953   03 Jun 2027 07:39:39.067            33.114                Anadyr2          1034.813
       232   03 Jun 2027 08:23:40.188   03 Jun 2027 08:24:00.950            20.762            RioGallegos           648.812
       233   03 Jun 2027 09:09:15.039   03 Jun 2027 09:10:21.242            66.203                Anadyr1          2068.844
       234   03 Jun 2027 09:10:45.262   03 Jun 2027 09:11:29.412            44.150               Magadan2          1379.688
       235   03 Jun 2027 09:11:36.533   03 Jun 2027 09:12:54.099            77.566               Magadan2          2423.937
       236   03 Jun 2027 09:13:09.153   03 Jun 2027 09:13:49.343            40.190               Magadan2          1255.938
       237   03 Jun 2027 09:14:19.704   03 Jun 2027 09:14:27.307             7.603               Magadan1           237.594
       238   03 Jun 2027 09:14:42.546   03 Jun 2027 09:16:39.046           116.500               Magadan2          3640.625
       239   03 Jun 2027 10:45:19.500   03 Jun 2027 10:47:57.685           158.185               Magadan1          4943.281
       240   03 Jun 2027 10:48:10.708   03 Jun 2027 10:48:25.883            15.175                Irkutsk           474.219
       241   03 Jun 2027 10:48:33.593   03 Jun 2027 10:48:48.325            14.732                Irkutsk           460.375
       242   03 Jun 2027 10:49:07.270   03 Jun 2027 10:49:33.669            26.399               Magadan1           824.969
       243   03 Jun 2027 10:49:33.669   03 Jun 2027 10:50:32.831            59.162               Magadan2          1848.812
       244   03 Jun 2027 10:51:00.057   03 Jun 2027 10:51:43.397            43.340                Irkutsk          1354.375
       245   03 Jun 2027 10:52:27.476   03 Jun 2027 10:52:58.403            30.927                Norilsk           966.469
       246   03 Jun 2027 11:27:07.258   03 Jun 2027 11:27:57.266            50.008            RioGallegos          1562.750
       247   03 Jun 2027 12:02:08.243   03 Jun 2027 12:04:42.405           154.162                Sumatra          4817.563
       248   03 Jun 2027 12:15:50.079   03 Jun 2027 12:15:54.758             4.679                Irkutsk           146.219
       249   03 Jun 2027 12:16:14.287   03 Jun 2027 12:16:45.861            31.574                Irkutsk           986.688
       250   03 Jun 2027 12:27:18.391   03 Jun 2027 12:27:19.192             0.801                Norilsk            25.031
       251   03 Jun 2027 12:27:36.693   03 Jun 2027 12:27:52.126            15.433                Novosib           482.281
       252   03 Jun 2027 12:30:06.015   03 Jun 2027 12:31:08.944            62.929                Norilsk          1966.531
       253   03 Jun 2027 13:07:58.255   03 Jun 2027 13:10:37.664           159.409            RioGallegos          4981.531
       254   03 Jun 2027 13:42:46.102   03 Jun 2027 13:44:51.176           125.074                Sumatra          3908.563
       255   03 Jun 2027 13:53:35.627   03 Jun 2027 13:54:17.932            42.305                Novosib          1322.031
       256   03 Jun 2027 13:56:13.928   03 Jun 2027 13:59:28.596           194.668                Irkutsk          6083.375
       257   03 Jun 2027 15:26:23.591   03 Jun 2027 15:29:41.126           197.535                  Delhi          6172.969
       258   03 Jun 2027 15:34:42.948   03 Jun 2027 15:36:50.321           127.373                Novosib          3980.406
       259   03 Jun 2027 15:37:15.551   03 Jun 2027 15:37:41.344            25.793                Norilsk           806.031
       260   03 Jun 2027 15:40:56.761   03 Jun 2027 15:41:30.604            33.843                Norilsk          1057.594
       261   03 Jun 2027 16:49:43.858   03 Jun 2027 16:51:51.249           127.391               CapeTown          3980.969
       262   03 Jun 2027 17:10:42.573   03 Jun 2027 17:11:16.828            34.255              Murmansk2          1070.469
       263   03 Jun 2027 17:13:21.922   03 Jun 2027 17:14:23.069            61.147              Murmansk1          1910.844
       264   03 Jun 2027 17:25:18.510   03 Jun 2027 17:26:27.280            68.770                Anadyr1          2149.063
       265   03 Jun 2027 17:27:53.834   03 Jun 2027 17:28:19.811            25.977                Anadyr1           811.781
       266   03 Jun 2027 18:20:01.736   03 Jun 2027 18:22:21.537           139.801               CapeTown          4368.781
       267   03 Jun 2027 18:49:29.620   03 Jun 2027 18:49:54.717            25.097              Murmansk2           784.281
       268   03 Jun 2027 18:49:57.549   03 Jun 2027 18:52:51.056           173.507              Murmansk1          5422.094
       269   03 Jun 2027 18:53:56.357   03 Jun 2027 18:54:45.558            49.201              Murmansk2          1537.531
       270   03 Jun 2027 19:04:45.604   03 Jun 2027 19:05:23.111            37.507               Magadan2          1172.094
       271   03 Jun 2027 19:06:11.013   03 Jun 2027 19:06:45.378            34.365               Magadan2          1073.906
       272   03 Jun 2027 19:08:56.192   03 Jun 2027 19:09:35.445            39.253               Magadan1          1226.656
       273   03 Jun 2027 19:57:58.317   03 Jun 2027 19:58:16.543            18.226               CapeTown           569.563
       274   03 Jun 2027 20:00:23.999   03 Jun 2027 20:01:41.222            77.223               CapeTown          2413.219
       275   03 Jun 2027 20:36:34.267   03 Jun 2027 20:38:12.977            98.710                Anadyr2          3084.688
       276   03 Jun 2027 20:38:17.551   03 Jun 2027 20:39:49.221            91.670                Anadyr1          2864.687
       277   03 Jun 2027 20:39:54.036   03 Jun 2027 20:41:06.147            72.111               Magadan1          2253.469
       278   03 Jun 2027 20:42:22.970   03 Jun 2027 20:43:42.147            79.177               Magadan2          2474.281
       279   03 Jun 2027 22:12:28.435   03 Jun 2027 22:15:50.533           202.098                Anadyr2          6315.562
       280   03 Jun 2027 22:15:56.992   03 Jun 2027 22:16:11.633            14.641                Norilsk           457.531
       281   03 Jun 2027 22:16:12.402   03 Jun 2027 22:18:27.871           135.469               Magadan1          4233.406
       282   03 Jun 2027 22:18:27.871   03 Jun 2027 22:18:33.661             5.790               Magadan2           180.938
       283   03 Jun 2027 22:19:10.817   03 Jun 2027 22:19:17.074             6.257                Norilsk           195.531
       284   03 Jun 2027 22:19:34.913   03 Jun 2027 22:20:07.929            33.016                Norilsk          1031.750
       285   03 Jun 2027 22:21:14.519   03 Jun 2027 22:22:14.201            59.682                Irkutsk          1865.063
       286   03 Jun 2027 23:06:43.406   03 Jun 2027 23:09:51.344           187.938            RioGallegos          5873.063
       287   03 Jun 2027 23:48:00.758   03 Jun 2027 23:48:42.400            41.642                Anadyr1          1301.313
       288   03 Jun 2027 23:49:53.087   03 Jun 2027 23:50:32.373            39.286                Anadyr1          1227.688
       289   03 Jun 2027 23:50:42.820   03 Jun 2027 23:51:59.414            76.594                Norilsk          2393.563
       290   03 Jun 2027 23:53:10.991   03 Jun 2027 23:53:22.316            11.325               Magadan1           353.906
       291   03 Jun 2027 23:53:31.926   03 Jun 2027 23:53:42.259            10.333                Norilsk           322.906
       292   03 Jun 2027 23:53:59.948   03 Jun 2027 23:54:27.765            27.817               Magadan2           869.281
       293   03 Jun 2027 23:55:20.158   03 Jun 2027 23:56:11.863            51.705               Magadan1          1615.781
       294   03 Jun 2027 23:56:21.842   03 Jun 2027 23:56:49.225            27.383                Irkutsk           855.719
       295   03 Jun 2027 23:56:59.425   03 Jun 2027 23:58:11.516            72.091                Novosib          2252.844
       296   04 Jun 2027 00:01:57.581   04 Jun 2027 00:02:33.634            36.053                Novosib          1126.656
       297   04 Jun 2027 00:08:04.781   04 Jun 2027 00:10:19.049           134.268                Sumatra          4195.875
       298   04 Jun 2027 00:47:59.397   04 Jun 2027 00:48:12.244            12.847            RioGallegos           401.469
       299   04 Jun 2027 00:49:21.718   04 Jun 2027 00:49:57.429            35.711            RioGallegos          1115.969
       300   04 Jun 2027 00:53:56.929   04 Jun 2027 00:54:53.875            56.946            RioGallegos          1779.562
       301   04 Jun 2027 01:23:19.573   04 Jun 2027 01:23:49.602            30.029                Anadyr1           938.406
       302   04 Jun 2027 01:24:31.071   04 Jun 2027 01:24:46.183            15.112                Anadyr1           472.250
       303   04 Jun 2027 01:26:16.771   04 Jun 2027 01:27:59.357           102.586                Norilsk          3205.812
       304   04 Jun 2027 01:28:03.001   04 Jun 2027 01:28:32.623            29.622               Magadan1           925.688
       305   04 Jun 2027 01:30:01.800   04 Jun 2027 01:30:04.265             2.465                Norilsk            77.031
       306   04 Jun 2027 01:30:10.975   04 Jun 2027 01:32:03.689           112.714                Irkutsk          3522.312
       307   04 Jun 2027 01:32:57.395   04 Jun 2027 01:33:25.101            27.706                Novosib           865.812
       308   04 Jun 2027 01:33:58.397   04 Jun 2027 01:35:13.771            75.374                Irkutsk          2355.437
       309   04 Jun 2027 01:44:46.196   04 Jun 2027 01:45:13.308            27.112                  Delhi           847.250
       310   04 Jun 2027 01:47:01.276   04 Jun 2027 01:48:39.419            98.143                Sumatra          3066.969
       311   04 Jun 2027 02:20:15.515   04 Jun 2027 02:21:28.558            73.043            RioGallegos          2282.594
       312   04 Jun 2027 02:25:49.126   04 Jun 2027 02:27:39.558           110.432            RioGallegos          3451.000
       313   04 Jun 2027 03:07:51.113   04 Jun 2027 03:09:36.099           104.986              Murmansk1          3280.813
       314   04 Jun 2027 03:09:43.071   04 Jun 2027 03:10:19.452            36.381              Murmansk2          1136.906
       315   04 Jun 2027 03:10:35.143   04 Jun 2027 03:10:40.915             5.772                 Moscow           180.375
       316   04 Jun 2027 03:10:44.077   04 Jun 2027 03:11:06.344            22.267                Norilsk           695.844
       317   04 Jun 2027 03:11:09.243   04 Jun 2027 03:11:25.806            16.563                 Moscow           517.594
       318   04 Jun 2027 03:11:38.780   04 Jun 2027 03:11:57.886            19.106              Murmansk1           597.062
       319   04 Jun 2027 03:11:58.068   04 Jun 2027 03:12:06.258             8.190                 Moscow           255.937
       320   04 Jun 2027 03:12:06.539   04 Jun 2027 03:12:14.908             8.369                Novosib           261.531
       321   04 Jun 2027 03:12:16.017   04 Jun 2027 03:12:27.613            11.596                Irkutsk           362.375
       322   04 Jun 2027 03:12:33.419   04 Jun 2027 03:13:26.521            53.102              Murmansk2          1659.438
       323   04 Jun 2027 03:13:57.649   04 Jun 2027 03:15:34.548            96.899                  Delhi          3028.094
       324   04 Jun 2027 04:48:43.966   04 Jun 2027 04:49:43.478            59.512                Novosib          1859.750
       325   04 Jun 2027 04:49:50.324   04 Jun 2027 04:50:02.034            11.710                Norilsk           365.937
       326   04 Jun 2027 04:50:40.781   04 Jun 2027 04:50:53.781            13.000                 Moscow           406.250
       327   04 Jun 2027 04:50:57.004   04 Jun 2027 04:51:17.825            20.821                Novosib           650.656
       328   04 Jun 2027 04:51:34.646   04 Jun 2027 04:51:42.625             7.979                 Moscow           249.344
       329   04 Jun 2027 04:51:44.876   04 Jun 2027 04:51:54.909            10.033                 Moscow           313.531
       330   04 Jun 2027 04:52:03.479   04 Jun 2027 04:53:02.026            58.547                 Moscow          1829.594
       331   04 Jun 2027 05:07:48.002   04 Jun 2027 05:09:45.005           117.003               CapeTown          3656.344
       332   04 Jun 2027 06:04:15.924   04 Jun 2027 06:06:36.148           140.224                Anadyr2          4382.000
       333   04 Jun 2027 06:11:16.041   04 Jun 2027 06:12:35.342            79.301                Anadyr2          2478.156
       334   04 Jun 2027 06:23:19.811   04 Jun 2027 06:23:31.952            12.141                 Moscow           379.406
       335   04 Jun 2027 06:44:48.917   04 Jun 2027 06:45:26.885            37.968               CapeTown          1186.500
       336   04 Jun 2027 06:48:25.684   04 Jun 2027 06:49:51.798            86.114               CapeTown          2691.062
       337   04 Jun 2027 07:45:06.982   04 Jun 2027 07:45:26.699            19.717                Anadyr1           616.156
       338   04 Jun 2027 07:46:08.557   04 Jun 2027 07:46:14.699             6.142               Magadan1           191.937
       339   04 Jun 2027 07:46:25.150   04 Jun 2027 07:47:11.218            46.068                Anadyr1          1439.625
       340   04 Jun 2027 07:47:26.168   04 Jun 2027 07:48:31.732            65.564               Magadan2          2048.875
       341   04 Jun 2027 07:48:56.935   04 Jun 2027 07:49:04.598             7.663               Magadan1           239.469
       342   04 Jun 2027 07:49:18.270   04 Jun 2027 07:50:09.401            51.131                Anadyr1          1597.844
       343   04 Jun 2027 08:32:41.531   04 Jun 2027 08:33:08.587            27.056            RioGallegos           845.500
       344   04 Jun 2027 09:20:30.694   04 Jun 2027 09:21:13.853            43.159                Anadyr1          1348.719
       345   04 Jun 2027 09:21:48.727   04 Jun 2027 09:22:23.443            34.716               Magadan2          1084.875
       346   04 Jun 2027 09:22:43.246   04 Jun 2027 09:23:20.271            37.025               Magadan2          1157.031
       347   04 Jun 2027 09:23:27.084   04 Jun 2027 09:24:54.859            87.775               Magadan2          2742.969
       348   04 Jun 2027 09:25:25.969   04 Jun 2027 09:25:35.812             9.843               Magadan1           307.594
       349   04 Jun 2027 09:26:04.200   04 Jun 2027 09:26:14.829            10.629               Magadan2           332.156
       350   04 Jun 2027 09:26:14.829   04 Jun 2027 09:26:44.899            30.070               Magadan1           939.688
       351   04 Jun 2027 09:26:58.835   04 Jun 2027 09:28:16.217            77.382                Anadyr1          2418.187
       352   04 Jun 2027 11:00:18.253   04 Jun 2027 11:00:32.144            13.891                Irkutsk           434.094
       353   04 Jun 2027 11:01:12.083   04 Jun 2027 11:01:31.928            19.845                Norilsk           620.156
       354   04 Jun 2027 11:01:35.390   04 Jun 2027 11:01:54.242            18.852                Irkutsk           589.125
       355   04 Jun 2027 11:01:56.619   04 Jun 2027 11:02:04.959             8.340                Norilsk           260.625
       356   04 Jun 2027 11:02:25.317   04 Jun 2027 11:02:29.198             3.881                Irkutsk           121.281
       357   04 Jun 2027 11:02:31.269   04 Jun 2027 11:02:42.567            11.298               Magadan2           353.062
       358   04 Jun 2027 11:02:45.548   04 Jun 2027 11:03:22.956            37.408                Norilsk          1169.000
       359   04 Jun 2027 11:03:35.472   04 Jun 2027 11:04:11.912            36.440                Irkutsk          1138.750
       360   04 Jun 2027 11:04:23.311   04 Jun 2027 11:05:16.045            52.734                Norilsk          1647.938
       361   04 Jun 2027 11:39:14.741   04 Jun 2027 11:39:57.251            42.510            RioGallegos          1328.438
       362   04 Jun 2027 12:14:02.767   04 Jun 2027 12:15:29.337            86.570                Sumatra          2705.312
       363   04 Jun 2027 12:28:05.285   04 Jun 2027 12:29:28.554            83.269                Irkutsk          2602.156
       364   04 Jun 2027 12:30:17.875   04 Jun 2027 12:31:10.247            52.372                Novosib          1636.625
       365   04 Jun 2027 12:37:44.253   04 Jun 2027 12:38:15.291            31.038                Norilsk           969.938
       366   04 Jun 2027 13:18:46.594   04 Jun 2027 13:19:55.208            68.614            RioGallegos          2144.188
       367   04 Jun 2027 13:23:11.189   04 Jun 2027 13:23:15.880             4.691            RioGallegos           146.594
       368   04 Jun 2027 13:25:47.114   04 Jun 2027 13:26:10.815            23.701            RioGallegos           740.656
       369   04 Jun 2027 13:54:01.397   04 Jun 2027 13:57:34.940           213.543                Sumatra          6673.219
       370   04 Jun 2027 14:08:06.905   04 Jun 2027 14:08:25.488            18.583                Novosib           580.719
       371   04 Jun 2027 14:09:58.497   04 Jun 2027 14:12:19.354           140.857                Irkutsk          4401.781
       372   04 Jun 2027 15:42:39.468   04 Jun 2027 15:44:53.520           134.052                 Moscow          4189.125
       373   04 Jun 2027 15:45:14.262   04 Jun 2027 15:45:55.378            41.116                 Moscow          1284.875
       374   04 Jun 2027 15:46:03.260   04 Jun 2027 15:47:08.392            65.132              Murmansk2          2035.375
       375   04 Jun 2027 15:48:08.890   04 Jun 2027 15:48:27.221            18.331              Murmansk1           572.844
       376   04 Jun 2027 15:49:37.961   04 Jun 2027 15:50:48.234            70.273                Norilsk          2196.031
       377   04 Jun 2027 15:52:12.250   04 Jun 2027 15:53:22.237            69.987                Norilsk          2187.094
       378   04 Jun 2027 15:54:17.844   04 Jun 2027 15:54:26.364             8.520                Norilsk           266.250
       379   04 Jun 2027 16:57:30.306   04 Jun 2027 16:58:27.435            57.129               CapeTown          1785.281
       380   04 Jun 2027 17:03:44.770   04 Jun 2027 17:04:24.544            39.774               CapeTown          1242.938
       381   04 Jun 2027 17:19:43.643   04 Jun 2027 17:20:38.679            55.036                 Moscow          1719.875
       382   04 Jun 2027 17:22:58.040   04 Jun 2027 17:24:09.963            71.923              Murmansk1          2247.594
       383   04 Jun 2027 17:25:23.889   04 Jun 2027 17:26:52.736            88.847              Murmansk1          2776.469
       384   04 Jun 2027 17:37:11.229   04 Jun 2027 17:37:50.516            39.287                Anadyr1          1227.719
       385   04 Jun 2027 17:39:33.779   04 Jun 2027 17:40:10.663            36.884                Anadyr2          1152.625
       386   04 Jun 2027 18:32:05.046   04 Jun 2027 18:34:12.352           127.306               CapeTown          3978.312
       387   04 Jun 2027 19:02:04.486   04 Jun 2027 19:06:26.670           262.184              Murmansk2          8193.250
       388   04 Jun 2027 19:16:17.504   04 Jun 2027 19:17:06.709            49.205               Magadan1          1537.656
       389   04 Jun 2027 19:17:35.508   04 Jun 2027 19:18:36.812            61.304               Magadan2          1915.750
       390   04 Jun 2027 20:12:01.082   04 Jun 2027 20:12:43.335            42.253               CapeTown          1320.406
       391   04 Jun 2027 20:13:34.737   04 Jun 2027 20:14:08.545            33.808               CapeTown          1056.500
       392   04 Jun 2027 20:48:36.073   04 Jun 2027 20:51:47.040           190.967                Anadyr2          5967.719
       393   04 Jun 2027 20:52:01.799   04 Jun 2027 20:53:25.454            83.655               Magadan2          2614.219
       394   04 Jun 2027 20:53:47.076   04 Jun 2027 20:53:52.537             5.461               Magadan2           170.656
       395   04 Jun 2027 20:53:55.735   04 Jun 2027 20:53:56.168             0.433                Anadyr2            13.531
       396   04 Jun 2027 20:54:23.706   04 Jun 2027 20:55:11.381            47.675               Magadan2          1489.844
       397   04 Jun 2027 22:24:28.888   04 Jun 2027 22:28:10.146           221.258                Anadyr2          6914.313
       398   04 Jun 2027 22:28:13.542   04 Jun 2027 22:30:16.147           122.605                Norilsk          3831.406
       399   04 Jun 2027 22:30:26.279   04 Jun 2027 22:30:30.312             4.033               Magadan1           126.031
       400   04 Jun 2027 22:30:51.809   04 Jun 2027 22:31:59.088            67.279               Magadan1          2102.469
       401   04 Jun 2027 22:32:42.145   04 Jun 2027 22:32:55.153            13.008               Magadan2           406.500
       402   04 Jun 2027 22:33:07.427   04 Jun 2027 22:33:44.136            36.709                Irkutsk          1147.156
       403   04 Jun 2027 22:34:19.758   04 Jun 2027 22:35:03.085            43.327                Irkutsk          1353.969
       404   04 Jun 2027 22:49:04.816   04 Jun 2027 22:49:43.302            38.486                Sumatra          1202.688
       405   04 Jun 2027 22:51:27.452   04 Jun 2027 22:52:13.031            45.579                Sumatra          1424.344
       406   04 Jun 2027 23:18:36.435   04 Jun 2027 23:19:08.671            32.236            RioGallegos          1007.375
       407   04 Jun 2027 23:26:46.980   04 Jun 2027 23:27:41.080            54.100            RioGallegos          1690.625
       408   04 Jun 2027 23:59:56.186   05 Jun 2027 00:00:30.236            34.050                Anadyr2          1064.063
       409   05 Jun 2027 00:00:37.526   05 Jun 2027 00:01:51.692            74.166                Anadyr1          2317.688
       410   05 Jun 2027 00:02:19.075   05 Jun 2027 00:04:01.602           102.527                Norilsk          3203.969
       411   05 Jun 2027 00:04:07.037   05 Jun 2027 00:04:11.661             4.624               Magadan1           144.500
       412   05 Jun 2027 00:04:18.322   05 Jun 2027 00:04:29.000            10.678               Magadan1           333.687
       413   05 Jun 2027 00:06:20.028   05 Jun 2027 00:07:26.017            65.989                Irkutsk          2062.156
       414   05 Jun 2027 00:09:30.144   05 Jun 2027 00:09:59.755            29.611                Irkutsk           925.344
       415   05 Jun 2027 00:10:27.545   05 Jun 2027 00:11:03.325            35.780                Novosib          1118.125
       416   05 Jun 2027 00:12:54.515   05 Jun 2027 00:13:36.764            42.249                Novosib          1320.281
       417   05 Jun 2027 00:20:02.178   05 Jun 2027 00:20:52.276            50.098                Sumatra          1565.563
       418   05 Jun 2027 00:22:18.418   05 Jun 2027 00:22:44.834            26.416                Sumatra           825.500
       419   05 Jun 2027 00:28:51.400   05 Jun 2027 00:29:36.832            45.432                Sumatra          1419.750
       420   05 Jun 2027 00:54:25.052   05 Jun 2027 00:54:58.285            33.233            RioGallegos          1038.531
       421   05 Jun 2027 01:00:01.196   05 Jun 2027 01:00:26.201            25.005            RioGallegos           781.406
       422   05 Jun 2027 01:05:04.517   05 Jun 2027 01:05:45.837            41.320            RioGallegos          1291.250
       423   05 Jun 2027 01:34:34.090   05 Jun 2027 01:35:14.480            40.390                Anadyr1          1262.187
       424   05 Jun 2027 01:35:58.814   05 Jun 2027 01:36:28.589            29.775                Anadyr1           930.469
       425   05 Jun 2027 01:36:57.206   05 Jun 2027 01:37:14.570            17.364                Anadyr2           542.625
       426   05 Jun 2027 01:38:19.119   05 Jun 2027 01:39:47.983            88.864                Norilsk          2777.000
       427   05 Jun 2027 01:40:00.260   05 Jun 2027 01:40:13.108            12.848               Magadan2           401.500
       428   05 Jun 2027 01:41:12.576   05 Jun 2027 01:41:21.011             8.435               Magadan1           263.594
       429   05 Jun 2027 01:41:58.326   05 Jun 2027 01:43:13.425            75.099              Murmansk2          2346.844
       430   05 Jun 2027 01:43:17.422   05 Jun 2027 01:44:05.018            47.596                Irkutsk          1487.375
       431   05 Jun 2027 01:45:55.556   05 Jun 2027 01:46:52.226            56.670                Novosib          1770.937
       432   05 Jun 2027 01:49:37.985   05 Jun 2027 01:50:28.338            50.353                  Delhi          1573.531
       433   05 Jun 2027 01:59:55.391   05 Jun 2027 02:01:18.735            83.344                  Delhi          2604.500
       434   05 Jun 2027 02:32:02.905   05 Jun 2027 02:33:42.636            99.731            RioGallegos          3116.594
       435   05 Jun 2027 02:37:13.699   05 Jun 2027 02:37:54.292            40.593            RioGallegos          1268.531
       436   05 Jun 2027 03:20:26.820   05 Jun 2027 03:20:39.363            12.543                Irkutsk           391.969
       437   05 Jun 2027 03:22:18.115   05 Jun 2027 03:23:47.450            89.335                Irkutsk          2791.719
       438   05 Jun 2027 03:23:58.416   05 Jun 2027 03:25:40.101           101.685                Novosib          3177.656
       439   05 Jun 2027 03:26:19.883   05 Jun 2027 03:29:01.182           161.299                  Delhi          5040.594
       440   05 Jun 2027 05:00:03.053   05 Jun 2027 05:00:17.514            14.461                 Moscow           451.906
       441   05 Jun 2027 05:00:20.050   05 Jun 2027 05:00:51.861            31.811                Novosib           994.094
       442   05 Jun 2027 05:01:32.408   05 Jun 2027 05:02:37.445            65.037                 Moscow          2032.406
       443   05 Jun 2027 05:02:38.071   05 Jun 2027 05:02:43.276             5.205                Novosib           162.656
       444   05 Jun 2027 05:03:54.282   05 Jun 2027 05:04:20.931            26.649                 Moscow           832.781
       445   05 Jun 2027 05:04:39.571   05 Jun 2027 05:04:51.223            11.652                 Moscow           364.125
       446   05 Jun 2027 05:05:09.691   05 Jun 2027 05:05:15.711             6.020                 Moscow           188.125
       447   05 Jun 2027 05:08:09.722   05 Jun 2027 05:08:29.941            20.219                 Moscow           631.844
       448   05 Jun 2027 05:19:39.005   05 Jun 2027 05:22:10.678           151.673               CapeTown          4739.781
       449   05 Jun 2027 06:22:42.784   05 Jun 2027 06:23:23.016            40.232                Anadyr2          1257.250
       450   05 Jun 2027 06:23:23.016   05 Jun 2027 06:24:07.215            44.199                Anadyr1          1381.219
       451   05 Jun 2027 06:24:21.957   05 Jun 2027 06:24:40.423            18.466               Magadan2           577.063
       452   05 Jun 2027 06:24:56.827   05 Jun 2027 06:25:24.297            27.470                Anadyr1           858.438
       453   05 Jun 2027 06:25:52.154   05 Jun 2027 06:26:18.936            26.782                Anadyr2           836.937
       454   05 Jun 2027 06:26:18.936   05 Jun 2027 06:27:07.031            48.095                Anadyr1          1502.969
       455   05 Jun 2027 06:35:46.767   05 Jun 2027 06:36:47.393            60.626                 Moscow          1894.563
       456   05 Jun 2027 06:57:31.312   05 Jun 2027 06:57:37.834             6.522               CapeTown           203.812
       457   05 Jun 2027 06:59:31.409   05 Jun 2027 07:00:30.101            58.692               CapeTown          1834.125
       458   05 Jun 2027 07:57:05.318   05 Jun 2027 07:58:00.042            54.724               Magadan1          1710.125
       459   05 Jun 2027 07:58:39.022   05 Jun 2027 07:59:10.225            31.203                Anadyr1           975.094
       460   05 Jun 2027 07:59:32.706   05 Jun 2027 08:00:30.186            57.480               Magadan2          1796.250
       461   05 Jun 2027 08:00:35.113   05 Jun 2027 08:00:47.162            12.049               Magadan1           376.531
       462   05 Jun 2027 08:00:59.760   05 Jun 2027 08:01:27.695            27.935               Magadan2           872.969
       463   05 Jun 2027 08:01:32.913   05 Jun 2027 08:02:42.757            69.844               Magadan2          2182.625
       464   05 Jun 2027 09:31:59.504   05 Jun 2027 09:33:06.504            67.000               Magadan2          2093.750
       465   05 Jun 2027 09:33:19.510   05 Jun 2027 09:33:40.464            20.954                Anadyr1           654.813
       466   05 Jun 2027 09:33:59.965   05 Jun 2027 09:34:40.195            40.230               Magadan1          1257.188
       467   05 Jun 2027 09:34:56.747   05 Jun 2027 09:35:27.171            30.424               Magadan2           950.750
       468   05 Jun 2027 09:36:55.104   05 Jun 2027 09:38:00.143            65.039               Magadan1          2032.469
       469   05 Jun 2027 09:38:08.203   05 Jun 2027 09:38:23.331            15.128               Magadan2           472.750
       470   05 Jun 2027 09:38:45.353   05 Jun 2027 09:39:00.071            14.718                Anadyr1           459.938
       471   05 Jun 2027 09:39:14.606   05 Jun 2027 09:39:29.868            15.262               Magadan1           476.938
       472   05 Jun 2027 09:39:48.810   05 Jun 2027 09:39:57.271             8.461                Irkutsk           264.406
       473   05 Jun 2027 09:40:05.040   05 Jun 2027 09:40:05.587             0.547                Norilsk            17.094
       474   05 Jun 2027 10:15:49.228   05 Jun 2027 10:16:15.274            26.046            RioGallegos           813.937
       475   05 Jun 2027 10:16:50.959   05 Jun 2027 10:16:55.121             4.162            RioGallegos           130.062
       476   05 Jun 2027 10:17:49.359   05 Jun 2027 10:18:20.583            31.224            RioGallegos           975.750
       477   05 Jun 2027 10:25:11.242   05 Jun 2027 10:25:13.579             2.337            RioGallegos            73.031
       478   05 Jun 2027 10:54:01.341   05 Jun 2027 10:54:53.427            52.086                Sumatra          1627.687
       479   05 Jun 2027 11:12:02.198   05 Jun 2027 11:12:37.560            35.362                Irkutsk          1105.063
       480   05 Jun 2027 11:12:46.896   05 Jun 2027 11:14:28.729           101.833               Magadan1          3182.281
       481   05 Jun 2027 11:14:57.530   05 Jun 2027 11:15:35.500            37.970                Novosib          1186.562
       482   05 Jun 2027 11:15:39.685   05 Jun 2027 11:16:02.957            23.272                Norilsk           727.250
