uniorb/output/strategy_4/Drop/Drop_KinoSat_110804.txt

KinoSat_110804
-------------------------
    Access    *     Start Time (UTCG)     *     Stop Time (UTCG)  *   Duration (s)        *       Station  *  Data (Mbytes)
         1   01 Jun 2027 03:45:56.590   01 Jun 2027 03:47:11.439            74.849               Magadan1          2339.031
         2   01 Jun 2027 03:47:22.828   01 Jun 2027 03:47:58.178            35.350               Magadan1          1104.687
         3   01 Jun 2027 03:47:58.744   01 Jun 2027 03:48:11.890            13.146                Anadyr1           410.812
         4   01 Jun 2027 03:48:20.640   01 Jun 2027 03:49:20.654            60.014                Anadyr1          1875.438
         5   01 Jun 2027 03:49:27.846   01 Jun 2027 03:51:30.541           122.695               Magadan1          3834.219
         6   01 Jun 2027 05:21:09.431   01 Jun 2027 05:24:12.269           182.838                Anadyr2          5713.688
         7   01 Jun 2027 05:24:30.062   01 Jun 2027 05:24:39.625             9.563               Magadan1           298.844
         8   01 Jun 2027 05:24:57.087   01 Jun 2027 05:25:24.651            27.564                Irkutsk           861.375
         9   01 Jun 2027 05:25:32.118   01 Jun 2027 05:26:24.241            52.123                Irkutsk          1628.844
        10   01 Jun 2027 05:26:28.945   01 Jun 2027 05:27:22.158            53.213               Magadan2          1662.906
        11   01 Jun 2027 06:02:59.070   01 Jun 2027 06:04:04.737            65.667            RioGallegos          2052.094
        12   01 Jun 2027 06:04:49.699   01 Jun 2027 06:05:19.814            30.115            RioGallegos           941.094
        13   01 Jun 2027 06:50:48.021   01 Jun 2027 06:51:23.605            35.584                Irkutsk          1112.000
        14   01 Jun 2027 06:57:25.154   01 Jun 2027 06:57:57.071            31.917                Novosib           997.406
        15   01 Jun 2027 06:58:21.032   01 Jun 2027 07:03:09.745           288.713                Irkutsk          9022.281
        16   01 Jun 2027 08:12:49.645   01 Jun 2027 08:13:56.472            66.827                Sumatra          2088.344
        17   01 Jun 2027 08:15:22.080   01 Jun 2027 08:16:16.833            54.753                Sumatra          1711.031
        18   01 Jun 2027 08:23:55.289   01 Jun 2027 08:24:20.479            25.190                  Delhi           787.187
        19   01 Jun 2027 08:25:03.624   01 Jun 2027 08:26:10.708            67.084                  Delhi          2096.375
        20   01 Jun 2027 08:35:03.357   01 Jun 2027 08:36:07.910            64.553                Irkutsk          2017.281
        21   01 Jun 2027 08:36:12.703   01 Jun 2027 08:36:20.207             7.504              Murmansk1           234.500
        22   01 Jun 2027 08:36:32.280   01 Jun 2027 08:38:06.864            94.584                Novosib          2955.750
        23   01 Jun 2027 08:38:12.098   01 Jun 2027 08:40:32.277           140.179              Murmansk1          4380.594
        24   01 Jun 2027 08:40:34.416   01 Jun 2027 08:40:41.885             7.469                Novosib           233.406
        25   01 Jun 2027 08:42:27.127   01 Jun 2027 08:42:37.928            10.801              Murmansk1           337.531
        26   01 Jun 2027 08:43:33.849   01 Jun 2027 08:43:53.971            20.122              Murmansk1           628.812
        27   01 Jun 2027 09:16:58.370   01 Jun 2027 09:17:42.702            44.332            RioGallegos          1385.375
        28   01 Jun 2027 09:18:20.856   01 Jun 2027 09:19:28.180            67.324            RioGallegos          2103.875
        29   01 Jun 2027 09:51:34.482   01 Jun 2027 09:52:17.757            43.275                Sumatra          1352.344
        30   01 Jun 2027 09:53:08.385   01 Jun 2027 09:54:55.900           107.515                Sumatra          3359.844
        31   01 Jun 2027 10:13:20.168   01 Jun 2027 10:14:07.825            47.657                 Moscow          1489.281
        32   01 Jun 2027 10:14:14.561   01 Jun 2027 10:15:19.264            64.703                Novosib          2021.969
        33   01 Jun 2027 10:15:29.735   01 Jun 2027 10:16:24.959            55.224              Murmansk2          1725.750
        34   01 Jun 2027 10:16:52.659   01 Jun 2027 10:17:08.440            15.781                 Moscow           493.156
        35   01 Jun 2027 10:18:52.428   01 Jun 2027 10:19:01.623             9.195              Murmansk1           287.344
        36   01 Jun 2027 11:38:12.781   01 Jun 2027 11:40:13.694           120.913                  Delhi          3778.531
        37   01 Jun 2027 11:45:49.290   01 Jun 2027 11:46:23.470            34.180              Murmansk1          1068.125
        38   01 Jun 2027 11:46:23.470   01 Jun 2027 11:47:02.310            38.840              Murmansk2          1213.750
        39   01 Jun 2027 11:47:12.296   01 Jun 2027 11:51:33.689           261.393                 Moscow          8168.531
        40   01 Jun 2027 11:51:37.572   01 Jun 2027 11:52:05.402            27.830              Murmansk1           869.688
        41   01 Jun 2027 11:52:19.382   01 Jun 2027 11:52:51.863            32.481              Murmansk2          1015.031
        42   01 Jun 2027 11:57:29.808   01 Jun 2027 11:57:43.359            13.551              Murmansk1           423.469
        43   01 Jun 2027 12:56:36.257   01 Jun 2027 12:59:33.823           177.566               CapeTown          5548.938
        44   01 Jun 2027 13:03:08.350   01 Jun 2027 13:04:15.902            67.552               CapeTown          2111.000
        45   01 Jun 2027 13:21:33.089   01 Jun 2027 13:22:21.050            47.961              Murmansk1          1498.781
        46   01 Jun 2027 13:22:31.125   01 Jun 2027 13:24:05.776            94.651              Murmansk2          2957.844
        47   01 Jun 2027 13:25:20.854   01 Jun 2027 13:25:47.807            26.953              Murmansk2           842.281
        48   01 Jun 2027 13:31:16.190   01 Jun 2027 13:31:41.479            25.289              Murmansk1           790.281
        49   01 Jun 2027 13:31:55.844   01 Jun 2027 13:32:31.617            35.773              Murmansk1          1117.906
        50   01 Jun 2027 13:33:13.735   01 Jun 2027 13:33:41.477            27.742              Murmansk1           866.937
        51   01 Jun 2027 13:36:02.376   01 Jun 2027 13:39:53.779           231.403                Anadyr1          7231.344
        52   01 Jun 2027 13:40:42.041   01 Jun 2027 13:43:04.564           142.523                Anadyr2          4453.844
        53   01 Jun 2027 15:00:29.035   01 Jun 2027 15:01:32.948            63.913              Murmansk2          1997.281
        54   01 Jun 2027 15:03:44.472   01 Jun 2027 15:04:09.273            24.801              Murmansk2           775.031
        55   01 Jun 2027 15:04:59.032   01 Jun 2027 15:05:03.746             4.714              Murmansk1           147.313
        56   01 Jun 2027 15:05:24.648   01 Jun 2027 15:06:09.818            45.170              Murmansk2          1411.562
        57   01 Jun 2027 15:06:27.396   01 Jun 2027 15:06:33.835             6.439              Murmansk1           201.219
        58   01 Jun 2027 15:07:14.467   01 Jun 2027 15:09:11.100           116.633              Murmansk2          3644.781
        59   01 Jun 2027 15:11:25.610   01 Jun 2027 15:12:29.390            63.780                Anadyr1          1993.125
        60   01 Jun 2027 15:15:21.728   01 Jun 2027 15:18:34.930           193.202               Magadan2          6037.562
        61   01 Jun 2027 15:18:51.587   01 Jun 2027 15:21:24.701           153.114               Magadan1          4784.812
        62   01 Jun 2027 16:47:18.822   01 Jun 2027 16:48:01.865            43.043                Anadyr1          1345.094
        63   01 Jun 2027 16:48:29.619   01 Jun 2027 16:48:49.423            19.804                Anadyr1           618.875
        64   01 Jun 2027 16:48:49.423   01 Jun 2027 16:48:54.398             4.975                Anadyr2           155.469
        65   01 Jun 2027 16:49:44.460   01 Jun 2027 16:51:46.934           122.474               Magadan1          3827.312
        66   01 Jun 2027 16:51:58.953   01 Jun 2027 16:52:34.000            35.047               Magadan2          1095.219
        67   01 Jun 2027 16:52:43.557   01 Jun 2027 16:52:53.005             9.448               Magadan2           295.250
        68   01 Jun 2027 16:53:48.263   01 Jun 2027 16:54:27.325            39.062               Magadan1          1220.687
        69   01 Jun 2027 16:57:24.340   01 Jun 2027 16:57:50.344            26.004               Magadan1           812.625
        70   01 Jun 2027 16:58:03.506   01 Jun 2027 16:59:17.448            73.942               Magadan2          2310.687
        71   01 Jun 2027 18:23:11.491   01 Jun 2027 18:24:45.944            94.453                Anadyr2          2951.656
        72   01 Jun 2027 18:24:55.801   01 Jun 2027 18:26:01.804            66.003                Anadyr1          2062.594
        73   01 Jun 2027 18:26:05.695   01 Jun 2027 18:27:06.780            61.085                Anadyr1          1908.906
        74   01 Jun 2027 18:27:34.178   01 Jun 2027 18:29:27.985           113.807                Norilsk          3556.469
        75   01 Jun 2027 18:30:50.864   01 Jun 2027 18:31:25.435            34.571                Norilsk          1080.344
        76   01 Jun 2027 18:31:38.160   01 Jun 2027 18:34:13.670           155.510                Irkutsk          4859.688
        77   01 Jun 2027 18:35:01.893   01 Jun 2027 18:36:38.256            96.363                Irkutsk          3011.344
        78   01 Jun 2027 19:20:20.148   01 Jun 2027 19:20:21.779             1.631            RioGallegos            50.969
        79   01 Jun 2027 20:01:03.909   01 Jun 2027 20:02:42.332            98.423                Norilsk          3075.719
        80   01 Jun 2027 20:05:06.535   01 Jun 2027 20:07:00.106           113.571                Irkutsk          3549.094
        81   01 Jun 2027 20:07:48.932   01 Jun 2027 20:12:43.001           294.069                Novosib          9189.656
        82   01 Jun 2027 20:20:59.017   01 Jun 2027 20:21:07.451             8.434                Sumatra           263.562
        83   01 Jun 2027 20:28:44.604   01 Jun 2027 20:28:50.680             6.076                Sumatra           189.875
        84   01 Jun 2027 21:37:38.397   01 Jun 2027 21:38:37.184            58.787               Magadan2          1837.094
        85   01 Jun 2027 21:40:55.965   01 Jun 2027 21:41:03.385             7.420                Irkutsk           231.875
        86   01 Jun 2027 21:41:09.396   01 Jun 2027 21:42:56.101           106.705                Novosib          3334.531
        87   01 Jun 2027 21:46:39.029   01 Jun 2027 21:47:15.998            36.969                Irkutsk          1155.281
        88   01 Jun 2027 21:48:27.621   01 Jun 2027 21:52:21.695           234.074                  Delhi          7314.812
        89   01 Jun 2027 23:08:45.547   01 Jun 2027 23:09:15.516            29.969                Anadyr1           936.531
        90   01 Jun 2027 23:09:20.359   01 Jun 2027 23:09:20.491             0.132                Anadyr1             4.125
        91   01 Jun 2027 23:12:07.454   01 Jun 2027 23:12:26.744            19.290                Anadyr2           602.812
        92   01 Jun 2027 23:12:44.103   01 Jun 2027 23:13:17.150            33.047               Magadan2          1032.719
        93   01 Jun 2027 23:13:21.437   01 Jun 2027 23:14:27.815            66.378               Magadan1          2074.313
        94   01 Jun 2027 23:15:18.734   01 Jun 2027 23:17:16.623           117.889              Murmansk1          3684.031
        95   01 Jun 2027 23:18:05.130   01 Jun 2027 23:19:25.077            79.947              Murmansk2          2498.344
        96   01 Jun 2027 23:19:37.062   01 Jun 2027 23:23:07.444           210.382                 Moscow          6574.437
        97   01 Jun 2027 23:48:03.966   01 Jun 2027 23:48:50.992            47.026               CapeTown          1469.563
        98   01 Jun 2027 23:50:17.164   01 Jun 2027 23:51:31.014            73.850               CapeTown          2307.812
        99   02 Jun 2027 00:44:46.258   02 Jun 2027 00:46:23.440            97.182               Magadan1          3036.938
       100   02 Jun 2027 00:47:25.174   02 Jun 2027 00:47:28.467             3.293               Magadan1           102.906
       101   02 Jun 2027 00:48:30.408   02 Jun 2027 00:49:43.207            72.799               Magadan1          2274.969
       102   02 Jun 2027 00:51:08.705   02 Jun 2027 00:52:36.614            87.909              Murmansk2          2747.156
       103   02 Jun 2027 00:53:58.393   02 Jun 2027 00:54:28.676            30.283              Murmansk2           946.344
       104   02 Jun 2027 00:56:17.642   02 Jun 2027 00:57:26.686            69.044                 Moscow          2157.625
       105   02 Jun 2027 01:18:27.664   02 Jun 2027 01:20:06.522            98.858               CapeTown          3089.312
       106   02 Jun 2027 01:31:00.037   02 Jun 2027 01:31:02.865             2.828               CapeTown            88.375
       107   02 Jun 2027 02:14:59.618   02 Jun 2027 02:16:58.016           118.398                Anadyr2          3699.937
       108   02 Jun 2027 02:17:28.675   02 Jun 2027 02:17:56.836            28.161               Magadan1           880.031
       109   02 Jun 2027 02:18:05.661   02 Jun 2027 02:19:16.756            71.095               Magadan1          2221.719
       110   02 Jun 2027 02:20:16.858   02 Jun 2027 02:20:29.415            12.557               Magadan2           392.406
       111   02 Jun 2027 02:23:30.530   02 Jun 2027 02:23:41.582            11.052               Magadan1           345.375
       112   02 Jun 2027 02:24:22.139   02 Jun 2027 02:24:40.995            18.856                Norilsk           589.250
       113   02 Jun 2027 02:25:46.937   02 Jun 2027 02:25:58.498            11.561                Norilsk           361.281
       114   02 Jun 2027 02:27:06.727   02 Jun 2027 02:27:40.333            33.606              Murmansk2          1050.187
       115   02 Jun 2027 02:28:21.206   02 Jun 2027 02:28:31.506            10.300              Murmansk1           321.875
       116   02 Jun 2027 02:29:26.527   02 Jun 2027 02:29:33.360             6.833              Murmansk2           213.531
       117   02 Jun 2027 02:30:16.247   02 Jun 2027 02:31:05.569            49.322              Murmansk1          1541.313
       118   02 Jun 2027 02:32:05.008   02 Jun 2027 02:32:48.509            43.501                 Moscow          1359.406
       119   02 Jun 2027 02:37:29.165   02 Jun 2027 02:38:55.966            86.801                 Moscow          2712.531
       120   02 Jun 2027 03:55:38.014   02 Jun 2027 03:56:33.616            55.602               Magadan1          1737.562
       121   02 Jun 2027 03:56:37.104   02 Jun 2027 03:59:15.369           158.265                Anadyr2          4945.781
       122   02 Jun 2027 03:59:26.092   02 Jun 2027 04:01:49.074           142.982                Anadyr2          4468.188
       123   02 Jun 2027 04:02:24.014   02 Jun 2027 04:03:03.830            39.816               Magadan1          1244.250
       124   02 Jun 2027 05:33:07.688   02 Jun 2027 05:33:52.595            44.907               Magadan1          1403.344
       125   02 Jun 2027 05:33:52.595   02 Jun 2027 05:35:06.687            74.092               Magadan2          2315.375
       126   02 Jun 2027 05:35:10.807   02 Jun 2027 05:36:18.050            67.243               Magadan2          2101.344
       127   02 Jun 2027 05:36:22.258   02 Jun 2027 05:38:56.051           153.793                Anadyr2          4806.031
       128   02 Jun 2027 07:11:13.688   02 Jun 2027 07:12:51.284            97.596               Magadan1          3049.875
       129   02 Jun 2027 07:13:03.206   02 Jun 2027 07:14:12.253            69.047                Novosib          2157.719
       130   02 Jun 2027 07:14:47.415   02 Jun 2027 07:15:13.524            26.109                Irkutsk           815.906
       131   02 Jun 2027 07:15:17.158   02 Jun 2027 07:16:28.822            71.664                Novosib          2239.500
       132   02 Jun 2027 07:54:31.803   02 Jun 2027 07:54:58.477            26.674            RioGallegos           833.563
       133   02 Jun 2027 07:55:22.219   02 Jun 2027 07:56:00.688            38.469            RioGallegos          1202.156
       134   02 Jun 2027 07:57:01.219   02 Jun 2027 07:58:02.888            61.669            RioGallegos          1927.156
       135   02 Jun 2027 08:29:16.029   02 Jun 2027 08:30:32.655            76.626                Sumatra          2394.563
       136   02 Jun 2027 08:31:43.686   02 Jun 2027 08:32:10.660            26.974                Sumatra           842.937
       137   02 Jun 2027 08:33:12.574   02 Jun 2027 08:34:21.657            69.083                Sumatra          2158.844
       138   02 Jun 2027 08:47:45.673   02 Jun 2027 08:48:20.196            34.523                Irkutsk          1078.844
       139   02 Jun 2027 08:48:30.934   02 Jun 2027 08:48:47.197            16.263                Irkutsk           508.219
       140   02 Jun 2027 08:49:25.544   02 Jun 2027 08:50:54.220            88.676                Irkutsk          2771.125
       141   02 Jun 2027 08:51:38.821   02 Jun 2027 08:52:32.896            54.075              Murmansk2          1689.844
       142   02 Jun 2027 08:53:43.208   02 Jun 2027 08:55:05.621            82.413                Norilsk          2575.406
       143   02 Jun 2027 08:55:37.409   02 Jun 2027 08:55:47.416            10.007                Norilsk           312.719
       144   02 Jun 2027 09:29:57.685   02 Jun 2027 09:33:16.485           198.800            RioGallegos          6212.500
       145   02 Jun 2027 09:34:20.352   02 Jun 2027 09:34:27.218             6.866            RioGallegos           214.563
       146   02 Jun 2027 09:34:47.759   02 Jun 2027 09:34:56.871             9.112            RioGallegos           284.750
       147   02 Jun 2027 09:35:59.990   02 Jun 2027 09:36:07.695             7.705            RioGallegos           240.781
       148   02 Jun 2027 10:13:25.206   02 Jun 2027 10:14:03.508            38.302                  Delhi          1196.938
       149   02 Jun 2027 10:15:43.462   02 Jun 2027 10:16:34.799            51.337                  Delhi          1604.281
       150   02 Jun 2027 10:18:39.490   02 Jun 2027 10:18:45.780             6.290                  Delhi           196.562
       151   02 Jun 2027 10:25:48.287   02 Jun 2027 10:25:49.574             1.287                Novosib            40.219
       152   02 Jun 2027 10:26:05.861   02 Jun 2027 10:26:16.770            10.909                Novosib           340.906
       153   02 Jun 2027 10:26:41.925   02 Jun 2027 10:27:00.574            18.649                Novosib           582.781
       154   02 Jun 2027 12:00:09.145   02 Jun 2027 12:00:26.859            17.714              Murmansk1           553.563
       155   02 Jun 2027 12:01:17.956   02 Jun 2027 12:01:41.292            23.336              Murmansk1           729.250
       156   02 Jun 2027 12:03:36.919   02 Jun 2027 12:03:41.730             4.811              Murmansk2           150.344
       157   02 Jun 2027 12:03:51.998   02 Jun 2027 12:03:55.266             3.268                Norilsk           102.125
       158   02 Jun 2027 12:04:06.049   02 Jun 2027 12:04:31.290            25.241                Norilsk           788.781
       159   02 Jun 2027 12:04:55.817   02 Jun 2027 12:05:12.991            17.174                Norilsk           536.687
       160   02 Jun 2027 12:05:56.075   02 Jun 2027 12:06:36.007            39.932                Norilsk          1247.875
       161   02 Jun 2027 13:08:05.065   02 Jun 2027 13:08:56.213            51.148               CapeTown          1598.375
       162   02 Jun 2027 13:09:34.510   02 Jun 2027 13:10:15.124            40.614               CapeTown          1269.188
       163   02 Jun 2027 13:11:21.934   02 Jun 2027 13:11:52.851            30.917               CapeTown           966.156
       164   02 Jun 2027 13:13:10.980   02 Jun 2027 13:14:56.097           105.117               CapeTown          3284.906
       165   02 Jun 2027 13:16:32.085   02 Jun 2027 13:17:21.053            48.968               CapeTown          1530.250
       166   02 Jun 2027 13:33:49.048   02 Jun 2027 13:34:28.298            39.250              Murmansk1          1226.562
       167   02 Jun 2027 13:34:36.178   02 Jun 2027 13:35:39.574            63.396              Murmansk2          1981.125
       168   02 Jun 2027 13:37:43.174   02 Jun 2027 13:37:47.919             4.745              Murmansk1           148.281
       169   02 Jun 2027 13:38:31.859   02 Jun 2027 13:38:52.196            20.337              Murmansk2           635.531
       170   02 Jun 2027 13:40:17.531   02 Jun 2027 13:40:26.636             9.105              Murmansk2           284.531
       171   02 Jun 2027 13:40:48.795   02 Jun 2027 13:40:56.604             7.809              Murmansk2           244.031
       172   02 Jun 2027 13:42:12.129   02 Jun 2027 13:43:14.250            62.121              Murmansk1          1941.281
       173   02 Jun 2027 13:47:55.317   02 Jun 2027 13:50:19.946           144.629                Anadyr2          4519.656
       174   02 Jun 2027 13:50:47.507   02 Jun 2027 13:51:12.780            25.273                Anadyr2           789.781
       175   02 Jun 2027 14:54:03.383   02 Jun 2027 14:55:08.867            65.484               CapeTown          2046.375
       176   02 Jun 2027 15:13:04.961   02 Jun 2027 15:13:33.783            28.822              Murmansk1           900.687
       177   02 Jun 2027 15:14:48.970   02 Jun 2027 15:15:25.296            36.326              Murmansk2          1135.187
       178   02 Jun 2027 15:18:49.194   02 Jun 2027 15:19:15.800            26.606              Murmansk2           831.437
       179   02 Jun 2027 15:21:12.993   02 Jun 2027 15:21:24.780            11.787              Murmansk2           368.344
       180   02 Jun 2027 15:23:25.930   02 Jun 2027 15:24:05.411            39.481                Anadyr1          1233.781
       181   02 Jun 2027 15:24:31.492   02 Jun 2027 15:25:05.848            34.356                Anadyr2          1073.625
       182   02 Jun 2027 15:25:38.164   02 Jun 2027 15:26:12.155            33.991                Anadyr2          1062.219
       183   02 Jun 2027 15:26:24.266   02 Jun 2027 15:26:42.120            17.854                Anadyr1           557.938
       184   02 Jun 2027 15:26:56.861   02 Jun 2027 15:33:20.661           383.800               Magadan2         11993.750
       185   02 Jun 2027 17:01:42.623   02 Jun 2027 17:03:11.240            88.617               Magadan1          2769.281
       186   02 Jun 2027 17:04:16.863   02 Jun 2027 17:04:36.694            19.831               Magadan2           619.719
       187   02 Jun 2027 17:08:59.158   02 Jun 2027 17:09:10.593            11.435               Magadan2           357.344
       188   02 Jun 2027 17:09:25.691   02 Jun 2027 17:09:26.913             1.222               Magadan2            38.187
       189   02 Jun 2027 17:09:30.021   02 Jun 2027 17:09:38.729             8.708               Magadan2           272.125
       190   02 Jun 2027 18:35:11.383   02 Jun 2027 18:36:47.084            95.701                Anadyr2          2990.656
       191   02 Jun 2027 18:36:56.675   02 Jun 2027 18:39:40.139           163.464                Anadyr1          5108.250
       192   02 Jun 2027 18:40:04.153   02 Jun 2027 18:41:26.084            81.931                Norilsk          2560.344
       193   02 Jun 2027 18:41:54.499   02 Jun 2027 18:43:02.202            67.703                Norilsk          2115.719
       194   02 Jun 2027 18:43:57.519   02 Jun 2027 18:45:58.830           121.311                Irkutsk          3790.969
       195   02 Jun 2027 18:46:54.336   02 Jun 2027 18:47:23.494            29.158                Irkutsk           911.188
       196   02 Jun 2027 18:48:50.791   02 Jun 2027 18:49:53.419            62.628                Irkutsk          1957.125
       197   02 Jun 2027 18:58:57.757   02 Jun 2027 19:03:28.189           270.432                Sumatra          8451.000
       198   02 Jun 2027 20:16:36.836   02 Jun 2027 20:17:16.683            39.847                Norilsk          1245.219
       199   02 Jun 2027 20:18:02.548   02 Jun 2027 20:19:51.828           109.280                Novosib          3415.000
       200   02 Jun 2027 20:24:45.518   02 Jun 2027 20:25:33.620            48.102                Novosib          1503.187
       201   02 Jun 2027 20:30:46.307   02 Jun 2027 20:31:28.117            41.810                Sumatra          1306.563
       202   02 Jun 2027 20:39:18.856   02 Jun 2027 20:40:05.608            46.752                Sumatra          1461.000
       203   02 Jun 2027 21:49:39.180   02 Jun 2027 21:49:58.485            19.305               Magadan1           603.281
       204   02 Jun 2027 21:50:48.431   02 Jun 2027 21:51:09.485            21.054               Magadan1           657.937
       205   02 Jun 2027 21:52:37.439   02 Jun 2027 21:55:50.841           193.402              Murmansk1          6043.812
       206   02 Jun 2027 22:00:19.645   02 Jun 2027 22:02:26.979           127.334                  Delhi          3979.187
       207   02 Jun 2027 22:09:07.281   02 Jun 2027 22:09:50.495            43.214                  Delhi          1350.438
       208   02 Jun 2027 23:24:25.216   02 Jun 2027 23:25:04.431            39.215               Magadan2          1225.469
       209   02 Jun 2027 23:25:43.157   02 Jun 2027 23:26:26.418            43.261               Magadan2          1351.906
       210   02 Jun 2027 23:27:05.331   02 Jun 2027 23:27:14.703             9.372               Magadan1           292.875
       211   02 Jun 2027 23:27:17.870   02 Jun 2027 23:30:05.061           167.191              Murmansk1          5224.719
       212   02 Jun 2027 23:30:14.202   02 Jun 2027 23:31:25.686            71.484              Murmansk1          2233.875
       213   02 Jun 2027 23:31:58.612   02 Jun 2027 23:33:25.474            86.862                 Moscow          2714.437
       214   02 Jun 2027 23:33:46.436   02 Jun 2027 23:33:55.085             8.649                 Moscow           270.281
       215   02 Jun 2027 23:34:28.395   02 Jun 2027 23:36:07.685            99.290                 Moscow          3102.813
       216   02 Jun 2027 23:58:31.608   03 Jun 2027 00:00:13.271           101.663               CapeTown          3176.969
       217   03 Jun 2027 00:02:30.658   03 Jun 2027 00:03:13.965            43.307               CapeTown          1353.344
       218   03 Jun 2027 01:03:10.316   03 Jun 2027 01:05:25.778           135.462              Murmansk1          4233.187
       219   03 Jun 2027 01:06:25.218   03 Jun 2027 01:08:14.268           109.050                 Moscow          3407.813
       220   03 Jun 2027 01:30:20.443   03 Jun 2027 01:31:18.591            58.148               CapeTown          1817.125
       221   03 Jun 2027 01:39:06.125   03 Jun 2027 01:39:22.401            16.276               CapeTown           508.625
       222   03 Jun 2027 02:27:00.456   03 Jun 2027 02:28:39.043            98.587                Anadyr2          3080.844
       223   03 Jun 2027 02:28:53.736   03 Jun 2027 02:29:25.792            32.056               Magadan1          1001.750
       224   03 Jun 2027 02:29:53.842   03 Jun 2027 02:30:02.787             8.945               Magadan2           279.531
       225   03 Jun 2027 02:30:07.952   03 Jun 2027 02:30:45.491            37.539               Magadan2          1173.094
       226   03 Jun 2027 02:34:38.487   03 Jun 2027 02:35:21.646            43.159               Magadan1          1348.719
       227   03 Jun 2027 02:39:07.994   03 Jun 2027 02:39:29.768            21.774              Murmansk1           680.437
       228   03 Jun 2027 02:39:39.431   03 Jun 2027 02:40:21.805            42.374              Murmansk2          1324.188
       229   03 Jun 2027 02:40:41.607   03 Jun 2027 02:40:51.975            10.368              Murmansk1           324.000
       230   03 Jun 2027 02:42:15.021   03 Jun 2027 02:42:27.602            12.581              Murmansk1           393.156
       231   03 Jun 2027 02:42:27.900   03 Jun 2027 02:43:51.087            83.187                 Moscow          2599.594
       232   03 Jun 2027 02:50:47.939   03 Jun 2027 02:50:52.115             4.176                 Moscow           130.500
       233   03 Jun 2027 02:50:55.545   03 Jun 2027 02:51:24.465            28.920                 Moscow           903.750
       234   03 Jun 2027 03:08:35.375   03 Jun 2027 03:08:54.524            19.149               CapeTown           598.406
       235   03 Jun 2027 03:10:50.403   03 Jun 2027 03:11:18.297            27.894               CapeTown           871.687
       236   03 Jun 2027 03:14:18.724   03 Jun 2027 03:15:59.236           100.512               CapeTown          3141.000
       237   03 Jun 2027 04:07:20.053   03 Jun 2027 04:07:25.335             5.282               Magadan1           165.063
       238   03 Jun 2027 04:07:43.254   03 Jun 2027 04:08:11.170            27.916               Magadan1           872.375
       239   03 Jun 2027 04:08:11.170   03 Jun 2027 04:11:06.657           175.487               Magadan2          5483.969
       240   03 Jun 2027 04:11:10.334   03 Jun 2027 04:11:14.108             3.774               Magadan1           117.937
       241   03 Jun 2027 04:11:27.644   03 Jun 2027 04:12:58.691            91.047               Magadan1          2845.219
       242   03 Jun 2027 04:13:16.441   03 Jun 2027 04:14:23.647            67.206               Magadan1          2100.187
       243   03 Jun 2027 04:54:14.428   03 Jun 2027 04:56:34.335           139.907            RioGallegos          4372.094
       244   03 Jun 2027 05:42:45.889   03 Jun 2027 05:43:59.271            73.382                Irkutsk          2293.187
       245   03 Jun 2027 05:45:02.357   03 Jun 2027 05:45:37.198            34.841                Irkutsk          1088.781
       246   03 Jun 2027 05:45:57.754   03 Jun 2027 05:47:47.319           109.565                Anadyr1          3423.906
       247   03 Jun 2027 05:47:53.888   03 Jun 2027 05:49:32.915            99.027                Irkutsk          3094.594
       248   03 Jun 2027 05:49:43.990   03 Jun 2027 05:50:40.328            56.338                Anadyr2          1760.562
       249   03 Jun 2027 05:50:56.473   03 Jun 2027 05:51:18.431            21.958               Magadan1           686.187
       250   03 Jun 2027 07:21:47.425   03 Jun 2027 07:22:10.491            23.066               Magadan2           720.813
       251   03 Jun 2027 07:22:27.800   03 Jun 2027 07:23:15.018            47.218               Magadan1          1475.563
       252   03 Jun 2027 07:23:21.972   03 Jun 2027 07:23:48.321            26.349               Magadan1           823.406
       253   03 Jun 2027 07:23:56.855   03 Jun 2027 07:24:48.447            51.592               Magadan2          1612.250
       254   03 Jun 2027 07:24:55.011   03 Jun 2027 07:25:20.401            25.390               Magadan2           793.438
       255   03 Jun 2027 07:26:59.118   03 Jun 2027 07:27:41.152            42.034                Novosib          1313.562
       256   03 Jun 2027 08:06:41.390   03 Jun 2027 08:07:17.790            36.400            RioGallegos          1137.500
       257   03 Jun 2027 08:36:47.993   03 Jun 2027 08:37:45.791            57.798                Sumatra          1806.187
       258   03 Jun 2027 08:45:18.068   03 Jun 2027 08:45:23.591             5.523                Sumatra           172.594
       259   03 Jun 2027 08:58:54.796   03 Jun 2027 08:59:00.401             5.605                Irkutsk           175.156
       260   03 Jun 2027 09:00:49.463   03 Jun 2027 09:01:02.020            12.557                Irkutsk           392.406
       261   03 Jun 2027 09:01:11.689   03 Jun 2027 09:01:31.370            19.681                Irkutsk           615.031
       262   03 Jun 2027 09:01:43.335   03 Jun 2027 09:02:09.409            26.074                Novosib           814.812
       263   03 Jun 2027 09:02:38.638   03 Jun 2027 09:02:47.866             9.228                Irkutsk           288.375
       264   03 Jun 2027 09:03:26.960   03 Jun 2027 09:03:27.538             0.578                Novosib            18.062
       265   03 Jun 2027 09:03:38.895   03 Jun 2027 09:04:33.185            54.290              Murmansk2          1696.562
       266   03 Jun 2027 09:44:24.404   03 Jun 2027 09:45:26.541            62.137            RioGallegos          1941.781
       267   03 Jun 2027 10:21:14.107   03 Jun 2027 10:22:45.014            90.907                  Delhi          2840.844
       268   03 Jun 2027 10:35:00.125   03 Jun 2027 10:35:22.981            22.856                Novosib           714.250
       269   03 Jun 2027 10:36:25.440   03 Jun 2027 10:37:10.725            45.285                Novosib          1415.156
       270   03 Jun 2027 10:38:04.551   03 Jun 2027 10:38:18.879            14.328                Norilsk           447.750
       271   03 Jun 2027 10:38:39.218   03 Jun 2027 10:38:44.226             5.008                Norilsk           156.500
       272   03 Jun 2027 10:38:51.937   03 Jun 2027 10:39:54.461            62.524                Norilsk          1953.875
       273   03 Jun 2027 12:13:25.947   03 Jun 2027 12:16:36.778           190.831                Norilsk          5963.469
       274   03 Jun 2027 12:17:58.230   03 Jun 2027 12:18:45.957            47.727                Norilsk          1491.469
       275   03 Jun 2027 13:19:42.549   03 Jun 2027 13:20:26.736            44.187               CapeTown          1380.844
       276   03 Jun 2027 13:21:00.207   03 Jun 2027 13:22:23.434            83.227               CapeTown          2600.844
       277   03 Jun 2027 13:24:58.588   03 Jun 2027 13:26:10.295            71.707               CapeTown          2240.844
       278   03 Jun 2027 13:46:07.071   03 Jun 2027 13:46:37.291            30.220              Murmansk1           944.375
       279   03 Jun 2027 13:46:56.341   03 Jun 2027 13:47:06.885            10.544              Murmansk2           329.500
       280   03 Jun 2027 13:47:40.865   03 Jun 2027 13:48:08.558            27.693              Murmansk2           865.406
       281   03 Jun 2027 13:49:39.155   03 Jun 2027 13:49:48.364             9.209              Murmansk1           287.781
       282   03 Jun 2027 13:50:16.297   03 Jun 2027 13:50:42.586            26.289              Murmansk1           821.531
       283   03 Jun 2027 13:52:18.026   03 Jun 2027 13:52:48.750            30.724              Murmansk2           960.125
       284   03 Jun 2027 13:55:41.056   03 Jun 2027 13:56:15.570            34.514              Murmansk1          1078.563
       285   03 Jun 2027 13:59:50.174   03 Jun 2027 14:02:16.412           146.238                Anadyr1          4569.937
       286   03 Jun 2027 14:02:48.236   03 Jun 2027 14:03:49.287            61.051                Anadyr2          1907.844
       287   03 Jun 2027 15:05:39.952   03 Jun 2027 15:05:59.096            19.144               CapeTown           598.250
       288   03 Jun 2027 15:25:44.467   03 Jun 2027 15:26:24.384            39.917              Murmansk2          1247.406
       289   03 Jun 2027 15:26:42.780   03 Jun 2027 15:27:26.929            44.149              Murmansk1          1379.656
       290   03 Jun 2027 15:29:28.325   03 Jun 2027 15:29:44.258            15.933              Murmansk1           497.906
       291   03 Jun 2027 15:32:37.757   03 Jun 2027 15:33:14.833            37.076              Murmansk1          1158.625
       292   03 Jun 2027 15:35:26.552   03 Jun 2027 15:37:08.655           102.103                Anadyr1          3190.719
       293   03 Jun 2027 15:38:39.742   03 Jun 2027 15:43:46.814           307.072               Magadan2          9596.000
       294   03 Jun 2027 17:11:21.506   03 Jun 2027 17:11:31.573            10.067                Anadyr1           314.594
       295   03 Jun 2027 17:12:03.578   03 Jun 2027 17:12:23.955            20.377                Anadyr1           636.781
       296   03 Jun 2027 17:13:41.544   03 Jun 2027 17:14:18.307            36.763               Magadan1          1148.844
       297   03 Jun 2027 17:14:18.307   03 Jun 2027 17:15:24.868            66.561               Magadan2          2080.031
       298   03 Jun 2027 17:16:57.073   03 Jun 2027 17:17:48.850            51.777               Magadan2          1618.031
       299   03 Jun 2027 18:07:59.342   03 Jun 2027 18:10:24.799           145.457            RioGallegos          4545.531
       300   03 Jun 2027 18:48:12.020   03 Jun 2027 18:48:48.063            36.043                Anadyr2          1126.344
       301   03 Jun 2027 18:49:23.704   03 Jun 2027 18:53:25.120           241.416                Norilsk          7544.250
       302   03 Jun 2027 18:54:15.855   03 Jun 2027 18:55:11.825            55.970                Norilsk          1749.062
       303   03 Jun 2027 18:55:57.019   03 Jun 2027 18:57:47.679           110.660                Irkutsk          3458.125
       304   03 Jun 2027 18:59:32.852   03 Jun 2027 19:00:52.757            79.905                Irkutsk          2497.031
       305   03 Jun 2027 19:09:36.205   03 Jun 2027 19:11:47.529           131.324                Sumatra          4103.875
       306   03 Jun 2027 19:15:22.267   03 Jun 2027 19:17:35.477           133.210                Sumatra          4162.813
       307   03 Jun 2027 20:30:37.201   03 Jun 2027 20:31:55.464            78.263                Novosib          2445.719
       308   03 Jun 2027 20:40:23.601   03 Jun 2027 20:41:44.033            80.432                  Delhi          2513.500
       309   03 Jun 2027 20:42:47.641   03 Jun 2027 20:44:20.497            92.856                  Delhi          2901.750
       310   03 Jun 2027 22:02:35.845   03 Jun 2027 22:03:03.560            27.715               Magadan2           866.094
       311   03 Jun 2027 22:04:11.857   03 Jun 2027 22:08:59.407           287.550              Murmansk1          8985.937
       312   03 Jun 2027 22:17:31.425   03 Jun 2027 22:18:01.202            29.777                  Delhi           930.531
       313   03 Jun 2027 23:32:13.053   03 Jun 2027 23:32:32.318            19.265                Anadyr2           602.031
       314   03 Jun 2027 23:34:49.440   03 Jun 2027 23:34:51.325             1.885                Anadyr1            58.906
       315   03 Jun 2027 23:35:02.260   03 Jun 2027 23:35:24.177            21.917                Anadyr2           684.906
       316   03 Jun 2027 23:35:29.957   03 Jun 2027 23:35:53.125            23.168                Anadyr2           724.000
       317   03 Jun 2027 23:36:02.219   03 Jun 2027 23:37:40.470            98.251               Magadan2          3070.344
       318   03 Jun 2027 23:39:17.637   03 Jun 2027 23:43:52.409           274.772              Murmansk2          8586.625
       319   03 Jun 2027 23:43:55.296   03 Jun 2027 23:45:05.173            69.877                 Moscow          2183.656
       320   04 Jun 2027 00:09:29.689   04 Jun 2027 00:11:43.298           133.609               CapeTown          4175.281
       321   04 Jun 2027 00:14:50.290   04 Jun 2027 00:15:02.179            11.889               CapeTown           371.531
       322   04 Jun 2027 00:17:01.064   04 Jun 2027 00:17:40.240            39.176               CapeTown          1224.250
       323   04 Jun 2027 01:11:23.507   04 Jun 2027 01:11:26.092             2.585               Magadan2            80.781
       324   04 Jun 2027 01:14:24.571   04 Jun 2027 01:14:37.970            13.399                Norilsk           418.719
       325   04 Jun 2027 01:15:11.993   04 Jun 2027 01:16:42.502            90.509              Murmansk1          2828.406
       326   04 Jun 2027 01:16:52.314   04 Jun 2027 01:17:56.975            64.661              Murmansk2          2020.656
       327   04 Jun 2027 01:18:25.398   04 Jun 2027 01:19:43.657            78.259                 Moscow          2445.594
       328   04 Jun 2027 01:42:18.167   04 Jun 2027 01:42:23.485             5.318               CapeTown           166.188
       329   04 Jun 2027 01:43:40.705   04 Jun 2027 01:44:51.207            70.502               CapeTown          2203.188
       330   04 Jun 2027 02:39:03.228   04 Jun 2027 02:40:38.799            95.571                Anadyr1          2986.594
       331   04 Jun 2027 02:40:40.830   04 Jun 2027 02:40:44.297             3.467                Anadyr1           108.344
       332   04 Jun 2027 02:40:45.478   04 Jun 2027 02:41:56.571            71.093               Magadan1          2221.656
       333   04 Jun 2027 02:42:13.203   04 Jun 2027 02:42:24.396            11.193               Magadan1           349.781
       334   04 Jun 2027 02:44:40.739   04 Jun 2027 02:44:48.232             7.493               Magadan2           234.156
       335   04 Jun 2027 02:46:01.646   04 Jun 2027 02:46:25.855            24.209               Magadan2           756.531
       336   04 Jun 2027 02:48:12.137   04 Jun 2027 02:48:21.133             8.996                Norilsk           281.125
       337   04 Jun 2027 02:50:01.521   04 Jun 2027 02:50:07.411             5.890                Norilsk           184.063
       338   04 Jun 2027 02:51:09.088   04 Jun 2027 02:51:49.623            40.535              Murmansk1          1266.719
       339   04 Jun 2027 02:51:49.623   04 Jun 2027 02:52:11.429            21.806              Murmansk2           681.437
       340   04 Jun 2027 02:52:44.154   04 Jun 2027 02:52:47.603             3.449              Murmansk2           107.781
       341   04 Jun 2027 02:53:48.502   04 Jun 2027 02:54:29.378            40.876              Murmansk2          1277.375
       342   04 Jun 2027 02:54:32.362   04 Jun 2027 02:55:16.503            44.141                 Moscow          1379.406
       343   04 Jun 2027 02:59:38.173   04 Jun 2027 02:59:42.371             4.198                 Moscow           131.188
       344   04 Jun 2027 04:22:06.747   04 Jun 2027 04:22:17.534            10.787                Anadyr2           337.094
       345   04 Jun 2027 04:22:43.622   04 Jun 2027 04:25:06.770           143.148               Magadan1          4473.375
       346   04 Jun 2027 04:25:06.770   04 Jun 2027 04:25:36.530            29.760               Magadan2           930.000
       347   04 Jun 2027 04:26:17.113   04 Jun 2027 04:26:36.865            19.752                Norilsk           617.250
       348   04 Jun 2027 05:05:33.651   04 Jun 2027 05:08:05.361           151.710            RioGallegos          4740.937
       349   04 Jun 2027 05:57:13.275   04 Jun 2027 06:00:59.536           226.261                Irkutsk          7070.656
       350   04 Jun 2027 06:01:31.864   04 Jun 2027 06:01:53.448            21.584                Irkutsk           674.500
       351   04 Jun 2027 06:02:19.624   04 Jun 2027 06:02:55.685            36.061                Irkutsk          1126.906
       352   04 Jun 2027 06:03:04.636   04 Jun 2027 06:03:15.145            10.509               Magadan2           328.406
       353   04 Jun 2027 06:03:25.686   04 Jun 2027 06:03:52.920            27.234                Novosib           851.062
       354   04 Jun 2027 07:33:57.159   04 Jun 2027 07:34:06.840             9.681               Magadan1           302.531
       355   04 Jun 2027 07:36:32.760   04 Jun 2027 07:36:39.361             6.601                Irkutsk           206.281
       356   04 Jun 2027 07:37:47.778   04 Jun 2027 07:37:52.581             4.803                Irkutsk           150.094
       357   04 Jun 2027 07:37:58.453   04 Jun 2027 07:38:12.269            13.816                Irkutsk           431.750
       358   04 Jun 2027 07:38:28.145   04 Jun 2027 07:38:48.050            19.905                Norilsk           622.031
       359   04 Jun 2027 07:38:50.477   04 Jun 2027 07:39:06.782            16.305                Norilsk           509.531
       360   04 Jun 2027 08:14:31.400   04 Jun 2027 08:15:23.457            52.057            RioGallegos          1626.781
       361   04 Jun 2027 08:48:55.671   04 Jun 2027 08:50:47.099           111.428                Sumatra          3482.125
       362   04 Jun 2027 09:10:57.068   04 Jun 2027 09:11:00.510             3.442                Irkutsk           107.563
       363   04 Jun 2027 09:11:53.264   04 Jun 2027 09:12:28.294            35.030                Irkutsk          1094.688
       364   04 Jun 2027 09:12:50.921   04 Jun 2027 09:13:27.077            36.156                Irkutsk          1129.875
       365   04 Jun 2027 09:13:40.674   04 Jun 2027 09:13:41.437             0.763                Irkutsk            23.844
       366   04 Jun 2027 09:15:17.557   04 Jun 2027 09:15:22.882             5.325                Novosib           166.406
       367   04 Jun 2027 10:33:32.114   04 Jun 2027 10:35:52.899           140.785                  Delhi          4399.531
       368   04 Jun 2027 10:37:42.354   04 Jun 2027 10:38:35.684            53.330                  Delhi          1666.563
       369   04 Jun 2027 10:48:21.593   04 Jun 2027 10:48:26.216             4.623                Novosib           144.469
       370   04 Jun 2027 10:49:49.361   04 Jun 2027 10:49:54.995             5.634                Norilsk           176.062
       371   04 Jun 2027 10:50:19.164   04 Jun 2027 10:50:24.471             5.307                Norilsk           165.844
       372   04 Jun 2027 10:51:10.558   04 Jun 2027 10:51:56.127            45.569                Norilsk          1424.031
       373   04 Jun 2027 12:21:49.998   04 Jun 2027 12:22:24.533            34.535              Murmansk1          1079.219
       374   04 Jun 2027 12:23:07.075   04 Jun 2027 12:23:50.659            43.584              Murmansk1          1362.000
       375   04 Jun 2027 12:24:37.775   04 Jun 2027 12:25:43.274            65.499              Murmansk1          2046.844
       376   04 Jun 2027 12:26:16.044   04 Jun 2027 12:27:51.161            95.117                Norilsk          2972.406
       377   04 Jun 2027 13:31:26.140   04 Jun 2027 13:34:34.971           188.831               CapeTown          5900.969
       378   04 Jun 2027 13:35:09.176   04 Jun 2027 13:35:48.061            38.885               CapeTown          1215.156
       379   04 Jun 2027 13:42:29.374   04 Jun 2027 13:43:10.970            41.596               CapeTown          1299.875
       380   04 Jun 2027 13:58:27.239   04 Jun 2027 13:58:48.086            20.847              Murmansk2           651.469
       381   04 Jun 2027 13:58:54.930   04 Jun 2027 14:00:09.668            74.738              Murmansk1          2335.562
       382   04 Jun 2027 14:01:40.907   04 Jun 2027 14:01:49.097             8.190              Murmansk2           255.938
       383   04 Jun 2027 14:02:23.023   04 Jun 2027 14:03:01.691            38.668              Murmansk1          1208.375
       384   04 Jun 2027 14:06:17.296   04 Jun 2027 14:06:20.628             3.332              Murmansk2           104.125
       385   04 Jun 2027 14:11:46.448   04 Jun 2027 14:13:58.467           132.019                Anadyr1          4125.594
       386   04 Jun 2027 14:14:09.878   04 Jun 2027 14:16:20.553           130.675                Anadyr2          4083.594
       387   04 Jun 2027 15:38:28.204   04 Jun 2027 15:39:49.043            80.839              Murmansk2          2526.219
       388   04 Jun 2027 15:41:26.367   04 Jun 2027 15:41:30.518             4.151              Murmansk1           129.719
       389   04 Jun 2027 15:41:46.127   04 Jun 2027 15:42:48.827            62.700              Murmansk2          1959.375
       390   04 Jun 2027 15:47:27.415   04 Jun 2027 15:47:39.373            11.958                Anadyr2           373.688
       391   04 Jun 2027 15:48:12.031   04 Jun 2027 15:49:38.484            86.453                Anadyr1          2701.656
       392   04 Jun 2027 15:50:27.303   04 Jun 2027 15:54:13.164           225.861               Magadan2          7058.156
       393   04 Jun 2027 15:56:07.974   04 Jun 2027 15:57:25.727            77.753               Magadan1          2429.781
       394   04 Jun 2027 17:24:09.376   04 Jun 2027 17:25:14.449            65.073                Anadyr2          2033.531
       395   04 Jun 2027 17:25:41.104   04 Jun 2027 17:27:07.262            86.158               Magadan2          2692.438
       396   04 Jun 2027 17:33:09.259   04 Jun 2027 17:33:20.284            11.025               Magadan2           344.531
       397   04 Jun 2027 17:35:19.199   04 Jun 2027 17:36:59.016            99.817               Magadan1          3119.281
       398   04 Jun 2027 18:19:09.183   04 Jun 2027 18:22:08.814           179.631            RioGallegos          5613.469
       399   04 Jun 2027 19:01:20.623   04 Jun 2027 19:02:39.840            79.217                Norilsk          2475.531
       400   04 Jun 2027 19:03:33.603   04 Jun 2027 19:04:30.081            56.478                Norilsk          1764.938
       401   04 Jun 2027 19:06:05.826   04 Jun 2027 19:08:06.536           120.710                Irkutsk          3772.188
       402   04 Jun 2027 19:08:22.322   04 Jun 2027 19:10:30.081           127.759                Irkutsk          3992.469
       403   04 Jun 2027 19:20:43.784   04 Jun 2027 19:24:55.905           252.121                Sumatra          7878.781
       404   04 Jun 2027 20:41:36.144   04 Jun 2027 20:42:23.489            47.345                Novosib          1479.531
       405   04 Jun 2027 20:42:51.344   04 Jun 2027 20:43:27.512            36.168                Novosib          1130.250
       406   04 Jun 2027 20:44:16.378   04 Jun 2027 20:44:34.582            18.204                Novosib           568.875
       407   04 Jun 2027 20:50:58.053   04 Jun 2027 20:53:19.719           141.666                  Delhi          4427.063
       408   04 Jun 2027 20:54:48.012   04 Jun 2027 20:56:33.791           105.779                  Delhi          3305.594
       409   04 Jun 2027 22:15:57.468   04 Jun 2027 22:21:54.734           357.266              Murmansk1         11164.563
       410   04 Jun 2027 23:47:35.772   04 Jun 2027 23:48:23.918            48.146               Magadan2          1504.562
       411   04 Jun 2027 23:49:38.039   04 Jun 2027 23:49:48.230            10.191               Magadan2           318.469
       412   04 Jun 2027 23:50:12.487   04 Jun 2027 23:51:10.550            58.063               Magadan2          1814.469
       413   04 Jun 2027 23:51:17.893   04 Jun 2027 23:55:27.767           249.874              Murmansk2          7808.562
       414   04 Jun 2027 23:57:33.719   04 Jun 2027 23:57:58.439            24.720                 Moscow           772.500
       415   05 Jun 2027 00:05:17.009   05 Jun 2027 00:05:35.232            18.223                 Moscow           569.469
       416   05 Jun 2027 00:20:42.385   05 Jun 2027 00:22:32.457           110.072               CapeTown          3439.750
       417   05 Jun 2027 00:24:31.255   05 Jun 2027 00:24:51.505            20.250               CapeTown           632.813
       418   05 Jun 2027 00:25:25.682   05 Jun 2027 00:26:55.427            89.745               CapeTown          2804.531
       419   05 Jun 2027 01:27:08.293   05 Jun 2027 01:27:17.059             8.766               Magadan1           273.938
       420   05 Jun 2027 01:27:17.833   05 Jun 2027 01:27:30.000            12.167               Magadan2           380.219
       421   05 Jun 2027 01:28:19.914   05 Jun 2027 01:28:43.819            23.905              Murmansk2           747.031
       422   05 Jun 2027 01:29:23.863   05 Jun 2027 01:29:55.645            31.782              Murmansk1           993.187
       423   05 Jun 2027 01:30:15.476   05 Jun 2027 01:30:31.495            16.019              Murmansk1           500.594
       424   05 Jun 2027 01:30:41.667   05 Jun 2027 01:31:33.799            52.132                Novosib          1629.125
       425   05 Jun 2027 01:31:41.770   05 Jun 2027 01:33:06.964            85.194                 Moscow          2662.313
       426   05 Jun 2027 01:54:20.870   05 Jun 2027 01:55:01.853            40.983               CapeTown          1280.719
       427   05 Jun 2027 02:00:46.869   05 Jun 2027 02:01:20.666            33.797               CapeTown          1056.156
       428   05 Jun 2027 02:51:07.996   05 Jun 2027 02:52:40.273            92.277                Anadyr1          2883.656
       429   05 Jun 2027 02:52:48.994   05 Jun 2027 02:53:13.127            24.133                Anadyr2           754.156
       430   05 Jun 2027 02:53:23.452   05 Jun 2027 02:54:44.124            80.672               Magadan2          2521.000
       431   05 Jun 2027 02:58:57.730   05 Jun 2027 02:59:03.789             6.059               Magadan1           189.344
       432   05 Jun 2027 02:59:16.238   05 Jun 2027 02:59:27.134            10.896               Magadan2           340.500
       433   05 Jun 2027 02:59:35.850   05 Jun 2027 03:00:09.191            33.341                Norilsk          1041.906
       434   05 Jun 2027 04:35:12.195   05 Jun 2027 04:36:02.419            50.224               Magadan2          1569.500
       435   05 Jun 2027 04:36:37.583   05 Jun 2027 04:37:09.492            31.909               Magadan1           997.156
       436   05 Jun 2027 04:37:12.321   05 Jun 2027 04:37:31.257            18.936                Norilsk           591.750
       437   05 Jun 2027 04:37:32.075   05 Jun 2027 04:37:51.492            19.417                Anadyr2           606.781
       438   05 Jun 2027 04:38:05.315   05 Jun 2027 04:39:01.228            55.913               Magadan1          1747.281
       439   05 Jun 2027 05:16:57.800   05 Jun 2027 05:17:26.282            28.482            RioGallegos           890.063
       440   05 Jun 2027 06:09:27.326   05 Jun 2027 06:09:52.212            24.886               Magadan1           777.687
       441   05 Jun 2027 06:11:00.692   05 Jun 2027 06:12:34.479            93.787                Anadyr2          2930.844
       442   05 Jun 2027 06:12:42.435   05 Jun 2027 06:13:06.448            24.013                Anadyr1           750.406
       443   05 Jun 2027 06:13:06.448   05 Jun 2027 06:13:13.110             6.662                Anadyr2           208.187
       444   05 Jun 2027 06:13:20.347   05 Jun 2027 06:14:05.808            45.461               Magadan1          1420.656
       445   05 Jun 2027 06:14:19.678   05 Jun 2027 06:14:22.719             3.041                Norilsk            95.031
       446   05 Jun 2027 06:14:40.146   05 Jun 2027 06:15:06.777            26.631               Magadan2           832.219
       447   05 Jun 2027 06:15:06.777   05 Jun 2027 06:15:10.616             3.839               Magadan1           119.969
       448   05 Jun 2027 07:49:53.332   05 Jun 2027 07:49:59.331             5.999                Irkutsk           187.469
       449   05 Jun 2027 07:50:06.140   05 Jun 2027 07:50:38.566            32.426                Irkutsk          1013.312
       450   05 Jun 2027 07:50:56.860   05 Jun 2027 07:51:19.190            22.330                Irkutsk           697.812
       451   05 Jun 2027 08:26:52.168   05 Jun 2027 08:27:27.840            35.672            RioGallegos          1114.750
       452   05 Jun 2027 08:28:53.934   05 Jun 2027 08:29:20.224            26.290            RioGallegos           821.562
       453   05 Jun 2027 09:01:09.551   05 Jun 2027 09:02:33.411            83.860                Sumatra          2620.625
       454   05 Jun 2027 09:25:53.643   05 Jun 2027 09:26:17.435            23.792                Irkutsk           743.500
       455   05 Jun 2027 09:27:01.781   05 Jun 2027 09:27:10.270             8.489                Novosib           265.281
       456   05 Jun 2027 10:45:57.453   05 Jun 2027 10:49:21.593           204.140                  Delhi          6379.375
       457   05 Jun 2027 11:02:18.169   05 Jun 2027 11:02:25.121             6.952                Novosib           217.250
       458   05 Jun 2027 11:03:43.190   05 Jun 2027 11:03:50.400             7.210                Novosib           225.313
       459   05 Jun 2027 12:29:31.787   05 Jun 2027 12:30:58.160            86.373                 Moscow          2699.156
       460   05 Jun 2027 12:31:57.279   05 Jun 2027 12:32:42.607            45.328                 Moscow          1416.500
       461   05 Jun 2027 12:32:53.381   05 Jun 2027 12:33:52.825            59.444                 Moscow          1857.625
       462   05 Jun 2027 12:34:14.138   05 Jun 2027 12:34:15.926             1.788                 Moscow            55.875
       463   05 Jun 2027 12:34:23.516   05 Jun 2027 12:35:37.998            74.482              Murmansk1          2327.563
       464   05 Jun 2027 12:35:52.740   05 Jun 2027 12:36:14.010            21.270              Murmansk1           664.688
       465   05 Jun 2027 12:36:31.820   05 Jun 2027 12:36:57.377            25.557              Murmansk1           798.656
       466   05 Jun 2027 12:38:51.416   05 Jun 2027 12:39:10.200            18.784              Murmansk1           587.000
       467   05 Jun 2027 12:42:02.744   05 Jun 2027 12:42:09.773             7.029                Norilsk           219.656
       468   05 Jun 2027 12:49:36.442   05 Jun 2027 12:52:34.435           177.993                Anadyr1          5562.281
       469   05 Jun 2027 13:44:53.242   05 Jun 2027 13:45:40.573            47.331               CapeTown          1479.094
       470   05 Jun 2027 13:54:27.026   05 Jun 2027 13:55:28.850            61.824               CapeTown          1932.000
       471   05 Jun 2027 14:10:49.663   05 Jun 2027 14:12:10.515            80.852              Murmansk2          2526.625
       472   05 Jun 2027 14:13:50.084   05 Jun 2027 14:14:19.632            29.548              Murmansk2           923.375
       473   05 Jun 2027 14:23:43.826   05 Jun 2027 14:25:46.227           122.401                Anadyr2          3825.031
       474   05 Jun 2027 14:26:19.958   05 Jun 2027 14:27:47.634            87.676                Anadyr1          2739.875
       475   05 Jun 2027 14:31:08.230   05 Jun 2027 14:31:21.808            13.578                Anadyr1           424.312
       476   05 Jun 2027 15:51:17.324   05 Jun 2027 15:53:23.240           125.916              Murmansk2          3934.875
       477   05 Jun 2027 15:59:28.469   05 Jun 2027 16:01:03.267            94.798                Anadyr1          2962.437
       478   05 Jun 2027 16:01:27.472   05 Jun 2027 16:02:12.182            44.710                Anadyr2          1397.188
       479   05 Jun 2027 16:02:18.031   05 Jun 2027 16:06:09.252           231.221               Magadan1          7225.656
       480   05 Jun 2027 16:10:11.357   05 Jun 2027 16:10:16.942             5.585               Magadan2           174.531
       481   05 Jun 2027 16:11:26.004   05 Jun 2027 16:12:26.874            60.870               Magadan2          1902.188
       482   05 Jun 2027 17:35:23.864   05 Jun 2027 17:36:18.380            54.516                Anadyr2          1703.625
