uniorb/output/strategy_4/Drop/Drop_KinoSat_111203.txt

KinoSat_111203
-------------------------
    Access    *     Start Time (UTCG)     *     Stop Time (UTCG)  *   Duration (s)        *       Station  *  Data (Mbytes)
         1   01 Jun 2027 03:54:19.558   01 Jun 2027 03:55:56.187            96.629                 Moscow          3019.656
         2   01 Jun 2027 03:56:09.370   01 Jun 2027 03:57:42.865            93.495              Murmansk1          2921.719
         3   01 Jun 2027 03:58:54.191   01 Jun 2027 04:00:41.255           107.064                 Moscow          3345.750
         4   01 Jun 2027 04:17:01.097   01 Jun 2027 04:18:42.455           101.358               CapeTown          3167.438
         5   01 Jun 2027 04:22:05.670   01 Jun 2027 04:22:51.699            46.029               CapeTown          1438.406
         6   01 Jun 2027 05:16:04.857   01 Jun 2027 05:17:38.990            94.133                Anadyr2          2941.656
         7   01 Jun 2027 05:17:44.524   01 Jun 2027 05:18:06.956            22.432                Anadyr1           701.000
         8   01 Jun 2027 05:19:49.888   01 Jun 2027 05:20:00.697            10.809                Anadyr1           337.781
         9   01 Jun 2027 05:20:15.256   01 Jun 2027 05:21:09.431            54.175                Anadyr1          1692.969
        10   01 Jun 2027 06:52:43.292   01 Jun 2027 06:53:14.406            31.114                Anadyr2           972.312
        11   01 Jun 2027 06:53:22.018   01 Jun 2027 06:55:05.473           103.455               Magadan1          3232.969
        12   01 Jun 2027 06:55:50.665   01 Jun 2027 06:56:27.167            36.502                Anadyr1          1140.687
        13   01 Jun 2027 08:27:06.731   01 Jun 2027 08:27:32.635            25.904                Irkutsk           809.500
        14   01 Jun 2027 08:28:22.732   01 Jun 2027 08:32:25.075           242.343               Magadan1          7573.219
        15   01 Jun 2027 08:32:43.858   01 Jun 2027 08:33:50.416            66.558              Murmansk2          2079.937
        16   01 Jun 2027 09:07:31.790   01 Jun 2027 09:08:43.771            71.981            RioGallegos          2249.406
        17   01 Jun 2027 09:42:55.088   01 Jun 2027 09:43:40.615            45.527                Sumatra          1422.719
        18   01 Jun 2027 10:04:11.452   01 Jun 2027 10:08:48.173           276.721                Irkutsk          8647.531
        19   01 Jun 2027 11:42:46.654   01 Jun 2027 11:43:25.345            38.691                 Moscow          1209.094
        20   01 Jun 2027 11:43:29.719   01 Jun 2027 11:44:13.500            43.781                Novosib          1368.156
        21   01 Jun 2027 11:44:38.124   01 Jun 2027 11:45:28.908            50.784                 Moscow          1587.000
        22   01 Jun 2027 13:04:59.460   01 Jun 2027 13:06:47.398           107.938                  Delhi          3373.063
        23   01 Jun 2027 13:07:36.164   01 Jun 2027 13:09:36.259           120.095                  Delhi          3752.969
        24   01 Jun 2027 13:14:30.937   01 Jun 2027 13:16:54.728           143.791              Murmansk2          4493.469
        25   01 Jun 2027 13:17:19.053   01 Jun 2027 13:17:36.464            17.411                Norilsk           544.094
        26   01 Jun 2027 13:17:39.708   01 Jun 2027 13:18:00.746            21.038                Novosib           657.438
        27   01 Jun 2027 13:18:13.605   01 Jun 2027 13:18:24.760            11.155                Norilsk           348.594
        28   01 Jun 2027 13:19:50.983   01 Jun 2027 13:20:18.747            27.764                Norilsk           867.625
        29   01 Jun 2027 13:20:42.462   01 Jun 2027 13:21:40.013            57.551                Norilsk          1798.469
        30   01 Jun 2027 14:28:00.832   01 Jun 2027 14:29:44.716           103.884               CapeTown          3246.375
        31   01 Jun 2027 14:31:22.039   01 Jun 2027 14:32:45.173            83.134               CapeTown          2597.938
        32   01 Jun 2027 14:47:25.907   01 Jun 2027 14:49:00.643            94.736                 Moscow          2960.500
        33   01 Jun 2027 14:50:53.843   01 Jun 2027 14:51:57.594            63.751              Murmansk1          1992.219
        34   01 Jun 2027 14:51:57.594   01 Jun 2027 14:53:47.686           110.092              Murmansk2          3440.375
        35   01 Jun 2027 15:06:05.449   01 Jun 2027 15:08:24.880           139.431                Anadyr2          4357.219
        36   01 Jun 2027 16:00:30.989   01 Jun 2027 16:01:27.200            56.211               CapeTown          1756.594
        37   01 Jun 2027 16:06:22.899   01 Jun 2027 16:07:28.217            65.318               CapeTown          2041.188
        38   01 Jun 2027 16:27:55.188   01 Jun 2027 16:28:30.362            35.174                 Moscow          1099.188
        39   01 Jun 2027 16:29:16.550   01 Jun 2027 16:30:05.811            49.261              Murmansk2          1539.406
        40   01 Jun 2027 16:31:08.912   01 Jun 2027 16:31:47.187            38.275              Murmansk2          1196.094
        41   01 Jun 2027 16:33:25.848   01 Jun 2027 16:33:52.797            26.949              Murmansk1           842.156
        42   01 Jun 2027 16:37:06.427   01 Jun 2027 16:37:38.212            31.785              Murmansk1           993.281
        43   01 Jun 2027 16:41:10.085   01 Jun 2027 16:43:20.064           129.979                Anadyr1          4061.844
        44   01 Jun 2027 16:44:25.121   01 Jun 2027 16:44:38.353            13.232                Anadyr2           413.500
        45   01 Jun 2027 16:46:11.156   01 Jun 2027 16:46:32.502            21.346                Anadyr1           667.062
        46   01 Jun 2027 16:47:12.877   01 Jun 2027 16:47:54.747            41.870               Magadan1          1308.438
        47   01 Jun 2027 16:50:32.584   01 Jun 2027 16:50:44.294            11.710                Anadyr2           365.938
        48   01 Jun 2027 16:51:59.506   01 Jun 2027 16:52:26.833            27.327                Anadyr1           853.969
        49   01 Jun 2027 16:52:35.139   01 Jun 2027 16:52:49.428            14.289                Anadyr2           446.531
        50   01 Jun 2027 17:37:55.356   01 Jun 2027 17:38:36.998            41.642               CapeTown          1301.313
        51   01 Jun 2027 17:43:21.109   01 Jun 2027 17:43:44.668            23.559               CapeTown           736.219
        52   01 Jun 2027 17:46:33.349   01 Jun 2027 17:46:33.789             0.440               CapeTown            13.750
        53   01 Jun 2027 18:11:10.435   01 Jun 2027 18:13:43.868           153.433              Murmansk1          4794.781
        54   01 Jun 2027 18:17:00.882   01 Jun 2027 18:19:52.637           171.755                Anadyr1          5367.344
        55   01 Jun 2027 18:20:04.872   01 Jun 2027 18:20:21.564            16.692                Anadyr1           521.625
        56   01 Jun 2027 18:20:25.891   01 Jun 2027 18:21:03.226            37.335               Magadan1          1166.719
        57   01 Jun 2027 18:22:12.347   01 Jun 2027 18:23:09.573            57.226               Magadan2          1788.312
        58   01 Jun 2027 18:23:57.172   01 Jun 2027 18:24:06.667             9.495               Magadan1           296.719
        59   01 Jun 2027 18:29:43.945   01 Jun 2027 18:30:08.937            24.992               Magadan2           781.000
        60   01 Jun 2027 19:52:55.735   01 Jun 2027 19:54:59.635           123.900                Anadyr2          3871.875
        61   01 Jun 2027 19:55:12.647   01 Jun 2027 19:59:37.324           264.677               Magadan2          8271.156
        62   01 Jun 2027 20:02:09.667   01 Jun 2027 20:03:04.099            54.432               Magadan2          1701.000
        63   01 Jun 2027 20:04:59.807   01 Jun 2027 20:05:04.935             5.128               Magadan2           160.250
        64   01 Jun 2027 20:05:36.534   01 Jun 2027 20:05:42.808             6.274               Magadan2           196.062
        65   01 Jun 2027 20:06:06.433   01 Jun 2027 20:06:18.857            12.424               Magadan1           388.250
        66   01 Jun 2027 20:06:34.094   01 Jun 2027 20:07:29.081            54.987               Magadan1          1718.344
        67   01 Jun 2027 20:47:27.507   01 Jun 2027 20:49:51.879           144.372            RioGallegos          4511.625
        68   01 Jun 2027 20:50:52.312   01 Jun 2027 20:51:19.144            26.832            RioGallegos           838.500
        69   01 Jun 2027 20:56:37.072   01 Jun 2027 20:56:52.949            15.877            RioGallegos           496.156
        70   01 Jun 2027 21:28:33.334   01 Jun 2027 21:29:15.920            42.586                Anadyr2          1330.813
        71   01 Jun 2027 21:30:46.596   01 Jun 2027 21:34:05.684           199.088                Norilsk          6221.500
        72   01 Jun 2027 21:34:59.721   01 Jun 2027 21:35:36.324            36.603                Irkutsk          1143.844
        73   01 Jun 2027 21:36:23.667   01 Jun 2027 21:36:46.883            23.216                Irkutsk           725.500
        74   01 Jun 2027 21:37:13.562   01 Jun 2027 21:38:40.555            86.993                Novosib          2718.531
        75   01 Jun 2027 21:48:47.220   01 Jun 2027 21:51:00.701           133.481                Sumatra          4171.281
        76   01 Jun 2027 23:03:20.158   01 Jun 2027 23:05:01.589           101.431                Anadyr2          3169.719
        77   01 Jun 2027 23:05:28.254   01 Jun 2027 23:05:40.998            12.744                Anadyr1           398.250
        78   01 Jun 2027 23:05:53.768   01 Jun 2027 23:06:03.162             9.394                Anadyr1           293.563
        79   01 Jun 2027 23:06:43.057   01 Jun 2027 23:07:23.700            40.643                Norilsk          1270.094
        80   01 Jun 2027 23:08:20.214   01 Jun 2027 23:09:23.787            63.573               Magadan2          1986.656
        81   01 Jun 2027 23:09:53.403   01 Jun 2027 23:10:11.110            17.707               Magadan1           553.344
        82   01 Jun 2027 23:10:31.003   01 Jun 2027 23:11:02.190            31.187               Magadan1           974.594
        83   01 Jun 2027 23:11:04.005   01 Jun 2027 23:11:58.099            54.094                Novosib          1690.438
        84   01 Jun 2027 23:12:22.978   01 Jun 2027 23:12:41.662            18.684                Novosib           583.875
        85   01 Jun 2027 23:13:13.410   01 Jun 2027 23:13:20.797             7.387                Novosib           230.844
        86   01 Jun 2027 23:16:07.346   01 Jun 2027 23:16:58.117            50.771                Novosib          1586.594
        87   01 Jun 2027 23:18:37.189   01 Jun 2027 23:19:59.669            82.480                  Delhi          2577.500
        88   01 Jun 2027 23:20:08.186   01 Jun 2027 23:20:24.328            16.142                  Delhi           504.438
        89   01 Jun 2027 23:24:42.271   01 Jun 2027 23:24:48.242             5.971                  Delhi           186.594
        90   01 Jun 2027 23:26:08.328   01 Jun 2027 23:27:58.407           110.079                  Delhi          3439.969
        91   02 Jun 2027 00:36:55.117   02 Jun 2027 00:37:23.027            27.910                Anadyr2           872.187
        92   02 Jun 2027 00:37:23.027   02 Jun 2027 00:38:07.428            44.401                Anadyr1          1387.531
        93   02 Jun 2027 00:39:26.574   02 Jun 2027 00:39:41.204            14.630                Anadyr1           457.188
        94   02 Jun 2027 00:42:21.078   02 Jun 2027 00:42:44.605            23.527                Anadyr2           735.219
        95   02 Jun 2027 00:42:48.556   02 Jun 2027 00:42:58.938            10.382                Anadyr2           324.438
        96   02 Jun 2027 00:42:59.877   02 Jun 2027 00:43:22.589            22.712                Norilsk           709.750
        97   02 Jun 2027 00:43:23.259   02 Jun 2027 00:44:56.190            92.931               Magadan2          2904.094
        98   02 Jun 2027 00:45:05.896   02 Jun 2027 00:47:03.599           117.703              Murmansk2          3678.219
        99   02 Jun 2027 00:47:20.523   02 Jun 2027 00:48:14.614            54.091              Murmansk1          1690.344
       100   02 Jun 2027 00:50:07.013   02 Jun 2027 00:50:31.381            24.368                 Moscow           761.500
       101   02 Jun 2027 00:50:48.870   02 Jun 2027 00:52:05.392            76.522                 Moscow          2391.312
       102   02 Jun 2027 01:03:49.985   02 Jun 2027 01:04:15.231            25.246                  Delhi           788.938
       103   02 Jun 2027 02:10:18.417   02 Jun 2027 02:12:55.375           156.958                Anadyr2          4904.937
       104   02 Jun 2027 02:13:23.827   02 Jun 2027 02:13:33.013             9.186                Anadyr2           287.062
       105   02 Jun 2027 02:15:29.451   02 Jun 2027 02:16:51.916            82.465               Magadan1          2577.031
       106   02 Jun 2027 02:17:35.088   02 Jun 2027 02:17:51.115            16.027               Magadan1           500.844
       107   02 Jun 2027 02:18:36.309   02 Jun 2027 02:18:39.155             2.846                Norilsk            88.938
       108   02 Jun 2027 02:19:41.536   02 Jun 2027 02:20:09.505            27.969                Norilsk           874.031
       109   02 Jun 2027 02:20:50.249   02 Jun 2027 02:21:41.844            51.595              Murmansk2          1612.344
       110   02 Jun 2027 02:21:43.254   02 Jun 2027 02:22:46.062            62.808              Murmansk1          1962.750
       111   02 Jun 2027 02:25:05.697   02 Jun 2027 02:25:32.256            26.559                 Moscow           829.969
       112   02 Jun 2027 02:27:38.375   02 Jun 2027 02:28:04.652            26.277                Novosib           821.156
       113   02 Jun 2027 02:31:50.406   02 Jun 2027 02:32:23.060            32.654                Novosib          1020.438
       114   02 Jun 2027 02:34:44.198   02 Jun 2027 02:34:50.183             5.985                 Moscow           187.031
       115   02 Jun 2027 02:35:08.305   02 Jun 2027 02:35:50.731            42.426                 Moscow          1325.813
       116   02 Jun 2027 02:55:06.766   02 Jun 2027 02:55:38.739            31.973               CapeTown           999.156
       117   02 Jun 2027 02:58:37.436   02 Jun 2027 02:58:54.098            16.662               CapeTown           520.687
       118   02 Jun 2027 03:00:19.336   02 Jun 2027 03:00:27.477             8.141               CapeTown           254.406
       119   02 Jun 2027 03:52:14.606   02 Jun 2027 03:53:49.974            95.368                Anadyr2          2980.250
       120   02 Jun 2027 03:53:50.552   02 Jun 2027 03:54:48.696            58.144               Magadan2          1817.000
       121   02 Jun 2027 04:05:36.843   02 Jun 2027 04:06:43.911            67.068              Murmansk1          2095.875
       122   02 Jun 2027 04:06:43.911   02 Jun 2027 04:08:11.748            87.837              Murmansk2          2744.906
       123   02 Jun 2027 04:09:03.971   02 Jun 2027 04:11:38.418           154.447                 Moscow          4826.469
       124   02 Jun 2027 04:24:36.079   02 Jun 2027 04:25:18.975            42.896               CapeTown          1340.500
       125   02 Jun 2027 05:26:39.730   02 Jun 2027 05:28:30.746           111.016                Anadyr2          3469.250
       126   02 Jun 2027 05:28:47.947   02 Jun 2027 05:33:07.688           259.741               Magadan1          8116.906
       127   02 Jun 2027 07:05:36.320   02 Jun 2027 07:06:29.218            52.898                Irkutsk          1653.063
       128   02 Jun 2027 07:07:01.710   02 Jun 2027 07:09:07.640           125.930               Magadan2          3935.312
       129   02 Jun 2027 08:40:37.273   02 Jun 2027 08:40:53.653            16.380                Irkutsk           511.875
       130   02 Jun 2027 08:41:24.107   02 Jun 2027 08:44:13.858           169.751               Magadan1          5304.719
       131   02 Jun 2027 08:46:32.178   02 Jun 2027 08:46:45.974            13.796              Murmansk2           431.125
       132   02 Jun 2027 08:47:20.738   02 Jun 2027 08:47:48.182            27.444              Murmansk2           857.625
       133   02 Jun 2027 09:19:34.302   02 Jun 2027 09:21:51.957           137.655            RioGallegos          4301.719
       134   02 Jun 2027 09:25:22.324   02 Jun 2027 09:26:35.550            73.226            RioGallegos          2288.313
       135   02 Jun 2027 09:57:26.924   02 Jun 2027 09:57:34.317             7.393                Sumatra           231.031
       136   02 Jun 2027 09:59:46.643   02 Jun 2027 10:00:43.431            56.788                Sumatra          1774.625
       137   02 Jun 2027 10:16:56.651   02 Jun 2027 10:17:05.065             8.414                Irkutsk           262.938
       138   02 Jun 2027 10:17:20.298   02 Jun 2027 10:17:48.455            28.157                Novosib           879.906
       139   02 Jun 2027 10:17:52.402   02 Jun 2027 10:17:59.268             6.866                Irkutsk           214.562
       140   02 Jun 2027 10:18:18.918   02 Jun 2027 10:18:27.486             8.568                Norilsk           267.750
       141   02 Jun 2027 10:18:32.043   02 Jun 2027 10:18:47.992            15.949                Novosib           498.406
       142   02 Jun 2027 10:18:53.712   02 Jun 2027 10:20:06.200            72.488                Norilsk          2265.250
       143   02 Jun 2027 10:20:23.270   02 Jun 2027 10:20:34.716            11.446                Novosib           357.688
       144   02 Jun 2027 10:58:05.165   02 Jun 2027 10:58:13.249             8.084            RioGallegos           252.625
       145   02 Jun 2027 10:58:37.451   02 Jun 2027 10:59:09.299            31.848            RioGallegos           995.250
       146   02 Jun 2027 11:00:36.407   02 Jun 2027 11:01:54.493            78.086            RioGallegos          2440.187
       147   02 Jun 2027 11:32:25.152   02 Jun 2027 11:32:36.182            11.030                Sumatra           344.688
       148   02 Jun 2027 11:41:34.864   02 Jun 2027 11:41:52.425            17.561                  Delhi           548.781
       149   02 Jun 2027 11:42:26.400   02 Jun 2027 11:42:41.744            15.344                  Delhi           479.500
       150   02 Jun 2027 11:52:36.221   02 Jun 2027 11:52:40.879             4.658                Irkutsk           145.563
       151   02 Jun 2027 11:52:52.550   02 Jun 2027 11:53:22.741            30.191                Novosib           943.469
       152   02 Jun 2027 11:54:00.377   02 Jun 2027 11:54:45.170            44.793                 Moscow          1399.781
       153   02 Jun 2027 11:54:52.362   02 Jun 2027 11:55:16.151            23.789              Murmansk2           743.406
       154   02 Jun 2027 11:55:26.485   02 Jun 2027 11:56:06.558            40.073                Norilsk          1252.281
       155   02 Jun 2027 11:56:11.496   02 Jun 2027 11:56:17.783             6.287              Murmansk2           196.469
       156   02 Jun 2027 11:56:20.127   02 Jun 2027 11:56:54.956            34.829                Norilsk          1088.406
       157   02 Jun 2027 13:18:12.783   02 Jun 2027 13:21:35.453           202.670                  Delhi          6333.437
       158   02 Jun 2027 13:26:30.337   02 Jun 2027 13:27:27.705            57.368              Murmansk2          1792.750
       159   02 Jun 2027 13:27:27.705   02 Jun 2027 13:28:01.500            33.795              Murmansk1          1056.094
       160   02 Jun 2027 13:28:10.710   02 Jun 2027 13:29:01.950            51.240              Murmansk2          1601.250
       161   02 Jun 2027 13:29:14.920   02 Jun 2027 13:30:29.765            74.845                Norilsk          2338.906
       162   02 Jun 2027 13:32:20.944   02 Jun 2027 13:32:45.593            24.649                Norilsk           770.281
       163   02 Jun 2027 13:33:58.477   02 Jun 2027 13:34:20.019            21.542                Norilsk           673.187
       164   02 Jun 2027 14:38:53.691   02 Jun 2027 14:41:20.056           146.365               CapeTown          4573.906
       165   02 Jun 2027 14:42:46.776   02 Jun 2027 14:43:32.685            45.909               CapeTown          1434.656
       166   02 Jun 2027 14:45:54.631   02 Jun 2027 14:46:29.160            34.529               CapeTown          1079.031
       167   02 Jun 2027 15:03:06.426   02 Jun 2027 15:03:58.661            52.235              Murmansk1          1632.344
       168   02 Jun 2027 15:06:16.109   02 Jun 2027 15:06:35.019            18.910              Murmansk2           590.937
       169   02 Jun 2027 15:11:37.087   02 Jun 2027 15:11:52.697            15.610              Murmansk2           487.813
       170   02 Jun 2027 15:12:18.839   02 Jun 2027 15:12:28.278             9.439              Murmansk2           294.969
       171   02 Jun 2027 15:13:33.783   02 Jun 2027 15:13:53.451            19.668              Murmansk1           614.625
       172   02 Jun 2027 15:17:53.079   02 Jun 2027 15:19:56.065           122.986                Anadyr2          3843.312
       173   02 Jun 2027 15:21:07.888   02 Jun 2027 15:21:23.308            15.420                Anadyr1           481.875
       174   02 Jun 2027 15:23:04.367   02 Jun 2027 15:23:25.930            21.563                Anadyr1           673.844
       175   02 Jun 2027 16:16:10.241   02 Jun 2027 16:16:26.738            16.497               CapeTown           515.531
       176   02 Jun 2027 16:17:11.149   02 Jun 2027 16:18:23.311            72.162               CapeTown          2255.062
       177   02 Jun 2027 16:41:32.055   02 Jun 2027 16:42:12.297            40.242                 Moscow          1257.562
       178   02 Jun 2027 16:42:50.020   02 Jun 2027 16:43:48.532            58.512              Murmansk2          1828.500
       179   02 Jun 2027 16:45:23.216   02 Jun 2027 16:45:54.808            31.592              Murmansk2           987.250
       180   02 Jun 2027 16:49:39.917   02 Jun 2027 16:50:17.925            38.008              Murmansk2          1187.750
       181   02 Jun 2027 16:53:09.858   02 Jun 2027 16:54:26.661            76.803                Anadyr2          2400.094
       182   02 Jun 2027 16:54:47.324   02 Jun 2027 16:54:57.734            10.410                Anadyr1           325.312
       183   02 Jun 2027 16:57:33.887   02 Jun 2027 16:59:16.346           102.459               Magadan1          3201.844
       184   02 Jun 2027 16:59:16.346   02 Jun 2027 16:59:50.352            34.006               Magadan2          1062.688
       185   02 Jun 2027 18:29:02.402   02 Jun 2027 18:31:09.785           127.383                Anadyr2          3980.719
       186   02 Jun 2027 18:31:30.705   02 Jun 2027 18:35:41.034           250.329               Magadan2          7822.781
       187   02 Jun 2027 18:41:11.995   02 Jun 2027 18:41:52.761            40.766               Magadan1          1273.937
       188   02 Jun 2027 20:04:56.353   02 Jun 2027 20:07:01.115           124.762                Anadyr2          3898.812
       189   02 Jun 2027 20:07:14.178   02 Jun 2027 20:11:16.174           241.996               Magadan2          7562.375
       190   02 Jun 2027 20:11:34.716   02 Jun 2027 20:11:47.958            13.242               Magadan2           413.813
       191   02 Jun 2027 20:12:23.683   02 Jun 2027 20:12:36.157            12.474               Magadan2           389.813
       192   02 Jun 2027 20:14:11.854   02 Jun 2027 20:14:43.957            32.103               Magadan2          1003.219
       193   02 Jun 2027 20:14:48.184   02 Jun 2027 20:16:04.098            75.914                Irkutsk          2372.312
       194   02 Jun 2027 20:59:16.534   02 Jun 2027 21:00:26.493            69.959            RioGallegos          2186.219
       195   02 Jun 2027 21:00:52.953   02 Jun 2027 21:02:14.089            81.136            RioGallegos          2535.500
       196   02 Jun 2027 21:42:47.225   02 Jun 2027 21:43:17.456            30.231                Norilsk           944.719
       197   02 Jun 2027 21:43:18.026   02 Jun 2027 21:45:02.839           104.813               Magadan2          3275.406
       198   02 Jun 2027 21:45:34.644   02 Jun 2027 21:46:02.779            28.135               Magadan1           879.219
       199   02 Jun 2027 21:46:44.841   02 Jun 2027 21:46:58.335            13.494                Norilsk           421.687
       200   02 Jun 2027 21:47:22.049   02 Jun 2027 21:48:49.036            86.987                Irkutsk          2718.344
       201   02 Jun 2027 21:49:09.771   02 Jun 2027 21:49:19.684             9.913                Novosib           309.781
       202   02 Jun 2027 21:50:22.355   02 Jun 2027 21:50:44.274            21.919                Novosib           684.969
       203   02 Jun 2027 21:51:15.021   02 Jun 2027 21:51:22.742             7.721                Novosib           241.281
       204   02 Jun 2027 21:52:49.571   02 Jun 2027 21:54:48.294           118.723                Novosib          3710.094
       205   02 Jun 2027 22:10:06.204   02 Jun 2027 22:10:44.928            38.724                Sumatra          1210.125
       206   02 Jun 2027 23:15:07.480   02 Jun 2027 23:17:27.172           139.692                Anadyr1          4365.375
       207   02 Jun 2027 23:18:45.138   02 Jun 2027 23:19:12.065            26.927                Norilsk           841.469
       208   02 Jun 2027 23:19:23.255   02 Jun 2027 23:20:41.184            77.929               Magadan1          2435.281
       209   02 Jun 2027 23:21:02.407   02 Jun 2027 23:21:13.079            10.672               Magadan1           333.500
       210   02 Jun 2027 23:22:22.812   02 Jun 2027 23:22:30.472             7.660               Magadan1           239.375
       211   02 Jun 2027 23:22:42.111   02 Jun 2027 23:23:12.544            30.433                Novosib           951.031
       212   02 Jun 2027 23:24:02.107   02 Jun 2027 23:24:45.845            43.738                Novosib          1366.813
       213   02 Jun 2027 23:25:19.837   02 Jun 2027 23:25:29.339             9.502                Novosib           296.937
       214   02 Jun 2027 23:27:54.190   02 Jun 2027 23:28:23.867            29.677                Novosib           927.406
       215   02 Jun 2027 23:30:21.143   02 Jun 2027 23:31:15.422            54.279                  Delhi          1696.219
       216   02 Jun 2027 23:32:18.148   02 Jun 2027 23:32:27.943             9.795                  Delhi           306.094
       217   02 Jun 2027 23:33:16.744   02 Jun 2027 23:33:48.068            31.324                  Delhi           978.875
       218   02 Jun 2027 23:37:41.209   02 Jun 2027 23:38:57.570            76.361                  Delhi          2386.281
       219   03 Jun 2027 00:48:36.150   03 Jun 2027 00:48:55.945            19.795                Anadyr1           618.594
       220   03 Jun 2027 00:49:30.318   03 Jun 2027 00:50:03.373            33.055                Anadyr2          1032.969
       221   03 Jun 2027 00:50:25.439   03 Jun 2027 00:50:56.462            31.023                Anadyr2           969.469
       222   03 Jun 2027 00:54:15.133   03 Jun 2027 00:54:41.429            26.296                Anadyr2           821.750
       223   03 Jun 2027 00:54:43.260   03 Jun 2027 00:55:41.199            57.939               Magadan1          1810.594
       224   03 Jun 2027 00:55:41.199   03 Jun 2027 00:55:45.288             4.089               Magadan2           127.781
       225   03 Jun 2027 00:56:14.796   03 Jun 2027 00:56:57.220            42.424               Magadan2          1325.750
       226   03 Jun 2027 00:57:03.660   03 Jun 2027 00:57:46.590            42.930              Murmansk2          1341.562
       227   03 Jun 2027 00:57:51.200   03 Jun 2027 00:59:04.859            73.659              Murmansk2          2301.844
       228   03 Jun 2027 01:00:25.554   03 Jun 2027 01:00:56.804            31.250                Novosib           976.562
       229   03 Jun 2027 01:01:37.207   03 Jun 2027 01:02:07.025            29.818                 Moscow           931.812
       230   03 Jun 2027 01:04:43.552   03 Jun 2027 01:04:57.677            14.125                 Moscow           441.406
       231   03 Jun 2027 01:05:19.157   03 Jun 2027 01:05:38.208            19.051                 Moscow           595.344
       232   03 Jun 2027 01:11:40.429   03 Jun 2027 01:11:48.325             7.896                  Delhi           246.750
       233   03 Jun 2027 01:12:36.082   03 Jun 2027 01:13:46.997            70.915                  Delhi          2216.094
       234   03 Jun 2027 02:22:04.167   03 Jun 2027 02:23:58.709           114.542                Anadyr1          3579.438
       235   03 Jun 2027 02:24:10.701   03 Jun 2027 02:24:20.341             9.640                Anadyr1           301.250
       236   03 Jun 2027 02:24:42.189   03 Jun 2027 02:25:16.148            33.959                Anadyr1          1061.219
       237   03 Jun 2027 02:26:57.243   03 Jun 2027 02:28:13.280            76.037               Magadan2          2376.156
       238   03 Jun 2027 02:32:07.340   03 Jun 2027 02:32:56.705            49.365                Norilsk          1542.656
       239   03 Jun 2027 02:33:30.540   03 Jun 2027 02:34:12.600            42.060              Murmansk1          1314.375
       240   03 Jun 2027 02:34:58.679   03 Jun 2027 02:36:42.334           103.655                Novosib          3239.219
       241   03 Jun 2027 02:43:29.520   03 Jun 2027 02:43:35.428             5.908                Novosib           184.625
       242   03 Jun 2027 03:00:21.532   03 Jun 2027 03:00:47.680            26.148               CapeTown           817.125
       243   03 Jun 2027 03:03:02.062   03 Jun 2027 03:03:50.180            48.118               CapeTown          1503.688
       244   03 Jun 2027 03:10:50.403   03 Jun 2027 03:11:18.297            27.894               CapeTown           871.687
       245   03 Jun 2027 04:03:35.751   03 Jun 2027 04:04:59.835            84.084               Magadan1          2627.625
       246   03 Jun 2027 04:05:17.150   03 Jun 2027 04:07:48.141           150.991                Anadyr2          4718.469
       247   03 Jun 2027 05:40:03.021   03 Jun 2027 05:45:15.551           312.530               Magadan2          9766.563
       248   03 Jun 2027 05:45:18.034   03 Jun 2027 05:45:31.932            13.898                Anadyr1           434.312
       249   03 Jun 2027 07:14:51.552   03 Jun 2027 07:16:36.713           105.161                Anadyr2          3286.281
       250   03 Jun 2027 07:17:23.120   03 Jun 2027 07:17:31.642             8.522                Anadyr2           266.312
       251   03 Jun 2027 07:17:40.506   03 Jun 2027 07:18:08.363            27.857               Magadan1           870.531
       252   03 Jun 2027 07:18:08.363   03 Jun 2027 07:18:27.488            19.125               Magadan2           597.656
       253   03 Jun 2027 07:18:45.954   03 Jun 2027 07:18:50.087             4.133               Magadan2           129.156
       254   03 Jun 2027 07:18:56.571   03 Jun 2027 07:19:22.163            25.592               Magadan1           799.750
       255   03 Jun 2027 07:19:43.514   03 Jun 2027 07:19:54.452            10.938                Anadyr2           341.813
       256   03 Jun 2027 07:20:30.065   03 Jun 2027 07:20:50.792            20.727                Anadyr2           647.719
       257   03 Jun 2027 07:56:49.845   03 Jun 2027 07:57:04.886            15.041            RioGallegos           470.031
       258   03 Jun 2027 07:58:17.007   03 Jun 2027 07:58:41.086            24.079            RioGallegos           752.469
       259   03 Jun 2027 08:52:25.563   03 Jun 2027 08:52:30.806             5.243                Novosib           163.844
       260   03 Jun 2027 08:52:45.001   03 Jun 2027 08:52:50.860             5.859               Magadan2           183.094
       261   03 Jun 2027 08:52:59.888   03 Jun 2027 08:53:18.576            18.688                Irkutsk           584.000
       262   03 Jun 2027 08:53:39.800   03 Jun 2027 08:53:56.999            17.199                Irkutsk           537.469
       263   03 Jun 2027 08:54:06.041   03 Jun 2027 08:54:44.247            38.206                Novosib          1193.937
       264   03 Jun 2027 08:55:07.787   03 Jun 2027 08:55:53.079            45.292                Irkutsk          1415.375
       265   03 Jun 2027 08:56:13.116   03 Jun 2027 08:56:55.422            42.306                Irkutsk          1322.062
       266   03 Jun 2027 09:31:40.256   03 Jun 2027 09:32:37.361            57.105            RioGallegos          1784.531
       267   03 Jun 2027 10:06:33.020   03 Jun 2027 10:07:16.324            43.304                Sumatra          1353.250
       268   03 Jun 2027 10:09:36.611   03 Jun 2027 10:09:49.812            13.201                Sumatra           412.531
       269   03 Jun 2027 10:19:54.278   03 Jun 2027 10:20:39.961            45.683                  Delhi          1427.594
       270   03 Jun 2027 10:28:33.079   03 Jun 2027 10:28:42.598             9.519                Novosib           297.469
       271   03 Jun 2027 10:29:04.717   03 Jun 2027 10:29:05.544             0.827                Irkutsk            25.844
       272   03 Jun 2027 10:29:27.887   03 Jun 2027 10:30:02.785            34.898                Novosib          1090.562
       273   03 Jun 2027 10:30:09.991   03 Jun 2027 10:30:11.490             1.499                Irkutsk            46.844
       274   03 Jun 2027 10:30:15.930   03 Jun 2027 10:30:25.318             9.388                Irkutsk           293.375
       275   03 Jun 2027 10:30:35.891   03 Jun 2027 10:30:42.602             6.711                Novosib           209.719
       276   03 Jun 2027 10:30:46.012   03 Jun 2027 10:31:12.301            26.289                Irkutsk           821.531
       277   03 Jun 2027 10:31:40.422   03 Jun 2027 10:31:54.702            14.280                Irkutsk           446.250
       278   03 Jun 2027 10:32:05.804   03 Jun 2027 10:32:29.258            23.454                Novosib           732.938
       279   03 Jun 2027 10:32:34.603   03 Jun 2027 10:33:55.983            81.380                Novosib          2543.125
       280   03 Jun 2027 11:16:57.474   03 Jun 2027 11:17:29.552            32.078            RioGallegos          1002.438
       281   03 Jun 2027 11:45:40.341   03 Jun 2027 11:46:37.025            56.684                Sumatra          1771.375
       282   03 Jun 2027 12:05:25.954   03 Jun 2027 12:05:53.612            27.658                Irkutsk           864.313
       283   03 Jun 2027 12:12:00.505   03 Jun 2027 12:13:11.137            70.632                Norilsk          2207.250
       284   03 Jun 2027 13:37:52.320   03 Jun 2027 13:37:56.499             4.179                 Moscow           130.594
       285   03 Jun 2027 13:38:31.183   03 Jun 2027 13:39:31.259            60.076              Murmansk1          1877.375
       286   03 Jun 2027 13:40:34.566   03 Jun 2027 13:42:43.038           128.472                Novosib          4014.750
       287   03 Jun 2027 13:43:31.671   03 Jun 2027 13:43:33.833             2.162                Norilsk            67.563
       288   03 Jun 2027 13:44:23.026   03 Jun 2027 13:44:50.233            27.207                Norilsk           850.219
       289   03 Jun 2027 13:45:58.331   03 Jun 2027 13:47:31.033            92.702                Norilsk          2896.937
       290   03 Jun 2027 14:50:12.413   03 Jun 2027 14:50:44.397            31.984               CapeTown           999.500
       291   03 Jun 2027 14:51:39.296   03 Jun 2027 14:52:27.325            48.029               CapeTown          1500.906
       292   03 Jun 2027 14:53:57.946   03 Jun 2027 14:54:40.877            42.931               CapeTown          1341.594
       293   03 Jun 2027 14:56:27.788   03 Jun 2027 14:57:19.340            51.552               CapeTown          1611.000
       294   03 Jun 2027 15:15:59.427   03 Jun 2027 15:16:07.236             7.809              Murmansk2           244.031
       295   03 Jun 2027 15:16:19.156   03 Jun 2027 15:17:13.358            54.202              Murmansk2          1693.812
       296   03 Jun 2027 15:23:38.973   03 Jun 2027 15:25:34.258           115.285              Murmansk2          3602.656
       297   03 Jun 2027 15:29:44.302   03 Jun 2027 15:30:01.253            16.951                Anadyr1           529.719
       298   03 Jun 2027 15:30:48.953   03 Jun 2027 15:32:19.809            90.856                Anadyr2          2839.250
       299   03 Jun 2027 15:38:13.544   03 Jun 2027 15:38:24.396            10.852                Anadyr1           339.125
       300   03 Jun 2027 16:28:41.551   03 Jun 2027 16:29:21.792            40.241               CapeTown          1257.531
       301   03 Jun 2027 16:34:09.943   03 Jun 2027 16:34:40.283            30.340               CapeTown           948.125
       302   03 Jun 2027 16:37:11.529   03 Jun 2027 16:37:13.721             2.192               CapeTown            68.500
       303   03 Jun 2027 16:54:20.669   03 Jun 2027 16:55:49.601            88.932              Murmansk2          2779.125
       304   03 Jun 2027 16:57:19.133   03 Jun 2027 16:57:56.744            37.611              Murmansk1          1175.344
       305   03 Jun 2027 17:00:46.624   03 Jun 2027 17:01:41.438            54.814              Murmansk2          1712.937
       306   03 Jun 2027 17:05:10.065   03 Jun 2027 17:06:28.233            78.168                Anadyr1          2442.750
       307   03 Jun 2027 17:08:58.396   03 Jun 2027 17:10:26.259            87.863               Magadan2          2745.719
       308   03 Jun 2027 18:07:47.519   03 Jun 2027 18:08:27.672            40.153               CapeTown          1254.781
       309   03 Jun 2027 18:41:03.935   03 Jun 2027 18:44:54.397           230.462                Anadyr1          7201.937
       310   03 Jun 2027 18:45:13.542   03 Jun 2027 18:47:13.930           120.388               Magadan2          3762.125
       311   03 Jun 2027 18:48:01.884   03 Jun 2027 18:48:47.480            45.596               Magadan2          1424.875
       312   03 Jun 2027 20:16:56.675   03 Jun 2027 20:19:02.456           125.781                Anadyr1          3930.656
       313   03 Jun 2027 20:19:03.264   03 Jun 2027 20:21:09.060           125.796                Anadyr2          3931.125
       314   03 Jun 2027 20:21:20.557   03 Jun 2027 20:23:18.041           117.484               Magadan2          3671.375
       315   03 Jun 2027 20:23:18.041   03 Jun 2027 20:23:42.833            24.792               Magadan1           774.750
       316   03 Jun 2027 20:25:08.963   03 Jun 2027 20:26:42.242            93.279                Irkutsk          2914.969
       317   03 Jun 2027 20:27:23.279   03 Jun 2027 20:27:41.137            17.858                Irkutsk           558.063
       318   03 Jun 2027 20:29:01.790   03 Jun 2027 20:30:43.607           101.817                Irkutsk          3181.781
       319   03 Jun 2027 21:17:01.822   03 Jun 2027 21:17:13.051            11.229            RioGallegos           350.906
       320   03 Jun 2027 21:20:25.662   03 Jun 2027 21:20:37.839            12.177            RioGallegos           380.531
       321   03 Jun 2027 21:52:25.333   03 Jun 2027 21:52:37.093            11.760                Anadyr2           367.500
       322   03 Jun 2027 21:52:49.926   03 Jun 2027 21:53:18.499            28.573                Anadyr1           892.906
       323   03 Jun 2027 21:53:21.463   03 Jun 2027 21:54:40.015            78.552                Anadyr2          2454.750
       324   03 Jun 2027 21:54:48.247   03 Jun 2027 21:55:42.390            54.143                Norilsk          1691.969
       325   03 Jun 2027 21:55:46.224   03 Jun 2027 21:56:43.474            57.250                Norilsk          1789.063
       326   03 Jun 2027 21:58:50.215   03 Jun 2027 21:59:58.659            68.444                Irkutsk          2138.875
       327   03 Jun 2027 22:00:27.051   03 Jun 2027 22:01:06.290            39.239                Novosib          1226.219
       328   03 Jun 2027 22:01:15.199   03 Jun 2027 22:02:47.370            92.171                Novosib          2880.344
       329   03 Jun 2027 22:15:24.640   03 Jun 2027 22:15:36.889            12.249                Sumatra           382.781
       330   03 Jun 2027 22:21:16.019   03 Jun 2027 22:22:05.640            49.621                Sumatra          1550.656
       331   03 Jun 2027 23:26:53.537   03 Jun 2027 23:28:32.501            98.964                Anadyr1          3092.625
       332   03 Jun 2027 23:29:09.363   03 Jun 2027 23:29:18.108             8.745                Anadyr2           273.281
       333   03 Jun 2027 23:29:31.637   03 Jun 2027 23:29:34.191             2.554                Anadyr2            79.813
       334   03 Jun 2027 23:30:47.224   03 Jun 2027 23:31:07.463            20.239                Norilsk           632.469
       335   03 Jun 2027 23:31:24.772   03 Jun 2027 23:32:50.216            85.444               Magadan1          2670.125
       336   03 Jun 2027 23:33:44.676   03 Jun 2027 23:33:59.699            15.023               Magadan2           469.469
       337   03 Jun 2027 23:34:40.286   03 Jun 2027 23:36:03.181            82.895                Novosib          2590.469
       338   03 Jun 2027 23:40:04.736   03 Jun 2027 23:40:47.712            42.976                Novosib          1343.000
       339   03 Jun 2027 23:42:10.055   03 Jun 2027 23:43:11.107            61.052                  Delhi          1907.875
       340   03 Jun 2027 23:45:46.379   03 Jun 2027 23:46:27.861            41.482                  Delhi          1296.313
       341   04 Jun 2027 00:25:32.733   04 Jun 2027 00:26:18.557            45.824            RioGallegos          1432.000
       342   04 Jun 2027 01:00:17.190   04 Jun 2027 01:01:02.324            45.134                Anadyr2          1410.438
       343   04 Jun 2027 01:01:39.782   04 Jun 2027 01:02:25.269            45.487                Anadyr1          1421.469
       344   04 Jun 2027 01:03:04.072   04 Jun 2027 01:03:18.284            14.212                Anadyr2           444.125
       345   04 Jun 2027 01:06:01.474   04 Jun 2027 01:06:26.604            25.130                Anadyr1           785.313
       346   04 Jun 2027 01:06:27.880   04 Jun 2027 01:08:56.549           148.669               Magadan1          4645.906
       347   04 Jun 2027 01:09:02.410   04 Jun 2027 01:09:38.534            36.124              Murmansk2          1128.875
       348   04 Jun 2027 01:09:38.534   04 Jun 2027 01:09:48.260             9.726              Murmansk1           303.938
       349   04 Jun 2027 01:10:36.121   04 Jun 2027 01:12:02.944            86.823                Novosib          2713.219
       350   04 Jun 2027 01:17:15.930   04 Jun 2027 01:17:24.137             8.207                 Moscow           256.469
       351   04 Jun 2027 01:19:19.839   04 Jun 2027 01:19:46.554            26.715                  Delhi           834.844
       352   04 Jun 2027 01:21:56.210   04 Jun 2027 01:22:07.312            11.102                 Moscow           346.937
       353   04 Jun 2027 01:24:00.227   04 Jun 2027 01:24:26.894            26.667                  Delhi           833.344
       354   04 Jun 2027 01:28:23.287   04 Jun 2027 01:28:32.742             9.455                  Delhi           295.469
       355   04 Jun 2027 01:41:24.496   04 Jun 2027 01:42:18.167            53.671               CapeTown          1677.219
       356   04 Jun 2027 02:33:51.105   04 Jun 2027 02:35:34.119           103.014                Anadyr1          3219.188
       357   04 Jun 2027 02:36:11.018   04 Jun 2027 02:36:27.306            16.288                Anadyr2           509.000
       358   04 Jun 2027 02:36:57.646   04 Jun 2027 02:36:58.088             0.442                Anadyr1            13.812
       359   04 Jun 2027 02:37:09.650   04 Jun 2027 02:37:11.387             1.737                Anadyr2            54.281
       360   04 Jun 2027 02:38:17.644   04 Jun 2027 02:38:20.153             2.509                Anadyr1            78.406
       361   04 Jun 2027 02:38:25.248   04 Jun 2027 02:39:24.454            59.206               Magadan2          1850.187
       362   04 Jun 2027 02:39:43.203   04 Jun 2027 02:40:06.666            23.463               Magadan2           733.219
       363   04 Jun 2027 02:41:56.571   04 Jun 2027 02:42:02.266             5.695               Magadan1           177.969
       364   04 Jun 2027 02:42:13.203   04 Jun 2027 02:42:24.396            11.193               Magadan1           349.781
       365   04 Jun 2027 02:44:40.307   04 Jun 2027 02:44:58.581            18.274                Norilsk           571.063
       366   04 Jun 2027 02:45:17.667   04 Jun 2027 02:45:43.306            25.639              Murmansk1           801.219
       367   04 Jun 2027 02:46:19.647   04 Jun 2027 02:47:06.559            46.912              Murmansk1          1466.000
       368   04 Jun 2027 02:47:06.957   04 Jun 2027 02:48:37.149            90.192                Novosib          2818.500
       369   04 Jun 2027 02:56:27.428   04 Jun 2027 02:56:32.203             4.775                 Moscow           149.219
       370   04 Jun 2027 02:56:44.081   04 Jun 2027 02:57:24.073            39.992                 Moscow          1249.750
       371   04 Jun 2027 03:13:46.161   04 Jun 2027 03:14:56.674            70.513               CapeTown          2203.531
       372   04 Jun 2027 04:15:30.089   04 Jun 2027 04:17:07.120            97.031               Magadan2          3032.219
       373   04 Jun 2027 04:17:07.120   04 Jun 2027 04:17:47.292            40.172               Magadan1          1255.375
       374   04 Jun 2027 04:18:00.030   04 Jun 2027 04:18:27.158            27.128               Magadan1           847.750
       375   04 Jun 2027 05:51:32.976   04 Jun 2027 05:51:50.491            17.515               Magadan1           547.344
       376   04 Jun 2027 05:51:50.491   04 Jun 2027 05:52:15.034            24.543               Magadan2           766.969
       377   04 Jun 2027 05:52:37.449   04 Jun 2027 05:55:26.504           169.055                Anadyr1          5282.969
       378   04 Jun 2027 05:55:54.843   04 Jun 2027 05:56:01.610             6.767                Anadyr1           211.469
       379   04 Jun 2027 07:25:30.118   04 Jun 2027 07:25:45.257            15.139                Anadyr2           473.094
       380   04 Jun 2027 07:25:46.094   04 Jun 2027 07:26:16.498            30.404                Anadyr2           950.125
       381   04 Jun 2027 07:26:17.846   04 Jun 2027 07:26:59.490            41.644                Anadyr1          1301.375
       382   04 Jun 2027 07:27:13.275   04 Jun 2027 07:27:17.995             4.720               Magadan2           147.500
       383   04 Jun 2027 07:27:17.995   04 Jun 2027 07:27:41.450            23.455               Magadan1           732.969
       384   04 Jun 2027 07:27:46.585   04 Jun 2027 07:28:12.436            25.851               Magadan1           807.844
       385   04 Jun 2027 07:28:26.882   04 Jun 2027 07:28:50.307            23.425                Irkutsk           732.031
       386   04 Jun 2027 07:29:17.984   04 Jun 2027 07:30:07.696            49.712                Anadyr2          1553.500
       387   04 Jun 2027 07:30:09.189   04 Jun 2027 07:30:16.737             7.548                Anadyr1           235.875
       388   04 Jun 2027 07:30:27.728   04 Jun 2027 07:30:37.003             9.275               Magadan2           289.844
       389   04 Jun 2027 07:30:42.222   04 Jun 2027 07:30:49.683             7.461               Magadan2           233.156
       390   04 Jun 2027 07:31:01.157   04 Jun 2027 07:31:21.089            19.932                Irkutsk           622.875
       391   04 Jun 2027 07:31:25.566   04 Jun 2027 07:31:32.253             6.687               Magadan2           208.969
       392   04 Jun 2027 07:31:42.640   04 Jun 2027 07:31:56.405            13.765                Anadyr2           430.156
       393   04 Jun 2027 07:32:02.880   04 Jun 2027 07:33:05.465            62.585               Magadan1          1955.781
       394   04 Jun 2027 08:47:16.672   04 Jun 2027 08:48:07.042            50.370                Sumatra          1574.063
       395   04 Jun 2027 09:02:28.131   04 Jun 2027 09:03:37.412            69.281               Magadan2          2165.031
       396   04 Jun 2027 09:04:35.125   04 Jun 2027 09:05:32.394            57.269               Magadan1          1789.656
       397   04 Jun 2027 09:05:44.933   04 Jun 2027 09:06:33.190            48.257               Magadan1          1508.031
       398   04 Jun 2027 09:06:50.352   04 Jun 2027 09:07:07.597            17.245                Irkutsk           538.906
       399   04 Jun 2027 09:07:09.117   04 Jun 2027 09:08:13.208            64.091                Irkutsk          2002.844
       400   04 Jun 2027 09:08:24.888   04 Jun 2027 09:08:29.533             4.645                Irkutsk           145.156
       401   04 Jun 2027 09:08:42.318   04 Jun 2027 09:08:44.320             2.002                Irkutsk            62.562
       402   04 Jun 2027 09:16:08.015   04 Jun 2027 09:16:31.325            23.310              Murmansk1           728.437
       403   04 Jun 2027 09:43:49.805   04 Jun 2027 09:44:31.106            41.301            RioGallegos          1290.656
       404   04 Jun 2027 09:45:07.397   04 Jun 2027 09:45:27.455            20.058            RioGallegos           626.812
       405   04 Jun 2027 10:18:30.795   04 Jun 2027 10:19:08.614            37.819                Sumatra          1181.844
       406   04 Jun 2027 10:28:04.147   04 Jun 2027 10:28:05.795             1.648                Sumatra            51.500
       407   04 Jun 2027 10:28:43.889   04 Jun 2027 10:28:56.062            12.173                  Delhi           380.406
       408   04 Jun 2027 10:31:28.367   04 Jun 2027 10:32:07.084            38.717                  Delhi          1209.906
       409   04 Jun 2027 10:38:35.684   04 Jun 2027 10:38:41.642             5.958                  Delhi           186.187
       410   04 Jun 2027 10:41:03.305   04 Jun 2027 10:41:13.310            10.005                Irkutsk           312.656
       411   04 Jun 2027 10:41:42.452   04 Jun 2027 10:42:14.552            32.100                Novosib          1003.125
       412   04 Jun 2027 10:42:26.713   04 Jun 2027 10:42:32.265             5.552                Irkutsk           173.500
       413   04 Jun 2027 10:42:36.032   04 Jun 2027 10:42:39.250             3.218                Novosib           100.563
       414   04 Jun 2027 10:42:45.553   04 Jun 2027 10:43:10.895            25.342                Novosib           791.938
       415   04 Jun 2027 10:43:13.785   04 Jun 2027 10:43:14.638             0.853                Irkutsk            26.656
       416   04 Jun 2027 10:43:17.371   04 Jun 2027 10:43:46.251            28.880                Irkutsk           902.500
       417   04 Jun 2027 10:43:48.120   04 Jun 2027 10:44:10.807            22.687                Norilsk           708.969
       418   04 Jun 2027 10:44:27.982   04 Jun 2027 10:44:52.198            24.216                Norilsk           756.750
       419   04 Jun 2027 10:45:20.119   04 Jun 2027 10:45:37.757            17.638                Norilsk           551.187
       420   04 Jun 2027 11:23:57.282   04 Jun 2027 11:24:23.604            26.322            RioGallegos           822.563
       421   04 Jun 2027 11:25:04.263   04 Jun 2027 11:25:44.582            40.319            RioGallegos          1259.969
       422   04 Jun 2027 12:04:37.919   04 Jun 2027 12:05:49.985            72.066                  Delhi          2252.062
       423   04 Jun 2027 12:10:37.693   04 Jun 2027 12:11:42.694            65.001                Novosib          2031.281
       424   04 Jun 2027 12:13:08.990   04 Jun 2027 12:13:42.363            33.373                Novosib          1042.906
       425   04 Jun 2027 12:19:02.781   04 Jun 2027 12:19:27.681            24.900                Norilsk           778.125
       426   04 Jun 2027 13:47:07.158   04 Jun 2027 13:49:39.615           152.457                 Moscow          4764.281
       427   04 Jun 2027 13:49:59.826   04 Jun 2027 13:50:25.326            25.500                 Moscow           796.875
       428   04 Jun 2027 13:50:43.628   04 Jun 2027 13:51:18.533            34.905              Murmansk1          1090.781
       429   04 Jun 2027 13:53:21.685   04 Jun 2027 13:53:34.712            13.027              Murmansk1           407.094
       430   04 Jun 2027 13:54:25.088   04 Jun 2027 13:54:33.081             7.993              Murmansk2           249.781
       431   04 Jun 2027 13:54:34.408   04 Jun 2027 13:56:24.969           110.561                Norilsk          3455.031
       432   04 Jun 2027 13:57:45.389   04 Jun 2027 13:59:26.407           101.018                Norilsk          3156.813
       433   04 Jun 2027 15:01:43.662   04 Jun 2027 15:02:00.210            16.548               CapeTown           517.125
       434   04 Jun 2027 15:02:12.997   04 Jun 2027 15:02:46.045            33.048               CapeTown          1032.750
       435   04 Jun 2027 15:04:49.224   04 Jun 2027 15:05:05.030            15.806               CapeTown           493.937
       436   04 Jun 2027 15:05:57.556   04 Jun 2027 15:06:16.635            19.079               CapeTown           596.219
       437   04 Jun 2027 15:07:06.405   04 Jun 2027 15:08:17.854            71.449               CapeTown          2232.781
       438   04 Jun 2027 15:27:37.466   04 Jun 2027 15:27:59.822            22.356              Murmansk1           698.625
       439   04 Jun 2027 15:28:09.170   04 Jun 2027 15:28:18.985             9.815              Murmansk1           306.719
       440   04 Jun 2027 15:30:13.403   04 Jun 2027 15:30:38.901            25.498              Murmansk2           796.813
       441   04 Jun 2027 15:31:53.506   04 Jun 2027 15:31:54.590             1.084              Murmansk1            33.875
       442   04 Jun 2027 15:32:11.145   04 Jun 2027 15:32:44.963            33.818              Murmansk2          1056.812
       443   04 Jun 2027 15:35:44.689   04 Jun 2027 15:36:01.089            16.400              Murmansk2           512.500
       444   04 Jun 2027 15:37:45.092   04 Jun 2027 15:37:53.328             8.236              Murmansk1           257.375
       445   04 Jun 2027 15:41:37.962   04 Jun 2027 15:42:02.441            24.479                Anadyr1           764.969
       446   04 Jun 2027 15:42:34.876   04 Jun 2027 15:44:14.682            99.806                Anadyr1          3118.937
       447   04 Jun 2027 15:45:14.605   04 Jun 2027 15:45:16.020             1.415                Anadyr2            44.219
       448   04 Jun 2027 15:45:39.268   04 Jun 2027 15:45:47.046             7.778                Anadyr1           243.062
       449   04 Jun 2027 15:45:59.328   04 Jun 2027 15:46:11.683            12.355                Anadyr1           386.094
       450   04 Jun 2027 15:50:34.346   04 Jun 2027 15:51:04.573            30.227                Anadyr1           944.594
       451   04 Jun 2027 16:45:30.616   04 Jun 2027 16:45:34.667             4.051               CapeTown           126.594
       452   04 Jun 2027 16:46:38.340   04 Jun 2027 16:46:46.139             7.799               CapeTown           243.719
       453   04 Jun 2027 16:47:05.962   04 Jun 2027 16:48:14.258            68.296               CapeTown          2134.250
       454   04 Jun 2027 17:06:57.423   04 Jun 2027 17:08:06.556            69.133              Murmansk1          2160.406
       455   04 Jun 2027 17:08:57.059   04 Jun 2027 17:09:13.003            15.944              Murmansk2           498.250
       456   04 Jun 2027 17:10:24.914   04 Jun 2027 17:11:31.591            66.677              Murmansk2          2083.656
       457   04 Jun 2027 17:17:10.629   04 Jun 2027 17:18:26.914            76.285                Anadyr2          2383.906
       458   04 Jun 2027 17:20:36.093   04 Jun 2027 17:21:52.381            76.288               Magadan2          2384.000
       459   04 Jun 2027 17:23:19.496   04 Jun 2027 17:23:31.934            12.438               Magadan1           388.688
       460   04 Jun 2027 17:23:46.256   04 Jun 2027 17:23:51.925             5.669               Magadan1           177.156
       461   04 Jun 2027 18:53:05.452   04 Jun 2027 18:56:55.658           230.206                Anadyr1          7193.938
       462   04 Jun 2027 18:57:46.700   04 Jun 2027 18:59:39.933           113.233               Magadan1          3538.531
       463   04 Jun 2027 19:00:36.619   04 Jun 2027 19:01:28.242            51.623               Magadan1          1613.219
       464   04 Jun 2027 19:51:22.230   04 Jun 2027 19:52:15.563            53.333            RioGallegos          1666.656
       465   04 Jun 2027 20:28:56.634   04 Jun 2027 20:31:03.637           127.003                Anadyr2          3968.844
       466   04 Jun 2027 20:31:08.828   04 Jun 2027 20:32:41.304            92.476                Anadyr1          2889.875
       467   04 Jun 2027 20:32:50.142   04 Jun 2027 20:33:37.628            47.486               Magadan1          1483.937
       468   04 Jun 2027 20:34:10.263   04 Jun 2027 20:34:50.455            40.192                Norilsk          1256.000
       469   04 Jun 2027 20:35:32.519   04 Jun 2027 20:35:34.898             2.379               Magadan1            74.344
       470   04 Jun 2027 20:36:30.093   04 Jun 2027 20:37:04.760            34.667                Irkutsk          1083.344
       471   04 Jun 2027 20:38:05.155   04 Jun 2027 20:38:08.613             3.458                Norilsk           108.063
       472   04 Jun 2027 20:38:52.835   04 Jun 2027 20:41:01.120           128.285                Irkutsk          4008.906
       473   04 Jun 2027 20:42:25.744   04 Jun 2027 20:42:52.728            26.984                Irkutsk           843.250
       474   04 Jun 2027 20:52:19.789   04 Jun 2027 20:53:48.204            88.415                Sumatra          2762.969
       475   04 Jun 2027 20:55:01.787   04 Jun 2027 20:56:39.453            97.666                Sumatra          3052.062
       476   04 Jun 2027 22:06:39.518   04 Jun 2027 22:06:44.969             5.451                Anadyr1           170.344
       477   04 Jun 2027 22:06:49.575   04 Jun 2027 22:08:10.660            81.085                Norilsk          2533.906
       478   04 Jun 2027 22:08:33.654   04 Jun 2027 22:08:54.404            20.750                Norilsk           648.437
       479   04 Jun 2027 22:10:47.693   04 Jun 2027 22:12:08.254            80.561                Irkutsk          2517.531
       480   04 Jun 2027 22:12:50.264   04 Jun 2027 22:12:54.692             4.428                Novosib           138.375
       481   04 Jun 2027 22:14:46.439   04 Jun 2027 22:15:34.465            48.026                Novosib          1500.812
       482   04 Jun 2027 22:27:40.245   04 Jun 2027 22:28:45.282            65.037                Sumatra          2032.406
