uniorb/output/strategy_4/Drop/Drop_KinoSat_110410.txt

KinoSat_110410
-------------------------
    Access    *     Start Time (UTCG)     *     Stop Time (UTCG)  *   Duration (s)        *       Station  *  Data (Mbytes)
         1   01 Jun 2027 03:03:11.353   01 Jun 2027 03:03:28.455            17.102               Magadan2          2137.750
         2   01 Jun 2027 03:03:34.709   01 Jun 2027 03:04:17.469            42.760               Magadan1          5345.000
         3   01 Jun 2027 03:05:05.109   01 Jun 2027 03:05:37.230            32.121               Magadan2          4015.125
         4   01 Jun 2027 03:05:39.257   01 Jun 2027 03:06:20.668            41.411                Anadyr1          5176.375
         5   01 Jun 2027 03:06:38.440   01 Jun 2027 03:06:51.088            12.648               Magadan1          1581.000
         6   01 Jun 2027 03:06:54.669   01 Jun 2027 03:08:01.172            66.503                Anadyr1          8312.875
         7   01 Jun 2027 03:08:35.747   01 Jun 2027 03:08:56.296            20.549               Magadan1          2568.625
         8   01 Jun 2027 03:08:56.296   01 Jun 2027 03:09:34.469            38.173               Magadan2          4771.625
         9   01 Jun 2027 03:10:21.471   01 Jun 2027 03:11:02.121            40.650                Anadyr2          5081.250
        10   01 Jun 2027 03:11:07.687   01 Jun 2027 03:11:13.181             5.494               Magadan1           686.750
        11   01 Jun 2027 03:48:30.795   01 Jun 2027 03:49:02.510            31.715            RioGallegos          3964.375
        12   01 Jun 2027 03:49:25.985   01 Jun 2027 03:50:06.595            40.610            RioGallegos          5076.250
        13   01 Jun 2027 04:41:43.666   01 Jun 2027 04:42:19.229            35.563                Norilsk          4445.375
        14   01 Jun 2027 04:42:21.221   01 Jun 2027 04:42:42.089            20.868                Irkutsk          2608.500
        15   01 Jun 2027 04:43:00.239   01 Jun 2027 04:46:45.440           225.201                Irkutsk         28150.125
        16   01 Jun 2027 05:56:45.102   01 Jun 2027 05:57:59.243            74.141                Sumatra          9267.625
        17   01 Jun 2027 06:07:49.251   01 Jun 2027 06:09:58.250           128.999                  Delhi         16124.875
        18   01 Jun 2027 06:19:43.926   01 Jun 2027 06:20:09.030            25.104              Murmansk2          3138.000
        19   01 Jun 2027 06:20:28.780   01 Jun 2027 06:21:51.031            82.251              Murmansk2         10281.375
        20   01 Jun 2027 06:22:17.962   01 Jun 2027 06:23:02.882            44.920              Murmansk1          5615.000
        21   01 Jun 2027 06:23:47.070   01 Jun 2027 06:24:01.810            14.740                 Moscow          1842.500
        22   01 Jun 2027 07:35:32.614   01 Jun 2027 07:36:22.354            49.740                Sumatra          6217.500
        23   01 Jun 2027 07:40:52.207   01 Jun 2027 07:42:01.162            68.955                  Delhi          8619.375
        24   01 Jun 2027 07:57:02.779   01 Jun 2027 07:57:14.540            11.761                 Moscow          1470.125
        25   01 Jun 2027 07:57:17.928   01 Jun 2027 07:57:25.726             7.798                 Moscow           974.750
        26   01 Jun 2027 07:57:29.743   01 Jun 2027 07:57:34.354             4.611              Murmansk1           576.375
        27   01 Jun 2027 07:57:38.438   01 Jun 2027 07:58:09.942            31.504              Murmansk1          3938.000
        28   01 Jun 2027 07:58:28.765   01 Jun 2027 08:00:07.084            98.319                Novosib         12289.875
        29   01 Jun 2027 09:22:15.693   01 Jun 2027 09:22:44.950            29.257                  Delhi          3657.125
        30   01 Jun 2027 09:30:55.354   01 Jun 2027 09:31:50.475            55.121                Novosib          6890.125
        31   01 Jun 2027 09:32:21.030   01 Jun 2027 09:32:45.727            24.697              Murmansk1          3087.125
        32   01 Jun 2027 09:33:01.173   01 Jun 2027 09:33:13.341            12.168                Novosib          1521.000
        33   01 Jun 2027 09:33:30.008   01 Jun 2027 09:34:37.688            67.680              Murmansk2          8460.000
        34   01 Jun 2027 09:34:45.420   01 Jun 2027 09:39:47.872           302.452                Norilsk         37806.500
        35   01 Jun 2027 09:40:06.754   01 Jun 2027 09:40:20.292            13.538              Murmansk2          1692.250
        36   01 Jun 2027 09:40:20.292   01 Jun 2027 09:41:39.027            78.735              Murmansk1          9841.875
        37   01 Jun 2027 10:40:30.953   01 Jun 2027 10:46:02.133           331.180               CapeTown         41397.500
        38   01 Jun 2027 10:46:14.241   01 Jun 2027 10:48:09.865           115.624               CapeTown         14453.000
        39   01 Jun 2027 11:19:57.988   01 Jun 2027 11:25:06.629           308.641                Anadyr2         38580.125
        40   01 Jun 2027 12:59:16.818   01 Jun 2027 13:02:40.383           203.565               Magadan1         25445.625
        41   01 Jun 2027 14:36:18.167   01 Jun 2027 14:38:10.435           112.268               Magadan2         14033.500
        42   01 Jun 2027 16:15:32.475   01 Jun 2027 16:20:36.250           303.775                Irkutsk         37971.875
        43   01 Jun 2027 17:04:02.236   01 Jun 2027 17:04:21.825            19.589            RioGallegos          2448.625
        44   01 Jun 2027 17:50:18.492   01 Jun 2027 17:53:30.317           191.825                Novosib         23978.125
        45   01 Jun 2027 17:54:54.868   01 Jun 2027 17:56:45.814           110.946                Novosib         13868.250
        46   01 Jun 2027 18:04:23.747   01 Jun 2027 18:05:49.298            85.551                Sumatra         10693.875
        47   01 Jun 2027 19:32:23.003   01 Jun 2027 19:34:30.549           127.546                  Delhi         14415.626
        48   02 Jun 2027 03:20:41.743   02 Jun 2027 03:20:52.138            10.395               Magadan1          1299.375
        49   02 Jun 2027 03:20:59.045   02 Jun 2027 03:22:12.481            73.436               Magadan1          9179.500
        50   02 Jun 2027 03:22:20.786   02 Jun 2027 03:22:50.996            30.210                Anadyr2          3776.250
        51   02 Jun 2027 04:54:27.326   02 Jun 2027 04:56:01.825            94.499                Irkutsk         11812.375
        52   02 Jun 2027 04:56:10.459   02 Jun 2027 04:58:19.212           128.753                Irkutsk         16094.125
        53   02 Jun 2027 04:59:10.957   02 Jun 2027 05:00:13.890            62.933              Murmansk2          7866.625
        54   02 Jun 2027 05:00:22.473   02 Jun 2027 05:00:24.723             2.250                Novosib           281.250
        55   02 Jun 2027 05:00:45.884   02 Jun 2027 05:01:10.049            24.165              Murmansk2          3020.625
        56   02 Jun 2027 05:01:10.049   02 Jun 2027 05:02:15.495            65.446              Murmansk1          8180.750
        57   02 Jun 2027 05:02:15.495   02 Jun 2027 05:04:18.591           123.096              Murmansk2         15387.000
        58   02 Jun 2027 05:33:58.577   02 Jun 2027 05:35:49.623           111.046            RioGallegos         13880.750
        59   02 Jun 2027 06:08:41.616   02 Jun 2027 06:10:54.136           132.520                Sumatra         16565.000
        60   02 Jun 2027 06:20:28.999   02 Jun 2027 06:21:59.784            90.785                  Delhi         11348.125
        61   02 Jun 2027 06:34:26.699   02 Jun 2027 06:35:04.549            37.850                Norilsk          4731.250
        62   02 Jun 2027 06:35:12.376   02 Jun 2027 06:40:05.199           292.823                Norilsk         36602.875
        63   02 Jun 2027 06:40:25.638   02 Jun 2027 06:42:15.638           110.000              Murmansk2         13750.000
        64   02 Jun 2027 07:13:55.488   02 Jun 2027 07:16:50.717           175.229            RioGallegos         21903.625
        65   02 Jun 2027 07:18:23.538   02 Jun 2027 07:18:54.383            30.845            RioGallegos          3855.625
        66   02 Jun 2027 07:20:01.629   02 Jun 2027 07:20:31.524            29.895            RioGallegos          3736.875
        67   02 Jun 2027 07:52:58.296   02 Jun 2027 07:56:59.665           241.369                  Delhi         30171.125
        68   02 Jun 2027 08:00:44.261   02 Jun 2027 08:06:47.336           363.075                Novosib         45384.375
        69   02 Jun 2027 08:10:47.994   02 Jun 2027 08:13:59.861           191.867                 Moscow         23983.375
        70   02 Jun 2027 08:14:10.053   02 Jun 2027 08:16:04.553           114.500                Norilsk         14312.500
        71   02 Jun 2027 08:17:32.506   02 Jun 2027 08:17:47.740            15.234              Murmansk2          1904.250
        72   02 Jun 2027 09:47:14.146   02 Jun 2027 09:53:40.529           386.383              Murmansk2         48297.875
        73   02 Jun 2027 10:52:00.031   02 Jun 2027 11:02:09.956           609.925               CapeTown         76240.625
        74   02 Jun 2027 11:14:34.463   02 Jun 2027 11:24:31.537           597.074                 Moscow         74634.250
        75   02 Jun 2027 11:24:40.096   02 Jun 2027 11:29:06.631           266.535              Murmansk2         33316.875
        76   02 Jun 2027 11:29:06.631   02 Jun 2027 11:29:38.378            31.747              Murmansk1          3968.375
        77   02 Jun 2027 11:31:50.944   02 Jun 2027 11:39:14.423           443.479                Anadyr1         55434.875
        78   02 Jun 2027 12:26:46.199   02 Jun 2027 12:27:53.048            66.849               CapeTown          8356.125
        79   02 Jun 2027 13:10:52.147   02 Jun 2027 13:14:42.768           230.621               Magadan1         28827.625
        80   02 Jun 2027 13:17:24.151   02 Jun 2027 13:18:20.240            56.089               Magadan2          7011.125
        81   02 Jun 2027 14:46:17.312   02 Jun 2027 14:48:12.899           115.587               Magadan2         14448.375
        82   02 Jun 2027 16:26:48.702   02 Jun 2027 16:30:59.637           250.935                Irkutsk         31366.875
        83   02 Jun 2027 16:32:53.183   02 Jun 2027 16:33:50.660            57.477                Irkutsk          7184.625
        84   02 Jun 2027 16:42:50.274   02 Jun 2027 16:43:45.591            55.317                Sumatra          6914.625
        85   02 Jun 2027 16:45:44.986   02 Jun 2027 16:46:11.735            26.749                Sumatra          3343.625
        86   02 Jun 2027 16:48:10.364   02 Jun 2027 16:48:19.022             8.658                Sumatra          1082.250
        87   02 Jun 2027 18:02:01.773   02 Jun 2027 18:05:31.013           209.240                Novosib         26155.000
        88   02 Jun 2027 21:11:13.610   02 Jun 2027 21:12:24.906            71.296              Murmansk1          8912.000
        89   02 Jun 2027 21:15:16.346   02 Jun 2027 21:19:02.770           226.424                 Moscow         28303.000
        90   02 Jun 2027 21:42:24.984   02 Jun 2027 21:44:14.677           109.693               CapeTown         13711.625
        91   02 Jun 2027 21:45:26.383   02 Jun 2027 21:46:06.487            40.104               CapeTown          5013.000
        92   03 Jun 2027 03:33:54.363   03 Jun 2027 03:34:23.871            29.508                Norilsk          3688.500
        93   03 Jun 2027 03:35:15.973   03 Jun 2027 03:35:34.609            18.636                Novosib          2329.500
        94   03 Jun 2027 03:35:49.788   03 Jun 2027 03:44:57.175           547.387              Murmansk2         68423.375
        95   03 Jun 2027 04:10:22.511   03 Jun 2027 04:12:55.278           152.767            RioGallegos         19095.875
        96   03 Jun 2027 04:48:04.894   03 Jun 2027 04:49:55.203           110.309                Sumatra         13788.625
        97   03 Jun 2027 05:11:12.179   03 Jun 2027 05:16:09.735           297.556                Norilsk         37194.500
        98   03 Jun 2027 05:16:20.723   03 Jun 2027 05:19:13.350           172.627              Murmansk2         21578.375
        99   03 Jun 2027 05:46:11.035   03 Jun 2027 05:49:22.189           191.154            RioGallegos         23894.250
       100   03 Jun 2027 06:20:43.711   03 Jun 2027 06:24:32.815           229.104                Sumatra         28638.000
       101   03 Jun 2027 06:31:18.646   03 Jun 2027 06:31:57.052            38.406                  Delhi          4800.750
       102   03 Jun 2027 06:34:41.894   03 Jun 2027 06:36:02.327            80.433                  Delhi         10054.125
       103   03 Jun 2027 06:36:14.175   03 Jun 2027 06:39:34.981           200.806                Irkutsk         25100.750
       104   03 Jun 2027 06:40:14.294   03 Jun 2027 06:40:37.789            23.495                Novosib          2936.875
       105   03 Jun 2027 06:47:08.454   03 Jun 2027 06:49:17.201           128.747                 Moscow         16093.375
       106   03 Jun 2027 06:49:23.043   03 Jun 2027 06:52:07.060           164.017                Norilsk         20502.125
       107   03 Jun 2027 06:52:13.283   03 Jun 2027 06:54:12.210           118.927              Murmansk1         14865.875
       108   03 Jun 2027 07:27:19.869   03 Jun 2027 07:29:31.734           131.865            RioGallegos         16483.125
       109   03 Jun 2027 08:05:10.116   03 Jun 2027 08:11:28.901           378.785                  Delhi         47348.125
       110   03 Jun 2027 08:13:05.600   03 Jun 2027 08:14:58.609           113.009                  Delhi         14126.125
       111   03 Jun 2027 08:15:12.870   03 Jun 2027 08:17:40.809           147.939                Novosib         18492.375
       112   03 Jun 2027 08:22:41.576   03 Jun 2027 08:29:47.893           426.317              Murmansk1         53289.625
       113   03 Jun 2027 09:49:18.295   03 Jun 2027 09:50:17.830            59.535                 Moscow          7441.875
       114   03 Jun 2027 09:53:35.137   03 Jun 2027 09:54:33.132            57.995              Murmansk2          7249.375
       115   03 Jun 2027 09:57:50.642   03 Jun 2027 10:03:37.615           346.973                Norilsk         43371.625
       116   03 Jun 2027 10:03:45.449   03 Jun 2027 10:05:42.114           116.665              Murmansk1         14583.125
       117   03 Jun 2027 11:03:37.681   03 Jun 2027 11:10:05.191           387.510               CapeTown         48438.750
       118   03 Jun 2027 11:27:03.188   03 Jun 2027 11:31:04.643           241.455                 Moscow         30181.875
       119   03 Jun 2027 11:31:27.851   03 Jun 2027 11:41:06.045           578.194              Murmansk1         72274.250
       120   03 Jun 2027 11:43:45.794   03 Jun 2027 11:49:11.367           325.573                Anadyr2         40696.625
       121   03 Jun 2027 11:52:50.387   03 Jun 2027 11:53:43.351            52.964                Anadyr1          6620.500
       122   03 Jun 2027 12:38:52.889   03 Jun 2027 12:43:48.710           295.821               CapeTown         36977.625
       123   03 Jun 2027 13:09:41.446   03 Jun 2027 13:11:15.677            94.231              Murmansk1         11778.875
       124   03 Jun 2027 13:22:35.132   03 Jun 2027 13:26:36.927           241.795               Magadan1         30224.375
       125   03 Jun 2027 15:51:53.418   03 Jun 2027 15:54:35.787           162.369            RioGallegos         20296.125
       126   03 Jun 2027 16:38:20.812   03 Jun 2027 16:41:37.766           196.954                Irkutsk         24619.250
       127   03 Jun 2027 16:43:30.878   03 Jun 2027 16:44:56.024            85.146                Irkutsk         10643.250
       128   03 Jun 2027 16:53:30.049   03 Jun 2027 16:55:56.049           146.000                Sumatra         18250.000
       129   03 Jun 2027 18:17:32.341   03 Jun 2027 18:19:43.888           131.547                Novosib         16443.375
       130   03 Jun 2027 18:24:15.868   03 Jun 2027 18:25:49.125            93.257                  Delhi         11657.125
       131   03 Jun 2027 21:23:13.347   03 Jun 2027 21:25:28.590           135.243              Murmansk1         16905.375
       132   03 Jun 2027 21:27:04.413   03 Jun 2027 21:27:24.015            19.602                 Moscow          2450.250
       133   03 Jun 2027 21:29:22.622   03 Jun 2027 21:30:24.777            62.155                 Moscow          7769.375
       134   03 Jun 2027 21:53:23.669   03 Jun 2027 21:55:49.146           145.477               CapeTown         18184.625
       135   04 Jun 2027 03:47:18.606   04 Jun 2027 03:52:25.665           307.059                Norilsk         38382.375
       136   04 Jun 2027 03:52:52.444   04 Jun 2027 03:56:44.456           232.012              Murmansk1         29001.500
       137   04 Jun 2027 04:22:11.504   04 Jun 2027 04:24:34.184           142.680            RioGallegos         17835.000
       138   04 Jun 2027 04:59:01.764   04 Jun 2027 04:59:45.251            43.487                Sumatra          5435.875
       139   04 Jun 2027 05:23:02.492   04 Jun 2027 05:28:21.412           318.920              Murmansk2         39865.000
       140   04 Jun 2027 05:28:21.412   04 Jun 2027 05:31:04.988           163.576              Murmansk1         20447.000
       141   04 Jun 2027 05:58:59.676   04 Jun 2027 06:00:44.757           105.081            RioGallegos         13135.125
       142   04 Jun 2027 06:32:51.518   04 Jun 2027 06:35:42.534           171.016                Sumatra         21377.000
       143   04 Jun 2027 06:43:52.617   04 Jun 2027 06:47:29.750           217.133                  Delhi         27141.625
       144   04 Jun 2027 06:47:39.131   04 Jun 2027 06:51:49.000           249.869                Irkutsk         31233.625
       145   04 Jun 2027 06:52:14.973   04 Jun 2027 06:52:49.726            34.753                Novosib          4344.125
       146   04 Jun 2027 06:57:38.376   04 Jun 2027 06:57:53.482            15.106              Murmansk1          1888.250
       147   04 Jun 2027 06:59:10.402   04 Jun 2027 06:59:54.598            44.196              Murmansk1          5524.500
       148   04 Jun 2027 06:59:54.598   04 Jun 2027 07:06:09.363           374.765              Murmansk2         46845.625
       149   04 Jun 2027 08:17:28.279   04 Jun 2027 08:21:47.950           259.671                  Delhi         32458.875
       150   04 Jun 2027 08:22:53.799   04 Jun 2027 08:25:28.082           154.283                  Delhi         19285.375
       151   04 Jun 2027 08:25:38.993   04 Jun 2027 08:29:37.923           238.930                Novosib         29866.250
       152   04 Jun 2027 08:29:43.192   04 Jun 2027 08:30:04.795            21.603                Norilsk          2700.375
       153   04 Jun 2027 08:34:36.181   04 Jun 2027 08:35:23.119            46.938              Murmansk1          5867.250
       154   04 Jun 2027 08:35:35.367   04 Jun 2027 08:40:06.593           271.226                Norilsk         33903.250
       155   04 Jun 2027 08:40:10.996   04 Jun 2027 08:41:48.324            97.328              Murmansk1         12166.000
       156   04 Jun 2027 10:04:00.443   04 Jun 2027 10:04:19.523            19.080                 Moscow          2385.000
       157   04 Jun 2027 10:05:12.359   04 Jun 2027 10:05:24.376            12.017                 Moscow          1502.125
       158   04 Jun 2027 10:05:59.622   04 Jun 2027 10:06:32.424            32.802                 Moscow          4100.250
       159   04 Jun 2027 10:06:47.233   04 Jun 2027 10:07:09.122            21.889              Murmansk2          2736.125
       160   04 Jun 2027 10:09:41.570   04 Jun 2027 10:17:43.756           482.186              Murmansk1         60273.250
       161   04 Jun 2027 11:20:35.461   04 Jun 2027 11:21:26.214            50.753               CapeTown          6344.125
       162   04 Jun 2027 11:39:37.370   04 Jun 2027 11:43:25.929           228.559                 Moscow         28569.875
       163   04 Jun 2027 11:43:27.332   04 Jun 2027 11:53:23.566           596.234              Murmansk2         74529.250
       164   04 Jun 2027 11:55:42.056   04 Jun 2027 11:57:27.111           105.055                Anadyr1         13131.875
       165   04 Jun 2027 11:57:27.111   04 Jun 2027 11:58:09.590            42.479                Anadyr2          5309.875
       166   04 Jun 2027 11:59:47.436   04 Jun 2027 12:00:06.169            18.733                Anadyr2          2341.625
       167   04 Jun 2027 12:00:09.932   04 Jun 2027 12:01:02.713            52.781                Anadyr1          6597.625
       168   04 Jun 2027 12:03:25.728   04 Jun 2027 12:04:51.106            85.378                Anadyr2         10672.250
       169   04 Jun 2027 13:34:22.738   04 Jun 2027 13:38:18.083           235.345               Magadan1         29418.125
       170   04 Jun 2027 16:03:03.973   04 Jun 2027 16:06:22.612           198.639            RioGallegos         24829.875
       171   04 Jun 2027 16:09:00.739   04 Jun 2027 16:09:53.163            52.424            RioGallegos          6553.000
       172   04 Jun 2027 16:51:23.387   04 Jun 2027 16:53:57.074           153.687                Irkutsk         19210.875
       173   04 Jun 2027 16:55:56.637   04 Jun 2027 16:56:21.611            24.974                Irkutsk          3121.750
       174   04 Jun 2027 17:04:38.172   04 Jun 2027 17:09:25.787           287.615                Sumatra         35951.875
       175   04 Jun 2027 18:29:34.234   04 Jun 2027 18:31:17.828           103.594                Novosib         12949.250
       176   04 Jun 2027 18:34:52.112   04 Jun 2027 18:37:03.076           130.964                  Delhi         16370.500
       177   04 Jun 2027 21:37:11.888   04 Jun 2027 21:39:01.225           109.337              Murmansk1         13667.125
       178   04 Jun 2027 21:41:29.858   04 Jun 2027 21:43:06.872            97.014                 Moscow         12126.750
       179   04 Jun 2027 22:04:36.719   04 Jun 2027 22:04:42.749             6.030               CapeTown           753.750
       180   04 Jun 2027 22:05:20.857   04 Jun 2027 22:07:27.185           126.328               CapeTown         15791.000
       181   05 Jun 2027 03:59:07.389   05 Jun 2027 04:04:40.860           333.471              Murmansk2         41683.875
       182   05 Jun 2027 05:10:18.219   05 Jun 2027 05:13:36.363           198.144                Sumatra         24768.000
       183   05 Jun 2027 05:35:14.796   05 Jun 2027 05:42:57.377           462.581              Murmansk1         57822.625
       184   05 Jun 2027 06:11:03.009   05 Jun 2027 06:12:26.636            83.627            RioGallegos         10453.375
       185   05 Jun 2027 06:45:05.539   05 Jun 2027 06:47:31.112           145.573                Sumatra         18196.625
       186   05 Jun 2027 06:48:07.080   05 Jun 2027 06:49:49.168           102.088                Sumatra         12761.000
       187   05 Jun 2027 06:59:05.433   05 Jun 2027 06:59:55.728            50.295                  Delhi          6286.875
       188   05 Jun 2027 07:00:07.613   05 Jun 2027 07:01:09.682            62.069                Novosib          7758.625
       189   05 Jun 2027 07:02:12.712   05 Jun 2027 07:04:07.041           114.329                Irkutsk         14291.125
       190   05 Jun 2027 07:04:30.203   05 Jun 2027 07:05:05.134            34.931                Novosib          4366.375
       191   05 Jun 2027 07:10:24.225   05 Jun 2027 07:12:41.858           137.633                Novosib         17204.125
       192   05 Jun 2027 07:12:42.302   05 Jun 2027 07:13:39.548            57.246                 Moscow          7155.750
       193   05 Jun 2027 07:13:50.285   05 Jun 2027 07:17:39.249           228.964              Murmansk1         28620.500
       194   05 Jun 2027 07:17:42.222   05 Jun 2027 07:18:07.065            24.843              Murmansk1          3105.375
       195   05 Jun 2027 08:29:53.804   05 Jun 2027 08:34:09.264           255.460                  Delhi         31932.500
       196   05 Jun 2027 08:35:34.449   05 Jun 2027 08:37:07.207            92.758                  Delhi         11594.750
       197   05 Jun 2027 08:38:14.426   05 Jun 2027 08:42:00.069           225.643                Novosib         28205.375
       198   05 Jun 2027 08:42:00.651   05 Jun 2027 08:42:25.464            24.813                Norilsk          3101.625
       199   05 Jun 2027 08:47:08.484   05 Jun 2027 08:47:45.382            36.898                Novosib          4612.250
       200   05 Jun 2027 08:47:53.132   05 Jun 2027 08:50:13.395           140.263                 Moscow         17532.875
       201   05 Jun 2027 08:50:15.978   05 Jun 2027 08:50:56.178            40.200              Murmansk1          5025.000
       202   05 Jun 2027 08:50:56.178   05 Jun 2027 08:53:33.648           157.470              Murmansk2         19683.750
       203   05 Jun 2027 08:53:33.648   05 Jun 2027 08:53:49.016            15.368              Murmansk1          1921.000
       204   05 Jun 2027 10:16:38.103   05 Jun 2027 10:18:50.786           132.683                 Moscow         16585.375
       205   05 Jun 2027 10:19:00.360   05 Jun 2027 10:20:48.175           107.815              Murmansk1         13476.875
       206   05 Jun 2027 10:21:28.902   05 Jun 2027 10:24:32.444           183.542              Murmansk2         22942.750
       207   05 Jun 2027 10:24:40.156   05 Jun 2027 10:27:11.856           151.700                Norilsk         18962.500
       208   05 Jun 2027 10:27:34.350   05 Jun 2027 10:28:28.304            53.954              Murmansk2          6744.250
       209   05 Jun 2027 10:33:31.240   05 Jun 2027 10:37:03.195           211.955                Anadyr1         26494.375
       210   05 Jun 2027 11:54:45.920   05 Jun 2027 11:56:03.937            78.017              Murmansk1          9752.125
       211   05 Jun 2027 11:56:03.937   05 Jun 2027 11:56:45.499            41.562              Murmansk2          5195.250
       212   05 Jun 2027 11:57:37.773   05 Jun 2027 11:58:36.768            58.995              Murmansk2          7374.375
       213   05 Jun 2027 11:59:02.294   05 Jun 2027 11:59:23.232            20.938              Murmansk2          2617.250
       214   05 Jun 2027 11:59:59.004   05 Jun 2027 12:01:01.301            62.297              Murmansk2          7787.125
       215   05 Jun 2027 12:01:10.718   05 Jun 2027 12:02:29.219            78.501              Murmansk1          9812.625
       216   05 Jun 2027 12:03:21.495   05 Jun 2027 12:04:06.450            44.955              Murmansk1          5619.375
       217   05 Jun 2027 12:07:39.417   05 Jun 2027 12:08:43.811            64.394                Anadyr1          8049.250
       218   05 Jun 2027 13:46:13.491   05 Jun 2027 13:50:29.449           255.958               Magadan2         31994.750
       219   05 Jun 2027 13:53:39.079   05 Jun 2027 13:55:05.313            86.234               Magadan1         10779.250
       220   05 Jun 2027 16:14:33.461   05 Jun 2027 16:18:12.701           219.240            RioGallegos         27405.000
       221   05 Jun 2027 16:21:03.196   05 Jun 2027 16:22:06.959            63.763            RioGallegos          7970.375
       222   05 Jun 2027 17:04:53.754   05 Jun 2027 17:05:52.037            58.283                Irkutsk          7285.375
       223   05 Jun 2027 17:17:36.992   05 Jun 2027 17:23:24.120           347.128                Sumatra         43391.000
       224   05 Jun 2027 18:40:00.209   05 Jun 2027 18:41:36.666            96.457                Novosib         12057.125
       225   05 Jun 2027 18:46:03.816   05 Jun 2027 18:49:14.383           190.567                  Delhi         23820.875
       226   05 Jun 2027 21:50:07.517   05 Jun 2027 21:50:27.200            19.683              Murmansk1          2460.375
       227   05 Jun 2027 21:50:48.615   05 Jun 2027 21:52:26.208            97.593                 Moscow         12199.125
       228   05 Jun 2027 21:56:06.296   05 Jun 2027 21:56:19.187            12.891                 Moscow          1611.375
       229   05 Jun 2027 21:56:35.690   05 Jun 2027 21:56:49.438            13.748              Murmansk1          1718.500
       230   05 Jun 2027 22:15:59.552   05 Jun 2027 22:17:21.844            82.292               CapeTown          7456.625
       231   06 Jun 2027 05:21:46.772   06 Jun 2027 05:23:08.173            81.401                Sumatra         10175.125
       232   06 Jun 2027 05:28:38.258   06 Jun 2027 05:28:46.800             8.542                Sumatra          1067.750
       233   06 Jun 2027 05:47:16.996   06 Jun 2027 05:52:13.213           296.217                Norilsk         37027.125
       234   06 Jun 2027 05:54:21.323   06 Jun 2027 05:54:50.514            29.191              Murmansk2          3648.875
       235   06 Jun 2027 06:23:14.157   06 Jun 2027 06:26:47.989           213.832            RioGallegos         26729.000
       236   06 Jun 2027 06:57:26.791   06 Jun 2027 07:00:23.780           176.989                Sumatra         22123.625
       237   06 Jun 2027 07:01:04.194   06 Jun 2027 07:01:53.256            49.062                Sumatra          6132.750
       238   06 Jun 2027 07:04:53.598   06 Jun 2027 07:05:33.517            39.919                Sumatra          4989.875
       239   06 Jun 2027 07:07:31.899   06 Jun 2027 07:09:33.639           121.740                  Delhi         15217.500
       240   06 Jun 2027 07:11:58.411   06 Jun 2027 07:13:52.847           114.436                Novosib         14304.500
       241   06 Jun 2027 07:14:11.586   06 Jun 2027 07:16:29.504           137.918                Irkutsk         17239.750
       242   06 Jun 2027 07:17:14.731   06 Jun 2027 07:18:18.143            63.412                 Moscow          7926.500
       243   06 Jun 2027 07:22:47.031   06 Jun 2027 07:25:48.307           181.276                 Moscow         22659.500
       244   06 Jun 2027 07:26:03.400   06 Jun 2027 07:28:35.488           152.088              Murmansk1         19011.000
       245   06 Jun 2027 07:29:42.843   06 Jun 2027 07:30:05.277            22.434              Murmansk2          2804.250
       246   06 Jun 2027 08:42:28.458   06 Jun 2027 08:46:23.250           234.792                  Delhi         29349.000
       247   06 Jun 2027 08:50:56.784   06 Jun 2027 08:54:26.656           209.872                Novosib         26234.000
       248   06 Jun 2027 08:58:59.358   06 Jun 2027 09:02:16.945           197.587                 Moscow         24698.375
       249   06 Jun 2027 09:02:26.097   06 Jun 2027 09:03:51.807            85.710              Murmansk2         10713.750
       250   06 Jun 2027 09:03:51.807   06 Jun 2027 09:05:49.920           118.113              Murmansk1         14764.125
       251   06 Jun 2027 10:29:07.624   06 Jun 2027 10:31:53.353           165.729              Murmansk2         20716.125
       252   06 Jun 2027 10:36:29.984   06 Jun 2027 10:38:38.329           128.345                Norilsk         16043.125
       253   06 Jun 2027 10:38:49.181   06 Jun 2027 10:38:50.218             1.037              Murmansk1           129.625
       254   06 Jun 2027 10:44:56.135   06 Jun 2027 10:48:41.742           225.607                Anadyr1         28200.875
       255   06 Jun 2027 12:05:07.569   06 Jun 2027 12:08:22.114           194.545                 Moscow         24318.125
       256   06 Jun 2027 12:08:23.308   06 Jun 2027 12:15:22.806           419.498              Murmansk2         52437.250
       257   06 Jun 2027 12:19:37.641   06 Jun 2027 12:21:09.299            91.658                Anadyr2         11457.250
       258   06 Jun 2027 12:24:08.928   06 Jun 2027 12:24:09.877             0.949                Anadyr2           118.625
       259   06 Jun 2027 12:28:40.747   06 Jun 2027 12:28:53.166            12.419                Anadyr2          1552.375
       260   06 Jun 2027 13:58:06.530   06 Jun 2027 14:00:40.762           154.232               Magadan2         19279.000
       261   06 Jun 2027 14:02:20.743   06 Jun 2027 14:03:37.772            77.029               Magadan1          9628.625
       262   06 Jun 2027 14:05:39.038   06 Jun 2027 14:07:05.610            86.572               Magadan1         10821.500
       263   06 Jun 2027 16:26:12.102   06 Jun 2027 16:32:39.844           387.742            RioGallegos         48467.750
       264   06 Jun 2027 17:16:07.472   06 Jun 2027 17:17:45.009            97.537                Irkutsk         12192.125
       265   06 Jun 2027 17:19:12.301   06 Jun 2027 17:19:20.548             8.247                Irkutsk          1030.875
       266   06 Jun 2027 17:27:34.503   06 Jun 2027 17:29:21.843           107.340                Sumatra         13417.500
       267   06 Jun 2027 17:31:30.022   06 Jun 2027 17:31:56.001            25.979                Sumatra          3247.375
       268   06 Jun 2027 17:32:37.925   06 Jun 2027 17:34:16.868            98.943                Sumatra         12367.875
       269   06 Jun 2027 18:51:00.696   06 Jun 2027 18:53:39.273           158.577                Novosib         19822.125
       270   06 Jun 2027 18:58:13.502   06 Jun 2027 18:59:16.531            63.029                  Delhi          7878.625
       271   06 Jun 2027 20:29:42.165   06 Jun 2027 20:31:17.080            94.915                 Moscow         11864.375
       272   06 Jun 2027 21:59:15.107   06 Jun 2027 22:01:05.234           110.127              Murmansk1         13765.875
       273   06 Jun 2027 22:27:30.027   06 Jun 2027 22:28:59.843            89.816               CapeTown          1099.625
       274   07 Jun 2027 04:23:26.572   07 Jun 2027 04:23:49.171            22.599              Murmansk2          2824.875
       275   07 Jun 2027 05:33:24.199   07 Jun 2027 05:35:15.108           110.909                Sumatra         13863.625
       276   07 Jun 2027 05:37:20.624   07 Jun 2027 05:37:30.706            10.082                Sumatra          1260.250
       277   07 Jun 2027 05:46:41.465   07 Jun 2027 05:47:27.184            45.719                  Delhi          5714.875
       278   07 Jun 2027 05:58:48.243   07 Jun 2027 06:00:46.838           118.595                Novosib         14824.375
       279   07 Jun 2027 06:00:53.140   07 Jun 2027 06:04:06.198           193.058                Norilsk         24132.250
       280   07 Jun 2027 06:04:28.988   07 Jun 2027 06:06:06.362            97.374              Murmansk2         12171.750
       281   07 Jun 2027 06:06:06.362   07 Jun 2027 06:06:44.388            38.026              Murmansk1          4753.250
       282   07 Jun 2027 06:35:45.602   07 Jun 2027 06:37:48.751           123.149            RioGallegos         15393.625
       283   07 Jun 2027 06:43:24.125   07 Jun 2027 06:43:31.345             7.220            RioGallegos           902.500
       284   07 Jun 2027 07:09:57.207   07 Jun 2027 07:14:03.185           245.978                Sumatra         30747.250
       285   07 Jun 2027 07:17:10.697   07 Jun 2027 07:19:01.666           110.969                  Delhi         13871.125
       286   07 Jun 2027 07:19:14.131   07 Jun 2027 07:20:13.634            59.503                  Delhi          7437.875
       287   07 Jun 2027 07:24:08.332   07 Jun 2027 07:25:01.269            52.937                Novosib          6617.125
       288   07 Jun 2027 07:25:33.689   07 Jun 2027 07:30:59.041           325.352                Irkutsk         40669.000
       289   07 Jun 2027 07:34:57.503   07 Jun 2027 07:37:56.003           178.500                 Moscow         22312.500
       290   07 Jun 2027 07:38:06.904   07 Jun 2027 07:39:42.944            96.040              Murmansk1         12005.000
       291   07 Jun 2027 07:39:43.288   07 Jun 2027 07:40:14.516            31.228                Norilsk          3903.500
       292   07 Jun 2027 07:41:43.690   07 Jun 2027 07:42:03.950            20.260              Murmansk2          2532.500
       293   07 Jun 2027 08:55:15.622   07 Jun 2027 08:58:43.879           208.257                  Delhi         26032.125
       294   07 Jun 2027 09:03:48.384   07 Jun 2027 09:06:19.140           150.756                Novosib         18844.500
       295   07 Jun 2027 09:10:34.082   07 Jun 2027 09:10:56.346            22.264              Murmansk1          2783.000
       296   07 Jun 2027 09:11:33.473   07 Jun 2027 09:16:56.377           322.904              Murmansk2         40363.000
       297   07 Jun 2027 09:16:56.377   07 Jun 2027 09:17:51.024            54.647              Murmansk1          6830.875
       298   07 Jun 2027 10:41:17.895   07 Jun 2027 10:43:47.685           149.790              Murmansk1         18723.750
       299   07 Jun 2027 10:45:59.689   07 Jun 2027 10:46:50.903            51.214              Murmansk1          6401.750
       300   07 Jun 2027 10:48:52.115   07 Jun 2027 10:51:05.138           133.023              Murmansk1         16627.875
       301   07 Jun 2027 10:51:33.102   07 Jun 2027 10:52:14.275            41.173              Murmansk1          5146.625
       302   07 Jun 2027 10:52:49.407   07 Jun 2027 10:53:26.393            36.986              Murmansk1          4623.250
       303   07 Jun 2027 10:56:35.811   07 Jun 2027 11:02:56.387           380.576                Anadyr2         47572.000
       304   07 Jun 2027 12:18:09.840   07 Jun 2027 12:20:57.343           167.503                 Moscow         20937.875
       305   07 Jun 2027 12:31:36.555   07 Jun 2027 12:32:44.556            68.001                Anadyr2          8500.125
       306   07 Jun 2027 12:34:33.951   07 Jun 2027 12:36:10.329            96.378                Anadyr1         12047.250
       307   07 Jun 2027 14:10:01.311   07 Jun 2027 14:14:22.512           261.201               Magadan1         32650.125
       308   07 Jun 2027 16:37:56.393   07 Jun 2027 16:43:59.208           362.815            RioGallegos         45351.875
       309   07 Jun 2027 17:25:27.253   07 Jun 2027 17:27:07.865           100.612                Irkutsk         12576.500
       310   07 Jun 2027 17:27:54.053   07 Jun 2027 17:29:46.056           112.003                Novosib         14000.375
       311   07 Jun 2027 17:39:15.680   07 Jun 2027 17:41:04.344           108.664                Sumatra         13583.000
       312   07 Jun 2027 19:01:11.942   07 Jun 2027 19:03:03.852           111.910                Novosib         13988.750
       313   07 Jun 2027 19:09:06.852   07 Jun 2027 19:10:19.509            72.657                  Delhi          9082.125
       314   07 Jun 2027 19:11:11.482   07 Jun 2027 19:13:00.555           109.073                  Delhi         13634.125
       315   07 Jun 2027 20:39:29.965   07 Jun 2027 20:40:00.260            30.295              Murmansk1          3786.875
       316   07 Jun 2027 20:40:41.641   07 Jun 2027 20:43:16.131           154.490                 Moscow         19311.250
       317   07 Jun 2027 22:41:14.929   07 Jun 2027 22:43:02.441           107.512               CapeTown           840.250
       318   08 Jun 2027 04:35:23.503   08 Jun 2027 04:39:07.776           224.273                Norilsk         28034.125
       319   08 Jun 2027 05:45:08.812   08 Jun 2027 05:46:51.559           102.747                Sumatra         12843.375
       320   08 Jun 2027 05:47:21.729   08 Jun 2027 05:47:50.418            28.689                Sumatra          3586.125
       321   08 Jun 2027 05:57:05.685   08 Jun 2027 05:57:58.653            52.968                  Delhi          6621.000
       322   08 Jun 2027 06:11:14.030   08 Jun 2027 06:16:16.333           302.303                Norilsk         37787.875
       323   08 Jun 2027 06:16:27.869   08 Jun 2027 06:18:38.990           131.121              Murmansk2         16390.125
       324   08 Jun 2027 06:48:23.884   08 Jun 2027 06:51:52.064           208.180            RioGallegos         26022.500
       325   08 Jun 2027 07:22:40.809   08 Jun 2027 07:26:19.613           218.804                Sumatra         27350.500
       326   08 Jun 2027 07:29:06.152   08 Jun 2027 07:30:48.177           102.025                  Delhi         12753.125
       327   08 Jun 2027 07:36:21.604   08 Jun 2027 07:39:19.446           177.842                Novosib         22230.250
       328   08 Jun 2027 07:39:21.302   08 Jun 2027 07:42:01.365           160.063                Irkutsk         20007.875
       329   08 Jun 2027 07:46:46.472   08 Jun 2027 07:47:14.007            27.535                 Moscow          3441.875
       330   08 Jun 2027 07:47:19.517   08 Jun 2027 07:50:18.102           178.585                Norilsk         22323.125
       331   08 Jun 2027 07:50:28.055   08 Jun 2027 07:52:06.307            98.252              Murmansk1         12281.500
       332   08 Jun 2027 09:08:23.405   08 Jun 2027 09:11:12.379           168.974                  Delhi         21121.750
       333   08 Jun 2027 09:14:10.491   08 Jun 2027 09:14:32.331            21.840                  Delhi          2730.000
       334   08 Jun 2027 09:22:40.517   08 Jun 2027 09:22:50.365             9.848                Norilsk          1231.000
       335   08 Jun 2027 09:24:09.491   08 Jun 2027 09:28:05.013           235.522                Norilsk         29440.250
       336   08 Jun 2027 09:28:47.231   08 Jun 2027 09:29:52.283            65.052              Murmansk1          8131.500
       337   08 Jun 2027 10:29:29.823   08 Jun 2027 10:36:42.286           432.463               CapeTown         54057.875
       338   08 Jun 2027 10:50:05.447   08 Jun 2027 10:57:45.394           459.947                 Moscow         57493.375
       339   08 Jun 2027 10:58:00.148   08 Jun 2027 11:05:50.272           470.124              Murmansk2         58765.500
       340   08 Jun 2027 11:08:22.183   08 Jun 2027 11:15:09.755           407.572                Anadyr1         50946.500
       341   08 Jun 2027 12:06:09.003   08 Jun 2027 12:07:20.449            71.446               CapeTown          8930.750
       342   08 Jun 2027 12:10:20.423   08 Jun 2027 12:10:50.607            30.184               CapeTown          3773.000
       343   08 Jun 2027 12:31:38.735   08 Jun 2027 12:32:37.845            59.110                 Moscow          7388.750
       344   08 Jun 2027 12:48:11.623   08 Jun 2027 12:50:32.690           141.067               Magadan1         17633.375
       345   08 Jun 2027 14:21:57.460   08 Jun 2027 14:23:37.834           100.374               Magadan1         12546.750
       346   08 Jun 2027 14:23:48.844   08 Jun 2027 14:26:24.511           155.667               Magadan2         19458.375
       347   08 Jun 2027 16:49:44.611   08 Jun 2027 16:52:14.952           150.341            RioGallegos         18792.625
       348   08 Jun 2027 16:53:53.116   08 Jun 2027 16:55:32.547            99.431            RioGallegos         12428.875
       349   08 Jun 2027 17:37:21.117   08 Jun 2027 17:39:31.654           130.537                Irkutsk         16317.125
       350   08 Jun 2027 17:41:45.288   08 Jun 2027 17:44:54.060           188.772                Novosib         23596.500
       351   08 Jun 2027 17:53:56.456   08 Jun 2027 17:55:29.649            93.193                Sumatra         11649.125
       352   08 Jun 2027 19:20:49.620   08 Jun 2027 19:22:49.145           119.525                  Delhi         14940.625
       353   08 Jun 2027 19:26:13.353   08 Jun 2027 19:26:19.266             5.913                  Delhi           739.125
       354   08 Jun 2027 20:48:15.578   08 Jun 2027 20:49:17.336            61.758              Murmansk1          7719.750
       355   08 Jun 2027 20:52:08.825   08 Jun 2027 20:55:15.993           187.168                 Moscow         23396.000
       356   08 Jun 2027 22:25:31.609   08 Jun 2027 22:25:31.697             0.088              Murmansk1            11.000
       357   08 Jun 2027 22:51:32.633   08 Jun 2027 22:53:07.132            94.499               CapeTown         11812.375
       358   09 Jun 2027 04:47:24.443   09 Jun 2027 04:52:23.172           298.729                Norilsk         37341.125
       359   09 Jun 2027 04:52:33.838   09 Jun 2027 04:55:46.762           192.924              Murmansk2         24115.500
       360   09 Jun 2027 05:22:04.581   09 Jun 2027 05:25:50.329           225.748            RioGallegos         28218.500
       361   09 Jun 2027 05:26:13.923   09 Jun 2027 05:26:24.189            10.266            RioGallegos          1283.250
       362   09 Jun 2027 05:27:05.537   09 Jun 2027 05:29:06.996           121.459            RioGallegos         15182.375
       363   09 Jun 2027 05:56:59.660   09 Jun 2027 05:58:14.836            75.176                Sumatra          9397.000
       364   09 Jun 2027 06:00:00.964   09 Jun 2027 06:00:46.288            45.324                Sumatra          5665.500
       365   09 Jun 2027 06:04:25.093   09 Jun 2027 06:06:31.023           125.930                Sumatra         15741.250
       366   09 Jun 2027 06:08:03.219   09 Jun 2027 06:10:13.614           130.395                  Delhi         16299.375
       367   09 Jun 2027 06:10:50.945   09 Jun 2027 06:15:32.594           281.649                Irkutsk         35206.125
       368   09 Jun 2027 06:22:48.205   09 Jun 2027 06:24:55.593           127.388                 Moscow         15923.500
       369   09 Jun 2027 06:25:08.431   09 Jun 2027 06:28:16.764           188.333              Murmansk2         23541.625
       370   09 Jun 2027 06:28:16.764   09 Jun 2027 06:29:30.825            74.061              Murmansk1          9257.625
       371   09 Jun 2027 07:01:10.998   09 Jun 2027 07:04:32.071           201.073            RioGallegos         25134.125
       372   09 Jun 2027 07:35:48.356   09 Jun 2027 07:38:43.826           175.470                Sumatra         21933.750
       373   09 Jun 2027 07:40:43.515   09 Jun 2027 07:41:47.489            63.974                Sumatra          7996.750
       374   09 Jun 2027 07:43:45.722   09 Jun 2027 07:44:07.597            21.875                  Delhi          2734.375
       375   09 Jun 2027 07:48:38.453   09 Jun 2027 07:49:51.065            72.612                Novosib          9076.500
       376   09 Jun 2027 07:51:01.958   09 Jun 2027 07:54:03.206           181.248                Novosib         22656.000
       377   09 Jun 2027 07:54:22.749   09 Jun 2027 07:55:31.189            68.440                Irkutsk          8555.000
       378   09 Jun 2027 07:58:48.976   09 Jun 2027 08:02:09.017           200.041                 Moscow         25005.125
       379   09 Jun 2027 08:02:24.793   09 Jun 2027 08:02:58.214            33.421              Murmansk2          4177.625
       380   09 Jun 2027 08:02:58.214   09 Jun 2027 08:03:31.063            32.849              Murmansk1          4106.125
       381   09 Jun 2027 08:05:45.980   09 Jun 2027 08:06:02.539            16.559              Murmansk1          2069.875
       382   09 Jun 2027 09:22:33.464   09 Jun 2027 09:23:50.952            77.488                  Delhi          9686.000
       383   09 Jun 2027 09:35:40.025   09 Jun 2027 09:40:02.477           262.452                Norilsk         32806.500
       384   09 Jun 2027 09:40:22.477   09 Jun 2027 09:41:53.685            91.208              Murmansk1         11401.000
       385   09 Jun 2027 10:40:45.133   09 Jun 2027 10:49:41.765           536.632               CapeTown         67079.000
       386   09 Jun 2027 11:02:25.346   09 Jun 2027 11:12:18.757           593.411                 Moscow         74176.375
       387   09 Jun 2027 11:12:29.037   09 Jun 2027 11:17:51.725           322.688              Murmansk1         40336.000
       388   09 Jun 2027 11:20:12.527   09 Jun 2027 11:28:47.849           515.322                Anadyr1         64415.250
       389   09 Jun 2027 12:14:56.990   09 Jun 2027 12:19:58.806           301.816               CapeTown         37727.000
       390   09 Jun 2027 12:44:40.912   09 Jun 2027 12:45:57.318            76.406              Murmansk2          9550.750
       391   09 Jun 2027 12:56:32.338   09 Jun 2027 12:58:08.416            96.078                Anadyr1         12009.750
       392   09 Jun 2027 12:59:31.068   09 Jun 2027 13:05:29.050           357.982               Magadan1         44747.750
       393   09 Jun 2027 16:15:46.385   09 Jun 2027 16:17:52.084           125.699                Irkutsk         15712.375
       394   09 Jun 2027 16:18:37.123   09 Jun 2027 16:20:52.022           134.899                Irkutsk         16862.375
       395   09 Jun 2027 17:04:17.066   09 Jun 2027 17:04:35.684            18.618            RioGallegos          2327.250
       396   09 Jun 2027 17:49:19.996   09 Jun 2027 17:51:06.275           106.279                Irkutsk         13284.875
       397   09 Jun 2027 17:51:29.230   09 Jun 2027 17:53:45.309           136.079                Novosib         17009.875
       398   09 Jun 2027 18:06:03.997   09 Jun 2027 18:06:12.604             8.607                Sumatra          1075.875
       399   09 Jun 2027 19:32:37.519   09 Jun 2027 19:36:54.039           256.520                  Delhi         32065.000
       400   09 Jun 2027 21:03:46.751   09 Jun 2027 21:05:13.461            86.710                 Moscow         10838.750
       401   09 Jun 2027 21:32:42.164   09 Jun 2027 21:33:01.246            19.082               CapeTown          2385.250
       402   09 Jun 2027 21:34:22.969   09 Jun 2027 21:36:12.795           109.826               CapeTown         13728.250
       403   10 Jun 2027 03:22:09.898   10 Jun 2027 03:22:33.710            23.812                Norilsk          2976.500
       404   10 Jun 2027 03:23:02.836   10 Jun 2027 03:28:57.087           354.251              Murmansk1         44281.375
       405   10 Jun 2027 03:28:57.087   10 Jun 2027 03:31:28.984           151.897              Murmansk2         18987.125
       406   10 Jun 2027 04:38:11.848   10 Jun 2027 04:38:46.056            34.208                Sumatra          4276.000
       407   10 Jun 2027 04:40:33.394   10 Jun 2027 04:41:30.312            56.918                Sumatra          7114.750
       408   10 Jun 2027 04:59:25.582   10 Jun 2027 05:04:11.614           286.032                Norilsk         35754.000
       409   10 Jun 2027 05:04:14.687   10 Jun 2027 05:04:23.648             8.961                Norilsk          1120.125
       410   10 Jun 2027 05:04:35.928   10 Jun 2027 05:07:36.965           181.037              Murmansk2         22629.625
       411   10 Jun 2027 05:34:13.349   10 Jun 2027 05:38:34.503           261.154            RioGallegos         32644.250
       412   10 Jun 2027 05:38:59.385   10 Jun 2027 05:39:52.160            52.775            RioGallegos          6596.875
       413   10 Jun 2027 05:43:45.128   10 Jun 2027 05:43:57.560            12.432            RioGallegos          1554.000
       414   10 Jun 2027 06:08:56.251   10 Jun 2027 06:11:10.139           133.888                Sumatra         16736.000
       415   10 Jun 2027 06:19:16.405   10 Jun 2027 06:20:49.763            93.358                  Delhi         11669.750
       416   10 Jun 2027 06:23:07.566   10 Jun 2027 06:27:39.416           271.850                Irkutsk         33981.250
       417   10 Jun 2027 06:27:44.200   10 Jun 2027 06:28:43.937            59.737                Novosib          7467.125
       418   10 Jun 2027 06:34:43.613   10 Jun 2027 06:35:20.419            36.806              Murmansk2          4600.750
       419   10 Jun 2027 06:35:27.395   10 Jun 2027 06:40:19.862           292.467                Norilsk         36558.375
       420   10 Jun 2027 06:40:34.144   10 Jun 2027 06:42:30.229           116.085              Murmansk2         14510.625
       421   10 Jun 2027 07:14:10.988   10 Jun 2027 07:17:05.782           174.794            RioGallegos         21849.250
       422   10 Jun 2027 07:53:13.048   10 Jun 2027 07:56:16.060           183.012                  Delhi         22876.500
       423   10 Jun 2027 07:57:16.604   10 Jun 2027 07:59:02.474           105.870                  Delhi         13233.750
       424   10 Jun 2027 08:00:59.185   10 Jun 2027 08:07:01.865           362.680                Novosib         45335.000
       425   10 Jun 2027 08:10:59.618   10 Jun 2027 08:14:14.568           194.950                 Moscow         24368.750
       426   10 Jun 2027 08:14:25.847   10 Jun 2027 08:15:23.485            57.638              Murmansk2          7204.750
       427   10 Jun 2027 08:15:23.485   10 Jun 2027 08:16:02.993            39.508              Murmansk1          4938.500
       428   10 Jun 2027 08:17:47.353   10 Jun 2027 08:18:02.379            15.026              Murmansk2          1878.250
       429   10 Jun 2027 09:47:29.588   10 Jun 2027 09:53:55.188           385.600              Murmansk1         48200.000
       430   10 Jun 2027 10:52:14.343   10 Jun 2027 11:02:25.065           610.722               CapeTown         76340.250
       431   10 Jun 2027 11:14:49.427   10 Jun 2027 11:24:46.555           597.128                 Moscow         74641.000
       432   10 Jun 2027 11:24:54.814   10 Jun 2027 11:29:53.034           298.220              Murmansk2         37277.500
       433   10 Jun 2027 11:32:05.503   10 Jun 2027 11:41:25.239           559.736                Anadyr2         69967.000
       434   10 Jun 2027 12:27:00.905   10 Jun 2027 12:30:02.762           181.857               CapeTown         22732.125
       435   10 Jun 2027 12:57:16.957   10 Jun 2027 12:59:29.298           132.341              Murmansk2         16542.625
       436   10 Jun 2027 13:11:06.536   10 Jun 2027 13:14:57.375           230.839               Magadan2         28854.875
       437   10 Jun 2027 13:17:39.323   10 Jun 2027 13:18:35.532            56.209               Magadan1          7026.125
       438   10 Jun 2027 16:27:02.917   10 Jun 2027 16:33:08.260           365.343                Irkutsk         45667.875
       439   10 Jun 2027 16:43:03.584   10 Jun 2027 16:44:32.146            88.562                Sumatra         11070.250
       440   10 Jun 2027 16:46:00.101   10 Jun 2027 16:48:25.168           145.067                Sumatra         18133.375
       441   10 Jun 2027 18:03:45.832   10 Jun 2027 18:05:46.017           120.185                Novosib         15023.125
       442   10 Jun 2027 21:11:28.241   10 Jun 2027 21:12:39.435            71.194              Murmansk2          8899.250
       443   10 Jun 2027 21:15:30.812   10 Jun 2027 21:19:17.785           226.973                 Moscow         28371.625
       444   10 Jun 2027 21:42:38.731   10 Jun 2027 21:43:15.219            36.488               CapeTown          4561.000
       445   10 Jun 2027 21:45:41.360   10 Jun 2027 21:48:03.071           141.711               CapeTown         17713.875
       446   11 Jun 2027 03:34:09.182   11 Jun 2027 03:34:27.937            18.755               Magadan2          2344.375
       447   11 Jun 2027 03:35:30.400   11 Jun 2027 03:35:49.452            19.052                Novosib          2381.500
       448   11 Jun 2027 03:35:55.864   11 Jun 2027 03:45:06.435           550.571              Murmansk2         68821.375
       449   11 Jun 2027 03:45:06.435   11 Jun 2027 03:45:11.652             5.217              Murmansk1           652.125
       450   11 Jun 2027 04:10:36.993   11 Jun 2027 04:13:10.086           153.093            RioGallegos         19136.625
       451   11 Jun 2027 04:48:18.556   11 Jun 2027 04:50:10.630           112.074                Sumatra         14009.250
       452   11 Jun 2027 05:11:26.908   11 Jun 2027 05:16:24.385           297.477                Norilsk         37184.625
       453   11 Jun 2027 05:16:38.058   11 Jun 2027 05:19:27.879           169.821              Murmansk2         21227.625
       454   11 Jun 2027 05:46:25.855   11 Jun 2027 05:49:38.036           192.181            RioGallegos         24022.625
       455   11 Jun 2027 05:50:43.313   11 Jun 2027 05:51:08.253            24.940            RioGallegos          3117.500
       456   11 Jun 2027 05:54:23.844   11 Jun 2027 05:55:09.738            45.894            RioGallegos          5736.750
       457   11 Jun 2027 05:58:37.804   11 Jun 2027 05:58:44.535             6.731            RioGallegos           841.375
       458   11 Jun 2027 06:20:58.412   11 Jun 2027 06:23:22.780           144.368                Sumatra         18046.000
       459   11 Jun 2027 06:30:33.458   11 Jun 2027 06:30:38.765             5.307                Sumatra           663.375
       460   11 Jun 2027 06:30:40.078   11 Jun 2027 06:32:11.833            91.755                  Delhi         11469.375
       461   11 Jun 2027 06:34:57.326   11 Jun 2027 06:36:16.897            79.571                  Delhi          9946.375
       462   11 Jun 2027 06:36:27.319   11 Jun 2027 06:39:49.744           202.425                Irkutsk         25303.125
       463   11 Jun 2027 06:40:28.240   11 Jun 2027 06:40:52.644            24.404                Novosib          3050.500
       464   11 Jun 2027 06:47:18.694   11 Jun 2027 06:49:32.010           133.316                 Moscow         16664.500
       465   11 Jun 2027 06:49:32.934   11 Jun 2027 06:54:26.809           293.875              Murmansk1         36734.375
       466   11 Jun 2027 07:27:35.865   11 Jun 2027 07:31:06.826           210.961            RioGallegos         26370.125
       467   11 Jun 2027 08:05:24.941   11 Jun 2027 08:11:44.301           379.360                  Delhi         47420.000
       468   11 Jun 2027 08:13:24.189   11 Jun 2027 08:17:55.506           271.317                Novosib         33914.625
       469   11 Jun 2027 08:22:56.327   11 Jun 2027 08:23:47.231            50.904              Murmansk1          6363.000
       470   11 Jun 2027 08:23:47.231   11 Jun 2027 08:30:02.535           375.304              Murmansk2         46913.000
       471   11 Jun 2027 09:49:32.956   11 Jun 2027 09:50:33.062            60.106                 Moscow          7513.250
       472   11 Jun 2027 09:54:00.503   11 Jun 2027 09:54:50.015            49.512              Murmansk2          6189.000
       473   11 Jun 2027 09:58:07.245   11 Jun 2027 10:03:52.160           344.915                Norilsk         43114.375
       474   11 Jun 2027 10:03:52.456   11 Jun 2027 10:05:01.193            68.737              Murmansk2          8592.125
       475   11 Jun 2027 10:05:01.193   11 Jun 2027 10:05:56.774            55.581              Murmansk1          6947.625
       476   11 Jun 2027 11:03:52.081   11 Jun 2027 11:10:19.249           387.168               CapeTown         48396.000
       477   11 Jun 2027 11:27:18.219   11 Jun 2027 11:31:19.492           241.273                 Moscow         30159.125
       478   11 Jun 2027 11:31:43.854   11 Jun 2027 11:40:17.109           513.255              Murmansk2         64156.875
       479   11 Jun 2027 11:40:36.745   11 Jun 2027 11:41:19.507            42.762              Murmansk2          5345.250
       480   11 Jun 2027 11:44:00.378   11 Jun 2027 11:49:57.035           356.657                Anadyr1         44582.125
       481   11 Jun 2027 12:39:07.631   11 Jun 2027 12:42:25.239           197.608               CapeTown         24701.000
       482   11 Jun 2027 12:43:28.857   11 Jun 2027 12:44:03.336            34.479               CapeTown          4309.875
