uniorb/output/strategy_4/Drop/Drop_KinoSat_110604.txt

KinoSat_110604
-------------------------
    Access    *     Start Time (UTCG)     *     Stop Time (UTCG)  *   Duration (s)        *       Station  *  Data (Mbytes)
         1   01 Jun 2027 03:55:41.456   01 Jun 2027 03:59:02.396           200.940                Anadyr1          6279.375
         2   01 Jun 2027 05:30:45.352   01 Jun 2027 05:30:54.886             9.534               Magadan1           297.938
         3   01 Jun 2027 05:31:14.728   01 Jun 2027 05:34:46.938           212.210                Novosib          6631.562
         4   01 Jun 2027 05:35:00.801   01 Jun 2027 05:35:34.365            33.564                Norilsk          1048.875
         5   01 Jun 2027 05:36:08.742   01 Jun 2027 05:36:56.489            47.747                Norilsk          1492.094
         6   01 Jun 2027 05:37:49.907   01 Jun 2027 05:38:43.675            53.768                Norilsk          1680.250
         7   01 Jun 2027 05:39:26.831   01 Jun 2027 05:39:54.926            28.095                Norilsk           877.969
         8   01 Jun 2027 06:10:22.738   01 Jun 2027 06:13:40.639           197.901            RioGallegos          6184.406
         9   01 Jun 2027 06:14:34.960   01 Jun 2027 06:15:02.630            27.670            RioGallegos           864.688
        10   01 Jun 2027 06:45:48.354   01 Jun 2027 06:49:41.854           233.500                Sumatra          7296.875
        11   01 Jun 2027 06:58:59.379   01 Jun 2027 07:00:17.182            77.803                  Delhi          2431.344
        12   01 Jun 2027 07:02:50.535   01 Jun 2027 07:02:58.043             7.508                  Delhi           234.625
        13   01 Jun 2027 07:06:17.479   01 Jun 2027 07:07:21.406            63.927                Irkutsk          1997.719
        14   01 Jun 2027 07:08:12.849   01 Jun 2027 07:08:24.031            11.182                Norilsk           349.438
        15   01 Jun 2027 07:08:27.017   01 Jun 2027 07:10:28.778           121.761              Murmansk1          3805.031
        16   01 Jun 2027 07:10:28.778   01 Jun 2027 07:10:50.011            21.233              Murmansk2           663.531
        17   01 Jun 2027 07:11:12.544   01 Jun 2027 07:12:56.290           103.746                Novosib          3242.062
        18   01 Jun 2027 07:13:15.034   01 Jun 2027 07:14:00.887            45.853              Murmansk2          1432.906
        19   01 Jun 2027 07:48:56.697   01 Jun 2027 07:49:05.200             8.503            RioGallegos           265.719
        20   01 Jun 2027 07:50:39.836   01 Jun 2027 07:51:56.499            76.663            RioGallegos          2395.719
        21   01 Jun 2027 08:23:08.228   01 Jun 2027 08:23:53.902            45.674                Sumatra          1427.312
        22   01 Jun 2027 08:29:35.492   01 Jun 2027 08:32:39.147           183.655                  Delhi          5739.219
        23   01 Jun 2027 08:45:14.006   01 Jun 2027 08:45:23.057             9.051                 Moscow           282.844
        24   01 Jun 2027 08:45:55.440   01 Jun 2027 08:46:04.472             9.032                Norilsk           282.250
        25   01 Jun 2027 08:46:09.581   01 Jun 2027 08:47:37.463            87.882                Novosib          2746.313
        26   01 Jun 2027 08:49:13.382   01 Jun 2027 08:50:06.132            52.750              Murmansk1          1648.437
        27   01 Jun 2027 10:10:56.615   01 Jun 2027 10:11:32.344            35.729                  Delhi          1116.531
        28   01 Jun 2027 10:20:59.696   01 Jun 2027 10:22:57.945           118.249                Novosib          3695.281
        29   01 Jun 2027 10:23:11.436   01 Jun 2027 10:23:53.291            41.855                Norilsk          1307.969
        30   01 Jun 2027 10:24:24.652   01 Jun 2027 10:24:59.275            34.623              Murmansk1          1081.969
        31   01 Jun 2027 10:25:05.445   01 Jun 2027 10:25:47.226            41.781              Murmansk1          1305.656
        32   01 Jun 2027 10:26:04.866   01 Jun 2027 10:26:09.524             4.658                 Moscow           145.563
        33   01 Jun 2027 10:27:51.597   01 Jun 2027 10:28:20.361            28.764              Murmansk1           898.875
        34   01 Jun 2027 12:09:00.111   01 Jun 2027 12:15:32.425           392.314                Anadyr2         12259.812
        35   01 Jun 2027 15:22:26.264   01 Jun 2027 15:27:57.711           331.447               Magadan1         10357.719
        36   01 Jun 2027 15:27:57.711   01 Jun 2027 15:28:01.745             4.034               Magadan2           126.063
        37   01 Jun 2027 16:58:42.384   01 Jun 2027 17:01:40.400           178.016                Norilsk          5563.000
        38   01 Jun 2027 17:08:50.931   01 Jun 2027 17:09:32.766            41.835               Magadan2          1307.344
        39   01 Jun 2027 17:10:07.083   01 Jun 2027 17:10:43.405            36.322               Magadan2          1135.063
        40   01 Jun 2027 17:50:20.839   01 Jun 2027 17:52:03.020           102.181            RioGallegos          3193.156
        41   01 Jun 2027 17:53:33.161   01 Jun 2027 17:56:26.467           173.306            RioGallegos          5415.813
        42   01 Jun 2027 18:34:59.926   01 Jun 2027 18:35:04.312             4.386                Norilsk           137.063
        43   01 Jun 2027 18:37:38.302   01 Jun 2027 18:37:39.495             1.193                Norilsk            37.281
        44   01 Jun 2027 18:37:41.642   01 Jun 2027 18:38:01.337            19.695                Norilsk           615.469
        45   01 Jun 2027 18:38:57.824   01 Jun 2027 18:41:31.309           153.485                Irkutsk          4796.406
        46   01 Jun 2027 18:41:33.544   01 Jun 2027 18:44:19.299           165.755                Novosib          5179.844
        47   01 Jun 2027 18:47:14.780   01 Jun 2027 18:48:17.366            62.586                Irkutsk          1955.812
        48   01 Jun 2027 18:51:40.027   01 Jun 2027 18:53:15.236            95.209                Sumatra          2975.281
        49   01 Jun 2027 18:54:08.878   01 Jun 2027 18:55:34.726            85.848                Sumatra          2682.750
        50   01 Jun 2027 20:13:52.830   01 Jun 2027 20:14:00.633             7.803                Norilsk           243.844
        51   01 Jun 2027 20:14:48.984   01 Jun 2027 20:15:40.716            51.732                Novosib          1616.625
        52   01 Jun 2027 20:17:50.363   01 Jun 2027 20:18:08.997            18.634                Novosib           582.313
        53   01 Jun 2027 20:19:11.151   01 Jun 2027 20:20:11.342            60.191                Novosib          1880.969
        54   01 Jun 2027 20:21:30.920   01 Jun 2027 20:23:13.571           102.651                  Delhi          3207.844
        55   01 Jun 2027 20:25:13.386   01 Jun 2027 20:28:00.815           167.429                  Delhi          5232.156
        56   01 Jun 2027 21:47:58.557   01 Jun 2027 21:56:28.139           509.582              Murmansk2         15924.437
        57   01 Jun 2027 21:57:59.552   01 Jun 2027 21:58:58.637            59.085                 Moscow          1846.406
        58   01 Jun 2027 23:23:41.536   01 Jun 2027 23:24:56.894            75.358              Murmansk1          2354.938
        59   01 Jun 2027 23:27:04.981   01 Jun 2027 23:28:05.548            60.567                 Moscow          1892.719
        60   01 Jun 2027 23:30:23.814   01 Jun 2027 23:30:32.577             8.763              Murmansk1           273.844
        61   01 Jun 2027 23:30:59.282   01 Jun 2027 23:31:28.017            28.735                 Moscow           897.969
        62   01 Jun 2027 23:31:48.045   01 Jun 2027 23:33:44.514           116.469                 Moscow          3639.656
        63   01 Jun 2027 23:39:06.034   01 Jun 2027 23:39:23.000            16.966                 Moscow           530.188
        64   01 Jun 2027 23:51:58.096   01 Jun 2027 23:53:16.874            78.778               CapeTown          2461.813
        65   01 Jun 2027 23:55:14.717   01 Jun 2027 23:56:11.122            56.405               CapeTown          1762.656
        66   02 Jun 2027 00:00:02.006   02 Jun 2027 00:00:51.498            49.492               CapeTown          1546.625
        67   02 Jun 2027 00:57:39.403   02 Jun 2027 00:59:08.131            88.728               Magadan1          2772.750
        68   02 Jun 2027 00:59:39.466   02 Jun 2027 01:00:44.499            65.033              Murmansk2          2032.281
        69   02 Jun 2027 01:06:17.038   02 Jun 2027 01:06:33.557            16.519              Murmansk2           516.219
        70   02 Jun 2027 01:07:23.358   02 Jun 2027 01:07:37.588            14.230              Murmansk1           444.688
        71   02 Jun 2027 01:08:08.944   02 Jun 2027 01:08:33.163            24.219                 Moscow           756.844
        72   02 Jun 2027 01:09:35.546   02 Jun 2027 01:09:40.194             4.648                 Moscow           145.250
        73   02 Jun 2027 01:11:27.174   02 Jun 2027 01:11:46.380            19.206                 Moscow           600.187
        74   02 Jun 2027 01:12:57.435   02 Jun 2027 01:13:34.274            36.839                 Moscow          1151.219
        75   02 Jun 2027 01:29:32.839   02 Jun 2027 01:31:00.037            87.198               CapeTown          2724.938
        76   02 Jun 2027 02:23:36.806   02 Jun 2027 02:25:25.556           108.750               Magadan2          3398.438
        77   02 Jun 2027 02:25:50.683   02 Jun 2027 02:26:09.780            19.097               Magadan1           596.781
        78   02 Jun 2027 02:26:47.952   02 Jun 2027 02:27:00.219            12.267               Magadan2           383.344
        79   02 Jun 2027 02:27:39.546   02 Jun 2027 02:28:26.377            46.831               Magadan1          1463.469
        80   02 Jun 2027 02:30:42.354   02 Jun 2027 02:30:53.997            11.643               Magadan1           363.844
        81   02 Jun 2027 02:31:58.091   02 Jun 2027 02:32:50.126            52.035                Norilsk          1626.094
        82   02 Jun 2027 02:35:31.809   02 Jun 2027 02:36:42.267            70.458              Murmansk2          2201.812
        83   02 Jun 2027 02:39:16.828   02 Jun 2027 02:39:21.828             5.000                 Moscow           156.250
        84   02 Jun 2027 02:39:40.521   02 Jun 2027 02:40:45.807            65.286                 Moscow          2040.187
        85   02 Jun 2027 02:45:39.967   02 Jun 2027 02:46:18.603            38.636                 Moscow          1207.375
        86   02 Jun 2027 03:17:35.748   02 Jun 2027 03:18:52.235            76.487            RioGallegos          2390.219
        87   02 Jun 2027 03:20:06.479   02 Jun 2027 03:21:07.598            61.119            RioGallegos          1909.969
        88   02 Jun 2027 04:05:59.441   02 Jun 2027 04:07:45.195           105.754                Anadyr2          3304.813
        89   02 Jun 2027 04:07:49.732   02 Jun 2027 04:11:23.765           214.033                Anadyr2          6688.531
        90   02 Jun 2027 05:43:10.301   02 Jun 2027 05:44:59.216           108.915                Irkutsk          3403.594
        91   02 Jun 2027 05:45:42.986   02 Jun 2027 05:47:05.065            82.079               Magadan1          2564.969
        92   02 Jun 2027 05:47:07.538   02 Jun 2027 05:47:41.882            34.344                Irkutsk          1073.250
        93   02 Jun 2027 05:52:05.879   02 Jun 2027 05:52:22.567            16.688                Norilsk           521.500
        94   02 Jun 2027 07:04:46.000   02 Jun 2027 07:05:24.967            38.967                Sumatra          1217.719
        95   02 Jun 2027 07:08:59.512   02 Jun 2027 07:09:59.542            60.030                Sumatra          1875.938
        96   02 Jun 2027 07:19:26.276   02 Jun 2027 07:20:39.119            72.843                Irkutsk          2276.344
        97   02 Jun 2027 07:20:50.753   02 Jun 2027 07:21:33.220            42.467                Novosib          1327.094
        98   02 Jun 2027 07:22:50.560   02 Jun 2027 07:23:37.113            46.553                Irkutsk          1454.781
        99   02 Jun 2027 07:23:55.278   02 Jun 2027 07:24:14.442            19.164                Norilsk           598.875
       100   02 Jun 2027 07:25:39.291   02 Jun 2027 07:26:15.224            35.933              Murmansk1          1122.906
       101   02 Jun 2027 08:05:53.805   02 Jun 2027 08:06:30.219            36.414            RioGallegos          1137.937
       102   02 Jun 2027 08:06:54.450   02 Jun 2027 08:07:18.839            24.389            RioGallegos           762.156
       103   02 Jun 2027 08:08:14.050   02 Jun 2027 08:09:04.144            50.094            RioGallegos          1565.438
       104   02 Jun 2027 08:35:08.995   02 Jun 2027 08:36:47.323            98.328                Sumatra          3072.750
       105   02 Jun 2027 08:38:11.190   02 Jun 2027 08:39:06.499            55.309                Sumatra          1728.406
       106   02 Jun 2027 08:41:03.874   02 Jun 2027 08:42:41.356            97.482                Sumatra          3046.312
       107   02 Jun 2027 08:59:21.820   02 Jun 2027 08:59:42.837            21.017                Novosib           656.781
       108   02 Jun 2027 09:01:13.393   02 Jun 2027 09:02:18.748            65.355              Murmansk2          2042.344
       109   02 Jun 2027 10:20:53.404   02 Jun 2027 10:24:04.357           190.953                  Delhi          5967.281
       110   02 Jun 2027 10:32:00.951   02 Jun 2027 10:32:26.420            25.469                Novosib           795.906
       111   02 Jun 2027 10:35:27.018   02 Jun 2027 10:35:34.969             7.951                Norilsk           248.469
       112   02 Jun 2027 10:37:06.990   02 Jun 2027 10:37:42.644            35.654              Murmansk2          1114.187
       113   02 Jun 2027 12:05:55.944   02 Jun 2027 12:06:25.245            29.301              Murmansk1           915.656
       114   02 Jun 2027 12:06:41.629   02 Jun 2027 12:06:58.294            16.665              Murmansk1           520.781
       115   02 Jun 2027 12:07:03.258   02 Jun 2027 12:07:19.351            16.093              Murmansk1           502.906
       116   02 Jun 2027 12:07:59.082   02 Jun 2027 12:08:39.781            40.699              Murmansk1          1271.844
       117   02 Jun 2027 12:09:39.914   02 Jun 2027 12:09:44.893             4.979              Murmansk2           155.594
       118   02 Jun 2027 12:09:53.405   02 Jun 2027 12:10:20.823            27.418              Murmansk2           856.812
       119   02 Jun 2027 12:10:46.099   02 Jun 2027 12:10:51.310             5.211              Murmansk2           162.844
       120   02 Jun 2027 12:13:04.600   02 Jun 2027 12:13:51.723            47.123              Murmansk1          1472.594
       121   02 Jun 2027 12:15:15.290   02 Jun 2027 12:15:41.619            26.329              Murmansk1           822.781
       122   02 Jun 2027 12:20:46.763   02 Jun 2027 12:24:44.504           237.741                Anadyr2          7429.406
       123   02 Jun 2027 12:24:54.499   02 Jun 2027 12:26:49.326           114.827                Anadyr1          3588.344
       124   02 Jun 2027 13:52:53.749   02 Jun 2027 13:53:09.663            15.914              Murmansk2           497.313
       125   02 Jun 2027 13:53:09.663   02 Jun 2027 13:53:15.339             5.676              Murmansk1           177.375
       126   02 Jun 2027 13:56:01.216   02 Jun 2027 13:58:36.018           154.802                Anadyr2          4837.562
       127   02 Jun 2027 13:59:54.748   02 Jun 2027 13:59:55.592             0.844                Anadyr1            26.375
       128   02 Jun 2027 13:59:56.392   02 Jun 2027 14:01:24.117            87.725                Anadyr2          2741.406
       129   02 Jun 2027 14:02:13.161   02 Jun 2027 14:04:50.851           157.690               Magadan2          4927.812
       130   02 Jun 2027 15:31:53.063   02 Jun 2027 15:33:58.961           125.898                Anadyr1          3934.312
       131   02 Jun 2027 15:34:22.478   02 Jun 2027 15:36:06.565           104.087               Magadan2          3252.719
       132   02 Jun 2027 15:36:46.864   02 Jun 2027 15:37:38.375            51.511               Magadan2          1609.719
       133   02 Jun 2027 15:38:08.617   02 Jun 2027 15:38:17.052             8.435               Magadan1           263.594
       134   02 Jun 2027 15:38:37.068   02 Jun 2027 15:39:56.329            79.261               Magadan1          2476.906
       135   02 Jun 2027 17:07:46.698   02 Jun 2027 17:08:55.761            69.063                Anadyr2          2158.219
       136   02 Jun 2027 17:10:04.796   02 Jun 2027 17:11:55.578           110.782               Magadan2          3461.938
       137   02 Jun 2027 17:13:52.119   02 Jun 2027 17:15:00.977            68.858                Norilsk          2151.813
       138   02 Jun 2027 17:17:54.272   02 Jun 2027 17:19:02.714            68.442                Irkutsk          2138.813
       139   02 Jun 2027 18:02:09.243   02 Jun 2027 18:03:13.100            63.857            RioGallegos          1995.531
       140   02 Jun 2027 18:04:10.585   02 Jun 2027 18:05:35.842            85.257            RioGallegos          2664.281
       141   02 Jun 2027 18:11:36.607   02 Jun 2027 18:12:38.541            61.934            RioGallegos          1935.438
       142   02 Jun 2027 18:47:26.627   02 Jun 2027 18:48:04.580            37.953                Norilsk          1186.031
       143   02 Jun 2027 18:49:40.196   02 Jun 2027 18:50:59.777            79.581                Norilsk          2486.906
       144   02 Jun 2027 18:51:25.920   02 Jun 2027 18:57:42.461           376.541                Novosib         11766.906
       145   02 Jun 2027 19:03:28.189   02 Jun 2027 19:04:20.411            52.222                Sumatra          1631.937
       146   02 Jun 2027 19:06:07.501   02 Jun 2027 19:07:24.002            76.501                Sumatra          2390.656
       147   02 Jun 2027 20:26:50.947   02 Jun 2027 20:27:24.652            33.705                Novosib          1053.281
       148   02 Jun 2027 20:29:50.193   02 Jun 2027 20:29:58.876             8.683                Novosib           271.344
       149   02 Jun 2027 20:30:32.514   02 Jun 2027 20:32:11.378            98.864                Novosib          3089.500
       150   02 Jun 2027 20:33:14.012   02 Jun 2027 20:37:10.424           236.412                  Delhi          7387.875
       151   02 Jun 2027 20:38:25.523   02 Jun 2027 20:38:29.033             3.510                  Delhi           109.687
       152   02 Jun 2027 21:59:55.887   02 Jun 2027 22:09:03.226           547.339              Murmansk2         17104.344
       153   02 Jun 2027 22:09:52.348   02 Jun 2027 22:12:01.072           128.724                 Moscow          4022.625
       154   02 Jun 2027 23:39:02.597   02 Jun 2027 23:39:45.274            42.677                 Moscow          1333.656
       155   02 Jun 2027 23:41:30.723   02 Jun 2027 23:41:51.316            20.593                 Moscow           643.531
       156   03 Jun 2027 00:03:13.965   03 Jun 2027 00:05:51.994           158.029               CapeTown          4938.406
       157   03 Jun 2027 00:07:14.289   03 Jun 2027 00:07:15.288             0.999               CapeTown            31.219
       158   03 Jun 2027 00:14:37.852   03 Jun 2027 00:15:12.954            35.102               CapeTown          1096.937
       159   03 Jun 2027 01:11:40.940   03 Jun 2027 01:12:29.908            48.968              Murmansk2          1530.250
       160   03 Jun 2027 01:12:42.118   03 Jun 2027 01:13:59.332            77.214              Murmansk1          2412.937
       161   03 Jun 2027 01:14:56.161   03 Jun 2027 01:15:59.818            63.657                 Moscow          1989.281
       162   03 Jun 2027 01:19:52.953   03 Jun 2027 01:19:58.619             5.666                 Moscow           177.063
       163   03 Jun 2027 01:21:33.921   03 Jun 2027 01:23:25.140           111.219                 Moscow          3475.594
       164   03 Jun 2027 01:49:06.338   03 Jun 2027 01:49:11.453             5.115               CapeTown           159.844
       165   03 Jun 2027 02:35:28.352   03 Jun 2027 02:37:50.576           142.224               Magadan1          4444.500
       166   03 Jun 2027 02:38:24.165   03 Jun 2027 02:38:36.171            12.006               Magadan1           375.188
       167   03 Jun 2027 02:39:30.537   03 Jun 2027 02:39:54.211            23.674               Magadan1           739.812
       168   03 Jun 2027 02:40:55.401   03 Jun 2027 02:41:14.401            19.000               Magadan2           593.750
       169   03 Jun 2027 02:43:45.528   03 Jun 2027 02:44:12.211            26.683               Magadan2           833.844
       170   03 Jun 2027 02:45:14.463   03 Jun 2027 02:45:19.914             5.451                Norilsk           170.344
       171   03 Jun 2027 02:47:21.483   03 Jun 2027 02:47:26.025             4.542                Norilsk           141.938
       172   03 Jun 2027 02:47:31.550   03 Jun 2027 02:48:15.287            43.737              Murmansk2          1366.781
       173   03 Jun 2027 02:48:31.110   03 Jun 2027 02:49:22.155            51.045              Murmansk1          1595.156
       174   03 Jun 2027 02:51:24.465   03 Jun 2027 02:52:05.938            41.473                 Moscow          1296.031
       175   03 Jun 2027 02:54:32.185   03 Jun 2027 02:54:51.507            19.322                 Moscow           603.812
       176   03 Jun 2027 02:58:28.465   03 Jun 2027 02:59:07.496            39.031                 Moscow          1219.719
       177   03 Jun 2027 03:28:26.060   03 Jun 2027 03:30:14.472           108.412            RioGallegos          3387.875
       178   03 Jun 2027 03:31:19.394   03 Jun 2027 03:31:40.916            21.522            RioGallegos           672.563
       179   03 Jun 2027 04:15:53.883   03 Jun 2027 04:15:57.420             3.537                Anadyr2           110.531
       180   03 Jun 2027 04:16:08.084   03 Jun 2027 04:18:13.164           125.080               Magadan1          3908.750
       181   03 Jun 2027 04:18:36.532   03 Jun 2027 04:22:40.660           244.128               Magadan1          7629.000
       182   03 Jun 2027 04:22:55.766   03 Jun 2027 04:23:05.125             9.359                Anadyr2           292.469
       183   03 Jun 2027 04:59:32.621   03 Jun 2027 05:03:08.538           215.917            RioGallegos          6747.406
       184   03 Jun 2027 05:55:57.184   03 Jun 2027 05:59:06.697           189.513                Irkutsk          5922.281
       185   03 Jun 2027 05:59:33.046   03 Jun 2027 05:59:45.966            12.920                Irkutsk           403.750
       186   03 Jun 2027 06:00:28.404   03 Jun 2027 06:00:39.498            11.094                Novosib           346.687
       187   03 Jun 2027 06:02:34.273   03 Jun 2027 06:02:59.414            25.141              Murmansk1           785.656
       188   03 Jun 2027 07:31:26.475   03 Jun 2027 07:32:43.369            76.894                Irkutsk          2402.937
       189   03 Jun 2027 07:33:04.633   03 Jun 2027 07:33:34.719            30.086                Irkutsk           940.187
       190   03 Jun 2027 07:33:39.710   03 Jun 2027 07:34:05.639            25.929                Irkutsk           810.281
       191   03 Jun 2027 07:35:01.871   03 Jun 2027 07:35:23.865            21.994                Irkutsk           687.312
       192   03 Jun 2027 07:36:24.710   03 Jun 2027 07:36:24.784             0.074                Norilsk             2.312
       193   03 Jun 2027 07:36:54.292   03 Jun 2027 07:36:59.012             4.720              Murmansk2           147.500
       194   03 Jun 2027 07:37:19.826   03 Jun 2027 07:37:36.185            16.359              Murmansk2           511.219
       195   03 Jun 2027 07:39:02.480   03 Jun 2027 07:39:34.414            31.934              Murmansk2           997.937
       196   03 Jun 2027 08:14:34.543   03 Jun 2027 08:15:23.574            49.031            RioGallegos          1532.219
       197   03 Jun 2027 08:48:18.627   03 Jun 2027 08:48:25.159             6.532                Sumatra           204.125
       198   03 Jun 2027 08:50:36.040   03 Jun 2027 08:51:34.237            58.197                Sumatra          1818.656
       199   03 Jun 2027 09:08:52.870   03 Jun 2027 09:09:25.623            32.753                Novosib          1023.531
       200   03 Jun 2027 09:11:03.158   03 Jun 2027 09:11:47.684            44.526                Novosib          1391.437
       201   03 Jun 2027 10:35:14.885   03 Jun 2027 10:36:08.551            53.666                  Delhi          1677.063
       202   03 Jun 2027 10:36:10.931   03 Jun 2027 10:36:47.733            36.802                  Delhi          1150.063
       203   03 Jun 2027 10:49:08.605   03 Jun 2027 10:49:30.384            21.779              Murmansk1           680.594
       204   03 Jun 2027 12:18:10.088   03 Jun 2027 12:18:29.992            19.904              Murmansk2           622.000
       205   03 Jun 2027 12:19:10.463   03 Jun 2027 12:19:24.323            13.860              Murmansk2           433.125
       206   03 Jun 2027 12:19:58.816   03 Jun 2027 12:20:41.314            42.498              Murmansk2          1328.062
       207   03 Jun 2027 12:25:47.252   03 Jun 2027 12:25:58.592            11.340              Murmansk2           354.375
       208   03 Jun 2027 12:25:58.592   03 Jun 2027 12:26:06.585             7.993              Murmansk1           249.781
       209   03 Jun 2027 12:27:16.742   03 Jun 2027 12:28:09.486            52.744              Murmansk2          1648.250
       210   03 Jun 2027 12:36:02.823   03 Jun 2027 12:41:15.261           312.438                Anadyr1          9763.687
       211   03 Jun 2027 13:57:08.055   03 Jun 2027 13:58:19.612            71.557              Murmansk2          2236.156
       212   03 Jun 2027 13:59:15.035   03 Jun 2027 13:59:23.265             8.230              Murmansk2           257.188
       213   03 Jun 2027 13:59:48.847   03 Jun 2027 14:00:37.661            48.814              Murmansk1          1525.438
       214   03 Jun 2027 14:03:14.930   03 Jun 2027 14:03:41.304            26.374              Murmansk2           824.188
       215   03 Jun 2027 14:08:01.162   03 Jun 2027 14:09:21.615            80.453                Anadyr2          2514.156
       216   03 Jun 2027 14:09:46.991   03 Jun 2027 14:09:56.881             9.890                Anadyr1           309.062
       217   03 Jun 2027 14:10:34.490   03 Jun 2027 14:11:18.708            44.218                Anadyr1          1381.812
       218   03 Jun 2027 14:11:18.708   03 Jun 2027 14:11:36.013            17.305                Anadyr2           540.781
       219   03 Jun 2027 14:11:54.612   03 Jun 2027 14:18:06.277           371.665               Magadan2         11614.531
       220   03 Jun 2027 15:46:19.788   03 Jun 2027 15:50:10.584           230.796               Magadan2          7212.375
       221   03 Jun 2027 15:53:02.902   03 Jun 2027 15:54:59.713           116.811               Magadan1          3650.344
       222   03 Jun 2027 17:22:06.386   03 Jun 2027 17:23:41.175            94.789               Magadan2          2962.156
       223   03 Jun 2027 17:25:42.584   03 Jun 2027 17:27:11.398            88.814                Norilsk          2775.437
       224   03 Jun 2027 17:28:08.433   03 Jun 2027 17:33:22.175           313.742                Irkutsk          9804.438
       225   03 Jun 2027 19:01:41.706   03 Jun 2027 19:02:49.269            67.563                Irkutsk          2111.344
       226   03 Jun 2027 19:02:56.674   03 Jun 2027 19:10:14.919           438.245                Novosib         13695.156
       227   03 Jun 2027 19:24:56.107   03 Jun 2027 19:25:21.059            24.952                Sumatra           779.750
       228   03 Jun 2027 19:26:24.429   03 Jun 2027 19:26:32.418             7.989                Sumatra           249.656
       229   03 Jun 2027 20:39:12.690   03 Jun 2027 20:39:31.447            18.757                Novosib           586.156
       230   03 Jun 2027 20:39:59.027   03 Jun 2027 20:40:23.317            24.290                Novosib           759.063
       231   03 Jun 2027 20:41:08.751   03 Jun 2027 20:41:33.136            24.385                Novosib           762.031
       232   03 Jun 2027 20:41:50.730   03 Jun 2027 20:42:07.249            16.519                Novosib           516.219
       233   03 Jun 2027 20:45:02.170   03 Jun 2027 20:47:36.888           154.718                  Delhi          4834.938
       234   03 Jun 2027 20:52:22.903   03 Jun 2027 20:54:05.305           102.402                  Delhi          3200.063
       235   03 Jun 2027 22:11:54.262   03 Jun 2027 22:13:34.362           100.100              Murmansk1          3128.125
       236   03 Jun 2027 22:14:14.262   03 Jun 2027 22:17:28.645           194.383              Murmansk2          6074.469
       237   03 Jun 2027 22:19:01.947   03 Jun 2027 22:22:39.469           217.522                 Moscow          6797.563
       238   03 Jun 2027 22:44:27.336   03 Jun 2027 22:48:43.129           255.793               CapeTown          7993.531
       239   04 Jun 2027 00:03:17.512   04 Jun 2027 00:03:28.150            10.638                 Moscow           332.437
       240   04 Jun 2027 00:15:02.179   04 Jun 2027 00:17:01.064           118.885               CapeTown          3715.156
       241   04 Jun 2027 00:24:30.921   04 Jun 2027 00:25:56.457            85.536               CapeTown          2673.000
       242   04 Jun 2027 01:20:58.442   04 Jun 2027 01:21:00.229             1.787               Magadan2            55.844
       243   04 Jun 2027 01:22:52.668   04 Jun 2027 01:23:04.201            11.533               Magadan2           360.406
       244   04 Jun 2027 01:23:42.305   04 Jun 2027 01:23:48.032             5.727              Murmansk1           178.969
       245   04 Jun 2027 01:24:27.956   04 Jun 2027 01:24:47.867            19.911              Murmansk1           622.219
       246   04 Jun 2027 01:25:55.888   04 Jun 2027 01:27:30.477            94.589              Murmansk1          2955.906
       247   04 Jun 2027 01:27:30.477   04 Jun 2027 01:27:35.364             4.887              Murmansk2           152.719
       248   04 Jun 2027 01:27:53.008   04 Jun 2027 01:28:05.903            12.895              Murmansk2           402.969
       249   04 Jun 2027 01:28:27.002   04 Jun 2027 01:28:41.626            14.624              Murmansk2           457.000
       250   04 Jun 2027 01:29:37.883   04 Jun 2027 01:29:41.554             3.671                 Moscow           114.719
       251   04 Jun 2027 01:30:57.932   04 Jun 2027 01:31:19.313            21.381                 Moscow           668.156
       252   04 Jun 2027 01:31:34.878   04 Jun 2027 01:31:50.823            15.945                 Moscow           498.281
       253   04 Jun 2027 01:35:32.100   04 Jun 2027 01:35:37.849             5.749                 Moscow           179.656
       254   04 Jun 2027 01:36:02.243   04 Jun 2027 01:36:24.385            22.142                 Moscow           691.938
       255   04 Jun 2027 01:52:27.766   04 Jun 2027 01:52:59.173            31.407               CapeTown           981.469
       256   04 Jun 2027 01:55:06.512   04 Jun 2027 01:56:17.298            70.786               CapeTown          2212.063
       257   04 Jun 2027 02:47:22.101   04 Jun 2027 02:49:33.286           131.185               Magadan2          4099.531
       258   04 Jun 2027 02:51:21.622   04 Jun 2027 02:51:33.247            11.625               Magadan2           363.281
       259   04 Jun 2027 02:51:38.135   04 Jun 2027 02:52:14.402            36.267               Magadan2          1133.344
       260   04 Jun 2027 02:55:41.448   04 Jun 2027 02:56:01.089            19.641                Norilsk           613.781
       261   04 Jun 2027 02:57:45.914   04 Jun 2027 02:57:51.729             5.815                Norilsk           181.719
       262   04 Jun 2027 02:58:36.522   04 Jun 2027 02:58:49.687            13.165                Norilsk           411.406
       263   04 Jun 2027 02:59:30.928   04 Jun 2027 03:00:16.947            46.019              Murmansk2          1438.094
       264   04 Jun 2027 03:39:31.601   04 Jun 2027 03:42:46.976           195.375            RioGallegos          6105.469
       265   04 Jun 2027 04:28:32.713   04 Jun 2027 04:28:37.782             5.069               Magadan2           158.406
       266   04 Jun 2027 04:28:58.389   04 Jun 2027 04:32:45.968           227.579               Magadan2          7111.844
       267   04 Jun 2027 04:33:05.878   04 Jun 2027 04:33:49.158            43.280               Magadan2          1352.500
       268   04 Jun 2027 04:34:15.646   04 Jun 2027 04:35:01.337            45.691                Irkutsk          1427.844
       269   04 Jun 2027 04:35:06.312   04 Jun 2027 04:35:29.900            23.588                Anadyr1           737.125
       270   04 Jun 2027 04:35:41.328   04 Jun 2027 04:35:55.893            14.565               Magadan2           455.156
       271   04 Jun 2027 05:11:15.444   04 Jun 2027 05:15:01.698           226.254            RioGallegos          7070.437
       272   04 Jun 2027 05:50:27.000   04 Jun 2027 05:54:05.139           218.139                Sumatra          6816.844
       273   04 Jun 2027 06:06:12.883   04 Jun 2027 06:06:37.911            25.028                Novosib           782.125
       274   04 Jun 2027 06:07:22.773   04 Jun 2027 06:08:15.211            52.438                Irkutsk          1638.688
       275   04 Jun 2027 06:08:30.972   04 Jun 2027 06:08:50.627            19.655                Novosib           614.219
       276   04 Jun 2027 06:08:53.138   04 Jun 2027 06:10:05.999            72.861               Magadan2          2276.906
       277   04 Jun 2027 06:10:21.392   04 Jun 2027 06:11:20.244            58.852                Novosib          1839.125
       278   04 Jun 2027 06:11:50.314   04 Jun 2027 06:12:42.469            52.155                Novosib          1629.844
       279   04 Jun 2027 07:44:07.486   04 Jun 2027 07:44:51.105            43.619                Novosib          1363.094
       280   04 Jun 2027 07:44:58.220   04 Jun 2027 07:46:01.585            63.365                Novosib          1980.156
       281   04 Jun 2027 07:46:05.130   04 Jun 2027 07:47:06.665            61.535                 Moscow          1922.969
       282   04 Jun 2027 07:48:13.372   04 Jun 2027 07:48:26.210            12.838                Norilsk           401.187
       283   04 Jun 2027 07:48:54.399   04 Jun 2027 07:49:07.114            12.715              Murmansk1           397.344
       284   04 Jun 2027 08:26:40.113   04 Jun 2027 08:27:11.954            31.841            RioGallegos           995.031
       285   04 Jun 2027 08:28:35.881   04 Jun 2027 08:29:19.857            43.976            RioGallegos          1374.250
       286   04 Jun 2027 09:21:20.747   04 Jun 2027 09:21:34.672            13.925                Novosib           435.156
       287   04 Jun 2027 09:23:20.014   04 Jun 2027 09:23:52.031            32.017                Novosib          1000.531
       288   04 Jun 2027 11:02:04.959   04 Jun 2027 11:03:22.956            77.997                Norilsk          2437.406
       289   04 Jun 2027 12:30:26.219   04 Jun 2027 12:31:57.990            91.771              Murmansk1          2867.844
       290   04 Jun 2027 12:33:27.186   04 Jun 2027 12:33:48.184            20.998              Murmansk2           656.188
       291   04 Jun 2027 12:34:07.371   04 Jun 2027 12:34:32.834            25.463              Murmansk2           795.719
       292   04 Jun 2027 12:35:42.558   04 Jun 2027 12:35:54.456            11.898              Murmansk2           371.812
       293   04 Jun 2027 12:38:48.683   04 Jun 2027 12:39:18.306            29.623              Murmansk2           925.719
       294   04 Jun 2027 12:39:20.442   04 Jun 2027 12:39:23.200             2.758              Murmansk2            86.188
       295   04 Jun 2027 12:40:15.884   04 Jun 2027 12:40:17.244             1.360              Murmansk2            42.500
       296   04 Jun 2027 12:44:30.378   04 Jun 2027 12:47:22.427           172.049                Anadyr1          5376.531
       297   04 Jun 2027 12:47:24.914   04 Jun 2027 12:53:52.399           387.485                Anadyr2         12108.906
       298   04 Jun 2027 14:20:01.478   04 Jun 2027 14:20:20.404            18.926                Anadyr1           591.437
       299   04 Jun 2027 14:20:57.654   04 Jun 2027 14:21:18.793            21.139                Anadyr2           660.594
       300   04 Jun 2027 14:21:47.331   04 Jun 2027 14:22:16.593            29.262                Anadyr1           914.437
       301   04 Jun 2027 14:23:30.629   04 Jun 2027 14:30:14.430           403.801               Magadan2         12618.781
       302   04 Jun 2027 14:31:00.031   04 Jun 2027 14:31:03.640             3.609               Magadan1           112.781
       303   04 Jun 2027 15:58:17.992   04 Jun 2027 15:59:41.568            83.576               Magadan1          2611.750
       304   04 Jun 2027 16:02:12.753   04 Jun 2027 16:03:15.984            63.231               Magadan2          1975.969
       305   04 Jun 2027 17:31:46.689   04 Jun 2027 17:32:58.162            71.473                Anadyr2          2233.531
       306   04 Jun 2027 17:33:31.443   04 Jun 2027 17:33:49.380            17.937                Anadyr1           560.531
       307   04 Jun 2027 17:34:03.744   04 Jun 2027 17:34:40.073            36.329                Norilsk          1135.281
       308   04 Jun 2027 17:35:19.199   04 Jun 2027 17:37:18.909           119.710               Magadan1          3740.937
       309   04 Jun 2027 17:39:26.265   04 Jun 2027 17:46:34.768           428.503                Irkutsk         13390.719
       310   04 Jun 2027 17:55:22.965   04 Jun 2027 18:01:05.531           342.566                Sumatra         10705.187
       311   04 Jun 2027 19:14:36.506   04 Jun 2027 19:15:34.892            58.386                Novosib          1824.563
       312   04 Jun 2027 19:15:52.742   04 Jun 2027 19:20:59.313           306.571                Novosib          9580.344
       313   04 Jun 2027 20:49:10.208   04 Jun 2027 20:52:33.275           203.067              Murmansk1          6345.844
       314   04 Jun 2027 22:23:53.422   04 Jun 2027 22:25:24.329            90.907              Murmansk1          2840.844
       315   04 Jun 2027 22:25:34.256   04 Jun 2027 22:29:51.621           257.365              Murmansk2          8042.656
       316   04 Jun 2027 22:30:36.251   04 Jun 2027 22:35:50.230           313.979                 Moscow          9811.844
       317   04 Jun 2027 22:54:59.955   04 Jun 2027 23:01:45.707           405.752               CapeTown         12679.750
       318   05 Jun 2027 01:43:40.555   05 Jun 2027 01:43:50.271             9.716                 Moscow           303.625
       319   05 Jun 2027 01:47:03.030   05 Jun 2027 01:47:12.841             9.811                 Moscow           306.594
       320   05 Jun 2027 01:48:41.726   05 Jun 2027 01:49:41.363            59.637                 Moscow          1863.656
       321   05 Jun 2027 02:05:16.288   05 Jun 2027 02:05:50.929            34.641               CapeTown          1082.531
       322   05 Jun 2027 02:59:18.119   05 Jun 2027 03:00:21.028            62.909               Magadan1          1965.906
       323   05 Jun 2027 03:00:21.028   05 Jun 2027 03:01:13.896            52.868               Magadan2          1652.125
       324   05 Jun 2027 03:02:09.910   05 Jun 2027 03:02:12.802             2.892                Anadyr1            90.375
       325   05 Jun 2027 03:03:35.903   05 Jun 2027 03:07:12.249           216.346               Magadan2          6760.813
       326   05 Jun 2027 03:07:21.988   05 Jun 2027 03:09:27.784           125.796                Anadyr2          3931.125
       327   05 Jun 2027 03:09:29.617   05 Jun 2027 03:10:01.401            31.784               Magadan1           993.250
       328   05 Jun 2027 04:41:06.757   05 Jun 2027 04:41:36.691            29.934               Magadan2           935.438
       329   05 Jun 2027 04:41:49.297   05 Jun 2027 04:42:28.284            38.987               Magadan2          1218.344
       330   05 Jun 2027 04:42:28.571   05 Jun 2027 04:46:52.583           264.012                Irkutsk          8250.375
       331   05 Jun 2027 04:47:25.751   05 Jun 2027 04:47:53.482            27.731               Magadan1           866.594
       332   05 Jun 2027 06:17:56.439   05 Jun 2027 06:18:48.539            52.100               Magadan1          1628.125
       333   05 Jun 2027 06:18:53.055   05 Jun 2027 06:18:55.159             2.104               Magadan1            65.750
       334   05 Jun 2027 06:18:55.159   05 Jun 2027 06:19:01.809             6.650               Magadan2           207.812
       335   05 Jun 2027 06:19:07.487   05 Jun 2027 06:19:33.331            25.844               Magadan2           807.625
       336   05 Jun 2027 06:19:33.331   05 Jun 2027 06:20:02.154            28.823               Magadan1           900.719
       337   05 Jun 2027 06:20:52.006   05 Jun 2027 06:20:55.569             3.563               Magadan1           111.344
       338   05 Jun 2027 06:20:57.067   05 Jun 2027 06:21:26.761            29.694               Magadan2           927.938
       339   05 Jun 2027 06:21:37.859   05 Jun 2027 06:21:55.561            17.702               Magadan1           553.187
       340   05 Jun 2027 06:23:52.330   05 Jun 2027 06:24:32.312            39.982                Norilsk          1249.437
       341   05 Jun 2027 07:53:35.239   05 Jun 2027 07:53:40.690             5.451                Irkutsk           170.344
       342   05 Jun 2027 07:55:39.545   05 Jun 2027 07:56:08.067            28.522                Irkutsk           891.313
       343   05 Jun 2027 07:56:29.751   05 Jun 2027 07:57:01.234            31.483                Novosib           983.844
       344   05 Jun 2027 07:57:19.941   05 Jun 2027 07:57:42.173            22.232              Murmansk1           694.750
       345   05 Jun 2027 07:57:49.820   05 Jun 2027 07:58:19.329            29.509                Irkutsk           922.156
       346   05 Jun 2027 07:59:25.030   05 Jun 2027 07:59:44.806            19.776                Novosib           618.000
       347   05 Jun 2027 08:01:54.445   05 Jun 2027 08:02:17.378            22.933              Murmansk1           716.656
       348   05 Jun 2027 08:40:07.349   05 Jun 2027 08:41:04.764            57.415            RioGallegos          1794.219
       349   05 Jun 2027 09:30:47.527   05 Jun 2027 09:30:59.847            12.320                Novosib           385.000
       350   05 Jun 2027 09:31:02.565   05 Jun 2027 09:31:06.754             4.189                Novosib           130.906
       351   05 Jun 2027 09:35:55.900   05 Jun 2027 09:36:18.206            22.306                Novosib           697.063
       352   05 Jun 2027 11:14:39.803   05 Jun 2027 11:15:24.943            45.140                Norilsk          1410.625
       353   05 Jun 2027 12:39:45.195   05 Jun 2027 12:40:37.157            51.962                 Moscow          1623.813
       354   05 Jun 2027 12:40:42.309   05 Jun 2027 12:41:36.508            54.199                 Moscow          1693.719
       355   05 Jun 2027 12:42:44.417   05 Jun 2027 12:43:26.039            41.622              Murmansk2          1300.688
       356   05 Jun 2027 12:43:26.039   05 Jun 2027 12:43:57.416            31.377              Murmansk1           980.531
       357   05 Jun 2027 12:44:04.446   05 Jun 2027 12:44:43.991            39.545              Murmansk1          1235.781
       358   05 Jun 2027 12:47:20.148   05 Jun 2027 12:47:26.279             6.131              Murmansk1           191.594
       359   05 Jun 2027 12:56:25.342   05 Jun 2027 12:58:40.880           135.538                Anadyr1          4235.563
       360   05 Jun 2027 13:00:04.741   05 Jun 2027 13:02:00.859           116.118                Anadyr1          3628.688
       361   05 Jun 2027 13:54:27.026   05 Jun 2027 13:55:28.850            61.824               CapeTown          1932.000
       362   05 Jun 2027 14:22:24.166   05 Jun 2027 14:23:18.388            54.222              Murmansk1          1694.438
       363   05 Jun 2027 14:23:18.388   05 Jun 2027 14:23:25.377             6.989              Murmansk2           218.406
       364   05 Jun 2027 14:23:51.608   05 Jun 2027 14:24:16.357            24.749              Murmansk1           773.406
       365   05 Jun 2027 14:32:02.088   05 Jun 2027 14:33:36.353            94.265                Anadyr1          2945.781
       366   05 Jun 2027 14:35:00.843   05 Jun 2027 14:35:53.859            53.016                Anadyr1          1656.750
       367   05 Jun 2027 14:36:02.550   05 Jun 2027 14:41:25.622           323.072               Magadan1         10096.000
       368   05 Jun 2027 14:41:26.063   05 Jun 2027 14:43:50.860           144.797               Magadan2          4524.906
       369   05 Jun 2027 16:10:16.942   05 Jun 2027 16:12:26.874           129.932               Magadan2          4060.375
       370   05 Jun 2027 16:13:08.260   05 Jun 2027 16:14:15.076            66.816               Magadan2          2088.000
       371   05 Jun 2027 17:04:28.753   05 Jun 2027 17:09:19.840           291.087            RioGallegos          9096.469
       372   05 Jun 2027 17:46:52.409   05 Jun 2027 17:47:34.318            41.909                Norilsk          1309.656
       373   05 Jun 2027 17:50:59.090   05 Jun 2027 17:57:49.223           410.133                Irkutsk         12816.656
       374   05 Jun 2027 18:06:05.664   05 Jun 2027 18:14:16.383           490.719                Sumatra         15334.969
       375   05 Jun 2027 19:29:20.671   05 Jun 2027 19:32:25.643           184.972                Novosib          5780.375
       376   05 Jun 2027 19:36:47.438   05 Jun 2027 19:41:16.465           269.027                  Delhi          8407.094
       377   05 Jun 2027 21:00:46.031   05 Jun 2027 21:05:40.158           294.127              Murmansk1          9191.469
       378   05 Jun 2027 22:38:32.084   05 Jun 2027 22:41:15.576           163.492              Murmansk1          5109.125
       379   05 Jun 2027 22:43:03.760   05 Jun 2027 22:43:47.426            43.666                 Moscow          1364.562
       380   05 Jun 2027 22:45:58.408   05 Jun 2027 22:47:53.461           115.053                 Moscow          3595.406
       381   05 Jun 2027 23:05:59.886   05 Jun 2027 23:14:24.032           504.146               CapeTown         15754.563
       382   06 Jun 2027 02:24:40.004   06 Jun 2027 02:24:44.882             4.878               CapeTown           152.437
       383   06 Jun 2027 03:15:22.604   06 Jun 2027 03:15:48.552            25.948               Magadan2           810.875
       384   06 Jun 2027 03:15:55.587   06 Jun 2027 03:16:02.455             6.868               Magadan2           214.625
       385   06 Jun 2027 03:16:18.860   06 Jun 2027 03:16:52.879            34.019               Magadan1          1063.094
       386   06 Jun 2027 03:18:13.501   06 Jun 2027 03:18:48.578            35.077               Magadan2          1096.156
       387   06 Jun 2027 03:18:48.578   06 Jun 2027 03:19:07.118            18.540               Magadan1           579.375
       388   06 Jun 2027 03:19:09.541   06 Jun 2027 03:23:08.545           239.004               Magadan2          7468.875
       389   06 Jun 2027 03:23:13.455   06 Jun 2027 03:24:19.776            66.321                Anadyr2          2072.531
       390   06 Jun 2027 04:07:42.453   06 Jun 2027 04:07:44.217             1.764            RioGallegos            55.125
       391   06 Jun 2027 04:53:40.441   06 Jun 2027 04:56:03.288           142.847                Irkutsk          4463.969
       392   06 Jun 2027 04:57:04.641   06 Jun 2027 04:58:16.635            71.994               Magadan1          2249.813
       393   06 Jun 2027 04:58:26.378   06 Jun 2027 04:59:32.007            65.629                Irkutsk          2050.906
       394   06 Jun 2027 04:59:47.446   06 Jun 2027 04:59:50.051             2.605               Magadan1            81.406
       395   06 Jun 2027 06:30:50.112   06 Jun 2027 06:31:10.732            20.620               Magadan2           644.375
       396   06 Jun 2027 06:31:11.654   06 Jun 2027 06:31:42.421            30.767               Magadan1           961.469
       397   06 Jun 2027 06:35:44.168   06 Jun 2027 06:35:53.644             9.476                Irkutsk           296.125
       398   06 Jun 2027 08:03:46.540   06 Jun 2027 08:04:47.726            61.186                Novosib          1912.063
       399   06 Jun 2027 08:08:40.704   06 Jun 2027 08:08:46.353             5.649              Murmansk1           176.531
       400   06 Jun 2027 08:08:51.545   06 Jun 2027 08:09:47.453            55.908                Irkutsk          1747.125
       401   06 Jun 2027 08:10:24.828   06 Jun 2027 08:11:13.616            48.788                Irkutsk          1524.625
       402   06 Jun 2027 08:11:33.283   06 Jun 2027 08:11:33.540             0.257                Novosib             8.031
       403   06 Jun 2027 08:11:43.389   06 Jun 2027 08:12:20.957            37.568                Novosib          1174.000
       404   06 Jun 2027 09:35:30.084   06 Jun 2027 09:36:36.352            66.268                  Delhi          2070.875
       405   06 Jun 2027 09:47:28.523   06 Jun 2027 09:47:29.026             0.503                Novosib            15.719
       406   06 Jun 2027 11:29:45.707   06 Jun 2027 11:30:06.082            20.375              Murmansk1           636.719
       407   06 Jun 2027 12:52:19.792   06 Jun 2027 12:52:34.786            14.994                 Moscow           468.562
       408   06 Jun 2027 12:53:15.766   06 Jun 2027 12:53:42.054            26.288                 Moscow           821.500
       409   06 Jun 2027 12:54:15.439   06 Jun 2027 12:55:00.517            45.078                 Moscow          1408.688
       410   06 Jun 2027 12:55:28.029   06 Jun 2027 12:55:39.790            11.761                 Moscow           367.531
       411   06 Jun 2027 12:55:52.599   06 Jun 2027 12:56:28.779            36.180                 Moscow          1130.625
       412   06 Jun 2027 12:56:45.041   06 Jun 2027 12:57:27.351            42.310              Murmansk2          1322.187
       413   06 Jun 2027 12:58:22.588   06 Jun 2027 12:59:21.677            59.089              Murmansk2          1846.531
       414   06 Jun 2027 13:10:15.516   06 Jun 2027 13:12:05.868           110.352                Anadyr1          3448.500
       415   06 Jun 2027 13:15:22.580   06 Jun 2027 13:16:43.602            81.022                Anadyr1          2531.938
       416   06 Jun 2027 14:03:43.230   06 Jun 2027 14:04:37.154            53.924               CapeTown          1685.125
       417   06 Jun 2027 14:35:08.361   06 Jun 2027 14:37:06.817           118.456              Murmansk1          3701.750
       418   06 Jun 2027 14:37:06.817   06 Jun 2027 14:37:33.884            27.067              Murmansk2           845.844
       419   06 Jun 2027 14:44:02.934   06 Jun 2027 14:45:15.688            72.754                Anadyr2          2273.562
       420   06 Jun 2027 14:45:24.032   06 Jun 2027 14:46:25.804            61.772                Anadyr1          1930.375
       421   06 Jun 2027 14:47:01.863   06 Jun 2027 14:55:03.162           481.299               Magadan1         15040.594
       422   06 Jun 2027 14:55:03.162   06 Jun 2027 14:56:30.883            87.721               Magadan2          2741.281
       423   06 Jun 2027 16:22:16.521   06 Jun 2027 16:23:08.471            51.950               Magadan1          1623.437
       424   06 Jun 2027 16:23:21.757   06 Jun 2027 16:23:41.291            19.534               Magadan1           610.437
       425   06 Jun 2027 17:15:41.307   06 Jun 2027 17:22:37.493           416.186            RioGallegos         13005.813
       426   06 Jun 2027 17:59:46.056   06 Jun 2027 18:00:04.291            18.235                Norilsk           569.844
       427   06 Jun 2027 18:02:39.781   06 Jun 2027 18:10:29.297           469.516                Irkutsk         14672.375
       428   06 Jun 2027 18:17:15.070   06 Jun 2027 18:25:20.963           485.893                Sumatra         15184.156
       429   06 Jun 2027 19:47:27.914   06 Jun 2027 19:54:49.263           441.349                  Delhi         13792.156
       430   06 Jun 2027 21:12:32.170   06 Jun 2027 21:18:34.687           362.517              Murmansk2         11328.656
       431   06 Jun 2027 22:51:27.536   06 Jun 2027 22:53:14.523           106.987              Murmansk1          3343.344
       432   06 Jun 2027 23:18:25.377   06 Jun 2027 23:19:13.260            47.883               CapeTown          1496.344
       433   06 Jun 2027 23:20:00.385   06 Jun 2027 23:24:44.685           284.300               CapeTown          8884.375
       434   07 Jun 2027 01:56:18.900   07 Jun 2027 01:56:34.607            15.707                Norilsk           490.844
       435   07 Jun 2027 01:57:03.266   07 Jun 2027 01:57:04.813             1.547               Magadan1            48.344
       436   07 Jun 2027 01:57:50.645   07 Jun 2027 01:58:00.159             9.514               Magadan2           297.312
       437   07 Jun 2027 01:59:45.418   07 Jun 2027 02:01:19.681            94.263              Murmansk2          2945.719
       438   07 Jun 2027 02:02:39.652   07 Jun 2027 02:02:58.776            19.124              Murmansk2           597.625
       439   07 Jun 2027 02:03:13.108   07 Jun 2027 02:03:45.103            31.995                 Moscow           999.844
       440   07 Jun 2027 02:07:13.013   07 Jun 2027 02:07:42.587            29.574                 Moscow           924.188
       441   07 Jun 2027 02:32:33.869   07 Jun 2027 02:33:34.546            60.677               CapeTown          1896.156
       442   07 Jun 2027 02:33:54.416   07 Jun 2027 02:34:02.932             8.516               CapeTown           266.125
       443   07 Jun 2027 03:26:44.870   07 Jun 2027 03:27:37.649            52.779                Anadyr2          1649.344
       444   07 Jun 2027 03:29:34.088   07 Jun 2027 03:30:07.672            33.584               Magadan2          1049.500
       445   07 Jun 2027 03:30:21.131   07 Jun 2027 03:33:28.718           187.587                Anadyr1          5862.094
       446   07 Jun 2027 04:18:25.714   07 Jun 2027 04:19:16.114            50.400            RioGallegos          1575.000
       447   07 Jun 2027 05:03:49.866   07 Jun 2027 05:03:54.422             4.556                Irkutsk           142.375
       448   07 Jun 2027 05:04:59.336   07 Jun 2027 05:05:15.483            16.147                Irkutsk           504.594
       449   07 Jun 2027 05:05:40.407   07 Jun 2027 05:06:21.512            41.105                Irkutsk          1284.531
       450   07 Jun 2027 05:06:58.244   07 Jun 2027 05:08:35.025            96.781                Irkutsk          3024.406
       451   07 Jun 2027 05:10:03.489   07 Jun 2027 05:11:19.207            75.718                Irkutsk          2366.187
       452   07 Jun 2027 05:11:20.078   07 Jun 2027 05:11:28.137             8.059               Magadan2           251.844
       453   07 Jun 2027 06:47:46.832   07 Jun 2027 06:48:21.866            35.034                Norilsk          1094.813
       454   07 Jun 2027 06:50:26.860   07 Jun 2027 06:50:48.598            21.738              Murmansk2           679.313
       455   07 Jun 2027 08:19:54.984   07 Jun 2027 08:20:03.991             9.007                Novosib           281.469
       456   07 Jun 2027 08:20:20.528   07 Jun 2027 08:20:36.825            16.297              Murmansk1           509.281
       457   07 Jun 2027 08:20:41.398   07 Jun 2027 08:21:00.935            19.537              Murmansk1           610.531
       458   07 Jun 2027 08:21:05.996   07 Jun 2027 08:21:58.598            52.602                Irkutsk          1643.812
       459   07 Jun 2027 08:23:15.349   07 Jun 2027 08:23:24.941             9.592                Novosib           299.750
       460   07 Jun 2027 08:26:12.223   07 Jun 2027 08:26:20.045             7.822                 Moscow           244.437
       461   07 Jun 2027 08:30:26.824   07 Jun 2027 08:30:40.931            14.107              Murmansk2           440.844
       462   07 Jun 2027 09:46:44.379   07 Jun 2027 09:48:36.370           111.991                  Delhi          3499.719
       463   07 Jun 2027 09:56:13.636   07 Jun 2027 09:56:14.732             1.096              Murmansk2            34.250
       464   07 Jun 2027 09:56:16.876   07 Jun 2027 09:56:53.791            36.915              Murmansk2          1153.594
       465   07 Jun 2027 09:59:38.960   07 Jun 2027 09:59:40.483             1.523                Novosib            47.594
       466   07 Jun 2027 13:05:01.094   07 Jun 2027 13:06:13.194            72.100                 Moscow          2253.125
       467   07 Jun 2027 13:07:11.693   07 Jun 2027 13:07:35.679            23.986                 Moscow           749.563
       468   07 Jun 2027 13:07:52.019   07 Jun 2027 13:09:27.908            95.889              Murmansk2          2996.531
       469   07 Jun 2027 13:09:53.248   07 Jun 2027 13:10:18.535            25.287              Murmansk1           790.219
       470   07 Jun 2027 13:11:39.053   07 Jun 2027 13:11:51.559            12.506              Murmansk1           390.812
       471   07 Jun 2027 13:22:27.646   07 Jun 2027 13:24:07.102            99.456                Anadyr1          3108.000
       472   07 Jun 2027 14:15:56.651   07 Jun 2027 14:16:34.955            38.304               CapeTown          1197.000
       473   07 Jun 2027 14:18:53.001   07 Jun 2027 14:19:47.309            54.308               CapeTown          1697.125
       474   07 Jun 2027 14:47:58.115   07 Jun 2027 14:50:33.889           155.774              Murmansk2          4867.938
       475   07 Jun 2027 14:56:03.969   07 Jun 2027 14:57:15.082            71.113                Anadyr2          2222.281
       476   07 Jun 2027 14:57:45.002   07 Jun 2027 14:59:01.865            76.863                Anadyr1          2401.969
       477   07 Jun 2027 14:59:03.679   07 Jun 2027 15:02:04.308           180.629               Magadan1          5644.656
       478   07 Jun 2027 15:02:18.975   07 Jun 2027 15:04:56.737           157.762               Magadan2          4930.063
       479   07 Jun 2027 15:05:37.132   07 Jun 2027 15:09:05.216           208.084               Magadan2          6502.625
       480   07 Jun 2027 16:34:16.633   07 Jun 2027 16:34:58.464            41.831               Magadan2          1307.219
       481   07 Jun 2027 16:43:10.522   07 Jun 2027 16:44:06.724            56.202               Magadan1          1756.312
       482   07 Jun 2027 17:27:11.608   07 Jun 2027 17:34:13.188           421.580            RioGallegos         13174.375
