uniorb/output/strategy_4/Drop/Drop_KinoSat_110104.txt

KinoSat_110104
-------------------------
    Access    *     Start Time (UTCG)     *     Stop Time (UTCG)  *   Duration (s)        *       Station  *  Data (Mbytes)
         1   01 Jun 2027 04:18:48.844   01 Jun 2027 04:19:18.513            29.669                Norilsk          3708.625
         2   01 Jun 2027 04:19:21.035   01 Jun 2027 04:19:51.911            30.876                Novosib          3859.500
         3   01 Jun 2027 04:20:15.365   01 Jun 2027 04:20:41.539            26.174              Murmansk2          3271.750
         4   01 Jun 2027 04:20:44.897   01 Jun 2027 04:21:00.543            15.646              Murmansk2          1955.750
         5   01 Jun 2027 04:21:07.622   01 Jun 2027 04:21:43.728            36.106              Murmansk2          4513.250
         6   01 Jun 2027 04:21:58.761   01 Jun 2027 04:22:50.694            51.933                Irkutsk          6491.625
         7   01 Jun 2027 04:23:09.819   01 Jun 2027 04:23:29.032            19.213              Murmansk2          2401.625
         8   01 Jun 2027 04:23:55.760   01 Jun 2027 04:24:22.166            26.406                Norilsk          3300.750
         9   01 Jun 2027 04:24:44.748   01 Jun 2027 04:24:50.438             5.690                Norilsk           711.250
        10   01 Jun 2027 05:00:56.571   01 Jun 2027 05:02:34.135            97.564            RioGallegos         12195.500
        11   01 Jun 2027 05:35:37.104   01 Jun 2027 05:37:53.696           136.592                Sumatra         17074.000
        12   01 Jun 2027 05:40:49.146   01 Jun 2027 05:42:44.116           114.970                  Delhi         14371.250
        13   01 Jun 2027 05:48:36.131   01 Jun 2027 05:50:28.472           112.341                  Delhi         14042.625
        14   01 Jun 2027 05:58:32.519   01 Jun 2027 05:59:15.086            42.567                Novosib          5320.875
        15   01 Jun 2027 05:59:28.088   01 Jun 2027 05:59:46.107            18.019              Murmansk1          2252.375
        16   01 Jun 2027 07:22:36.256   01 Jun 2027 07:24:17.068           100.812                  Delhi         12601.500
        17   01 Jun 2027 07:30:30.049   01 Jun 2027 07:31:06.625            36.576                 Moscow          4572.000
        18   01 Jun 2027 07:31:25.452   01 Jun 2027 07:31:42.162            16.710                Novosib          2088.750
        19   01 Jun 2027 07:31:57.091   01 Jun 2027 07:32:35.499            38.408                Norilsk          4801.000
        20   01 Jun 2027 07:32:46.441   01 Jun 2027 07:34:14.224            87.783              Murmansk2         10972.875
        21   01 Jun 2027 07:34:34.633   01 Jun 2027 07:34:44.993            10.360                Norilsk          1295.000
        22   01 Jun 2027 07:34:49.424   01 Jun 2027 07:36:32.402           102.978                 Moscow         12872.250
        23   01 Jun 2027 08:40:24.249   01 Jun 2027 08:43:20.632           176.383               CapeTown         22047.875
        24   01 Jun 2027 08:48:04.909   01 Jun 2027 08:49:27.442            82.533               CapeTown         10316.625
        25   01 Jun 2027 10:57:55.965   01 Jun 2027 11:00:07.921           131.956                Anadyr2         16494.500
        26   01 Jun 2027 12:33:36.409   01 Jun 2027 12:33:42.714             6.305               Magadan2           788.125
        27   01 Jun 2027 12:35:53.492   01 Jun 2027 12:38:36.942           163.450               Magadan1         20431.250
        28   01 Jun 2027 12:43:42.701   01 Jun 2027 12:43:59.644            16.943               Magadan1          2117.875
        29   01 Jun 2027 14:14:07.619   01 Jun 2027 14:16:10.434           122.815               Magadan2         15351.875
        30   01 Jun 2027 15:02:59.556   01 Jun 2027 15:05:31.220           151.664            RioGallegos         18958.000
        31   01 Jun 2027 15:06:09.365   01 Jun 2027 15:06:42.875            33.510            RioGallegos          4188.750
        32   01 Jun 2027 15:48:58.342   01 Jun 2027 15:50:32.041            93.699                Irkutsk         11712.375
        33   01 Jun 2027 16:02:39.023   01 Jun 2027 16:05:46.327           187.304                Sumatra         23413.000
        34   01 Jun 2027 17:27:40.404   01 Jun 2027 17:29:47.096           126.692                Novosib         15836.500
        35   01 Jun 2027 17:32:18.740   01 Jun 2027 17:34:54.008           155.268                  Delhi         18964.125
        36   02 Jun 2027 05:52:55.757   02 Jun 2027 05:54:09.510            73.753                  Delhi          9219.125
        37   02 Jun 2027 05:55:13.615   02 Jun 2027 05:55:57.833            44.218                  Delhi          5527.250
        38   02 Jun 2027 06:00:43.783   02 Jun 2027 06:01:15.173            31.390                  Delhi          3923.750
        39   02 Jun 2027 06:10:41.055   02 Jun 2027 06:11:30.006            48.951              Murmansk2          6118.875
        40   02 Jun 2027 06:11:30.006   02 Jun 2027 06:12:37.486            67.480              Murmansk1          8435.000
        41   02 Jun 2027 06:12:43.993   02 Jun 2027 06:13:56.798            72.805                 Moscow          9100.625
        42   02 Jun 2027 06:14:18.143   02 Jun 2027 06:15:45.272            87.129                Norilsk         10891.125
        43   02 Jun 2027 07:37:14.675   02 Jun 2027 07:37:34.646            19.971                 Moscow          2496.375
        44   02 Jun 2027 07:40:17.566   02 Jun 2027 07:40:32.614            15.048                 Moscow          1881.000
        45   02 Jun 2027 07:45:40.072   02 Jun 2027 07:46:49.343            69.271                 Moscow          8658.875
        46   02 Jun 2027 07:47:08.584   02 Jun 2027 07:51:40.671           272.087                Norilsk         34010.875
        47   02 Jun 2027 07:51:49.985   02 Jun 2027 07:53:37.377           107.392              Murmansk1         13424.000
        48   02 Jun 2027 08:51:54.276   02 Jun 2027 08:59:19.731           445.455               CapeTown         55681.875
        49   02 Jun 2027 09:16:27.586   02 Jun 2027 09:17:39.162            71.576                 Moscow          8947.000
        50   02 Jun 2027 09:17:43.251   02 Jun 2027 09:18:54.340            71.089              Murmansk1          8886.125
        51   02 Jun 2027 09:19:56.807   02 Jun 2027 09:21:48.886           112.079              Murmansk2         14009.875
        52   02 Jun 2027 09:21:48.886   02 Jun 2027 09:23:04.015            75.129              Murmansk1          9391.125
        53   02 Jun 2027 09:23:51.046   02 Jun 2027 09:24:43.253            52.207              Murmansk1          6525.875
        54   02 Jun 2027 09:24:53.505   02 Jun 2027 09:26:17.103            83.598              Murmansk2         10449.750
        55   02 Jun 2027 09:31:46.754   02 Jun 2027 09:39:04.079           437.325                Anadyr1         54665.625
        56   02 Jun 2027 11:07:18.225   02 Jun 2027 11:07:39.898            21.673                Anadyr1          2709.125
        57   02 Jun 2027 12:44:33.942   02 Jun 2027 12:46:12.671            98.729                Anadyr2         12341.125
        58   02 Jun 2027 12:46:37.945   02 Jun 2027 12:48:11.047            93.102               Magadan1         11637.750
        59   02 Jun 2027 12:49:56.933   02 Jun 2027 12:50:31.711            34.778               Magadan1          4347.250
        60   02 Jun 2027 12:51:53.567   02 Jun 2027 12:52:29.038            35.471               Magadan2          4433.875
        61   02 Jun 2027 14:21:25.162   02 Jun 2027 14:22:23.152            57.990               Magadan1          7248.750
        62   02 Jun 2027 14:25:51.099   02 Jun 2027 14:26:05.283            14.184               Magadan2          1773.000
        63   02 Jun 2027 14:27:51.189   02 Jun 2027 14:28:33.800            42.611               Magadan2          5326.375
        64   02 Jun 2027 15:13:10.651   02 Jun 2027 15:15:30.442           139.791            RioGallegos         17473.875
        65   02 Jun 2027 15:20:43.158   02 Jun 2027 15:22:41.392           118.234            RioGallegos         14779.250
        66   02 Jun 2027 16:00:55.528   02 Jun 2027 16:02:06.252            70.724                Irkutsk          8840.500
        67   02 Jun 2027 16:14:38.866   02 Jun 2027 16:17:07.765           148.899                Sumatra         18612.375
        68   02 Jun 2027 16:22:12.525   02 Jun 2027 16:24:17.276           124.751                Sumatra         15593.875
        69   02 Jun 2027 17:39:44.651   02 Jun 2027 17:41:42.364           117.713                Novosib         14714.125
        70   02 Jun 2027 17:44:11.243   02 Jun 2027 17:47:42.656           211.413                  Delhi         26426.625
        71   02 Jun 2027 19:21:24.382   02 Jun 2027 19:22:15.158            50.776                  Delhi          6347.000
        72   02 Jun 2027 20:50:17.474   02 Jun 2027 20:50:52.435            34.961                 Moscow          4370.125
        73   02 Jun 2027 20:53:29.275   02 Jun 2027 20:55:10.356           101.081                 Moscow         12635.125
        74   02 Jun 2027 21:17:37.862   02 Jun 2027 21:19:37.995           120.133               CapeTown          6591.750
        75   03 Jun 2027 03:11:07.533   03 Jun 2027 03:14:17.771           190.238              Murmansk2         23779.750
        76   03 Jun 2027 04:20:40.892   03 Jun 2027 04:22:41.599           120.707                Sumatra         15088.375
        77   03 Jun 2027 04:28:20.341   03 Jun 2027 04:30:21.606           121.265                Sumatra         15158.125
        78   03 Jun 2027 04:45:41.746   03 Jun 2027 04:46:18.881            37.135                Novosib          4641.875
        79   03 Jun 2027 04:47:04.883   03 Jun 2027 04:48:43.448            98.565              Murmansk2         12320.625
        80   03 Jun 2027 04:48:46.208   03 Jun 2027 04:51:58.109           191.901                Norilsk         23987.625
        81   03 Jun 2027 06:05:08.149   03 Jun 2027 06:09:36.607           268.458                  Delhi         33557.250
        82   03 Jun 2027 06:14:34.275   03 Jun 2027 06:16:12.595            98.320                Novosib         12290.000
        83   03 Jun 2027 06:16:23.356   03 Jun 2027 06:17:43.680            80.324                 Moscow         10040.500
        84   03 Jun 2027 06:22:55.710   03 Jun 2027 06:23:22.940            27.230              Murmansk1          3403.750
        85   03 Jun 2027 06:23:22.940   03 Jun 2027 06:28:34.070           311.130              Murmansk2         38891.250
        86   03 Jun 2027 07:49:15.175   03 Jun 2027 07:50:19.966            64.791                 Moscow          8098.875
        87   03 Jun 2027 07:52:22.380   03 Jun 2027 07:52:55.304            32.924                 Moscow          4115.500
        88   03 Jun 2027 07:53:38.912   03 Jun 2027 07:55:12.978            94.066                 Moscow         11758.250
        89   03 Jun 2027 07:57:52.330   03 Jun 2027 08:02:09.227           256.897                 Moscow         32112.125
        90   03 Jun 2027 08:02:20.459   03 Jun 2027 08:05:11.459           171.000              Murmansk1         21375.000
        91   03 Jun 2027 08:05:18.281   03 Jun 2027 08:05:32.517            14.236              Murmansk2          1779.500
        92   03 Jun 2027 08:05:38.609   03 Jun 2027 08:05:39.031             0.422              Murmansk2            52.750
        93   03 Jun 2027 09:03:32.593   03 Jun 2027 09:10:01.782           389.189               CapeTown         48648.625
        94   03 Jun 2027 09:30:01.528   03 Jun 2027 09:30:17.933            16.405              Murmansk2          2050.625
        95   03 Jun 2027 09:31:58.429   03 Jun 2027 09:33:11.922            73.493              Murmansk2          9186.625
        96   03 Jun 2027 09:39:04.601   03 Jun 2027 09:39:23.874            19.273              Murmansk1          2409.125
        97   03 Jun 2027 09:39:44.679   03 Jun 2027 09:39:52.163             7.484              Murmansk1           935.500
        98   03 Jun 2027 09:43:41.830   03 Jun 2027 09:53:13.404           571.574                Anadyr1         71446.750
        99   03 Jun 2027 11:14:37.328   03 Jun 2027 11:15:26.388            49.060              Murmansk2          6132.500
       100   03 Jun 2027 11:19:18.904   03 Jun 2027 11:20:11.526            52.622                Anadyr2          6577.750
       101   03 Jun 2027 11:22:30.208   03 Jun 2027 11:26:02.451           212.243               Magadan2         26530.375
       102   03 Jun 2027 12:57:33.722   03 Jun 2027 13:00:10.964           157.242               Magadan2         19655.250
       103   03 Jun 2027 14:33:27.282   03 Jun 2027 14:34:16.080            48.798               Magadan2          6099.750
       104   03 Jun 2027 14:41:44.676   03 Jun 2027 14:43:01.470            76.794               Magadan2          9599.250
       105   03 Jun 2027 14:53:47.649   03 Jun 2027 14:54:47.969            60.320                Sumatra          7540.000
       106   03 Jun 2027 15:25:06.100   03 Jun 2027 15:26:46.631           100.531            RioGallegos         12566.375
       107   03 Jun 2027 15:33:56.758   03 Jun 2027 15:34:38.075            41.317            RioGallegos          5164.625
       108   03 Jun 2027 16:13:21.088   03 Jun 2027 16:13:47.786            26.698                Irkutsk          3337.250
       109   03 Jun 2027 16:15:12.494   03 Jun 2027 16:16:00.140            47.646                Irkutsk          5955.750
       110   03 Jun 2027 16:20:01.413   03 Jun 2027 16:20:02.876             1.463                Irkutsk           182.875
       111   03 Jun 2027 16:26:44.346   03 Jun 2027 16:29:43.723           179.377                Sumatra         22422.125
       112   03 Jun 2027 16:34:26.503   03 Jun 2027 16:36:27.467           120.964                Sumatra         15120.500
       113   03 Jun 2027 17:52:53.012   03 Jun 2027 17:53:38.994            45.982                Novosib          5747.750
       114   03 Jun 2027 17:56:07.440   03 Jun 2027 17:58:30.368           142.928                  Delhi         17866.000
       115   03 Jun 2027 21:02:17.762   03 Jun 2027 21:02:43.957            26.195                 Moscow          3274.375
       116   03 Jun 2027 21:03:47.893   03 Jun 2027 21:04:04.987            17.094              Murmansk2          2136.750
       117   03 Jun 2027 21:04:22.415   03 Jun 2027 21:04:45.047            22.632              Murmansk1          2829.000
       118   03 Jun 2027 21:05:34.966   03 Jun 2027 21:05:56.824            21.858                 Moscow          2732.250
       119   03 Jun 2027 21:07:06.701   03 Jun 2027 21:08:16.244            69.543                 Moscow          8692.875
       120   03 Jun 2027 21:28:27.037   03 Jun 2027 21:29:24.304            57.267               CapeTown          7158.375
       121   03 Jun 2027 21:30:21.529   03 Jun 2027 21:31:20.469            58.940               CapeTown          7367.500
       122   04 Jun 2027 02:59:21.289   04 Jun 2027 03:01:22.176           120.887                Sumatra         15110.875
       123   04 Jun 2027 03:22:54.919   04 Jun 2027 03:25:18.166           143.247              Murmansk1         17905.875
       124   04 Jun 2027 04:32:49.285   04 Jun 2027 04:34:31.154           101.869                Sumatra         12733.625
       125   04 Jun 2027 04:35:39.521   04 Jun 2027 04:37:30.259           110.738                Sumatra         13842.250
       126   04 Jun 2027 04:59:06.970   04 Jun 2027 05:01:26.602           139.632                 Moscow         17454.000
       127   04 Jun 2027 05:01:34.641   04 Jun 2027 05:03:25.105           110.464                Norilsk         13808.000
       128   04 Jun 2027 05:03:50.277   04 Jun 2027 05:04:02.310            12.033                Norilsk          1504.125
       129   04 Jun 2027 06:17:26.967   04 Jun 2027 06:21:37.198           250.231                  Delhi         31278.875
       130   04 Jun 2027 06:25:38.481   04 Jun 2027 06:28:29.268           170.787                Novosib         21348.375
       131   04 Jun 2027 06:29:16.886   04 Jun 2027 06:29:57.649            40.763                 Moscow          5095.375
       132   04 Jun 2027 06:34:41.853   04 Jun 2027 06:40:03.706           321.853                Norilsk         40231.625
       133   04 Jun 2027 06:40:21.727   04 Jun 2027 06:41:45.086            83.359              Murmansk2         10419.875
       134   04 Jun 2027 08:04:34.835   04 Jun 2027 08:06:05.815            90.980                 Moscow         11372.500
       135   04 Jun 2027 08:09:43.256   04 Jun 2027 08:11:33.620           110.364                 Moscow         13795.500
       136   04 Jun 2027 08:11:41.169   04 Jun 2027 08:15:24.480           223.311                Norilsk         27913.875
       137   04 Jun 2027 08:17:39.357   04 Jun 2027 08:17:40.737             1.380              Murmansk2           172.500
       138   04 Jun 2027 09:19:49.914   04 Jun 2027 09:21:16.540            86.626               CapeTown         10828.250
       139   04 Jun 2027 09:42:21.970   04 Jun 2027 09:43:06.367            44.397              Murmansk2          5549.625
       140   04 Jun 2027 09:44:00.098   04 Jun 2027 09:45:23.388            83.290              Murmansk1         10411.250
       141   04 Jun 2027 09:45:32.538   04 Jun 2027 09:46:57.309            84.771              Murmansk2         10596.375
       142   04 Jun 2027 09:49:37.059   04 Jun 2027 09:50:32.886            55.827              Murmansk2          6978.375
       143   04 Jun 2027 09:51:11.491   04 Jun 2027 09:51:35.711            24.220              Murmansk2          3027.500
       144   04 Jun 2027 09:55:38.277   04 Jun 2027 10:00:42.964           304.687                Anadyr1         38085.875
       145   04 Jun 2027 10:01:11.703   04 Jun 2027 10:05:10.727           239.024                Anadyr2         29878.000
       146   04 Jun 2027 11:34:18.233   04 Jun 2027 11:40:35.549           377.316               Magadan1         47164.500
       147   04 Jun 2027 13:09:33.377   04 Jun 2027 13:10:01.993            28.616               Magadan1          3577.000
       148   04 Jun 2027 13:10:19.035   04 Jun 2027 13:12:36.915           137.880               Magadan2         17235.000
       149   04 Jun 2027 13:13:15.076   04 Jun 2027 13:15:35.528           140.452               Magadan2         17556.500
       150   04 Jun 2027 15:04:49.087   04 Jun 2027 15:08:08.555           199.468                Sumatra         24933.500
       151   04 Jun 2027 15:13:11.538   04 Jun 2027 15:13:36.074            24.536                Sumatra          3067.000
       152   04 Jun 2027 16:28:40.645   04 Jun 2027 16:29:47.178            66.533                Irkutsk          8316.625
       153   04 Jun 2027 16:38:55.794   04 Jun 2027 16:38:57.770             1.976                Sumatra           247.000
       154   04 Jun 2027 16:39:57.886   04 Jun 2027 16:42:07.695           129.809                  Delhi         16226.125
       155   04 Jun 2027 16:50:46.729   04 Jun 2027 16:50:55.919             9.190                Sumatra          1148.750
       156   04 Jun 2027 18:00:47.155   04 Jun 2027 18:01:11.705            24.550                Novosib          3068.750
       157   04 Jun 2027 18:02:29.631   04 Jun 2027 18:04:05.022            95.391                Novosib         11923.875
       158   04 Jun 2027 18:08:07.048   04 Jun 2027 18:11:19.690           192.642                  Delhi         24080.250
       159   04 Jun 2027 18:15:40.555   04 Jun 2027 18:17:43.589           123.034                  Delhi         15379.250
       160   04 Jun 2027 19:42:19.123   04 Jun 2027 19:44:17.532           118.409                 Moscow         14801.125
       161   04 Jun 2027 21:38:15.837   04 Jun 2027 21:39:43.020            87.183               CapeTown         10897.875
       162   04 Jun 2027 21:46:04.573   04 Jun 2027 21:46:49.002            44.429               CapeTown          5553.625
       163   05 Jun 2027 03:10:11.716   05 Jun 2027 03:15:29.396           317.680                Sumatra         19380.126
       164   05 Jun 2027 03:35:15.378   05 Jun 2027 03:35:36.633            21.255                Novosib          2656.875
       165   05 Jun 2027 04:45:03.974   05 Jun 2027 04:45:31.580            27.606                Sumatra          3450.750
       166   05 Jun 2027 04:47:04.342   05 Jun 2027 04:49:26.704           142.362                Sumatra         17795.250
       167   05 Jun 2027 05:00:51.527   05 Jun 2027 05:00:55.968             4.441                  Delhi           555.125
       168   05 Jun 2027 05:10:24.358   05 Jun 2027 05:10:58.260            33.902              Murmansk1          4237.750
       169   05 Jun 2027 05:11:05.859   05 Jun 2027 05:13:36.755           150.896                 Moscow         18862.000
       170   05 Jun 2027 05:14:33.259   05 Jun 2027 05:15:19.330            46.071              Murmansk1          5758.875
       171   05 Jun 2027 05:15:43.102   05 Jun 2027 05:16:03.704            20.602                Norilsk          2575.250
       172   05 Jun 2027 06:38:14.497   05 Jun 2027 06:41:28.865           194.368                Novosib         24296.000
       173   05 Jun 2027 06:46:51.302   05 Jun 2027 06:47:08.442            17.140              Murmansk2          2142.500
       174   05 Jun 2027 06:47:08.442   05 Jun 2027 06:49:24.308           135.866              Murmansk1         16983.250
       175   05 Jun 2027 06:49:29.888   05 Jun 2027 06:51:50.884           140.996              Murmansk1         17624.500
       176   05 Jun 2027 06:51:58.804   05 Jun 2027 06:52:04.237             5.433                Norilsk           679.125
       177   05 Jun 2027 08:13:25.019   05 Jun 2027 08:19:31.109           366.090                 Moscow         45761.250
       178   05 Jun 2027 08:20:06.584   05 Jun 2027 08:20:38.467            31.883              Murmansk2          3985.375
       179   05 Jun 2027 08:20:51.345   05 Jun 2027 08:22:56.632           125.287                 Moscow         15660.875
       180   05 Jun 2027 08:22:57.059   05 Jun 2027 08:23:19.306            22.247              Murmansk2          2780.875
       181   05 Jun 2027 08:25:04.189   05 Jun 2027 08:27:55.595           171.406              Murmansk1         21425.750
       182   05 Jun 2027 08:33:22.537   05 Jun 2027 08:37:09.085           226.548                Anadyr2         28318.500
       183   05 Jun 2027 10:11:50.622   05 Jun 2027 10:12:54.751            64.129                Anadyr2          8016.125
       184   05 Jun 2027 10:14:21.978   05 Jun 2027 10:17:08.935           166.957                Anadyr2         20869.625
       185   05 Jun 2027 11:46:09.302   05 Jun 2027 11:52:45.471           396.169               Magadan2         49521.125
       186   05 Jun 2027 13:21:33.565   05 Jun 2027 13:22:51.661            78.096               Magadan2          9762.000
       187   05 Jun 2027 15:05:03.115   05 Jun 2027 15:05:29.112            25.997                Irkutsk          3249.625
       188   05 Jun 2027 15:15:55.221   05 Jun 2027 15:23:37.277           462.056                Sumatra         57757.000
       189   05 Jun 2027 16:41:19.397   05 Jun 2027 16:43:49.441           150.044                Novosib         18755.500
       190   05 Jun 2027 16:45:56.922   05 Jun 2027 16:46:16.089            19.167                  Delhi          2395.875
       191   05 Jun 2027 16:50:36.195   05 Jun 2027 16:55:05.007           268.812                  Delhi         33601.500
       192   05 Jun 2027 19:55:28.130   05 Jun 2027 19:57:09.476           101.346                 Moscow         12668.250
       193   05 Jun 2027 21:29:37.483   05 Jun 2027 21:31:05.898            88.415                 Moscow         11051.875
       194   05 Jun 2027 21:50:22.363   05 Jun 2027 21:51:14.911            52.548               CapeTown          6568.500
       195   05 Jun 2027 21:56:44.541   05 Jun 2027 21:57:54.318            69.777               CapeTown          8722.125
       196   06 Jun 2027 03:21:41.190   06 Jun 2027 03:23:07.582            86.392                Sumatra          8430.500
       197   06 Jun 2027 04:59:06.788   06 Jun 2027 05:01:28.729           141.941                Sumatra         17742.625
       198   06 Jun 2027 05:22:57.052   06 Jun 2027 05:25:45.519           168.467                 Moscow         21058.375
       199   06 Jun 2027 05:26:24.603   06 Jun 2027 05:28:01.042            96.439              Murmansk1         12054.875
       200   06 Jun 2027 06:50:57.596   06 Jun 2027 06:52:52.992           115.396                Novosib         14424.500
       201   06 Jun 2027 06:53:17.790   06 Jun 2027 06:53:53.752            35.962                Novosib          4495.250
       202   06 Jun 2027 06:53:59.430   06 Jun 2027 06:54:31.724            32.294                 Moscow          4036.750
       203   06 Jun 2027 06:59:06.475   06 Jun 2027 07:04:04.276           297.801                Norilsk         37225.125
       204   06 Jun 2027 08:28:33.906   06 Jun 2027 08:30:03.367            89.461                 Moscow         11182.625
       205   06 Jun 2027 08:30:43.166   06 Jun 2027 08:34:45.326           242.160              Murmansk1         30270.000
       206   06 Jun 2027 08:35:01.427   06 Jun 2027 08:35:19.136            17.709                 Moscow          2213.625
       207   06 Jun 2027 08:35:49.636   06 Jun 2027 08:36:01.880            12.244                 Moscow          1530.500
       208   06 Jun 2027 08:36:34.038   06 Jun 2027 08:36:47.432            13.394                Norilsk          1674.250
       209   06 Jun 2027 08:37:04.512   06 Jun 2027 08:38:53.553           109.041              Murmansk1         13630.125
       210   06 Jun 2027 08:44:49.939   06 Jun 2027 08:50:21.826           331.887                Anadyr2         41485.875
       211   06 Jun 2027 10:19:34.160   06 Jun 2027 10:21:08.460            94.300                Anadyr1         11787.500
       212   06 Jun 2027 10:24:27.258   06 Jun 2027 10:24:30.792             3.534                Anadyr1           441.750
       213   06 Jun 2027 10:28:42.182   06 Jun 2027 10:29:46.722            64.540                Anadyr2          8067.500
       214   06 Jun 2027 11:58:02.596   06 Jun 2027 12:01:26.542           203.946               Magadan2         25493.250
       215   06 Jun 2027 12:07:17.895   06 Jun 2027 12:08:52.541            94.646               Magadan1         11830.750
       216   06 Jun 2027 13:33:34.213   06 Jun 2027 13:36:51.528           197.315               Magadan1         24664.375
       217   06 Jun 2027 15:14:53.668   06 Jun 2027 15:18:43.885           230.217                Irkutsk         28777.125
       218   06 Jun 2027 15:29:20.870   06 Jun 2027 15:34:16.213           295.343                Sumatra         36917.875
       219   06 Jun 2027 16:57:24.858   06 Jun 2027 17:05:02.874           458.016                  Delhi         57252.000
       220   06 Jun 2027 20:08:08.587   06 Jun 2027 20:10:34.647           146.060                 Moscow         18257.500
       221   06 Jun 2027 21:47:58.949   06 Jun 2027 21:48:02.207             3.258                 Moscow           407.250
       222   06 Jun 2027 22:02:36.460   06 Jun 2027 22:05:07.757           151.297               CapeTown         18912.125
       223   07 Jun 2027 03:33:19.355   07 Jun 2027 03:35:31.971           132.616                Sumatra          1567.000
       224   07 Jun 2027 05:09:57.547   07 Jun 2027 05:10:38.865            41.318                Sumatra          5164.750
       225   07 Jun 2027 05:11:43.335   07 Jun 2027 05:13:36.468           113.133                Sumatra         14141.625
       226   07 Jun 2027 05:34:50.423   07 Jun 2027 05:35:31.401            40.978              Murmansk1          5122.250
       227   07 Jun 2027 05:35:56.185   07 Jun 2027 05:36:49.076            52.891                Norilsk          6611.375
       228   07 Jun 2027 05:36:55.245   07 Jun 2027 05:37:53.231            57.986                 Moscow          7248.250
       229   07 Jun 2027 05:38:16.692   07 Jun 2027 05:40:01.042           104.350              Murmansk1         13043.750
       230   07 Jun 2027 07:00:50.849   07 Jun 2027 07:02:31.659           100.810                  Delhi         12601.250
       231   07 Jun 2027 07:03:50.208   07 Jun 2027 07:06:23.466           153.258                Novosib         19157.250
       232   07 Jun 2027 07:10:33.868   07 Jun 2027 07:11:01.218            27.350                Novosib          3418.750
       233   07 Jun 2027 07:11:31.537   07 Jun 2027 07:16:03.673           272.136                Norilsk         34017.000
       234   07 Jun 2027 07:17:25.708   07 Jun 2027 07:17:48.017            22.309              Murmansk1          2788.625
       235   07 Jun 2027 08:18:32.610   07 Jun 2027 08:23:17.509           284.899               CapeTown         35612.375
       236   07 Jun 2027 08:40:21.820   07 Jun 2027 08:40:59.427            37.607                 Moscow          4700.875
       237   07 Jun 2027 08:41:15.749   07 Jun 2027 08:41:49.708            33.959              Murmansk2          4244.875
       238   07 Jun 2027 08:44:37.158   07 Jun 2027 08:45:33.133            55.975              Murmansk2          6996.875
       239   07 Jun 2027 08:48:53.031   07 Jun 2027 08:50:49.959           116.928              Murmansk1         14616.000
       240   07 Jun 2027 08:50:49.959   07 Jun 2027 08:50:59.940             9.981              Murmansk2          1247.625
       241   07 Jun 2027 08:56:30.618   07 Jun 2027 09:03:18.763           408.145                Anadyr2         51018.125
       242   07 Jun 2027 12:02:42.368   07 Jun 2027 12:02:59.855            17.487              Murmansk1          2185.875
       243   07 Jun 2027 12:07:23.482   07 Jun 2027 12:07:26.157             2.675                Anadyr1           334.375
       244   07 Jun 2027 12:07:28.293   07 Jun 2027 12:09:45.412           137.119                Anadyr2         17139.875
       245   07 Jun 2027 12:09:57.589   07 Jun 2027 12:11:23.480            85.891               Magadan2         10736.375
       246   07 Jun 2027 12:14:26.725   07 Jun 2027 12:14:49.799            23.074               Magadan2          2884.250
       247   07 Jun 2027 12:18:33.087   07 Jun 2027 12:19:29.071            55.984               Magadan1          6998.000
       248   07 Jun 2027 13:45:35.248   07 Jun 2027 13:47:43.795           128.547               Magadan1         16068.375
       249   07 Jun 2027 14:40:02.140   07 Jun 2027 14:41:10.376            68.236            RioGallegos          8529.500
       250   07 Jun 2027 15:27:07.266   07 Jun 2027 15:28:45.803            98.537                Irkutsk         12317.125
       251   07 Jun 2027 15:31:06.511   07 Jun 2027 15:33:28.391           141.880                Irkutsk         17735.000
       252   07 Jun 2027 15:41:41.133   07 Jun 2027 15:45:23.997           222.864                Sumatra         27858.000
       253   07 Jun 2027 17:03:04.158   07 Jun 2027 17:03:22.431            18.273                Novosib          2284.125
       254   07 Jun 2027 17:06:16.701   07 Jun 2027 17:09:17.811           181.110                Novosib         22638.750
       255   07 Jun 2027 17:10:19.560   07 Jun 2027 17:15:38.067           318.507                  Delhi         39813.375
       256   07 Jun 2027 20:14:36.464   07 Jun 2027 20:15:53.639            77.175                 Moscow          9646.875
       257   07 Jun 2027 20:23:35.513   07 Jun 2027 20:24:09.065            33.552                 Moscow          4194.000
       258   07 Jun 2027 21:50:27.315   07 Jun 2027 21:51:05.697            38.382                 Moscow          4797.750
       259   07 Jun 2027 22:00:00.781   07 Jun 2027 22:01:05.396            64.615                 Moscow          8076.875
       260   07 Jun 2027 22:15:00.364   07 Jun 2027 22:17:04.282           123.918               CapeTown          3605.375
       261   08 Jun 2027 05:22:42.832   08 Jun 2027 05:23:52.622            69.790                Sumatra          8723.750
       262   08 Jun 2027 05:29:02.937   08 Jun 2027 05:30:25.883            82.946                  Delhi         10368.250
       263   08 Jun 2027 05:36:39.802   08 Jun 2027 05:38:38.023           118.221                  Delhi         14777.625
       264   08 Jun 2027 05:47:07.466   08 Jun 2027 05:50:00.116           172.650                 Moscow         21581.250
       265   08 Jun 2027 05:50:00.297   08 Jun 2027 05:52:08.657           128.360                Norilsk         16045.000
       266   08 Jun 2027 07:13:36.944   08 Jun 2027 07:16:21.088           164.144                 Moscow         20518.000
       267   08 Jun 2027 07:17:47.508   08 Jun 2027 07:18:09.561            22.053                Novosib          2756.625
       268   08 Jun 2027 07:22:36.042   08 Jun 2027 07:23:05.554            29.512              Murmansk2          3689.000
       269   08 Jun 2027 07:23:56.271   08 Jun 2027 07:28:37.603           281.332              Murmansk1         35166.500
       270   08 Jun 2027 07:28:37.603   08 Jun 2027 07:29:49.349            71.746              Murmansk2          8968.250
       271   08 Jun 2027 08:29:21.386   08 Jun 2027 08:36:45.828           444.442               CapeTown         55555.250
       272   08 Jun 2027 08:50:03.988   08 Jun 2027 08:52:30.202           146.214                 Moscow         18276.750
       273   08 Jun 2027 08:53:28.083   08 Jun 2027 08:54:26.912            58.829              Murmansk2          7353.625
       274   08 Jun 2027 08:56:37.042   08 Jun 2027 08:57:33.605            56.563              Murmansk2          7070.375
       275   08 Jun 2027 09:01:05.928   08 Jun 2027 09:01:47.076            41.148              Murmansk1          5143.500
       276   08 Jun 2027 09:08:17.578   08 Jun 2027 09:14:16.477           358.899                Anadyr2         44862.375
       277   08 Jun 2027 09:15:22.715   08 Jun 2027 09:16:06.922            44.207                Anadyr1          5525.875
       278   08 Jun 2027 10:32:30.070   08 Jun 2027 10:33:24.022            53.952              Murmansk1          6744.000
       279   08 Jun 2027 10:48:02.553   08 Jun 2027 10:50:41.059           158.506               Magadan1         19813.250
       280   08 Jun 2027 12:21:53.922   08 Jun 2027 12:23:15.120            81.198               Magadan2         10149.750
       281   08 Jun 2027 12:27:43.140   08 Jun 2027 12:31:26.151           223.011               Magadan1         27876.375
       282   08 Jun 2027 14:50:21.991   08 Jun 2027 14:54:30.350           248.359            RioGallegos         31044.875
       283   08 Jun 2027 15:50:59.601   08 Jun 2027 15:56:46.864           347.263                Sumatra         43407.875
       284   08 Jun 2027 17:13:05.151   08 Jun 2027 17:15:40.895           155.744                Novosib         19468.000
       285   08 Jun 2027 17:20:45.123   08 Jun 2027 17:26:49.468           364.345                  Delhi         45543.125
       286   08 Jun 2027 20:26:47.435   08 Jun 2027 20:27:33.133            45.698                 Moscow          5712.250
       287   08 Jun 2027 22:07:03.024   08 Jun 2027 22:07:32.887            29.863                 Moscow          3732.875
       288   08 Jun 2027 22:27:24.405   08 Jun 2027 22:27:59.353            34.948               CapeTown          3640.124
       289   09 Jun 2027 05:40:31.960   09 Jun 2027 05:41:35.359            63.399                Sumatra          7924.875
       290   09 Jun 2027 05:44:49.968   09 Jun 2027 05:46:05.958            75.990                  Delhi          9498.750
       291   09 Jun 2027 05:58:51.409   09 Jun 2027 06:00:30.153            98.744                Novosib         12343.000
       292   09 Jun 2027 06:00:40.066   09 Jun 2027 06:01:17.247            37.181              Murmansk1          4647.625
       293   09 Jun 2027 06:01:49.228   09 Jun 2027 06:02:06.297            17.069                 Moscow          2133.625
       294   09 Jun 2027 06:02:30.158   09 Jun 2027 06:03:31.464            61.306              Murmansk2          7663.250
       295   09 Jun 2027 07:22:59.296   09 Jun 2027 07:24:24.338            85.042                  Delhi         10630.250
       296   09 Jun 2027 07:25:31.910   09 Jun 2027 07:25:52.866            20.956                 Moscow          2619.500
       297   09 Jun 2027 07:35:53.486   09 Jun 2027 07:39:59.690           246.204                Norilsk         30775.500
       298   09 Jun 2027 07:40:12.757   09 Jun 2027 07:41:50.819            98.062              Murmansk1         12257.750
       299   09 Jun 2027 08:40:38.473   09 Jun 2027 08:49:43.452           544.979               CapeTown         68122.375
       300   09 Jun 2027 09:04:41.022   09 Jun 2027 09:10:57.732           376.710                 Moscow         47088.750
       301   09 Jun 2027 09:11:03.103   09 Jun 2027 09:11:23.233            20.130              Murmansk2          2516.250
       302   09 Jun 2027 09:12:53.055   09 Jun 2027 09:13:04.885            11.830              Murmansk2          1478.750
       303   09 Jun 2027 09:13:06.959   09 Jun 2027 09:15:13.784           126.825              Murmansk2         15853.125
       304   09 Jun 2027 09:20:08.317   09 Jun 2027 09:28:48.851           520.534                Anadyr2         65066.750
       305   09 Jun 2027 10:55:32.818   09 Jun 2027 10:55:54.435            21.617                Anadyr2          2702.125
       306   09 Jun 2027 10:58:11.319   09 Jun 2027 11:01:20.654           189.335                Anadyr1         23666.875
       307   09 Jun 2027 11:02:45.842   09 Jun 2027 11:05:05.454           139.612               Magadan2         17451.500
       308   09 Jun 2027 12:31:26.276   09 Jun 2027 12:31:26.555             0.279                Anadyr2            34.875
       309   09 Jun 2027 12:33:51.337   09 Jun 2027 12:34:52.605            61.268               Magadan2          7658.500
       310   09 Jun 2027 12:36:08.882   09 Jun 2027 12:38:51.651           162.769               Magadan2         20346.125
       311   09 Jun 2027 12:43:59.532   09 Jun 2027 12:45:57.594           118.062               Magadan2         14757.750
       312   09 Jun 2027 15:01:31.838   09 Jun 2027 15:03:15.091           103.253            RioGallegos         12906.625
       313   09 Jun 2027 15:06:32.242   09 Jun 2027 15:06:57.372            25.130            RioGallegos          3141.250
       314   09 Jun 2027 15:49:13.244   09 Jun 2027 15:50:46.297            93.053                Irkutsk         11631.625
       315   09 Jun 2027 15:55:23.654   09 Jun 2027 15:58:09.140           165.486                Irkutsk         20685.750
       316   09 Jun 2027 16:06:01.398   09 Jun 2027 16:06:33.227            31.829                Sumatra          3978.625
       317   09 Jun 2027 17:25:03.091   09 Jun 2027 17:25:58.888            55.797                Novosib          6974.625
       318   09 Jun 2027 17:27:55.663   09 Jun 2027 17:30:01.818           126.155                Novosib         15769.375
       319   09 Jun 2027 17:32:33.519   09 Jun 2027 17:44:55.726           742.207                  Delhi         72333.750
       320   10 Jun 2027 05:53:10.938   10 Jun 2027 05:55:28.640           137.702                  Delhi         17212.750
       321   10 Jun 2027 06:10:55.944   10 Jun 2027 06:13:41.346           165.402              Murmansk2         20675.250
       322   10 Jun 2027 06:13:57.438   10 Jun 2027 06:16:15.496           138.058              Murmansk1         17257.250
       323   10 Jun 2027 07:40:20.453   10 Jun 2027 07:40:47.630            27.177                 Moscow          3397.125
       324   10 Jun 2027 07:47:25.387   10 Jun 2027 07:51:55.588           270.201                Norilsk         33775.125
       325   10 Jun 2027 07:52:04.704   10 Jun 2027 07:53:52.396           107.692              Murmansk2         13461.500
       326   10 Jun 2027 08:52:08.716   10 Jun 2027 09:01:25.505           556.789               CapeTown         69598.625
       327   10 Jun 2027 09:16:42.310   10 Jun 2027 09:18:34.302           111.992                 Moscow         13999.000
       328   10 Jun 2027 09:18:43.693   10 Jun 2027 09:22:02.877           199.184              Murmansk1         24898.000
       329   10 Jun 2027 09:22:04.267   10 Jun 2027 09:24:08.111           123.844              Murmansk2         15480.500
       330   10 Jun 2027 09:24:08.111   10 Jun 2027 09:24:18.616            10.505              Murmansk1          1313.125
       331   10 Jun 2027 09:24:40.433   10 Jun 2027 09:24:53.224            12.791              Murmansk1          1598.875
       332   10 Jun 2027 09:24:58.111   10 Jun 2027 09:25:08.161            10.050              Murmansk1          1256.250
       333   10 Jun 2027 09:25:08.161   10 Jun 2027 09:27:11.184           123.023              Murmansk2         15377.875
       334   10 Jun 2027 09:32:01.593   10 Jun 2027 09:41:25.844           564.251                Anadyr1         70531.375
       335   10 Jun 2027 12:45:49.641   10 Jun 2027 12:46:36.822            47.181               Magadan2          5897.625
       336   10 Jun 2027 12:46:54.190   10 Jun 2027 12:48:26.371            92.181               Magadan1         11522.625
       337   10 Jun 2027 12:50:03.688   10 Jun 2027 12:52:08.858           125.170               Magadan2         15646.250
       338   10 Jun 2027 12:55:22.531   10 Jun 2027 12:55:23.326             0.795               Magadan1            99.375
       339   10 Jun 2027 14:21:40.191   10 Jun 2027 14:21:41.851             1.660               Magadan1           207.500
       340   10 Jun 2027 14:26:06.436   10 Jun 2027 14:26:17.812            11.376               Magadan1          1422.000
       341   10 Jun 2027 14:26:47.167   10 Jun 2027 14:28:08.682            81.515               Magadan2         10189.375
       342   10 Jun 2027 15:13:25.511   10 Jun 2027 15:15:44.315           138.804            RioGallegos         17350.500
       343   10 Jun 2027 16:01:10.460   10 Jun 2027 16:02:20.646            70.186                Irkutsk          8773.250
       344   10 Jun 2027 16:04:04.318   10 Jun 2027 16:06:12.452           128.134                Irkutsk         16016.750
       345   10 Jun 2027 16:14:53.909   10 Jun 2027 16:17:21.659           147.750                Sumatra         18468.750
       346   10 Jun 2027 16:22:27.642   10 Jun 2027 16:24:32.411           124.769                Sumatra         15596.125
       347   10 Jun 2027 17:40:00.297   10 Jun 2027 17:41:57.114           116.817                Novosib         14602.125
       348   10 Jun 2027 17:44:26.106   10 Jun 2027 17:47:55.933           209.827                  Delhi         26228.375
       349   10 Jun 2027 19:15:26.231   10 Jun 2027 19:15:30.260             4.029                 Moscow           503.625
       350   10 Jun 2027 19:21:23.551   10 Jun 2027 19:21:38.579            15.028                  Delhi          1878.500
       351   10 Jun 2027 20:47:23.579   10 Jun 2027 20:48:04.691            41.112              Murmansk2          5139.000
       352   10 Jun 2027 20:50:32.452   10 Jun 2027 20:51:06.999            34.547                 Moscow          4318.375
       353   10 Jun 2027 20:53:44.410   10 Jun 2027 20:55:25.123           100.713                 Moscow         12589.125
       354   10 Jun 2027 21:17:50.149   10 Jun 2027 21:19:52.476           122.327               CapeTown         10450.126
       355   11 Jun 2027 03:11:20.566   11 Jun 2027 03:14:11.345           170.779              Murmansk1         21347.375
       356   11 Jun 2027 04:20:55.990   11 Jun 2027 04:22:55.628           119.638                Sumatra         14954.750
       357   11 Jun 2027 04:28:35.401   11 Jun 2027 04:30:36.806           121.405                Sumatra         15175.625
       358   11 Jun 2027 04:46:00.364   11 Jun 2027 04:46:09.286             8.922              Murmansk2          1115.250
       359   11 Jun 2027 04:47:19.355   11 Jun 2027 04:50:06.556           167.201              Murmansk1         20900.125
       360   11 Jun 2027 04:50:30.269   11 Jun 2027 04:52:15.822           105.553                Norilsk         13194.125
       361   11 Jun 2027 06:05:23.457   11 Jun 2027 06:09:51.397           267.940                  Delhi         33492.500
       362   11 Jun 2027 06:11:34.799   11 Jun 2027 06:12:33.814            59.015                  Delhi          7376.875
       363   11 Jun 2027 06:13:02.911   11 Jun 2027 06:15:12.525           129.614                  Delhi         16201.750
       364   11 Jun 2027 06:15:28.719   11 Jun 2027 06:17:06.559            97.840                Novosib         12230.000
       365   11 Jun 2027 06:17:25.727   11 Jun 2027 06:17:59.804            34.077                 Moscow          4259.625
       366   11 Jun 2027 06:23:11.329   11 Jun 2027 06:28:16.216           304.887              Murmansk1         38110.875
       367   11 Jun 2027 07:49:30.199   11 Jun 2027 07:50:35.346            65.147                 Moscow          8143.375
       368   11 Jun 2027 07:52:37.151   11 Jun 2027 07:53:10.077            32.926                 Moscow          4115.750
       369   11 Jun 2027 07:53:55.527   11 Jun 2027 07:55:27.180            91.653                 Moscow         11456.625
       370   11 Jun 2027 07:58:10.054   11 Jun 2027 08:02:24.225           254.171                 Moscow         31771.375
       371   11 Jun 2027 08:02:36.089   11 Jun 2027 08:03:57.408            81.319              Murmansk2         10164.875
       372   11 Jun 2027 08:03:57.408   11 Jun 2027 08:04:47.685            50.277              Murmansk1          6284.625
       373   11 Jun 2027 08:05:15.981   11 Jun 2027 08:05:47.936            31.955              Murmansk2          3994.375
       374   11 Jun 2027 08:05:47.936   11 Jun 2027 08:05:54.052             6.116              Murmansk1           764.500
       375   11 Jun 2027 09:03:47.180   11 Jun 2027 09:10:15.635           388.455               CapeTown         48556.875
       376   11 Jun 2027 09:32:13.163   11 Jun 2027 09:33:27.801            74.638              Murmansk2          9329.750
       377   11 Jun 2027 09:33:27.801   11 Jun 2027 09:35:15.302           107.501              Murmansk1         13437.625
       378   11 Jun 2027 09:43:56.705   11 Jun 2027 09:53:28.302           571.597                Anadyr1         71449.625
       379   11 Jun 2027 11:19:33.898   11 Jun 2027 11:20:26.663            52.765                Anadyr1          6595.625
       380   11 Jun 2027 11:22:44.875   11 Jun 2027 11:26:18.306           213.431               Magadan1         26678.875
       381   11 Jun 2027 12:57:48.685   11 Jun 2027 13:04:10.890           382.205               Magadan2         47775.625
       382   11 Jun 2027 14:54:00.988   11 Jun 2027 14:55:11.618            70.630                Sumatra          8828.750
       383   11 Jun 2027 15:25:20.999   11 Jun 2027 15:27:00.847            99.848            RioGallegos         12481.000
       384   11 Jun 2027 15:34:12.357   11 Jun 2027 15:34:52.997            40.640            RioGallegos          5080.000
       385   11 Jun 2027 16:18:06.327   11 Jun 2027 16:20:16.609           130.282                Irkutsk         16285.250
       386   11 Jun 2027 16:26:59.507   11 Jun 2027 16:28:33.757            94.250                Sumatra         11781.250
       387   11 Jun 2027 16:34:41.509   11 Jun 2027 16:36:42.732           121.223                Sumatra         15152.875
       388   11 Jun 2027 17:53:08.392   11 Jun 2027 17:53:53.767            45.375                Novosib          5671.875
       389   11 Jun 2027 17:56:22.379   11 Jun 2027 17:58:44.304           141.925                  Delhi         17740.625
       390   11 Jun 2027 21:02:32.758   11 Jun 2027 21:04:09.478            96.720                 Moscow         12090.000
       391   11 Jun 2027 21:05:50.042   11 Jun 2027 21:06:10.221            20.179                 Moscow          2522.375
       392   11 Jun 2027 21:07:21.963   11 Jun 2027 21:07:22.700             0.737                 Moscow            92.125
       393   11 Jun 2027 21:28:36.803   11 Jun 2027 21:29:39.303            62.500               CapeTown          7812.500
       394   11 Jun 2027 21:30:38.608   11 Jun 2027 21:31:35.043            56.435               CapeTown          7054.375
       395   12 Jun 2027 02:59:33.678   12 Jun 2027 03:08:07.859           514.181                Sumatra         27964.125
       396   12 Jun 2027 03:23:09.446   12 Jun 2027 03:23:15.958             6.512              Murmansk1           814.000
       397   12 Jun 2027 03:23:15.958   12 Jun 2027 03:23:32.859            16.901              Murmansk2          2112.625
       398   12 Jun 2027 04:33:04.512   12 Jun 2027 04:34:15.195            70.683                Sumatra          8835.375
       399   12 Jun 2027 04:35:54.298   12 Jun 2027 04:37:44.975           110.677                Sumatra         13834.625
       400   12 Jun 2027 04:57:48.430   12 Jun 2027 04:57:53.301             4.871              Murmansk1           608.875
       401   12 Jun 2027 04:59:24.293   12 Jun 2027 05:01:41.784           137.491                 Moscow         17186.375
       402   12 Jun 2027 05:01:49.177   12 Jun 2027 05:04:17.038           147.861                Norilsk         18482.625
       403   12 Jun 2027 06:17:42.418   12 Jun 2027 06:21:52.079           249.661                  Delhi         31207.625
       404   12 Jun 2027 06:25:03.824   12 Jun 2027 06:26:56.940           113.116                  Delhi         14139.500
       405   12 Jun 2027 06:27:12.247   12 Jun 2027 06:28:44.628            92.381                Novosib         11547.625
       406   12 Jun 2027 06:28:44.775   12 Jun 2027 06:29:46.834            62.059                 Moscow          7757.375
       407   12 Jun 2027 06:34:59.156   12 Jun 2027 06:40:18.722           319.566                Norilsk         39945.750
       408   12 Jun 2027 08:04:49.829   12 Jun 2027 08:06:20.573            90.744                 Moscow         11343.000
       409   12 Jun 2027 08:10:11.689   12 Jun 2027 08:14:23.378           251.689              Murmansk1         31461.125
       410   12 Jun 2027 08:14:23.378   12 Jun 2027 08:15:50.858            87.480              Murmansk2         10935.000
       411   12 Jun 2027 08:17:54.078   12 Jun 2027 08:17:55.760             1.682              Murmansk2           210.250
       412   12 Jun 2027 09:20:05.874   12 Jun 2027 09:21:30.728            84.854               CapeTown         10606.750
       413   12 Jun 2027 09:42:37.396   12 Jun 2027 09:43:23.452            46.056              Murmansk2          5757.000
       414   12 Jun 2027 09:43:23.452   12 Jun 2027 09:44:14.835            51.383              Murmansk1          6422.875
       415   12 Jun 2027 09:44:37.954   12 Jun 2027 09:45:01.345            23.391              Murmansk2          2923.875
       416   12 Jun 2027 09:45:16.008   12 Jun 2027 09:45:31.579            15.571              Murmansk1          1946.375
       417   12 Jun 2027 09:45:31.579   12 Jun 2027 09:45:38.103             6.524              Murmansk2           815.500
       418   12 Jun 2027 09:45:47.975   12 Jun 2027 09:46:43.358            55.383              Murmansk1          6922.875
       419   12 Jun 2027 09:46:43.358   12 Jun 2027 09:46:55.439            12.081              Murmansk2          1510.125
       420   12 Jun 2027 09:47:12.263   12 Jun 2027 09:47:33.038            20.775              Murmansk2          2596.875
       421   12 Jun 2027 09:49:10.971   12 Jun 2027 09:50:47.240            96.269              Murmansk2         12033.625
       422   12 Jun 2027 09:55:53.182   12 Jun 2027 09:57:25.762            92.580                Anadyr1         11572.500
       423   12 Jun 2027 09:59:24.710   12 Jun 2027 10:05:25.650           360.940                Anadyr2         45117.500
       424   12 Jun 2027 11:31:34.819   12 Jun 2027 11:31:43.790             8.971                Anadyr1          1121.375
       425   12 Jun 2027 11:34:32.981   12 Jun 2027 11:40:52.818           379.837               Magadan1         47479.625
       426   12 Jun 2027 13:09:48.355   12 Jun 2027 13:14:39.898           291.543               Magadan1         36442.875
       427   12 Jun 2027 15:05:00.119   12 Jun 2027 15:08:37.427           217.308                Sumatra         27163.500
       428   12 Jun 2027 15:13:17.877   12 Jun 2027 15:13:50.376            32.499                Sumatra          4062.375
       429   12 Jun 2027 16:28:22.760   12 Jun 2027 16:30:01.936            99.176                Irkutsk         12397.000
       430   12 Jun 2027 16:39:11.084   12 Jun 2027 16:39:59.382            48.298                Sumatra          6037.250
       431   12 Jun 2027 16:40:10.158   12 Jun 2027 16:42:24.133           133.975                  Delhi         16746.875
       432   12 Jun 2027 18:01:02.154   12 Jun 2027 18:01:26.312            24.158                Novosib          3019.750
       433   12 Jun 2027 18:02:44.752   12 Jun 2027 18:04:20.080            95.328                Novosib         11916.000
       434   12 Jun 2027 18:08:22.059   12 Jun 2027 18:11:34.677           192.618                  Delhi         24077.250
       435   12 Jun 2027 19:42:34.651   12 Jun 2027 19:44:32.024           117.373                 Moscow         14671.625
       436   12 Jun 2027 21:16:36.800   12 Jun 2027 21:17:52.681            75.881                 Moscow          9485.125
       437   12 Jun 2027 21:38:28.953   12 Jun 2027 21:39:57.283            88.330               CapeTown         11041.250
       438   13 Jun 2027 03:10:25.951   13 Jun 2027 03:16:21.152           355.201                Sumatra         20552.000
       439   13 Jun 2027 03:35:34.702   13 Jun 2027 03:35:58.341            23.639              Murmansk2          2954.875
       440   13 Jun 2027 04:45:19.341   13 Jun 2027 04:47:19.443           120.102                Sumatra         15012.750
       441   13 Jun 2027 05:00:56.364   13 Jun 2027 05:01:17.584            21.220                  Delhi          2652.500
       442   13 Jun 2027 05:10:42.999   13 Jun 2027 05:11:18.405            35.406              Murmansk2          4425.750
       443   13 Jun 2027 05:11:23.255   13 Jun 2027 05:13:51.910           148.655                 Moscow         18581.875
       444   13 Jun 2027 05:14:47.786   13 Jun 2027 05:15:34.095            46.309              Murmansk2          5788.625
       445   13 Jun 2027 05:16:00.622   13 Jun 2027 05:16:39.536            38.914              Murmansk2          4864.250
       446   13 Jun 2027 06:32:12.998   13 Jun 2027 06:33:32.561            79.563                  Delhi          9945.375
       447   13 Jun 2027 06:39:36.634   13 Jun 2027 06:41:44.074           127.440                Novosib         15930.000
       448   13 Jun 2027 06:47:06.875   13 Jun 2027 06:51:03.304           236.429              Murmansk1         29553.625
       449   13 Jun 2027 06:51:03.304   13 Jun 2027 06:52:24.131            80.827              Murmansk2         10103.375
       450   13 Jun 2027 06:53:01.539   13 Jun 2027 06:53:06.769             5.230              Murmansk2           653.750
       451   13 Jun 2027 06:53:09.442   13 Jun 2027 06:53:29.965            20.523              Murmansk2          2565.375
       452   13 Jun 2027 08:13:40.170   13 Jun 2027 08:18:17.987           277.817                 Moscow         34727.125
       453   13 Jun 2027 08:19:49.417   13 Jun 2027 08:20:13.945            24.528                 Moscow          3066.000
       454   13 Jun 2027 08:20:19.731   13 Jun 2027 08:23:36.351           196.620              Murmansk1         24577.500
       455   13 Jun 2027 08:23:52.856   13 Jun 2027 08:25:04.414            71.558                Norilsk          8944.750
       456   13 Jun 2027 08:25:04.695   13 Jun 2027 08:26:31.140            86.445              Murmansk1         10805.625
       457   13 Jun 2027 08:26:31.140   13 Jun 2027 08:28:11.226           100.086              Murmansk2         12510.750
       458   13 Jun 2027 08:33:36.511   13 Jun 2027 08:37:25.937           229.426                Anadyr1         28678.250
       459   13 Jun 2027 10:07:50.724   13 Jun 2027 10:08:58.765            68.041                Anadyr1          8505.125
       460   13 Jun 2027 10:12:06.119   13 Jun 2027 10:13:16.548            70.429                Anadyr1          8803.625
       461   13 Jun 2027 10:14:37.570   13 Jun 2027 10:17:23.877           166.307                Anadyr1         20788.375
       462   13 Jun 2027 13:21:48.555   13 Jun 2027 13:24:37.929           169.374               Magadan1         21171.750
       463   13 Jun 2027 13:26:21.712   13 Jun 2027 13:26:38.083            16.371               Magadan2          2046.375
       464   13 Jun 2027 14:57:47.077   13 Jun 2027 14:58:21.434            34.357               Magadan2          4294.625
       465   13 Jun 2027 15:05:06.137   13 Jun 2027 15:05:53.046            46.909                Irkutsk          5863.625
       466   13 Jun 2027 15:16:09.567   13 Jun 2027 15:23:50.268           460.701                Sumatra         57587.625
       467   13 Jun 2027 16:41:35.116   13 Jun 2027 16:44:14.278           159.162                Novosib         19895.250
       468   13 Jun 2027 16:46:11.101   13 Jun 2027 16:46:47.549            36.448                  Delhi          4556.000
       469   13 Jun 2027 16:50:42.009   13 Jun 2027 16:55:19.378           277.369                  Delhi         34671.125
       470   13 Jun 2027 19:54:02.878   13 Jun 2027 19:55:43.718           100.840                 Moscow         12605.000
       471   13 Jun 2027 19:57:25.748   13 Jun 2027 19:58:54.436            88.688                 Moscow         11086.000
       472   13 Jun 2027 21:50:37.583   13 Jun 2027 21:51:29.265            51.682               CapeTown          6460.250
       473   13 Jun 2027 21:58:08.357   13 Jun 2027 22:00:22.952           134.595               CapeTown         16215.125
