uniorb/output/strategy_4/Drop/Drop_KinoSat_110507.txt

KinoSat_110507
-------------------------
    Access    *     Start Time (UTCG)     *     Stop Time (UTCG)  *   Duration (s)        *       Station  *  Data (Mbytes)
         1   01 Jun 2027 03:30:15.487   01 Jun 2027 03:30:18.438             2.951                Anadyr2           368.875
         2   01 Jun 2027 03:30:23.975   01 Jun 2027 03:31:13.624            49.649               Magadan2          6206.125
         3   01 Jun 2027 03:31:20.347   01 Jun 2027 03:32:13.255            52.908                Anadyr2          6613.500
         4   01 Jun 2027 03:32:33.684   01 Jun 2027 03:34:44.165           130.481                Anadyr2         16310.125
         5   01 Jun 2027 05:06:30.088   01 Jun 2027 05:07:43.445            73.357               Magadan1          9169.625
         6   01 Jun 2027 05:08:03.676   01 Jun 2027 05:09:18.170            74.494                Irkutsk          9311.750
         7   01 Jun 2027 05:09:30.696   01 Jun 2027 05:09:47.412            16.716               Magadan2          2089.500
         8   01 Jun 2027 05:09:50.519   01 Jun 2027 05:10:00.899            10.380               Magadan2          1297.500
         9   01 Jun 2027 05:10:29.353   01 Jun 2027 05:10:43.198            13.845               Magadan2          1730.625
        10   01 Jun 2027 05:10:48.180   01 Jun 2027 05:11:44.526            56.346              Murmansk1          7043.250
        11   01 Jun 2027 05:12:20.329   01 Jun 2027 05:12:28.197             7.868                Novosib           983.500
        12   01 Jun 2027 05:13:16.677   01 Jun 2027 05:13:21.184             4.507                Norilsk           563.375
        13   01 Jun 2027 05:13:50.645   01 Jun 2027 05:14:26.574            35.929                Norilsk          4491.125
        14   01 Jun 2027 05:46:01.052   01 Jun 2027 05:47:02.818            61.766            RioGallegos          7720.750
        15   01 Jun 2027 06:21:11.440   01 Jun 2027 06:21:14.943             3.503                Sumatra           437.875
        16   01 Jun 2027 06:22:50.045   01 Jun 2027 06:23:51.487            61.442                Sumatra          7680.250
        17   01 Jun 2027 06:33:11.994   01 Jun 2027 06:33:35.721            23.727                  Delhi          2965.875
        18   01 Jun 2027 06:42:56.064   01 Jun 2027 06:44:23.696            87.632                Irkutsk         10954.000
        19   01 Jun 2027 06:44:45.557   01 Jun 2027 06:45:10.952            25.395              Murmansk2          3174.375
        20   01 Jun 2027 06:45:16.003   01 Jun 2027 06:45:45.287            29.284                Novosib          3660.500
        21   01 Jun 2027 06:45:55.331   01 Jun 2027 06:46:54.789            59.458              Murmansk2          7432.250
        22   01 Jun 2027 06:46:59.672   01 Jun 2027 06:47:26.271            26.599              Murmansk1          3324.875
        23   01 Jun 2027 07:58:39.596   01 Jun 2027 07:58:53.488            13.892                Sumatra          1736.500
        24   01 Jun 2027 08:05:08.164   01 Jun 2027 08:06:19.629            71.465                  Delhi          8933.125
        25   01 Jun 2027 08:21:11.992   01 Jun 2027 08:22:18.710            66.718                 Moscow          8339.750
        26   01 Jun 2027 08:22:35.530   01 Jun 2027 08:22:49.429            13.899              Murmansk2          1737.375
        27   01 Jun 2027 08:22:49.534   01 Jun 2027 08:23:05.962            16.428                 Moscow          2053.500
        28   01 Jun 2027 09:54:39.193   01 Jun 2027 09:54:48.542             9.349                Novosib          1168.625
        29   01 Jun 2027 09:55:02.208   01 Jun 2027 09:55:31.496            29.288                Novosib          3661.000
        30   01 Jun 2027 09:55:49.012   01 Jun 2027 09:55:59.739            10.727                Novosib          1340.875
        31   01 Jun 2027 09:56:04.452   01 Jun 2027 09:56:41.384            36.932                Norilsk          4616.500
        32   01 Jun 2027 09:56:47.881   01 Jun 2027 09:57:21.199            33.318                 Moscow          4164.750
        33   01 Jun 2027 09:57:34.429   01 Jun 2027 09:58:13.936            39.507                 Moscow          4938.375
        34   01 Jun 2027 09:58:22.354   01 Jun 2027 09:59:11.580            49.226              Murmansk2          6153.250
        35   01 Jun 2027 09:59:29.328   01 Jun 2027 10:02:24.340           175.012                 Moscow         21876.500
        36   01 Jun 2027 10:02:24.679   01 Jun 2027 10:04:06.980           102.301                Norilsk         12787.625
        37   01 Jun 2027 10:04:31.228   01 Jun 2027 10:05:54.094            82.866              Murmansk2         10358.250
        38   01 Jun 2027 11:05:35.078   01 Jun 2027 11:08:14.203           159.125               CapeTown         19890.625
        39   01 Jun 2027 11:09:39.649   01 Jun 2027 11:10:27.884            48.235               CapeTown          6029.375
        40   01 Jun 2027 11:12:14.745   01 Jun 2027 11:12:39.873            25.128               CapeTown          3141.000
        41   01 Jun 2027 11:26:06.282   01 Jun 2027 11:28:08.630           122.348                 Moscow         15293.500
        42   01 Jun 2027 11:44:24.799   01 Jun 2027 11:48:27.770           242.971                Anadyr1         30371.375
        43   01 Jun 2027 11:48:39.535   01 Jun 2027 11:50:45.458           125.923                Anadyr2         15740.375
        44   01 Jun 2027 13:24:17.032   01 Jun 2027 13:26:15.894           118.862               Magadan1         14857.750
        45   01 Jun 2027 14:59:42.794   01 Jun 2027 15:00:03.529            20.735               Magadan1          2591.875
        46   01 Jun 2027 18:13:23.338   01 Jun 2027 18:14:30.354            67.016                Irkutsk          8377.000
        47   01 Jun 2027 18:15:06.955   01 Jun 2027 18:21:11.066           364.111                Novosib         45513.875
        48   01 Jun 2027 20:02:27.934   01 Jun 2027 20:03:03.340            35.406                  Delhi          4425.750
        49   01 Jun 2027 21:24:38.344   01 Jun 2027 21:25:24.401            46.057              Murmansk1          5757.125
        50   01 Jun 2027 21:26:05.229   01 Jun 2027 21:28:56.873           171.644              Murmansk2         21455.500
        51   01 Jun 2027 21:29:16.124   01 Jun 2027 21:30:39.449            83.325              Murmansk1         10415.625
        52   01 Jun 2027 21:30:58.488   01 Jun 2027 21:35:32.197           273.709                 Moscow         34213.625
        53   02 Jun 2027 03:46:11.512   02 Jun 2027 03:47:05.960            54.448                Anadyr2          6806.000
        54   02 Jun 2027 05:19:06.742   02 Jun 2027 05:19:55.608            48.866                Irkutsk          6108.250
        55   02 Jun 2027 05:20:13.649   02 Jun 2027 05:21:45.737            92.088               Magadan2         11511.000
        56   02 Jun 2027 05:21:49.032   02 Jun 2027 05:22:07.311            18.279               Magadan2          2284.875
        57   02 Jun 2027 05:22:56.568   02 Jun 2027 05:23:22.226            25.658                Irkutsk          3207.250
        58   02 Jun 2027 05:23:24.096   02 Jun 2027 05:24:34.938            70.842                Novosib          8855.250
        59   02 Jun 2027 05:24:37.473   02 Jun 2027 05:27:57.871           200.398                Norilsk         25049.750
        60   02 Jun 2027 05:28:05.575   02 Jun 2027 05:29:35.129            89.554              Murmansk2         11194.250
        61   02 Jun 2027 05:29:35.129   02 Jun 2027 05:31:49.276           134.147              Murmansk1         16768.375
        62   02 Jun 2027 06:02:06.889   02 Jun 2027 06:02:25.244            18.355            RioGallegos          2294.375
        63   02 Jun 2027 06:02:57.582   02 Jun 2027 06:03:14.038            16.456            RioGallegos          2057.000
        64   02 Jun 2027 06:06:30.599   02 Jun 2027 06:07:04.530            33.931            RioGallegos          4241.375
        65   02 Jun 2027 06:07:22.157   02 Jun 2027 06:07:37.590            15.433            RioGallegos          1929.125
        66   02 Jun 2027 06:33:01.932   02 Jun 2027 06:33:47.615            45.683                Sumatra          5710.375
        67   02 Jun 2027 06:36:02.396   02 Jun 2027 06:37:39.891            97.495                Sumatra         12186.875
        68   02 Jun 2027 06:58:56.462   02 Jun 2027 07:00:56.003           119.541                 Moscow         14942.625
        69   02 Jun 2027 07:01:03.650   02 Jun 2027 07:03:20.608           136.958                Norilsk         17119.750
        70   02 Jun 2027 07:03:26.095   02 Jun 2027 07:05:39.336           133.241              Murmansk1         16655.125
        71   02 Jun 2027 07:05:39.336   02 Jun 2027 07:06:36.447            57.111              Murmansk2          7138.875
        72   02 Jun 2027 07:37:09.797   02 Jun 2027 07:45:21.331           491.534            RioGallegos         61441.750
        73   02 Jun 2027 08:11:45.065   02 Jun 2027 08:17:54.947           369.882                Sumatra         46235.250
        74   02 Jun 2027 08:25:07.926   02 Jun 2027 08:26:39.793            91.867                Novosib         11483.375
        75   02 Jun 2027 08:34:51.342   02 Jun 2027 08:36:35.543           104.201                Novosib         13025.125
        76   02 Jun 2027 08:36:43.971   02 Jun 2027 08:39:17.787           153.816              Murmansk1         19227.000
        77   02 Jun 2027 08:39:17.787   02 Jun 2027 08:40:46.998            89.211              Murmansk2         11151.375
        78   02 Jun 2027 08:41:34.109   02 Jun 2027 08:42:04.456            30.347              Murmansk1          3793.375
        79   02 Jun 2027 09:58:21.516   02 Jun 2027 10:01:09.282           167.766                  Delhi         20970.750
        80   02 Jun 2027 10:11:57.453   02 Jun 2027 10:17:55.482           358.029              Murmansk1         44753.625
        81   02 Jun 2027 11:16:49.240   02 Jun 2027 11:25:40.634           531.394               CapeTown         66424.250
        82   02 Jun 2027 11:38:25.945   02 Jun 2027 11:48:19.150           593.205                 Moscow         74150.625
        83   02 Jun 2027 11:48:22.776   02 Jun 2027 11:53:53.518           330.742              Murmansk2         41342.750
        84   02 Jun 2027 11:56:14.940   02 Jun 2027 12:04:47.337           512.397                Anadyr1         64049.625
        85   02 Jun 2027 13:35:34.839   02 Jun 2027 13:41:04.914           330.075               Magadan1         41259.375
        86   02 Jun 2027 16:51:51.840   02 Jun 2027 16:56:40.011           288.171                Irkutsk         36021.375
        87   02 Jun 2027 18:26:36.213   02 Jun 2027 18:34:12.945           456.732                Novosib         57091.500
        88   02 Jun 2027 21:36:08.918   02 Jun 2027 21:37:04.106            55.188              Murmansk1          6898.500
        89   02 Jun 2027 21:38:49.645   02 Jun 2027 21:40:51.715           122.070              Murmansk2         15258.750
        90   02 Jun 2027 21:40:55.880   02 Jun 2027 21:42:58.668           122.788                 Moscow         15348.500
        91   02 Jun 2027 21:44:34.970   02 Jun 2027 21:45:04.857            29.887              Murmansk1          3735.875
        92   02 Jun 2027 21:46:15.427   02 Jun 2027 21:47:51.426            95.999                 Moscow         11999.875
        93   02 Jun 2027 22:08:17.956   02 Jun 2027 22:09:04.579            46.623               CapeTown          2603.876
        94   03 Jun 2027 03:58:12.762   03 Jun 2027 03:59:00.069            47.307                Anadyr1          5913.375
        95   03 Jun 2027 03:59:11.612   03 Jun 2027 03:59:32.793            21.181               Magadan2          2647.625
        96   03 Jun 2027 03:59:33.934   03 Jun 2027 04:00:18.290            44.356                Norilsk          5544.500
        97   03 Jun 2027 04:00:38.568   03 Jun 2027 04:03:20.489           161.921              Murmansk2         20240.125
        98   03 Jun 2027 05:14:25.696   03 Jun 2027 05:14:48.145            22.449                Sumatra          2806.125
        99   03 Jun 2027 05:16:21.541   03 Jun 2027 05:17:20.719            59.178                Sumatra          7397.250
       100   03 Jun 2027 05:35:29.608   03 Jun 2027 05:36:40.996            71.388                Novosib          8923.500
       101   03 Jun 2027 05:36:41.687   03 Jun 2027 05:40:25.502           223.815                Norilsk         27976.875
       102   03 Jun 2027 05:40:28.655   03 Jun 2027 05:43:39.435           190.780              Murmansk1         23847.500
       103   03 Jun 2027 06:10:14.614   03 Jun 2027 06:13:58.828           224.214            RioGallegos         28026.750
       104   03 Jun 2027 06:14:27.174   03 Jun 2027 06:15:41.579            74.405            RioGallegos          9300.625
       105   03 Jun 2027 06:18:16.706   03 Jun 2027 06:19:28.282            71.576            RioGallegos          8947.000
       106   03 Jun 2027 06:44:58.183   03 Jun 2027 06:46:34.789            96.606                Sumatra         12075.750
       107   03 Jun 2027 06:52:07.986   03 Jun 2027 06:52:58.146            50.160                Sumatra          6270.000
       108   03 Jun 2027 06:54:31.966   03 Jun 2027 06:54:33.730             1.764                Sumatra           220.500
       109   03 Jun 2027 06:55:20.749   03 Jun 2027 06:56:01.017            40.268                  Delhi          5033.500
       110   03 Jun 2027 06:57:29.237   03 Jun 2027 06:58:05.427            36.190                  Delhi          4523.750
       111   03 Jun 2027 06:59:08.351   03 Jun 2027 07:02:27.963           199.612                Irkutsk         24951.500
       112   03 Jun 2027 07:02:47.127   03 Jun 2027 07:03:42.116            54.989                Novosib          6873.625
       113   03 Jun 2027 07:10:54.000   03 Jun 2027 07:12:56.010           122.010                Novosib         15251.250
       114   03 Jun 2027 07:12:56.490   03 Jun 2027 07:18:32.355           335.865              Murmansk1         41983.125
       115   03 Jun 2027 07:50:08.834   03 Jun 2027 07:56:49.845           401.011            RioGallegos         50126.375
       116   03 Jun 2027 08:29:35.175   03 Jun 2027 08:29:44.170             8.995                  Delhi          1124.375
       117   03 Jun 2027 08:30:52.050   03 Jun 2027 08:32:18.190            86.140                  Delhi         10767.500
       118   03 Jun 2027 08:34:24.076   03 Jun 2027 08:34:49.916            25.840                  Delhi          3230.000
       119   03 Jun 2027 08:36:59.728   03 Jun 2027 08:37:17.858            18.130                Novosib          2266.250
       120   03 Jun 2027 08:38:18.124   03 Jun 2027 08:38:57.679            39.555                  Delhi          4944.375
       121   03 Jun 2027 08:39:00.106   03 Jun 2027 08:42:51.852           231.746                Novosib         28968.250
       122   03 Jun 2027 08:47:04.715   03 Jun 2027 08:50:16.154           191.439                 Moscow         23929.875
       123   03 Jun 2027 08:50:41.663   03 Jun 2027 08:51:54.559            72.896              Murmansk1          9112.000
       124   03 Jun 2027 08:51:54.559   03 Jun 2027 08:52:34.999            40.440              Murmansk2          5055.000
       125   03 Jun 2027 08:53:35.409   03 Jun 2027 08:54:04.273            28.864              Murmansk1          3608.000
       126   03 Jun 2027 10:13:34.658   03 Jun 2027 10:13:51.984            17.326                 Moscow          2165.750
       127   03 Jun 2027 10:22:28.495   03 Jun 2027 10:28:00.548           332.053                Norilsk         41506.625
       128   03 Jun 2027 10:28:25.870   03 Jun 2027 10:29:56.979            91.109              Murmansk1         11388.625
       129   03 Jun 2027 11:28:17.812   03 Jun 2027 11:37:33.673           555.861               CapeTown         69482.625
       130   03 Jun 2027 11:50:49.761   03 Jun 2027 12:00:46.654           596.893                 Moscow         74611.625
       131   03 Jun 2027 12:00:49.780   03 Jun 2027 12:05:54.832           305.052              Murmansk2         38131.500
       132   03 Jun 2027 12:08:07.783   03 Jun 2027 12:17:24.999           557.216                Anadyr2         69652.000
       133   03 Jun 2027 13:03:02.476   03 Jun 2027 13:06:06.891           184.415               CapeTown         23051.875
       134   03 Jun 2027 13:47:09.673   03 Jun 2027 13:51:18.916           249.243               Magadan2         31155.375
       135   03 Jun 2027 17:03:06.876   03 Jun 2027 17:10:04.177           417.301                Irkutsk         52162.625
       136   03 Jun 2027 17:19:11.920   03 Jun 2027 17:20:33.193            81.273                Sumatra         10159.125
       137   03 Jun 2027 17:21:48.632   03 Jun 2027 17:24:14.640           146.008                Sumatra         18251.000
       138   03 Jun 2027 18:38:45.688   03 Jun 2027 18:41:28.023           162.335                Novosib         20291.875
       139   03 Jun 2027 18:44:45.530   03 Jun 2027 18:46:21.261            95.731                Novosib         11966.375
       140   03 Jun 2027 21:47:30.186   03 Jun 2027 21:49:27.776           117.590              Murmansk1         14698.750
       141   03 Jun 2027 21:51:29.702   03 Jun 2027 21:51:58.128            28.426              Murmansk1          3553.250
       142   03 Jun 2027 21:53:43.869   03 Jun 2027 21:55:30.038           106.169                 Moscow         13271.125
       143   03 Jun 2027 21:57:19.745   03 Jun 2027 21:58:18.447            58.702                 Moscow          7337.750
       144   03 Jun 2027 22:18:44.884   03 Jun 2027 22:20:30.626           105.742               CapeTown          9341.375
       145   04 Jun 2027 04:10:13.876   04 Jun 2027 04:10:44.551            30.675                Anadyr1          3834.375
       146   04 Jun 2027 04:11:32.929   04 Jun 2027 04:16:43.995           311.066                Norilsk         38883.250
       147   04 Jun 2027 04:16:54.201   04 Jun 2027 04:20:51.833           237.632              Murmansk2         29704.000
       148   04 Jun 2027 05:24:25.159   04 Jun 2027 05:25:42.861            77.702                Sumatra          9712.750
       149   04 Jun 2027 05:47:34.738   04 Jun 2027 05:55:30.304           475.566              Murmansk1         59445.750
       150   04 Jun 2027 06:22:26.891   04 Jun 2027 06:28:09.495           342.604            RioGallegos         42825.500
       151   04 Jun 2027 06:29:21.977   04 Jun 2027 06:29:35.271            13.294            RioGallegos          1661.750
       152   04 Jun 2027 06:30:32.546   04 Jun 2027 06:31:33.481            60.935            RioGallegos          7616.875
       153   04 Jun 2027 06:32:01.083   04 Jun 2027 06:32:14.090            13.007            RioGallegos          1625.875
       154   04 Jun 2027 06:57:00.008   04 Jun 2027 06:59:08.913           128.905                Sumatra         16113.125
       155   04 Jun 2027 06:59:48.542   04 Jun 2027 06:59:50.570             2.028                Sumatra           253.500
       156   04 Jun 2027 07:02:20.004   04 Jun 2027 07:02:21.200             1.196                Sumatra           149.500
       157   04 Jun 2027 07:05:09.639   04 Jun 2027 07:06:21.763            72.124                Sumatra          9015.500
       158   04 Jun 2027 07:06:43.881   04 Jun 2027 07:08:01.196            77.315                  Delhi          9664.375
       159   04 Jun 2027 07:08:19.737   04 Jun 2027 07:09:59.624            99.887                  Delhi         12485.875
       160   04 Jun 2027 07:11:28.977   04 Jun 2027 07:16:55.115           326.138                Irkutsk         40767.250
       161   04 Jun 2027 07:23:27.901   04 Jun 2027 07:25:33.135           125.234                 Moscow         15654.250
       162   04 Jun 2027 07:25:53.227   04 Jun 2027 07:28:23.488           150.261                Norilsk         18782.625
       163   04 Jun 2027 07:28:29.760   04 Jun 2027 07:30:28.895           119.135              Murmansk1         14891.875
       164   04 Jun 2027 08:03:31.436   04 Jun 2027 08:07:57.898           266.462            RioGallegos         33307.750
       165   04 Jun 2027 08:41:25.945   04 Jun 2027 08:47:28.978           363.033                  Delhi         45379.125
       166   04 Jun 2027 08:50:54.702   04 Jun 2027 08:53:45.000           170.298                Novosib         21287.250
       167   04 Jun 2027 08:59:00.252   04 Jun 2027 09:00:23.621            83.369                Novosib         10421.125
       168   04 Jun 2027 09:00:35.612   04 Jun 2027 09:06:04.408           328.796              Murmansk1         41099.500
       169   04 Jun 2027 10:25:34.743   04 Jun 2027 10:26:12.706            37.963                 Moscow          4745.375
       170   04 Jun 2027 10:30:04.048   04 Jun 2027 10:30:36.290            32.242              Murmansk2          4030.250
       171   04 Jun 2027 10:30:36.290   04 Jun 2027 10:30:50.972            14.682              Murmansk1          1835.250
       172   04 Jun 2027 10:34:12.162   04 Jun 2027 10:41:58.557           466.395              Murmansk1         58299.375
       173   04 Jun 2027 11:39:55.122   04 Jun 2027 11:50:57.811           662.689               CapeTown         82836.125
       174   04 Jun 2027 12:03:18.252   04 Jun 2027 12:13:19.388           601.136                 Moscow         75142.000
       175   04 Jun 2027 12:13:31.339   04 Jun 2027 12:17:55.949           264.610              Murmansk1         33076.250
       176   04 Jun 2027 12:20:02.551   04 Jun 2027 12:22:37.994           155.443                Anadyr2         19430.375
       177   04 Jun 2027 12:23:31.201   04 Jun 2027 12:24:01.735            30.534                Anadyr2          3816.750
       178   04 Jun 2027 12:26:34.536   04 Jun 2027 12:27:15.386            40.850                Anadyr1          5106.250
       179   04 Jun 2027 13:58:52.369   04 Jun 2027 14:03:50.632           298.263               Magadan1         37282.875
       180   04 Jun 2027 16:28:13.267   04 Jun 2027 16:30:48.934           155.667            RioGallegos         19458.375
       181   04 Jun 2027 17:14:38.467   04 Jun 2027 17:19:34.657           296.190                Irkutsk         37023.750
       182   04 Jun 2027 17:20:52.405   04 Jun 2027 17:21:42.166            49.761                Irkutsk          6220.125
       183   04 Jun 2027 17:29:49.546   04 Jun 2027 17:32:09.793           140.247                Sumatra         17530.875
       184   04 Jun 2027 17:34:14.681   04 Jun 2027 17:36:12.365           117.684                Sumatra         14710.500
       185   04 Jun 2027 18:53:29.009   04 Jun 2027 18:53:58.219            29.210                Novosib          3651.250
       186   04 Jun 2027 18:56:47.943   04 Jun 2027 18:58:22.476            94.533                Novosib         11816.625
       187   04 Jun 2027 19:00:38.550   04 Jun 2027 19:02:03.927            85.377                  Delhi         10672.125
       188   04 Jun 2027 20:26:14.502   04 Jun 2027 20:27:51.792            97.290              Murmansk1         12161.250
       189   04 Jun 2027 22:01:11.876   04 Jun 2027 22:02:26.717            74.841              Murmansk1          9355.125
       190   04 Jun 2027 22:03:48.659   04 Jun 2027 22:04:06.100            17.441              Murmansk1          2180.125
       191   04 Jun 2027 22:06:55.321   04 Jun 2027 22:07:00.977             5.656                 Moscow           707.000
       192   04 Jun 2027 22:09:41.792   04 Jun 2027 22:10:18.566            36.774                 Moscow          4596.750
       193   04 Jun 2027 22:29:42.693   04 Jun 2027 22:31:02.031            79.338               CapeTown          1843.999
       194   05 Jun 2027 04:23:29.712   05 Jun 2027 04:24:05.106            35.394                Novosib          4424.250
       195   05 Jun 2027 04:24:29.472   05 Jun 2027 04:28:42.265           252.793                Norilsk         31599.125
       196   05 Jun 2027 04:29:05.745   05 Jun 2027 04:32:27.062           201.317              Murmansk2         25164.625
       197   05 Jun 2027 05:35:20.741   05 Jun 2027 05:38:00.916           160.175                Sumatra         20021.875
       198   05 Jun 2027 05:59:14.464   05 Jun 2027 06:04:27.174           312.710                Norilsk         39088.750
       199   05 Jun 2027 06:04:31.249   05 Jun 2027 06:07:21.905           170.656              Murmansk2         21332.000
       200   05 Jun 2027 06:34:43.164   05 Jun 2027 06:39:22.205           279.041            RioGallegos         34880.125
       201   05 Jun 2027 06:40:39.858   05 Jun 2027 06:40:43.481             3.623            RioGallegos           452.875
       202   05 Jun 2027 06:44:20.219   05 Jun 2027 06:44:33.827            13.608            RioGallegos          1701.000
       203   05 Jun 2027 07:09:07.532   05 Jun 2027 07:12:00.533           173.001                Sumatra         21625.125
       204   05 Jun 2027 07:14:13.524   05 Jun 2027 07:14:56.168            42.644                Sumatra          5330.500
       205   05 Jun 2027 07:21:51.869   05 Jun 2027 07:22:47.603            55.734                  Delhi          6966.750
       206   05 Jun 2027 07:23:54.335   05 Jun 2027 07:30:34.390           400.055                Irkutsk         50006.875
       207   05 Jun 2027 07:35:15.789   05 Jun 2027 07:36:58.245           102.456                Novosib         12807.000
       208   05 Jun 2027 07:37:13.499   05 Jun 2027 07:41:19.126           245.627              Murmansk2         30703.375
       209   05 Jun 2027 07:41:43.311   05 Jun 2027 07:42:26.018            42.707              Murmansk2          5338.375
       210   05 Jun 2027 08:53:43.788   05 Jun 2027 08:58:00.068           256.280                  Delhi         32035.000
       211   05 Jun 2027 08:58:25.155   05 Jun 2027 09:00:22.827           117.672                  Delhi         14709.000
       212   05 Jun 2027 09:02:47.456   05 Jun 2027 09:05:46.610           179.154                Novosib         22394.250
       213   05 Jun 2027 09:06:03.590   05 Jun 2027 09:06:18.282            14.692                Novosib          1836.500
       214   05 Jun 2027 09:10:55.834   05 Jun 2027 09:15:41.769           285.935              Murmansk1         35741.875
       215   05 Jun 2027 09:15:56.384   05 Jun 2027 09:16:23.057            26.673                Norilsk          3334.125
       216   05 Jun 2027 09:16:38.189   05 Jun 2027 09:17:04.540            26.351              Murmansk2          3293.875
       217   05 Jun 2027 09:17:38.381   05 Jun 2027 09:18:04.823            26.442              Murmansk1          3305.250
       218   05 Jun 2027 10:41:08.614   05 Jun 2027 10:42:49.198           100.584              Murmansk2         12573.000
       219   05 Jun 2027 10:45:57.290   05 Jun 2027 10:50:29.194           271.904                 Moscow         33988.000
       220   05 Jun 2027 10:50:32.570   05 Jun 2027 10:51:44.942            72.372                Norilsk          9046.500
       221   05 Jun 2027 10:52:22.599   05 Jun 2027 10:54:00.192            97.593              Murmansk2         12199.125
       222   05 Jun 2027 11:53:06.375   05 Jun 2027 12:03:12.323           605.948               CapeTown         75743.500
       223   05 Jun 2027 12:15:52.154   05 Jun 2027 12:21:37.677           345.523                 Moscow         43190.375
       224   05 Jun 2027 12:31:58.749   05 Jun 2027 12:32:30.088            31.339                Anadyr1          3917.375
       225   05 Jun 2027 12:39:42.214   05 Jun 2027 12:40:54.236            72.022                Anadyr1          9002.750
       226   05 Jun 2027 14:10:39.794   05 Jun 2027 14:16:17.914           338.120               Magadan2         42265.000
       227   05 Jun 2027 16:39:22.319   05 Jun 2027 16:42:34.929           192.610            RioGallegos         24076.250
       228   05 Jun 2027 17:28:00.047   05 Jun 2027 17:32:01.479           241.432                Irkutsk         30179.000
       229   05 Jun 2027 17:40:56.757   05 Jun 2027 17:43:53.715           176.958                Sumatra         22119.750
       230   05 Jun 2027 17:45:37.977   05 Jun 2027 17:46:25.097            47.120                Sumatra          5890.000
       231   05 Jun 2027 17:46:32.571   05 Jun 2027 17:48:19.040           106.469                Sumatra         13308.625
       232   05 Jun 2027 19:11:11.521   05 Jun 2027 19:13:42.938           151.417                  Delhi         18927.125
       233   05 Jun 2027 20:37:30.432   05 Jun 2027 20:37:47.598            17.166              Murmansk2          2145.750
       234   05 Jun 2027 20:38:54.805   05 Jun 2027 20:39:22.628            27.823              Murmansk2          3477.875
       235   05 Jun 2027 20:41:05.638   05 Jun 2027 20:41:32.579            26.941              Murmansk1          3367.625
       236   05 Jun 2027 22:15:12.314   05 Jun 2027 22:17:01.793           109.479                 Moscow         13684.875
       237   05 Jun 2027 22:43:13.688   05 Jun 2027 22:43:43.019            29.331               CapeTown          2822.000
       238   06 Jun 2027 04:35:24.518   06 Jun 2027 04:40:28.764           304.246              Murmansk1         38030.750
       239   06 Jun 2027 05:46:36.491   06 Jun 2027 05:49:48.084           191.593                Sumatra         23949.125
       240   06 Jun 2027 06:11:24.733   06 Jun 2027 06:16:28.323           303.590                Norilsk         37948.750
       241   06 Jun 2027 06:16:41.699   06 Jun 2027 06:19:14.257           152.558              Murmansk2         19069.750
       242   06 Jun 2027 06:47:03.811   06 Jun 2027 06:51:42.504           278.693            RioGallegos         34836.625
       243   06 Jun 2027 07:21:21.233   06 Jun 2027 07:27:47.183           385.950                Sumatra         48243.750
       244   06 Jun 2027 07:36:07.928   06 Jun 2027 07:37:12.673            64.745                Novosib          8093.125
       245   06 Jun 2027 07:37:14.873   06 Jun 2027 07:41:26.861           251.988                Irkutsk         31498.500
       246   06 Jun 2027 07:46:48.465   06 Jun 2027 07:51:10.424           261.959              Murmansk2         32744.875
       247   06 Jun 2027 07:51:48.132   06 Jun 2027 07:52:27.261            39.129                Norilsk          4891.125
       248   06 Jun 2027 07:53:45.463   06 Jun 2027 07:54:23.691            38.228              Murmansk1          4778.500
       249   06 Jun 2027 09:06:08.929   06 Jun 2027 09:13:44.548           455.619                  Delhi         56952.375
       250   06 Jun 2027 09:14:37.855   06 Jun 2027 09:18:22.556           224.701                Novosib         28087.625
       251   06 Jun 2027 09:23:37.585   06 Jun 2027 09:26:34.313           176.728                Norilsk         22091.000
       252   06 Jun 2027 09:27:03.781   06 Jun 2027 09:27:44.528            40.747              Murmansk2          5093.375
       253   06 Jun 2027 09:27:49.416   06 Jun 2027 09:28:23.562            34.146                Norilsk          4268.250
       254   06 Jun 2027 09:28:53.515   06 Jun 2027 09:30:05.500            71.985              Murmansk2          8998.125
       255   06 Jun 2027 10:52:54.627   06 Jun 2027 10:53:46.666            52.039                 Moscow          6504.875
       256   06 Jun 2027 10:53:59.017   06 Jun 2027 10:56:46.232           167.215              Murmansk1         20901.875
       257   06 Jun 2027 10:57:18.508   06 Jun 2027 11:03:33.066           374.558              Murmansk2         46819.750
       258   06 Jun 2027 11:09:50.295   06 Jun 2027 11:13:01.586           191.291                Anadyr2         23911.375
       259   06 Jun 2027 12:05:35.234   06 Jun 2027 12:07:39.549           124.315               CapeTown         15539.375
       260   06 Jun 2027 12:10:53.310   06 Jun 2027 12:12:34.846           101.536               CapeTown         12692.000
       261   06 Jun 2027 12:28:32.592   06 Jun 2027 12:30:25.561           112.969                 Moscow         14121.125
       262   06 Jun 2027 12:44:43.011   06 Jun 2027 12:44:59.027            16.016                Anadyr1          2002.000
       263   06 Jun 2027 14:22:30.414   06 Jun 2027 14:26:11.529           221.115               Magadan2         27639.375
       264   06 Jun 2027 14:27:59.956   06 Jun 2027 14:28:41.255            41.299               Magadan1          5162.375
       265   06 Jun 2027 14:29:35.540   06 Jun 2027 14:31:08.728            93.188               Magadan1         11648.500
       266   06 Jun 2027 16:50:51.211   06 Jun 2027 16:54:24.394           213.183            RioGallegos         26647.875
       267   06 Jun 2027 16:55:42.064   06 Jun 2027 16:56:59.738            77.674            RioGallegos          9709.250
       268   06 Jun 2027 17:35:49.430   06 Jun 2027 17:36:03.063            13.633                Norilsk          1704.125
       269   06 Jun 2027 17:41:25.288   06 Jun 2027 17:42:02.792            37.504                Irkutsk          4688.000
       270   06 Jun 2027 17:44:23.401   06 Jun 2027 17:44:51.703            28.302                Irkutsk          3537.750
       271   06 Jun 2027 17:55:37.096   06 Jun 2027 17:59:37.924           240.828                Sumatra         30103.500
       272   06 Jun 2027 19:22:22.229   06 Jun 2027 19:25:27.878           185.649                  Delhi         23206.125
       273   06 Jun 2027 20:49:26.414   06 Jun 2027 20:51:53.933           147.519              Murmansk1         18439.875
       274   06 Jun 2027 22:56:41.763   06 Jun 2027 22:59:24.565           162.802               CapeTown         20350.250
       275   07 Jun 2027 04:47:25.851   07 Jun 2027 04:48:26.798            60.947                Novosib          7618.375
       276   07 Jun 2027 04:48:37.655   07 Jun 2027 04:50:21.691           104.036                Norilsk         13004.500
       277   07 Jun 2027 04:50:59.969   07 Jun 2027 04:51:36.552            36.583              Murmansk1          4572.875
       278   07 Jun 2027 04:55:00.761   07 Jun 2027 04:55:14.022            13.261              Murmansk2          1657.625
       279   07 Jun 2027 04:55:32.261   07 Jun 2027 04:56:37.019            64.758              Murmansk2          8094.750
       280   07 Jun 2027 05:58:04.565   07 Jun 2027 05:59:23.274            78.709                Sumatra          9838.625
       281   07 Jun 2027 06:10:39.883   07 Jun 2027 06:13:56.788           196.905                Irkutsk         24613.125
       282   07 Jun 2027 06:14:42.284   07 Jun 2027 06:15:22.008            39.724                Irkutsk          4965.500
       283   07 Jun 2027 06:23:25.106   07 Jun 2027 06:28:06.913           281.807                Norilsk         35225.875
       284   07 Jun 2027 06:28:08.272   07 Jun 2027 06:31:07.356           179.084              Murmansk2         22385.500
       285   07 Jun 2027 06:59:29.340   07 Jun 2027 07:06:16.475           407.135            RioGallegos         50891.875
       286   07 Jun 2027 07:33:42.107   07 Jun 2027 07:41:13.282           451.175                Sumatra         56396.875
       287   07 Jun 2027 07:48:14.538   07 Jun 2027 07:49:05.151            50.613                Novosib          6326.625
       288   07 Jun 2027 07:49:28.066   07 Jun 2027 07:54:41.688           313.622                Irkutsk         39202.750
       289   07 Jun 2027 07:59:08.469   07 Jun 2027 08:02:28.275           199.806              Murmansk2         24975.750
       290   07 Jun 2027 08:02:28.275   07 Jun 2027 08:03:09.091            40.816              Murmansk1          5102.000
       291   07 Jun 2027 08:05:46.542   07 Jun 2027 08:06:21.877            35.335              Murmansk1          4416.875
       292   07 Jun 2027 09:18:43.094   07 Jun 2027 09:20:43.820           120.726                  Delhi         15090.750
       293   07 Jun 2027 09:21:06.639   07 Jun 2027 09:28:41.194           454.555                  Delhi         56819.375
       294   07 Jun 2027 09:28:56.590   07 Jun 2027 09:30:53.373           116.783                Novosib         14597.875
       295   07 Jun 2027 09:35:07.832   07 Jun 2027 09:39:59.870           292.038              Murmansk1         36504.750
       296   07 Jun 2027 09:40:19.482   07 Jun 2027 09:40:54.101            34.619              Murmansk2          4327.375
       297   07 Jun 2027 11:05:23.700   07 Jun 2027 11:07:40.437           136.737              Murmansk1         17092.125
       298   07 Jun 2027 11:07:40.437   07 Jun 2027 11:08:02.922            22.485              Murmansk2          2810.625
       299   07 Jun 2027 11:08:27.653   07 Jun 2027 11:08:50.468            22.815              Murmansk2          2851.875
       300   07 Jun 2027 11:09:19.712   07 Jun 2027 11:09:49.298            29.586              Murmansk2          3698.250
       301   07 Jun 2027 11:09:57.447   07 Jun 2027 11:10:06.131             8.684              Murmansk2          1085.500
       302   07 Jun 2027 11:10:20.235   07 Jun 2027 11:10:42.065            21.830              Murmansk2          2728.750
       303   07 Jun 2027 11:11:14.014   07 Jun 2027 11:12:32.477            78.463              Murmansk2          9807.875
       304   07 Jun 2027 11:12:41.953   07 Jun 2027 11:14:57.237           135.284                Norilsk         16910.500
       305   07 Jun 2027 11:16:12.109   07 Jun 2027 11:16:18.278             6.169              Murmansk1           771.125
       306   07 Jun 2027 11:21:13.941   07 Jun 2027 11:26:28.853           314.912                Anadyr1         39364.000
       307   07 Jun 2027 12:17:19.357   07 Jun 2027 12:19:41.824           142.467               CapeTown         17808.375
       308   07 Jun 2027 14:34:23.354   07 Jun 2027 14:38:17.302           233.948               Magadan1         29243.500
       309   07 Jun 2027 14:38:49.517   07 Jun 2027 14:41:01.025           131.508               Magadan1         16438.500
       310   07 Jun 2027 17:03:52.831   07 Jun 2027 17:08:57.257           304.426            RioGallegos         38053.250
       311   07 Jun 2027 17:47:40.278   07 Jun 2027 17:49:48.445           128.167                Norilsk         16020.875
       312   07 Jun 2027 18:09:09.082   07 Jun 2027 18:10:34.016            84.934                Sumatra         10616.750
       313   07 Jun 2027 19:35:23.306   07 Jun 2027 19:37:17.540           114.234                  Delhi         14279.250
       314   07 Jun 2027 19:39:20.627   07 Jun 2027 19:40:59.628            99.001                  Delhi         12375.125
       315   07 Jun 2027 21:00:32.096   07 Jun 2027 21:01:20.127            48.031              Murmansk1          6003.875
       316   07 Jun 2027 21:02:11.849   07 Jun 2027 21:03:55.313           103.464              Murmansk1         12933.000
       317   07 Jun 2027 21:06:03.517   07 Jun 2027 21:07:14.334            70.817                 Moscow          8852.125
       318   07 Jun 2027 23:09:26.940   07 Jun 2027 23:10:30.881            63.941               CapeTown          7992.625
       319   08 Jun 2027 04:59:30.888   08 Jun 2027 05:00:35.362            64.474                Novosib          8059.250
       320   08 Jun 2027 05:00:48.145   08 Jun 2027 05:01:41.910            53.765                Norilsk          6720.625
       321   08 Jun 2027 05:02:49.898   08 Jun 2027 05:03:29.919            40.021              Murmansk2          5002.625
       322   08 Jun 2027 05:06:53.321   08 Jun 2027 05:08:04.795            71.474              Murmansk1          8934.250
       323   08 Jun 2027 06:09:41.614   08 Jun 2027 06:11:25.133           103.519                Sumatra         12939.875
       324   08 Jun 2027 06:22:45.333   08 Jun 2027 06:25:56.764           191.431                Irkutsk         23928.875
       325   08 Jun 2027 06:26:46.775   08 Jun 2027 06:27:42.030            55.255                Irkutsk          6906.875
       326   08 Jun 2027 06:35:15.311   08 Jun 2027 06:43:01.193           465.882              Murmansk1         58235.250
       327   08 Jun 2027 07:12:00.493   08 Jun 2027 07:19:23.892           443.399            RioGallegos         55424.875
       328   08 Jun 2027 07:46:12.015   08 Jun 2027 07:56:08.881           596.866                Sumatra         74608.250
       329   08 Jun 2027 08:01:47.817   08 Jun 2027 08:06:46.317           298.500                Irkutsk         37312.500
       330   08 Jun 2027 08:11:08.203   08 Jun 2027 08:16:30.930           322.727                Norilsk         40340.875
       331   08 Jun 2027 08:17:48.248   08 Jun 2027 08:18:20.526            32.278              Murmansk1          4034.750
       332   08 Jun 2027 09:31:29.535   08 Jun 2027 09:40:04.773           515.238                  Delhi         64404.750
       333   08 Jun 2027 09:40:19.324   08 Jun 2027 09:42:40.399           141.075                Novosib         17634.375
       334   08 Jun 2027 09:47:45.575   08 Jun 2027 09:50:39.818           174.243              Murmansk1         21780.375
       335   08 Jun 2027 09:50:40.598   08 Jun 2027 09:53:34.111           173.513              Murmansk2         21689.125
       336   08 Jun 2027 11:17:33.884   08 Jun 2027 11:19:44.052           130.168              Murmansk1         16271.000
       337   08 Jun 2027 11:19:44.052   08 Jun 2027 11:26:42.643           418.591              Murmansk2         52323.875
       338   08 Jun 2027 11:28:00.997   08 Jun 2027 11:28:20.913            19.916              Murmansk2          2489.500
       339   08 Jun 2027 11:32:53.161   08 Jun 2027 11:36:13.705           200.544                Anadyr1         25068.000
       340   08 Jun 2027 12:27:14.046   08 Jun 2027 12:28:45.100            91.054               CapeTown         11381.750
       341   08 Jun 2027 12:33:48.393   08 Jun 2027 12:34:44.971            56.578               CapeTown          7072.250
       342   08 Jun 2027 12:39:00.528   08 Jun 2027 12:39:48.952            48.424               CapeTown          6053.000
       343   08 Jun 2027 12:54:23.031   08 Jun 2027 12:56:20.652           117.621                 Moscow         14702.625
       344   08 Jun 2027 14:46:18.056   08 Jun 2027 14:48:24.035           125.979               Magadan1         15747.375
       345   08 Jun 2027 14:51:32.158   08 Jun 2027 14:51:48.833            16.675               Magadan2          2084.375
       346   08 Jun 2027 14:55:01.346   08 Jun 2027 14:55:49.375            48.029               Magadan1          6003.625
       347   08 Jun 2027 17:17:26.566   08 Jun 2027 17:20:18.875           172.309            RioGallegos         21538.625
       348   08 Jun 2027 17:59:24.523   08 Jun 2027 18:01:59.504           154.981                Norilsk         19372.625
       349   08 Jun 2027 18:04:14.276   08 Jun 2027 18:07:59.201           224.925                Novosib         28115.625
       350   08 Jun 2027 19:49:35.204   08 Jun 2027 19:51:57.598           142.394                  Delhi         17799.250
       351   08 Jun 2027 21:13:10.331   08 Jun 2027 21:17:19.053           248.722              Murmansk2         31090.250
       352   08 Jun 2027 21:17:45.176   08 Jun 2027 21:19:59.316           134.140                 Moscow         16767.500
       353   09 Jun 2027 05:11:45.739   09 Jun 2027 05:17:32.585           346.846              Murmansk1         43355.750
       354   09 Jun 2027 05:17:32.585   09 Jun 2027 05:20:14.268           161.683              Murmansk2         20210.375
       355   09 Jun 2027 05:46:15.706   09 Jun 2027 05:47:17.946            62.240            RioGallegos          7780.000
       356   09 Jun 2027 05:48:37.630   09 Jun 2027 05:49:32.797            55.167            RioGallegos          6895.875
       357   09 Jun 2027 05:51:09.360   09 Jun 2027 05:51:15.513             6.153            RioGallegos           769.125
       358   09 Jun 2027 06:21:25.909   09 Jun 2027 06:21:30.044             4.135                Sumatra           516.875
       359   09 Jun 2027 06:23:04.408   09 Jun 2027 06:25:44.440           160.032                Sumatra         20004.000
       360   09 Jun 2027 06:33:25.706   09 Jun 2027 06:33:50.696            24.990                  Delhi          3123.750
       361   09 Jun 2027 06:34:54.232   09 Jun 2027 06:39:20.129           265.897                Irkutsk         33237.125
       362   09 Jun 2027 06:39:50.225   09 Jun 2027 06:40:46.936            56.711                Irkutsk          7088.875
       363   09 Jun 2027 06:47:13.441   09 Jun 2027 06:48:31.467            78.026                 Moscow          9753.250
       364   09 Jun 2027 06:48:35.060   09 Jun 2027 06:52:06.215           211.155                Norilsk         26394.375
       365   09 Jun 2027 06:52:16.610   09 Jun 2027 06:54:55.758           159.148              Murmansk2         19893.500
       366   09 Jun 2027 07:24:38.413   09 Jun 2027 07:33:11.615           513.202            RioGallegos         64150.250
       367   09 Jun 2027 07:58:54.829   09 Jun 2027 08:07:20.654           505.825                Sumatra         63228.125
       368   09 Jun 2027 08:14:44.913   09 Jun 2027 08:19:22.027           277.114                Irkutsk         34639.250
       369   09 Jun 2027 08:23:03.724   09 Jun 2027 08:26:15.172           191.448                 Moscow         23931.000
       370   09 Jun 2027 08:26:23.583   09 Jun 2027 08:28:03.412            99.829              Murmansk1         12478.625
       371   09 Jun 2027 08:28:04.639   09 Jun 2027 08:28:32.643            28.004                Norilsk          3500.500
       372   09 Jun 2027 09:44:35.981   09 Jun 2027 09:51:10.289           394.308                  Delhi         49288.500
       373   09 Jun 2027 09:58:54.036   09 Jun 2027 09:59:21.638            27.602                 Moscow          3450.250
       374   09 Jun 2027 10:00:13.786   09 Jun 2027 10:06:08.728           354.942              Murmansk1         44367.750
       375   09 Jun 2027 11:05:49.020   09 Jun 2027 11:12:29.415           400.395               CapeTown         50049.375
       376   09 Jun 2027 11:26:21.114   09 Jun 2027 11:32:14.693           353.579                 Moscow         44197.375
       377   09 Jun 2027 11:32:30.922   09 Jun 2027 11:38:46.974           376.052              Murmansk2         47006.500
       378   09 Jun 2027 11:39:33.016   09 Jun 2027 11:40:21.062            48.046              Murmansk2          6005.750
       379   09 Jun 2027 11:41:02.349   09 Jun 2027 11:41:10.502             8.153              Murmansk2          1019.125
       380   09 Jun 2027 11:44:39.284   09 Jun 2027 11:48:54.588           255.304                Anadyr1         31913.000
       381   09 Jun 2027 12:39:12.321   09 Jun 2027 12:40:30.211            77.890               CapeTown          9736.250
       382   09 Jun 2027 12:41:08.511   09 Jun 2027 12:41:57.544            49.033               CapeTown          6129.125
       383   09 Jun 2027 12:42:25.375   09 Jun 2027 12:43:54.726            89.351               CapeTown         11168.875
       384   09 Jun 2027 12:47:50.350   09 Jun 2027 12:48:47.483            57.133               CapeTown          7141.625
       385   09 Jun 2027 13:24:30.954   09 Jun 2027 13:26:30.688           119.734               Magadan1         14966.750
       386   09 Jun 2027 15:00:00.670   09 Jun 2027 15:00:18.271            17.601               Magadan2          2200.125
       387   09 Jun 2027 18:15:21.123   09 Jun 2027 18:21:26.527           365.404                Novosib         45675.500
       388   09 Jun 2027 20:02:43.284   09 Jun 2027 20:03:17.569            34.285                  Delhi          4285.625
       389   09 Jun 2027 21:24:54.221   09 Jun 2027 21:25:38.779            44.558              Murmansk2          5569.750
       390   09 Jun 2027 21:26:20.450   09 Jun 2027 21:29:11.455           171.005              Murmansk1         21375.625
       391   09 Jun 2027 21:29:31.806   09 Jun 2027 21:31:05.321            93.515              Murmansk2         11689.375
       392   09 Jun 2027 21:31:13.307   09 Jun 2027 21:35:47.495           274.188                 Moscow         34273.500
       393   10 Jun 2027 03:45:59.993   10 Jun 2027 03:47:48.874           108.881               Magadan1         13610.125
       394   10 Jun 2027 03:47:49.983   10 Jun 2027 03:52:07.625           257.642                Norilsk         32205.250
       395   10 Jun 2027 05:23:41.307   10 Jun 2027 05:32:03.774           502.467              Murmansk1         62808.375
       396   10 Jun 2027 05:58:20.762   10 Jun 2027 06:02:21.678           240.916            RioGallegos         30114.500
       397   10 Jun 2027 06:02:39.629   10 Jun 2027 06:03:12.818            33.189            RioGallegos          4148.625
       398   10 Jun 2027 06:06:44.653   10 Jun 2027 06:07:18.267            33.614            RioGallegos          4201.750
       399   10 Jun 2027 06:08:01.003   10 Jun 2027 06:08:01.873             0.870            RioGallegos           108.750
       400   10 Jun 2027 06:33:16.471   10 Jun 2027 06:34:02.880            46.409                Sumatra          5801.125
       401   10 Jun 2027 06:36:17.108   10 Jun 2027 06:37:54.698            97.590                Sumatra         12198.750
       402   10 Jun 2027 06:40:37.482   10 Jun 2027 06:40:51.894            14.412                Sumatra          1801.500
       403   10 Jun 2027 06:44:22.269   10 Jun 2027 06:46:02.485           100.216                  Delhi         12527.000
       404   10 Jun 2027 06:47:06.765   10 Jun 2027 06:51:53.782           287.017                Irkutsk         35877.125
       405   10 Jun 2027 06:59:10.620   10 Jun 2027 07:01:10.954           120.334                 Moscow         15041.750
       406   10 Jun 2027 07:01:14.050   10 Jun 2027 07:03:41.853           147.803              Murmansk1         18475.375
       407   10 Jun 2027 07:03:41.853   10 Jun 2027 07:06:51.014           189.161              Murmansk2         23645.125
       408   10 Jun 2027 07:37:25.041   10 Jun 2027 07:45:35.633           490.592            RioGallegos         61324.000
       409   10 Jun 2027 08:12:00.704   10 Jun 2027 08:18:08.457           367.753                Sumatra         45969.125
       410   10 Jun 2027 08:25:28.108   10 Jun 2027 08:27:58.592           150.484                Novosib         18810.500
       411   10 Jun 2027 08:28:02.725   10 Jun 2027 08:31:29.975           207.250                Irkutsk         25906.250
       412   10 Jun 2027 08:35:06.690   10 Jun 2027 08:36:50.106           103.416                Novosib         12927.000
       413   10 Jun 2027 08:36:55.409   10 Jun 2027 08:38:43.756           108.347                Norilsk         13543.375
       414   10 Jun 2027 08:39:01.869   10 Jun 2027 08:40:34.353            92.484              Murmansk1         11560.500
       415   10 Jun 2027 08:41:48.835   10 Jun 2027 08:42:19.071            30.236              Murmansk2          3779.500
       416   10 Jun 2027 09:58:38.752   10 Jun 2027 10:01:21.457           162.705                  Delhi         20338.125
       417   10 Jun 2027 10:12:12.143   10 Jun 2027 10:18:10.118           357.975              Murmansk2         44746.875
       418   10 Jun 2027 11:17:03.419   10 Jun 2027 11:25:55.861           532.442               CapeTown         66555.250
       419   10 Jun 2027 11:38:40.822   10 Jun 2027 11:48:34.070           593.248                 Moscow         74156.000
       420   10 Jun 2027 11:48:37.556   10 Jun 2027 11:54:08.150           330.594              Murmansk2         41324.250
       421   10 Jun 2027 11:56:29.467   10 Jun 2027 12:03:12.707           403.240                Anadyr1         50405.000
       422   10 Jun 2027 12:03:12.707   10 Jun 2027 12:05:02.427           109.720                Anadyr2         13715.000
       423   10 Jun 2027 12:51:55.275   10 Jun 2027 12:51:59.390             4.115               CapeTown           514.375
       424   10 Jun 2027 12:52:48.525   10 Jun 2027 12:54:11.908            83.383               CapeTown         10422.875
       425   10 Jun 2027 13:35:49.099   10 Jun 2027 13:38:57.179           188.080               Magadan1         23510.000
       426   10 Jun 2027 16:52:05.750   10 Jun 2027 16:57:04.153           298.403                Irkutsk         37300.375
       427   10 Jun 2027 18:26:50.539   10 Jun 2027 18:34:28.211           457.672                Novosib         57209.000
       428   10 Jun 2027 21:36:22.150   10 Jun 2027 21:37:18.646            56.496              Murmansk2          7062.000
       429   10 Jun 2027 21:39:04.807   10 Jun 2027 21:41:28.212           143.405              Murmansk1         17925.625
       430   10 Jun 2027 21:41:41.925   10 Jun 2027 21:45:08.262           206.337                 Moscow         25792.125
       431   10 Jun 2027 22:08:31.050   10 Jun 2027 22:10:19.974           108.924               CapeTown         13615.500
       432   10 Jun 2027 22:12:21.470   10 Jun 2027 22:12:24.799             3.329               CapeTown           416.125
       433   11 Jun 2027 03:58:27.990   11 Jun 2027 03:59:16.021            48.031                Anadyr2          6003.875
       434   11 Jun 2027 03:59:19.159   11 Jun 2027 03:59:22.543             3.384                Anadyr1           423.000
       435   11 Jun 2027 03:59:27.664   11 Jun 2027 03:59:47.389            19.725               Magadan1          2465.625
       436   11 Jun 2027 03:59:48.557   11 Jun 2027 04:03:59.683           251.126                Norilsk         31390.750
       437   11 Jun 2027 05:14:37.774   11 Jun 2027 05:15:02.379            24.605                Sumatra          3075.625
       438   11 Jun 2027 05:15:46.853   11 Jun 2027 05:16:36.214            49.361                Sumatra          6170.125
       439   11 Jun 2027 05:35:41.885   11 Jun 2027 05:36:55.685            73.800                Novosib          9225.000
       440   11 Jun 2027 05:36:56.466   11 Jun 2027 05:40:40.127           223.661                Norilsk         27957.625
       441   11 Jun 2027 05:40:44.796   11 Jun 2027 05:43:53.943           189.147              Murmansk1         23643.375
       442   11 Jun 2027 06:10:29.356   11 Jun 2027 06:15:56.535           327.179            RioGallegos         40897.375
       443   11 Jun 2027 06:18:30.694   11 Jun 2027 06:18:46.698            16.004            RioGallegos          2000.500
       444   11 Jun 2027 06:19:43.230   11 Jun 2027 06:20:13.422            30.192            RioGallegos          3774.000
       445   11 Jun 2027 06:45:12.789   11 Jun 2027 06:46:50.321            97.532                Sumatra         12191.500
       446   11 Jun 2027 06:48:01.895   11 Jun 2027 06:48:22.028            20.133                Sumatra          2516.625
       447   11 Jun 2027 06:52:22.395   11 Jun 2027 06:53:13.011            50.616                Sumatra          6327.000
       448   11 Jun 2027 06:54:45.772   11 Jun 2027 06:54:48.389             2.617                Sumatra           327.125
       449   11 Jun 2027 06:55:34.866   11 Jun 2027 06:57:46.624           131.758                  Delhi         16469.750
       450   11 Jun 2027 06:59:23.191   11 Jun 2027 07:04:03.523           280.332                Irkutsk         35041.500
       451   11 Jun 2027 07:11:08.432   11 Jun 2027 07:13:10.648           122.216                Novosib         15277.000
       452   11 Jun 2027 07:13:12.669   11 Jun 2027 07:18:46.929           334.260              Murmansk2         41782.500
       453   11 Jun 2027 07:50:24.270   11 Jun 2027 07:57:03.988           399.718            RioGallegos         49964.750
       454   11 Jun 2027 08:29:29.131   11 Jun 2027 08:31:06.441            97.310                  Delhi         12163.750
       455   11 Jun 2027 08:32:32.757   11 Jun 2027 08:32:40.248             7.491                  Delhi           936.375
       456   11 Jun 2027 08:37:14.618   11 Jun 2027 08:37:33.202            18.584                Novosib          2323.000
       457   11 Jun 2027 08:38:31.692   11 Jun 2027 08:39:12.456            40.764                  Delhi          5095.500
       458   11 Jun 2027 08:39:14.664   11 Jun 2027 08:43:07.500           232.836                Novosib         29104.500
       459   11 Jun 2027 08:47:17.891   11 Jun 2027 08:50:30.839           192.948                 Moscow         24118.500
       460   11 Jun 2027 08:50:58.251   11 Jun 2027 08:54:18.891           200.640              Murmansk1         25080.000
       461   11 Jun 2027 10:22:42.927   11 Jun 2027 10:23:36.507            53.580                Norilsk          6697.500
       462   11 Jun 2027 10:23:37.969   11 Jun 2027 10:28:15.097           277.128                Norilsk         34641.000
       463   11 Jun 2027 10:28:28.828   11 Jun 2027 10:30:11.614           102.786              Murmansk2         12848.250
       464   11 Jun 2027 11:28:32.115   11 Jun 2027 11:37:48.047           555.932               CapeTown         69491.500
       465   11 Jun 2027 11:51:04.692   11 Jun 2027 12:01:01.633           596.941                 Moscow         74617.625
       466   11 Jun 2027 12:01:04.427   11 Jun 2027 12:06:09.461           305.034              Murmansk2         38129.250
       467   11 Jun 2027 12:08:22.330   11 Jun 2027 12:17:08.025           525.695                Anadyr2         65711.875
       468   11 Jun 2027 13:03:17.154   11 Jun 2027 13:04:32.533            75.379               CapeTown          9422.375
       469   11 Jun 2027 13:47:24.049   11 Jun 2027 13:51:08.654           224.605               Magadan2         28075.625
       470   11 Jun 2027 13:51:33.983   11 Jun 2027 13:53:31.679           117.696               Magadan1         14712.000
       471   11 Jun 2027 17:03:21.089   11 Jun 2027 17:09:02.834           341.745                Irkutsk         42718.125
       472   11 Jun 2027 17:19:25.217   11 Jun 2027 17:22:03.658           158.441                Sumatra         19805.125
       473   11 Jun 2027 17:24:29.301   11 Jun 2027 17:24:46.635            17.334                Sumatra          2166.750
       474   11 Jun 2027 18:39:02.261   11 Jun 2027 18:42:18.465           196.204                Novosib         24525.500
       475   11 Jun 2027 18:43:43.336   11 Jun 2027 18:44:56.339            73.003                Novosib          9125.375
       476   11 Jun 2027 21:47:59.747   11 Jun 2027 21:49:42.712           102.965              Murmansk2         12870.625
       477   11 Jun 2027 21:51:44.814   11 Jun 2027 21:53:51.051           126.237              Murmansk2         15779.625
       478   11 Jun 2027 21:53:59.563   11 Jun 2027 21:55:44.612           105.049                 Moscow         13131.125
       479   11 Jun 2027 22:18:58.626   11 Jun 2027 22:20:44.887           106.261               CapeTown         12483.999
       480   12 Jun 2027 04:10:29.097   12 Jun 2027 04:11:00.581            31.484                Anadyr1          3935.500
       481   12 Jun 2027 04:11:47.558   12 Jun 2027 04:16:58.590           311.032                Norilsk         38879.000
       482   12 Jun 2027 04:17:08.926   12 Jun 2027 04:20:39.904           210.978              Murmansk1         26372.250
