uniorb/output/strategy_4/Drop/Drop_KinoSat_111108.txt

KinoSat_111108
-------------------------
    Access    *     Start Time (UTCG)     *     Stop Time (UTCG)  *   Duration (s)        *       Station  *  Data (Mbytes)
         1   01 Jun 2027 03:07:51.998   01 Jun 2027 03:07:58.939             6.941                Norilsk           216.906
         2   01 Jun 2027 03:08:08.183   01 Jun 2027 03:09:45.218            97.035                 Moscow          3032.344
         3   01 Jun 2027 03:10:07.893   01 Jun 2027 03:13:30.123           202.230              Murmansk2          6319.687
         4   01 Jun 2027 03:27:49.974   01 Jun 2027 03:29:59.323           129.349               CapeTown          4042.156
         5   01 Jun 2027 04:31:16.190   01 Jun 2027 04:31:38.672            22.482               Magadan1           702.562
         6   01 Jun 2027 04:31:42.230   01 Jun 2027 04:33:58.580           136.350                Anadyr2          4260.937
         7   01 Jun 2027 04:33:58.580   01 Jun 2027 04:34:25.139            26.559                Anadyr1           829.969
         8   01 Jun 2027 06:08:31.229   01 Jun 2027 06:09:11.582            40.353               Magadan2          1261.031
         9   01 Jun 2027 06:09:20.041   01 Jun 2027 06:09:45.450            25.409               Magadan1           794.031
        10   01 Jun 2027 06:09:52.683   01 Jun 2027 06:13:05.453           192.770                Anadyr1          6024.062
        11   01 Jun 2027 07:43:56.831   01 Jun 2027 07:44:25.118            28.287                Irkutsk           883.969
        12   01 Jun 2027 07:44:51.484   01 Jun 2027 07:47:14.586           143.102                Norilsk          4471.937
        13   01 Jun 2027 07:47:16.953   01 Jun 2027 07:48:21.129            64.176                Novosib          2005.500
        14   01 Jun 2027 07:48:23.584   01 Jun 2027 07:49:35.263            71.679                Novosib          2239.969
        15   01 Jun 2027 07:50:45.215   01 Jun 2027 07:51:05.146            19.931              Murmansk2           622.844
        16   01 Jun 2027 07:53:13.320   01 Jun 2027 07:53:29.021            15.701              Murmansk1           490.656
        17   01 Jun 2027 07:55:16.702   01 Jun 2027 07:55:47.934            31.232              Murmansk2           976.000
        18   01 Jun 2027 07:56:13.750   01 Jun 2027 07:57:11.670            57.920              Murmansk2          1810.000
        19   01 Jun 2027 08:26:01.437   01 Jun 2027 08:26:13.733            12.296            RioGallegos           384.250
        20   01 Jun 2027 08:59:24.932   01 Jun 2027 09:00:26.014            61.082                Sumatra          1908.813
        21   01 Jun 2027 09:03:28.743   01 Jun 2027 09:04:54.291            85.548                Sumatra          2673.375
        22   01 Jun 2027 09:21:27.267   01 Jun 2027 09:21:34.921             7.654                Norilsk           239.188
        23   01 Jun 2027 09:21:40.610   01 Jun 2027 09:22:14.249            33.639              Murmansk1          1051.219
        24   01 Jun 2027 09:22:17.431   01 Jun 2027 09:23:50.469            93.038              Murmansk1          2907.437
        25   01 Jun 2027 09:23:52.975   01 Jun 2027 09:24:43.781            50.806                Irkutsk          1587.688
        26   01 Jun 2027 09:25:20.941   01 Jun 2027 09:25:28.093             7.152                Novosib           223.500
        27   01 Jun 2027 09:25:51.286   01 Jun 2027 09:26:19.803            28.517                Norilsk           891.156
        28   01 Jun 2027 09:27:32.565   01 Jun 2027 09:27:48.756            16.191              Murmansk1           505.969
        29   01 Jun 2027 09:28:01.358   01 Jun 2027 09:28:28.710            27.352                Norilsk           854.750
        30   01 Jun 2027 09:28:52.342   01 Jun 2027 09:29:22.961            30.619                Norilsk           956.844
        31   01 Jun 2027 10:00:33.377   01 Jun 2027 10:02:00.922            87.545            RioGallegos          2735.781
        32   01 Jun 2027 10:05:25.047   01 Jun 2027 10:05:35.896            10.849            RioGallegos           339.031
        33   01 Jun 2027 10:34:47.608   01 Jun 2027 10:36:48.174           120.566                Sumatra          3767.688
        34   01 Jun 2027 10:37:27.186   01 Jun 2027 10:39:16.511           109.325                Sumatra          3416.406
        35   01 Jun 2027 10:57:08.180   01 Jun 2027 10:57:19.812            11.632                Irkutsk           363.500
        36   01 Jun 2027 10:57:42.434   01 Jun 2027 10:58:45.968            63.534                Irkutsk          1985.438
        37   01 Jun 2027 10:58:48.716   01 Jun 2027 10:59:42.900            54.184                Irkutsk          1693.250
        38   01 Jun 2027 11:01:56.240   01 Jun 2027 11:02:25.194            28.954                 Moscow           904.813
        39   01 Jun 2027 12:31:47.720   01 Jun 2027 12:32:10.078            22.358                Norilsk           698.688
        40   01 Jun 2027 12:32:13.551   01 Jun 2027 12:32:47.742            34.191              Murmansk2          1068.469
        41   01 Jun 2027 12:33:48.812   01 Jun 2027 12:34:00.720            11.908                Norilsk           372.125
        42   01 Jun 2027 12:34:17.576   01 Jun 2027 12:34:51.163            33.587                Norilsk          1049.594
        43   01 Jun 2027 12:37:03.276   01 Jun 2027 12:37:48.197            44.921                Norilsk          1403.781
        44   01 Jun 2027 14:03:02.015   01 Jun 2027 14:04:50.621           108.606                 Moscow          3393.937
        45   01 Jun 2027 14:06:33.230   01 Jun 2027 14:10:42.029           248.799              Murmansk1          7774.969
        46   01 Jun 2027 14:13:24.859   01 Jun 2027 14:15:23.682           118.823                Norilsk          3713.219
        47   01 Jun 2027 14:16:01.502   01 Jun 2027 14:16:26.017            24.515                Norilsk           766.094
        48   01 Jun 2027 14:22:32.283   01 Jun 2027 14:23:25.039            52.756                Anadyr1          1648.625
        49   01 Jun 2027 14:23:25.039   01 Jun 2027 14:23:36.417            11.378                Anadyr2           355.562
        50   01 Jun 2027 14:24:39.978   01 Jun 2027 14:25:09.517            29.539                Anadyr1           923.094
        51   01 Jun 2027 15:16:32.782   01 Jun 2027 15:17:58.255            85.473               CapeTown          2671.031
        52   01 Jun 2027 15:42:17.822   01 Jun 2027 15:43:00.735            42.913                 Moscow          1341.031
        53   01 Jun 2027 15:44:30.437   01 Jun 2027 15:46:46.537           136.100              Murmansk1          4253.125
        54   01 Jun 2027 15:57:06.448   01 Jun 2027 15:58:30.189            83.741                Anadyr1          2616.906
        55   01 Jun 2027 15:59:52.959   01 Jun 2027 16:01:20.188            87.229                Anadyr2          2725.906
        56   01 Jun 2027 16:52:55.932   01 Jun 2027 16:54:16.033            80.101               CapeTown          2503.156
        57   01 Jun 2027 17:25:18.319   01 Jun 2027 17:27:41.349           143.030              Murmansk2          4469.687
        58   01 Jun 2027 17:29:16.703   01 Jun 2027 17:29:38.787            22.084              Murmansk1           690.125
        59   01 Jun 2027 17:32:53.524   01 Jun 2027 17:34:26.848            93.324                Anadyr2          2916.375
        60   01 Jun 2027 17:35:36.856   01 Jun 2027 17:36:58.146            81.290               Magadan1          2540.312
        61   01 Jun 2027 17:37:31.107   01 Jun 2027 17:39:36.051           124.944               Magadan2          3904.500
        62   01 Jun 2027 19:08:49.044   01 Jun 2027 19:10:47.096           118.052                Anadyr1          3689.125
        63   01 Jun 2027 19:11:01.026   01 Jun 2027 19:12:41.093           100.067                Anadyr2          3127.094
        64   01 Jun 2027 19:12:49.126   01 Jun 2027 19:15:11.057           141.931               Magadan1          4435.344
        65   01 Jun 2027 19:15:11.057   01 Jun 2027 19:15:34.846            23.789               Magadan2           743.406
        66   01 Jun 2027 19:21:58.187   01 Jun 2027 19:22:08.622            10.435               Magadan1           326.094
        67   01 Jun 2027 19:22:48.127   01 Jun 2027 19:23:08.423            20.296               Magadan1           634.250
        68   01 Jun 2027 20:03:46.560   01 Jun 2027 20:07:01.843           195.283            RioGallegos          6102.594
        69   01 Jun 2027 20:09:09.671   01 Jun 2027 20:10:19.156            69.485            RioGallegos          2171.406
        70   01 Jun 2027 20:44:31.823   01 Jun 2027 20:46:39.413           127.590                Anadyr2          3987.188
        71   01 Jun 2027 20:46:41.736   01 Jun 2027 20:49:02.145           140.409                Norilsk          4387.781
        72   01 Jun 2027 20:51:07.144   01 Jun 2027 20:51:48.933            41.789                Irkutsk          1305.906
        73   01 Jun 2027 20:54:29.365   01 Jun 2027 20:54:39.629            10.264                Irkutsk           320.750
        74   01 Jun 2027 21:05:11.238   01 Jun 2027 21:08:21.383           190.145                Sumatra          5942.031
        75   01 Jun 2027 22:21:56.598   01 Jun 2027 22:22:05.682             9.084                Anadyr2           283.875
        76   01 Jun 2027 22:22:34.884   01 Jun 2027 22:23:54.705            79.821                Norilsk          2494.406
        77   01 Jun 2027 22:25:13.385   01 Jun 2027 22:26:02.738            49.353               Magadan1          1542.281
        78   01 Jun 2027 22:26:16.912   01 Jun 2027 22:27:02.261            45.349               Magadan2          1417.156
        79   01 Jun 2027 22:27:26.913   01 Jun 2027 22:27:44.911            17.998                Novosib           562.437
        80   01 Jun 2027 22:27:48.578   01 Jun 2027 22:27:51.494             2.916                Novosib            91.125
        81   01 Jun 2027 22:28:21.085   01 Jun 2027 22:28:57.209            36.124                Novosib          1128.875
        82   01 Jun 2027 22:30:20.066   01 Jun 2027 22:31:14.495            54.429                Novosib          1700.906
        83   01 Jun 2027 22:35:08.961   01 Jun 2027 22:36:56.961           108.000                  Delhi          3375.000
        84   01 Jun 2027 22:41:41.430   01 Jun 2027 22:42:08.378            26.948                  Delhi           842.125
        85   01 Jun 2027 23:53:17.822   01 Jun 2027 23:54:01.843            44.021                Anadyr1          1375.656
        86   01 Jun 2027 23:55:24.304   01 Jun 2027 23:55:37.276            12.972                Anadyr1           405.375
        87   01 Jun 2027 23:55:46.833   01 Jun 2027 23:56:05.918            19.085                Anadyr1           596.406
        88   01 Jun 2027 23:57:44.025   01 Jun 2027 23:58:41.047            57.022                Anadyr1          1781.938
        89   01 Jun 2027 23:58:58.605   01 Jun 2027 23:59:24.786            26.181               Magadan1           818.156
        90   01 Jun 2027 23:59:26.407   02 Jun 2027 00:00:03.357            36.950                Norilsk          1154.688
        91   02 Jun 2027 00:00:22.995   02 Jun 2027 00:00:30.500             7.505                Norilsk           234.531
        92   02 Jun 2027 00:00:58.589   02 Jun 2027 00:01:08.257             9.668               Magadan2           302.125
        93   02 Jun 2027 00:01:11.571   02 Jun 2027 00:03:11.105           119.534              Murmansk2          3735.437
        94   02 Jun 2027 00:03:19.471   02 Jun 2027 00:04:24.354            64.883                Novosib          2027.594
        95   02 Jun 2027 00:04:40.083   02 Jun 2027 00:04:56.350            16.267              Murmansk1           508.344
        96   02 Jun 2027 00:08:21.832   02 Jun 2027 00:08:38.014            16.182              Murmansk2           505.688
        97   02 Jun 2027 00:10:40.403   02 Jun 2027 00:11:49.489            69.086                  Delhi          2158.937
        98   02 Jun 2027 00:52:36.925   02 Jun 2027 00:53:01.583            24.658            RioGallegos           770.563
        99   02 Jun 2027 00:54:58.579   02 Jun 2027 00:56:00.791            62.212            RioGallegos          1944.125
       100   02 Jun 2027 01:26:36.568   02 Jun 2027 01:26:55.668            19.100                Anadyr1           596.875
       101   02 Jun 2027 01:28:01.297   02 Jun 2027 01:28:19.735            18.438                Anadyr2           576.187
       102   02 Jun 2027 01:28:33.310   02 Jun 2027 01:29:15.193            41.883                Anadyr1          1308.844
       103   02 Jun 2027 01:29:29.926   02 Jun 2027 01:29:48.696            18.770                Anadyr1           586.563
       104   02 Jun 2027 01:32:11.507   02 Jun 2027 01:34:14.647           123.140               Magadan2          3848.125
       105   02 Jun 2027 01:34:42.623   02 Jun 2027 01:35:17.857            35.234               Magadan1          1101.063
       106   02 Jun 2027 01:36:43.150   02 Jun 2027 01:38:01.880            78.730              Murmansk1          2460.313
       107   02 Jun 2027 01:38:36.231   02 Jun 2027 01:39:39.925            63.694                Novosib          1990.438
       108   02 Jun 2027 01:45:37.894   02 Jun 2027 01:45:59.885            21.991                 Moscow           687.219
       109   02 Jun 2027 01:49:29.181   02 Jun 2027 01:49:34.397             5.216                 Moscow           163.000
       110   02 Jun 2027 01:49:42.010   02 Jun 2027 01:49:44.782             2.772                 Moscow            86.625
       111   02 Jun 2027 01:51:00.779   02 Jun 2027 01:51:07.977             7.198                 Moscow           224.938
       112   02 Jun 2027 02:05:08.201   02 Jun 2027 02:06:21.231            73.030               CapeTown          2282.187
       113   02 Jun 2027 02:12:59.840   02 Jun 2027 02:14:22.111            82.271               CapeTown          2570.969
       114   02 Jun 2027 03:05:30.345   02 Jun 2027 03:05:38.710             8.365               Magadan1           261.406
       115   02 Jun 2027 03:06:36.128   02 Jun 2027 03:06:48.507            12.379                Anadyr1           386.844
       116   02 Jun 2027 03:09:28.906   02 Jun 2027 03:09:38.978            10.072               Magadan2           314.750
       117   02 Jun 2027 03:20:59.442   02 Jun 2027 03:22:39.644           100.202              Murmansk1          3131.313
       118   02 Jun 2027 03:22:51.423   02 Jun 2027 03:23:44.882            53.459              Murmansk2          1670.594
       119   02 Jun 2027 04:36:56.017   02 Jun 2027 04:37:30.192            34.175               Magadan2          1067.969
       120   02 Jun 2027 04:43:04.181   02 Jun 2027 04:44:07.109            62.928               Magadan2          1966.500
       121   02 Jun 2027 04:44:07.109   02 Jun 2027 04:44:45.183            38.074               Magadan1          1189.813
       122   02 Jun 2027 04:45:10.541   02 Jun 2027 04:48:15.563           185.022               Magadan1          5781.937
       123   02 Jun 2027 06:22:29.377   02 Jun 2027 06:23:09.475            40.098               Magadan1          1253.063
       124   02 Jun 2027 07:57:09.208   02 Jun 2027 07:57:31.216            22.008               Magadan1           687.750
       125   02 Jun 2027 07:57:31.216   02 Jun 2027 08:00:15.857           164.641               Magadan2          5145.031
       126   02 Jun 2027 09:32:07.370   02 Jun 2027 09:32:14.048             6.678                Norilsk           208.688
       127   02 Jun 2027 09:32:55.588   02 Jun 2027 09:33:07.809            12.221                Irkutsk           381.906
       128   02 Jun 2027 09:33:13.706   02 Jun 2027 09:33:36.264            22.558                Irkutsk           704.938
       129   02 Jun 2027 09:34:17.036   02 Jun 2027 09:35:06.476            49.440                Novosib          1545.000
       130   02 Jun 2027 09:35:11.529   02 Jun 2027 09:35:24.589            13.060                Novosib           408.125
       131   02 Jun 2027 09:35:27.520   02 Jun 2027 09:35:30.740             3.220                Irkutsk           100.625
       132   02 Jun 2027 09:35:48.170   02 Jun 2027 09:36:38.901            50.731                Irkutsk          1585.344
       133   02 Jun 2027 10:13:02.911   02 Jun 2027 10:13:36.910            33.999            RioGallegos          1062.469
       134   02 Jun 2027 10:47:14.849   02 Jun 2027 10:48:13.990            59.141                Sumatra          1848.156
       135   02 Jun 2027 10:54:42.313   02 Jun 2027 10:55:04.551            22.238                  Delhi           694.937
       136   02 Jun 2027 11:09:18.007   02 Jun 2027 11:10:23.569            65.562                Novosib          2048.813
       137   02 Jun 2027 11:11:07.389   02 Jun 2027 11:11:17.348             9.959                Novosib           311.219
       138   02 Jun 2027 11:11:19.027   02 Jun 2027 11:12:11.663            52.636              Murmansk1          1644.875
       139   02 Jun 2027 11:12:24.889   02 Jun 2027 11:12:53.478            28.589                Novosib           893.406
       140   02 Jun 2027 12:32:26.799   02 Jun 2027 12:33:30.375            63.576                  Delhi          1986.750
       141   02 Jun 2027 12:34:00.227   02 Jun 2027 12:34:41.350            41.123                  Delhi          1285.094
       142   02 Jun 2027 12:35:30.607   02 Jun 2027 12:36:22.496            51.889                  Delhi          1621.531
       143   02 Jun 2027 12:39:43.483   02 Jun 2027 12:39:57.697            14.214                 Moscow           444.188
       144   02 Jun 2027 12:40:33.245   02 Jun 2027 12:41:33.464            60.219                 Moscow          1881.844
       145   02 Jun 2027 12:42:26.521   02 Jun 2027 12:44:01.277            94.756              Murmansk1          2961.125
       146   02 Jun 2027 12:44:01.277   02 Jun 2027 12:44:02.444             1.167              Murmansk2            36.469
       147   02 Jun 2027 12:44:03.261   02 Jun 2027 12:44:45.290            42.029              Murmansk2          1313.406
       148   02 Jun 2027 13:57:01.083   02 Jun 2027 13:57:56.318            55.235               CapeTown          1726.094
       149   02 Jun 2027 13:59:40.362   02 Jun 2027 13:59:44.661             4.299               CapeTown           134.344
       150   02 Jun 2027 14:15:13.535   02 Jun 2027 14:16:49.741            96.206                 Moscow          3006.437
       151   02 Jun 2027 14:18:42.993   02 Jun 2027 14:21:59.399           196.406              Murmansk2          6137.688
       152   02 Jun 2027 14:34:09.046   02 Jun 2027 14:38:11.671           242.625                Anadyr2          7582.031
       153   02 Jun 2027 15:36:31.522   02 Jun 2027 15:36:32.486             0.964               CapeTown            30.125
       154   02 Jun 2027 15:36:52.532   02 Jun 2027 15:36:56.718             4.186               CapeTown           130.812
       155   02 Jun 2027 15:56:24.875   02 Jun 2027 15:56:56.028            31.153                 Moscow           973.531
       156   02 Jun 2027 15:56:57.000   02 Jun 2027 15:58:40.813           103.813              Murmansk2          3244.156
       157   02 Jun 2027 16:01:45.602   02 Jun 2027 16:02:01.158            15.556              Murmansk2           486.125
       158   02 Jun 2027 16:09:05.313   02 Jun 2027 16:11:22.226           136.913                Anadyr1          4278.531
       159   02 Jun 2027 17:05:16.983   02 Jun 2027 17:06:11.248            54.265               CapeTown          1695.781
       160   02 Jun 2027 17:09:16.988   02 Jun 2027 17:10:32.164            75.176               CapeTown          2349.250
       161   02 Jun 2027 17:38:23.712   02 Jun 2027 17:41:15.894           172.182              Murmansk2          5380.688
       162   02 Jun 2027 17:44:54.897   02 Jun 2027 17:46:04.088            69.191                Anadyr1          2162.219
       163   02 Jun 2027 17:46:22.781   02 Jun 2027 17:46:47.882            25.101                Anadyr1           784.406
       164   02 Jun 2027 17:47:31.279   02 Jun 2027 17:48:59.069            87.790               Magadan2          2743.437
       165   02 Jun 2027 17:49:20.782   02 Jun 2027 17:49:34.343            13.561               Magadan2           423.781
       166   02 Jun 2027 19:20:49.979   02 Jun 2027 19:24:53.871           243.892                Anadyr2          7621.625
       167   02 Jun 2027 19:25:08.939   02 Jun 2027 19:26:45.503            96.564               Magadan1          3017.625
       168   02 Jun 2027 19:26:45.503   02 Jun 2027 19:27:09.456            23.953               Magadan2           748.531
       169   02 Jun 2027 19:32:33.754   02 Jun 2027 19:32:40.065             6.311               Magadan2           197.219
       170   02 Jun 2027 19:33:19.876   02 Jun 2027 19:33:26.833             6.957               Magadan2           217.406
       171   02 Jun 2027 19:33:56.322   02 Jun 2027 19:34:11.206            14.884               Magadan2           465.125
       172   02 Jun 2027 20:15:29.412   02 Jun 2027 20:18:46.107           196.695            RioGallegos          6146.719
       173   02 Jun 2027 20:19:47.665   02 Jun 2027 20:19:56.662             8.997            RioGallegos           281.156
       174   02 Jun 2027 20:56:29.373   02 Jun 2027 20:57:12.504            43.131                Anadyr1          1347.844
       175   02 Jun 2027 20:59:08.341   02 Jun 2027 21:00:32.163            83.822               Magadan1          2619.437
       176   02 Jun 2027 21:00:32.163   02 Jun 2027 21:01:01.553            29.390               Magadan2           918.437
       177   02 Jun 2027 21:01:03.953   02 Jun 2027 21:01:42.186            38.233                Norilsk          1194.781
       178   02 Jun 2027 21:02:58.225   02 Jun 2027 21:04:24.034            85.809                Irkutsk          2681.531
       179   02 Jun 2027 21:05:50.551   02 Jun 2027 21:08:36.862           166.311                Novosib          5197.219
       180   02 Jun 2027 21:17:42.471   02 Jun 2027 21:19:05.396            82.925                Sumatra          2591.406
       181   02 Jun 2027 22:34:36.859   02 Jun 2027 22:35:04.339            27.480                Norilsk           858.750
       182   02 Jun 2027 22:35:14.582   02 Jun 2027 22:36:44.050            89.468               Magadan2          2795.875
       183   02 Jun 2027 22:38:08.236   02 Jun 2027 22:38:50.930            42.694               Magadan1          1334.188
       184   02 Jun 2027 22:38:56.235   02 Jun 2027 22:39:42.134            45.899                Novosib          1434.344
       185   02 Jun 2027 22:39:59.471   02 Jun 2027 22:40:35.977            36.506                Novosib          1140.813
       186   02 Jun 2027 22:41:12.766   02 Jun 2027 22:42:05.325            52.559                Novosib          1642.469
       187   02 Jun 2027 22:46:42.531   02 Jun 2027 22:49:55.149           192.618                  Delhi          6019.313
       188   03 Jun 2027 00:10:36.543   03 Jun 2027 00:12:32.592           116.049                Norilsk          3626.531
       189   03 Jun 2027 00:13:01.486   03 Jun 2027 00:13:45.348            43.862               Magadan2          1370.687
       190   03 Jun 2027 00:14:06.075   03 Jun 2027 00:15:12.058            65.983              Murmansk2          2061.969
       191   03 Jun 2027 00:15:20.903   03 Jun 2027 00:15:59.531            38.628                Novosib          1207.125
       192   03 Jun 2027 00:16:36.649   03 Jun 2027 00:16:48.340            11.691              Murmansk2           365.344
       193   03 Jun 2027 00:18:24.077   03 Jun 2027 00:19:04.210            40.133                 Moscow          1254.156
       194   03 Jun 2027 00:19:21.846   03 Jun 2027 00:19:43.387            21.541                 Moscow           673.156
       195   03 Jun 2027 00:20:36.871   03 Jun 2027 00:21:36.577            59.706                 Moscow          1865.812
       196   03 Jun 2027 00:22:30.676   03 Jun 2027 00:22:40.383             9.707                 Moscow           303.344
       197   03 Jun 2027 00:32:20.232   03 Jun 2027 00:32:23.717             3.485                  Delhi           108.906
       198   03 Jun 2027 00:33:16.648   03 Jun 2027 00:33:18.149             1.501                  Delhi            46.906
       199   03 Jun 2027 01:38:20.706   03 Jun 2027 01:39:55.524            94.818                Anadyr1          2963.063
       200   03 Jun 2027 01:39:55.524   03 Jun 2027 01:40:05.801            10.277                Anadyr2           321.156
       201   03 Jun 2027 01:40:33.310   03 Jun 2027 01:40:58.082            24.772                Anadyr1           774.125
       202   03 Jun 2027 01:41:04.901   03 Jun 2027 01:41:34.269            29.368                Anadyr1           917.750
       203   03 Jun 2027 01:43:39.933   03 Jun 2027 01:45:24.430           104.497               Magadan1          3265.531
       204   03 Jun 2027 01:45:44.097   03 Jun 2027 01:46:05.647            21.550               Magadan2           673.438
       205   03 Jun 2027 01:46:45.648   03 Jun 2027 01:47:21.259            35.611                Norilsk          1112.844
       206   03 Jun 2027 01:48:44.397   03 Jun 2027 01:49:31.552            47.155              Murmansk2          1473.594
       207   03 Jun 2027 01:49:58.697   03 Jun 2027 01:50:47.532            48.835              Murmansk1          1526.094
       208   03 Jun 2027 01:51:33.405   03 Jun 2027 01:53:55.436           142.031                Novosib          4438.469
       209   03 Jun 2027 02:21:00.495   03 Jun 2027 02:21:15.410            14.915               CapeTown           466.094
       210   03 Jun 2027 02:24:41.100   03 Jun 2027 02:26:01.763            80.663               CapeTown          2520.719
       211   03 Jun 2027 03:20:30.609   03 Jun 2027 03:21:06.723            36.114               Magadan2          1128.563
       212   03 Jun 2027 03:21:08.187   03 Jun 2027 03:21:15.528             7.341                Anadyr1           229.406
       213   03 Jun 2027 03:21:15.528   03 Jun 2027 03:22:15.640            60.112                Anadyr2          1878.500
       214   03 Jun 2027 03:22:20.010   03 Jun 2027 03:22:26.820             6.810                Anadyr2           212.813
       215   03 Jun 2027 03:33:40.046   03 Jun 2027 03:33:51.942            11.896              Murmansk1           371.750
       216   03 Jun 2027 03:34:33.839   03 Jun 2027 03:35:06.774            32.935              Murmansk1          1029.219
       217   03 Jun 2027 03:35:32.919   03 Jun 2027 03:35:49.788            16.869              Murmansk1           527.156
       218   03 Jun 2027 04:49:16.146   03 Jun 2027 04:49:38.245            22.099                Anadyr1           690.594
       219   03 Jun 2027 04:55:09.600   03 Jun 2027 04:56:11.351            61.751                Anadyr2          1929.719
       220   03 Jun 2027 04:56:19.426   03 Jun 2027 04:59:35.945           196.519                Anadyr2          6141.219
       221   03 Jun 2027 04:59:39.669   03 Jun 2027 04:59:48.858             9.189                Anadyr2           287.156
       222   03 Jun 2027 05:00:10.773   03 Jun 2027 05:00:39.808            29.035               Magadan2           907.344
       223   03 Jun 2027 06:31:56.302   03 Jun 2027 06:32:32.816            36.514                Anadyr1          1141.062
       224   03 Jun 2027 06:32:40.431   03 Jun 2027 06:33:19.187            38.756                Anadyr1          1211.125
       225   03 Jun 2027 06:33:20.011   03 Jun 2027 06:33:56.259            36.248                Anadyr2          1132.750
       226   03 Jun 2027 06:34:02.115   03 Jun 2027 06:34:32.368            30.253                Anadyr2           945.406
       227   03 Jun 2027 06:34:55.550   03 Jun 2027 06:35:06.031            10.481               Magadan2           327.531
       228   03 Jun 2027 06:35:32.764   03 Jun 2027 06:35:51.733            18.969                Anadyr1           592.781
       229   03 Jun 2027 06:36:23.113   03 Jun 2027 06:36:56.696            33.583                Anadyr2          1049.469
       230   03 Jun 2027 08:05:43.539   03 Jun 2027 08:06:15.221            31.682               Magadan1           990.062
       231   03 Jun 2027 08:06:19.893   03 Jun 2027 08:07:26.619            66.726               Magadan2          2085.188
       232   03 Jun 2027 08:07:36.542   03 Jun 2027 08:07:51.653            15.111                Irkutsk           472.219
       233   03 Jun 2027 08:08:28.331   03 Jun 2027 08:08:55.710            27.379               Magadan1           855.594
       234   03 Jun 2027 08:09:33.403   03 Jun 2027 08:10:01.762            28.359               Magadan2           886.219
       235   03 Jun 2027 08:11:07.673   03 Jun 2027 08:11:25.817            18.144               Magadan2           567.000
       236   03 Jun 2027 08:12:09.971   03 Jun 2027 08:12:14.420             4.449               Magadan1           139.031
       237   03 Jun 2027 08:14:48.034   03 Jun 2027 08:14:50.007             1.973                Norilsk            61.656
       238   03 Jun 2027 08:16:08.269   03 Jun 2027 08:16:36.867            28.598              Murmansk2           893.687
       239   03 Jun 2027 08:47:27.341   03 Jun 2027 08:47:47.712            20.371            RioGallegos           636.594
       240   03 Jun 2027 08:48:49.932   03 Jun 2027 08:49:47.985            58.053            RioGallegos          1814.156
       241   03 Jun 2027 09:23:38.102   03 Jun 2027 09:24:40.795            62.693                Sumatra          1959.156
       242   03 Jun 2027 09:44:38.877   03 Jun 2027 09:44:51.632            12.755                Norilsk           398.594
       243   03 Jun 2027 09:44:56.667   03 Jun 2027 09:45:38.573            41.906                Irkutsk          1309.563
       244   03 Jun 2027 09:45:43.676   03 Jun 2027 09:45:47.084             3.408                Irkutsk           106.500
       245   03 Jun 2027 09:46:21.583   03 Jun 2027 09:47:02.585            41.002                Novosib          1281.312
       246   03 Jun 2027 09:47:05.426   03 Jun 2027 09:47:28.005            22.579                Irkutsk           705.594
       247   03 Jun 2027 09:49:47.673   03 Jun 2027 09:49:49.766             2.093                Novosib            65.406
       248   03 Jun 2027 10:25:38.837   03 Jun 2027 10:26:41.661            62.824            RioGallegos          1963.250
       249   03 Jun 2027 10:28:28.782   03 Jun 2027 10:28:45.557            16.775            RioGallegos           524.219
       250   03 Jun 2027 11:00:31.622   03 Jun 2027 11:00:42.660            11.038                Sumatra           344.938
       251   03 Jun 2027 11:02:41.054   03 Jun 2027 11:03:19.151            38.097                Sumatra          1190.531
       252   03 Jun 2027 11:07:28.179   03 Jun 2027 11:07:39.728            11.549                  Delhi           360.906
       253   03 Jun 2027 11:15:01.567   03 Jun 2027 11:15:22.066            20.499                  Delhi           640.594
       254   03 Jun 2027 11:22:23.752   03 Jun 2027 11:22:32.257             8.505                Novosib           265.781
       255   03 Jun 2027 11:22:56.879   03 Jun 2027 11:23:10.358            13.479                Norilsk           421.219
       256   03 Jun 2027 11:23:32.344   03 Jun 2027 11:23:42.517            10.173                Novosib           317.906
       257   03 Jun 2027 11:23:52.206   03 Jun 2027 11:23:58.609             6.403                Novosib           200.094
       258   03 Jun 2027 11:24:04.304   03 Jun 2027 11:24:08.203             3.899                Norilsk           121.844
       259   03 Jun 2027 12:45:26.265   03 Jun 2027 12:49:42.017           255.752                  Delhi          7992.250
       260   03 Jun 2027 12:55:48.732   03 Jun 2027 12:57:04.313            75.581              Murmansk2          2361.906
       261   03 Jun 2027 13:00:08.763   03 Jun 2027 13:00:44.094            35.331                Norilsk          1104.094
       262   03 Jun 2027 14:07:17.901   03 Jun 2027 14:09:28.025           130.124               CapeTown          4066.375
       263   03 Jun 2027 14:27:28.517   03 Jun 2027 14:27:38.565            10.048                 Moscow           314.000
       264   03 Jun 2027 14:27:48.512   03 Jun 2027 14:28:01.532            13.020                 Moscow           406.875
       265   03 Jun 2027 14:28:23.850   03 Jun 2027 14:28:51.746            27.896                 Moscow           871.750
       266   03 Jun 2027 14:30:54.581   03 Jun 2027 14:33:43.218           168.637              Murmansk1          5269.906
       267   03 Jun 2027 14:34:36.115   03 Jun 2027 14:34:47.736            11.621              Murmansk2           363.156
       268   03 Jun 2027 14:45:53.975   03 Jun 2027 14:47:39.580           105.605                Anadyr1          3300.156
       269   03 Jun 2027 14:48:50.954   03 Jun 2027 14:50:10.374            79.420                Anadyr2          2481.875
       270   03 Jun 2027 14:51:25.806   03 Jun 2027 14:52:10.377            44.571                Anadyr2          1392.844
       271   03 Jun 2027 16:08:31.386   03 Jun 2027 16:08:58.705            27.319                 Moscow           853.719
       272   03 Jun 2027 16:09:26.172   03 Jun 2027 16:10:27.475            61.303              Murmansk1          1915.719
       273   03 Jun 2027 16:13:22.680   03 Jun 2027 16:13:42.780            20.100              Murmansk2           628.125
       274   03 Jun 2027 16:13:46.668   03 Jun 2027 16:14:45.669            59.001              Murmansk2          1843.781
       275   03 Jun 2027 16:21:04.774   03 Jun 2027 16:22:56.467           111.693                Anadyr2          3490.406
       276   03 Jun 2027 16:25:59.736   03 Jun 2027 16:28:21.196           141.460               Magadan2          4420.625
       277   03 Jun 2027 17:52:22.583   03 Jun 2027 17:52:43.493            20.910              Murmansk1           653.438
       278   03 Jun 2027 17:56:56.351   03 Jun 2027 17:59:18.156           141.805                Anadyr1          4431.406
       279   03 Jun 2027 17:59:25.316   03 Jun 2027 18:00:50.918            85.602                Anadyr2          2675.062
       280   03 Jun 2027 18:00:56.864   03 Jun 2027 18:01:58.110            61.246               Magadan1          1913.937
       281   03 Jun 2027 18:04:05.691   03 Jun 2027 18:04:38.200            32.509               Magadan1          1015.906
       282   03 Jun 2027 18:04:54.831   03 Jun 2027 18:05:22.180            27.349               Magadan1           854.656
       283   03 Jun 2027 19:32:50.686   03 Jun 2027 19:34:50.127           119.441                Anadyr1          3732.531
       284   03 Jun 2027 19:34:56.174   03 Jun 2027 19:36:41.787           105.613                Anadyr2          3300.406
       285   03 Jun 2027 19:36:44.796   03 Jun 2027 19:38:47.695           122.899               Magadan2          3840.594
       286   03 Jun 2027 19:38:47.695   03 Jun 2027 19:39:25.683            37.988               Magadan1          1187.125
       287   03 Jun 2027 19:44:56.674   03 Jun 2027 19:45:25.240            28.566               Magadan2           892.688
       288   03 Jun 2027 20:27:16.636   03 Jun 2027 20:30:33.231           196.595            RioGallegos          6143.594
       289   03 Jun 2027 20:37:56.432   03 Jun 2027 20:38:04.347             7.915            RioGallegos           247.344
       290   03 Jun 2027 21:10:30.326   03 Jun 2027 21:10:38.709             8.383                Anadyr2           261.969
       291   03 Jun 2027 21:10:41.810   03 Jun 2027 21:14:35.426           233.616                Norilsk          7300.500
       292   03 Jun 2027 21:14:51.599   03 Jun 2027 21:16:07.129            75.530                Irkutsk          2360.312
       293   03 Jun 2027 21:16:43.652   03 Jun 2027 21:17:09.108            25.456                Novosib           795.500
       294   03 Jun 2027 21:18:23.050   03 Jun 2027 21:19:06.776            43.726                Novosib          1366.438
       295   03 Jun 2027 21:20:06.987   03 Jun 2027 21:21:03.266            56.279                Novosib          1758.719
       296   03 Jun 2027 21:28:35.812   03 Jun 2027 21:29:32.235            56.423                Sumatra          1763.219
       297   03 Jun 2027 21:32:12.641   03 Jun 2027 21:32:17.414             4.773                Sumatra           149.156
       298   03 Jun 2027 22:46:22.415   03 Jun 2027 22:46:49.624            27.209                Anadyr1           850.281
       299   03 Jun 2027 22:47:16.657   03 Jun 2027 22:48:48.330            91.673               Magadan2          2864.781
       300   03 Jun 2027 22:48:59.600   03 Jun 2027 22:49:16.482            16.882               Magadan2           527.562
       301   03 Jun 2027 22:49:57.380   03 Jun 2027 22:50:43.115            45.735               Magadan2          1429.219
       302   03 Jun 2027 22:50:56.393   03 Jun 2027 22:51:27.395            31.002                Irkutsk           968.813
       303   03 Jun 2027 22:51:32.656   03 Jun 2027 22:52:24.863            52.207                Novosib          1631.469
       304   03 Jun 2027 22:53:05.700   03 Jun 2027 22:53:47.956            42.256                Novosib          1320.500
       305   03 Jun 2027 22:56:03.573   03 Jun 2027 22:56:36.949            33.376                Novosib          1043.000
       306   03 Jun 2027 22:58:23.441   03 Jun 2027 22:59:18.845            55.404                  Delhi          1731.375
       307   03 Jun 2027 23:00:09.347   03 Jun 2027 23:01:46.465            97.118                  Delhi          3034.938
       308   04 Jun 2027 00:16:40.297   04 Jun 2027 00:17:22.335            42.038                Anadyr2          1313.687
       309   04 Jun 2027 00:21:09.779   04 Jun 2027 00:21:20.455            10.676                Anadyr1           333.625
       310   04 Jun 2027 00:21:46.524   04 Jun 2027 00:22:14.325            27.801                Anadyr1           868.781
       311   04 Jun 2027 00:22:37.568   04 Jun 2027 00:22:41.478             3.910                Anadyr2           122.188
       312   04 Jun 2027 00:22:43.259   04 Jun 2027 00:24:30.034           106.775               Magadan1          3336.719
       313   04 Jun 2027 00:24:30.034   04 Jun 2027 00:25:39.448            69.414               Magadan2          2169.188
       314   04 Jun 2027 00:26:07.739   04 Jun 2027 00:27:13.248            65.509              Murmansk2          2047.156
       315   04 Jun 2027 00:29:07.594   04 Jun 2027 00:29:16.221             8.627              Murmansk1           269.594
       316   04 Jun 2027 00:29:21.058   04 Jun 2027 00:29:51.223            30.165              Murmansk1           942.656
       317   04 Jun 2027 00:30:18.036   04 Jun 2027 00:30:37.097            19.061                 Moscow           595.656
       318   04 Jun 2027 00:31:07.814   04 Jun 2027 00:32:29.766            81.952                 Moscow          2561.000
       319   04 Jun 2027 00:34:48.999   04 Jun 2027 00:36:19.232            90.233                 Moscow          2819.781
       320   04 Jun 2027 01:50:05.876   04 Jun 2027 01:50:42.122            36.246                Anadyr1          1132.688
       321   04 Jun 2027 01:51:10.852   04 Jun 2027 01:51:47.609            36.757                Anadyr2          1148.656
       322   04 Jun 2027 01:52:32.866   04 Jun 2027 01:52:48.497            15.631                Anadyr2           488.469
       323   04 Jun 2027 01:53:11.658   04 Jun 2027 01:53:16.087             4.429                Anadyr1           138.406
       324   04 Jun 2027 01:53:17.635   04 Jun 2027 01:53:23.988             6.353                Anadyr2           198.531
       325   04 Jun 2027 01:53:41.677   04 Jun 2027 01:54:12.855            31.178                Anadyr2           974.312
       326   04 Jun 2027 01:55:07.844   04 Jun 2027 01:56:24.903            77.059               Magadan1          2408.094
       327   04 Jun 2027 02:00:31.923   04 Jun 2027 02:00:51.503            19.580                Norilsk           611.875
       328   04 Jun 2027 02:01:08.190   04 Jun 2027 02:01:24.478            16.288              Murmansk1           509.000
       329   04 Jun 2027 02:02:08.175   04 Jun 2027 02:02:44.550            36.375              Murmansk1          1136.719
       330   04 Jun 2027 02:03:12.223   04 Jun 2027 02:03:24.172            11.949                Novosib           373.406
       331   04 Jun 2027 02:04:06.985   04 Jun 2027 02:05:30.302            83.317                 Moscow          2603.656
       332   04 Jun 2027 02:09:43.128   04 Jun 2027 02:10:00.780            17.652                 Moscow           551.625
       333   04 Jun 2027 02:12:10.022   04 Jun 2027 02:12:27.720            17.698                 Moscow           553.063
       334   04 Jun 2027 02:28:23.862   04 Jun 2027 02:28:57.775            33.913               CapeTown          1059.781
       335   04 Jun 2027 02:30:51.676   04 Jun 2027 02:30:54.066             2.390               CapeTown            74.687
       336   04 Jun 2027 02:31:23.160   04 Jun 2027 02:31:30.821             7.661               CapeTown           239.406
       337   04 Jun 2027 02:33:05.886   04 Jun 2027 02:34:46.940           101.054               CapeTown          3157.938
       338   04 Jun 2027 03:31:25.789   04 Jun 2027 03:31:58.731            32.942               Magadan1          1029.437
       339   04 Jun 2027 03:32:04.159   04 Jun 2027 03:32:40.594            36.435                Anadyr1          1138.594
       340   04 Jun 2027 03:32:40.594   04 Jun 2027 03:32:59.490            18.896                Anadyr2           590.500
       341   04 Jun 2027 03:33:10.092   04 Jun 2027 03:33:16.561             6.469                Anadyr2           202.156
       342   04 Jun 2027 03:33:51.682   04 Jun 2027 03:34:12.826            21.144               Magadan2           660.750
       343   04 Jun 2027 05:07:42.395   04 Jun 2027 05:07:56.536            14.141                Anadyr1           441.906
       344   04 Jun 2027 05:08:10.219   04 Jun 2027 05:13:19.123           308.904                Anadyr2          9653.250
       345   04 Jun 2027 05:13:19.123   04 Jun 2027 05:13:26.432             7.309                Anadyr1           228.406
       346   04 Jun 2027 06:42:40.817   04 Jun 2027 06:42:45.622             4.805                Anadyr1           150.156
       347   04 Jun 2027 06:43:15.690   04 Jun 2027 06:43:51.346            35.656                Anadyr2          1114.250
       348   04 Jun 2027 06:43:57.943   04 Jun 2027 06:45:02.736            64.793                Anadyr2          2024.781
       349   04 Jun 2027 06:45:15.205   04 Jun 2027 06:45:31.614            16.409               Magadan2           512.781
       350   04 Jun 2027 06:45:57.955   04 Jun 2027 06:46:41.961            44.006                Anadyr2          1375.187
       351   04 Jun 2027 06:46:59.106   04 Jun 2027 06:47:01.294             2.188               Magadan1            68.375
       352   04 Jun 2027 06:47:18.271   04 Jun 2027 06:47:20.910             2.639               Magadan2            82.469
       353   04 Jun 2027 06:47:32.735   04 Jun 2027 06:47:53.595            20.860                Anadyr2           651.875
       354   04 Jun 2027 06:48:24.549   04 Jun 2027 06:48:49.660            25.111                Anadyr1           784.719
       355   04 Jun 2027 08:18:15.460   04 Jun 2027 08:19:27.516            72.056               Magadan1          2251.750
       356   04 Jun 2027 08:20:41.116   04 Jun 2027 08:20:45.630             4.514               Magadan1           141.062
       357   04 Jun 2027 08:21:35.313   04 Jun 2027 08:22:07.940            32.627               Magadan2          1019.594
       358   04 Jun 2027 08:22:28.542   04 Jun 2027 08:23:10.794            42.252                Irkutsk          1320.375
       359   04 Jun 2027 08:23:28.743   04 Jun 2027 08:24:01.299            32.556               Magadan2          1017.375
       360   04 Jun 2027 08:26:49.862   04 Jun 2027 08:27:11.719            21.857                Norilsk           683.031
       361   04 Jun 2027 08:59:31.507   04 Jun 2027 09:00:44.414            72.907            RioGallegos          2278.344
       362   04 Jun 2027 09:34:31.056   04 Jun 2027 09:35:24.770            53.714                Sumatra          1678.562
       363   04 Jun 2027 09:38:06.012   04 Jun 2027 09:38:06.609             0.597                Sumatra            18.656
       364   04 Jun 2027 09:57:26.565   04 Jun 2027 09:57:28.425             1.860                Novosib            58.125
       365   04 Jun 2027 09:57:48.370   04 Jun 2027 09:58:25.645            37.275                Novosib          1164.844
       366   04 Jun 2027 09:58:46.573   04 Jun 2027 09:58:59.534            12.961                Irkutsk           405.031
       367   04 Jun 2027 09:59:09.592   04 Jun 2027 10:00:14.779            65.187                Novosib          2037.094
       368   04 Jun 2027 10:00:37.835   04 Jun 2027 10:00:59.624            21.789                Novosib           680.906
       369   04 Jun 2027 10:38:22.777   04 Jun 2027 10:38:25.468             2.691            RioGallegos            84.094
       370   04 Jun 2027 10:39:00.910   04 Jun 2027 10:39:30.770            29.860            RioGallegos           933.125
       371   04 Jun 2027 10:40:52.133   04 Jun 2027 10:41:43.994            51.861            RioGallegos          1620.656
       372   04 Jun 2027 11:15:09.453   04 Jun 2027 11:16:58.982           109.529                Sumatra          3422.781
       373   04 Jun 2027 11:32:48.599   04 Jun 2027 11:33:11.552            22.953                Novosib           717.281
       374   04 Jun 2027 11:33:46.015   04 Jun 2027 11:34:23.151            37.136                Novosib          1160.500
       375   04 Jun 2027 11:34:37.771   04 Jun 2027 11:35:39.602            61.831                Novosib          1932.219
       376   04 Jun 2027 11:35:46.264   04 Jun 2027 11:35:51.066             4.802                Novosib           150.063
       377   04 Jun 2027 11:36:13.756   04 Jun 2027 11:36:13.855             0.099                Novosib             3.094
       378   04 Jun 2027 11:36:22.139   04 Jun 2027 11:36:46.957            24.818                Norilsk           775.562
       379   04 Jun 2027 12:59:02.321   04 Jun 2027 13:01:19.091           136.770                  Delhi          4274.062
       380   04 Jun 2027 13:01:47.088   04 Jun 2027 13:01:59.828            12.740                  Delhi           398.125
       381   04 Jun 2027 13:06:25.260   04 Jun 2027 13:07:36.017            70.757              Murmansk2          2211.156
       382   04 Jun 2027 13:07:57.071   04 Jun 2027 13:08:58.631            61.560              Murmansk2          1923.750
       383   04 Jun 2027 13:10:05.159   04 Jun 2027 13:11:16.559            71.400                Norilsk          2231.250
       384   04 Jun 2027 14:18:26.345   04 Jun 2027 14:21:07.507           161.162               CapeTown          5036.312
       385   04 Jun 2027 14:24:06.905   04 Jun 2027 14:24:32.700            25.795               CapeTown           806.094
       386   04 Jun 2027 14:26:00.046   04 Jun 2027 14:26:01.846             1.800               CapeTown            56.250
       387   04 Jun 2027 14:40:20.488   04 Jun 2027 14:40:56.734            36.246                 Moscow          1132.688
       388   04 Jun 2027 14:43:08.074   04 Jun 2027 14:43:51.652            43.578              Murmansk1          1361.812
       389   04 Jun 2027 14:43:55.124   04 Jun 2027 14:45:44.933           109.809              Murmansk2          3431.531
       390   04 Jun 2027 14:57:43.465   04 Jun 2027 14:58:22.329            38.864                Anadyr2          1214.500
       391   04 Jun 2027 14:59:25.779   04 Jun 2027 15:00:14.302            48.523                Anadyr2          1516.344
       392   04 Jun 2027 15:01:47.969   04 Jun 2027 15:02:08.489            20.520                Anadyr2           641.250
       393   04 Jun 2027 15:03:08.286   04 Jun 2027 15:03:41.065            32.779                Anadyr1          1024.344
       394   04 Jun 2027 15:55:17.826   04 Jun 2027 15:55:38.830            21.004               CapeTown           656.375
       395   04 Jun 2027 15:57:00.179   04 Jun 2027 15:58:13.745            73.566               CapeTown          2298.937
       396   04 Jun 2027 16:21:58.148   04 Jun 2027 16:23:17.689            79.541              Murmansk2          2485.656
       397   04 Jun 2027 16:25:44.710   04 Jun 2027 16:26:21.852            37.142              Murmansk1          1160.687
       398   04 Jun 2027 16:33:04.718   04 Jun 2027 16:35:11.633           126.915                Anadyr2          3966.094
       399   04 Jun 2027 16:37:09.341   04 Jun 2027 16:37:54.607            45.266               Magadan2          1414.562
       400   04 Jun 2027 16:38:43.902   04 Jun 2027 16:40:05.741            81.839               Magadan2          2557.469
       401   04 Jun 2027 16:40:15.328   04 Jun 2027 16:40:48.847            33.519               Magadan1          1047.469
       402   04 Jun 2027 16:40:58.614   04 Jun 2027 16:41:56.103            57.489               Magadan1          1796.531
       403   04 Jun 2027 18:08:57.835   04 Jun 2027 18:11:18.676           140.841                Anadyr2          4401.281
       404   04 Jun 2027 18:11:24.257   04 Jun 2027 18:13:32.726           128.469               Magadan2          4014.656
       405   04 Jun 2027 18:13:32.726   04 Jun 2027 18:15:10.101            97.375               Magadan1          3042.969
       406   04 Jun 2027 19:44:51.114   04 Jun 2027 19:46:51.503           120.389                Anadyr2          3762.156
       407   04 Jun 2027 19:46:52.645   04 Jun 2027 19:48:31.802            99.157                Anadyr1          3098.656
       408   04 Jun 2027 19:48:39.612   04 Jun 2027 19:50:35.102           115.490               Magadan2          3609.062
       409   04 Jun 2027 19:53:06.131   04 Jun 2027 19:53:32.560            26.429               Magadan2           825.906
       410   04 Jun 2027 19:53:35.065   04 Jun 2027 19:55:49.319           134.254                Irkutsk          4195.437
       411   04 Jun 2027 19:57:16.348   04 Jun 2027 19:57:50.318            33.970                Irkutsk          1061.563
       412   04 Jun 2027 20:39:07.059   04 Jun 2027 20:39:37.599            30.540            RioGallegos           954.375
       413   04 Jun 2027 20:40:07.737   04 Jun 2027 20:40:25.344            17.607            RioGallegos           550.219
       414   04 Jun 2027 20:40:35.800   04 Jun 2027 20:41:02.608            26.808            RioGallegos           837.750
       415   04 Jun 2027 21:20:35.863   04 Jun 2027 21:20:40.692             4.829                Anadyr2           150.906
       416   04 Jun 2027 21:20:49.038   04 Jun 2027 21:22:37.640           108.602                Anadyr2          3393.813
       417   04 Jun 2027 21:23:13.972   04 Jun 2027 21:24:01.511            47.539               Magadan2          1485.594
       418   04 Jun 2027 21:24:27.496   04 Jun 2027 21:24:48.713            21.217               Magadan1           663.031
       419   04 Jun 2027 21:25:04.342   04 Jun 2027 21:25:41.330            36.988               Magadan1          1155.875
       420   04 Jun 2027 21:28:09.323   04 Jun 2027 21:31:07.618           178.295                Novosib          5571.719
       421   04 Jun 2027 21:33:22.957   04 Jun 2027 21:34:47.303            84.346                Novosib          2635.813
       422   04 Jun 2027 22:54:55.177   04 Jun 2027 22:55:42.709            47.532                Anadyr1          1485.375
       423   04 Jun 2027 22:58:40.926   04 Jun 2027 22:58:58.036            17.110                Norilsk           534.688
       424   04 Jun 2027 22:58:59.693   04 Jun 2027 23:00:36.126            96.433                Norilsk          3013.531
       425   04 Jun 2027 23:02:34.409   04 Jun 2027 23:03:17.939            43.530                Irkutsk          1360.313
       426   04 Jun 2027 23:03:28.971   04 Jun 2027 23:05:01.532            92.561                Novosib          2892.531
       427   04 Jun 2027 23:06:57.325   04 Jun 2027 23:07:53.285            55.960                Novosib          1748.750
       428   04 Jun 2027 23:10:09.905   04 Jun 2027 23:11:16.112            66.207                  Delhi          2068.969
       429   04 Jun 2027 23:12:33.534   04 Jun 2027 23:13:45.173            71.639                  Delhi          2238.719
       430   05 Jun 2027 00:28:21.309   05 Jun 2027 00:28:39.305            17.996                Anadyr1           562.375
       431   05 Jun 2027 00:29:23.399   05 Jun 2027 00:30:27.774            64.375                Anadyr2          2011.719
       432   05 Jun 2027 00:33:59.843   05 Jun 2027 00:34:12.155            12.312                Anadyr2           384.750
       433   05 Jun 2027 00:34:30.048   05 Jun 2027 00:37:07.263           157.215               Magadan2          4912.969
       434   05 Jun 2027 00:37:10.090   05 Jun 2027 00:39:14.629           124.539              Murmansk2          3891.844
       435   05 Jun 2027 00:41:21.373   05 Jun 2027 00:42:51.152            89.779                 Moscow          2805.594
       436   05 Jun 2027 00:45:22.028   05 Jun 2027 00:45:49.190            27.162                 Moscow           848.813
       437   05 Jun 2027 01:10:28.304   05 Jun 2027 01:12:02.997            94.693               CapeTown          2959.156
       438   05 Jun 2027 02:01:52.191   05 Jun 2027 02:02:08.308            16.117                Anadyr2           503.656
       439   05 Jun 2027 02:02:21.206   05 Jun 2027 02:02:34.192            12.986                Anadyr1           405.813
       440   05 Jun 2027 02:02:55.895   05 Jun 2027 02:03:36.619            40.724                Anadyr2          1272.625
       441   05 Jun 2027 02:04:31.889   05 Jun 2027 02:04:58.514            26.625                Anadyr1           832.031
       442   05 Jun 2027 02:06:35.744   05 Jun 2027 02:07:55.325            79.581               Magadan2          2486.906
       443   05 Jun 2027 02:08:01.169   05 Jun 2027 02:08:32.123            30.954               Magadan2           967.313
       444   05 Jun 2027 02:12:47.438   05 Jun 2027 02:14:20.803            93.365              Murmansk1          2917.656
       445   05 Jun 2027 02:14:57.001   05 Jun 2027 02:15:31.934            34.933                Novosib          1091.656
       446   05 Jun 2027 02:16:05.383   05 Jun 2027 02:17:36.539            91.156                 Moscow          2848.625
       447   05 Jun 2027 02:42:00.664   05 Jun 2027 02:43:01.027            60.363               CapeTown          1886.344
       448   05 Jun 2027 03:43:25.849   05 Jun 2027 03:46:04.142           158.293               Magadan2          4946.656
       449   05 Jun 2027 03:46:04.142   05 Jun 2027 03:46:36.726            32.584               Magadan1          1018.250
       450   05 Jun 2027 03:47:10.304   05 Jun 2027 03:47:18.807             8.503               Magadan1           265.719
       451   05 Jun 2027 03:47:51.918   05 Jun 2027 03:49:34.513           102.595                Anadyr1          3206.094
       452   05 Jun 2027 03:57:55.351   05 Jun 2027 03:59:07.389            72.038              Murmansk1          2251.187
       453   05 Jun 2027 05:19:55.471   05 Jun 2027 05:21:10.323            74.852               Magadan2          2339.125
       454   05 Jun 2027 05:21:16.629   05 Jun 2027 05:23:12.491           115.862                Anadyr1          3620.688
       455   05 Jun 2027 05:23:12.491   05 Jun 2027 05:23:17.136             4.645                Anadyr2           145.156
       456   05 Jun 2027 05:23:20.963   05 Jun 2027 05:23:29.200             8.237               Magadan2           257.406
       457   05 Jun 2027 05:23:42.893   05 Jun 2027 05:25:08.787            85.894                Anadyr1          2684.187
       458   05 Jun 2027 06:54:10.426   05 Jun 2027 06:54:23.896            13.470               Magadan1           420.937
       459   05 Jun 2027 06:54:47.503   05 Jun 2027 06:55:51.909            64.406                Anadyr1          2012.687
       460   05 Jun 2027 06:55:56.945   05 Jun 2027 06:57:15.602            78.657               Magadan2          2458.031
       461   05 Jun 2027 06:57:15.602   05 Jun 2027 06:57:34.764            19.162               Magadan1           598.813
       462   05 Jun 2027 06:57:38.873   05 Jun 2027 06:58:53.830            74.957                Anadyr2          2342.406
       463   05 Jun 2027 06:59:20.210   05 Jun 2027 06:59:24.249             4.039               Magadan1           126.219
       464   05 Jun 2027 06:59:24.249   05 Jun 2027 06:59:48.881            24.632               Magadan2           769.750
       465   05 Jun 2027 06:59:55.493   05 Jun 2027 07:00:27.958            32.465                Anadyr1          1014.531
       466   05 Jun 2027 08:30:18.193   05 Jun 2027 08:31:27.156            68.963               Magadan2          2155.094
       467   05 Jun 2027 08:31:33.079   05 Jun 2027 08:32:25.352            52.273               Magadan1          1633.531
       468   05 Jun 2027 08:32:32.722   05 Jun 2027 08:33:06.291            33.569               Magadan1          1049.031
       469   05 Jun 2027 08:33:47.815   05 Jun 2027 08:33:59.268            11.453                Irkutsk           357.906
       470   05 Jun 2027 08:34:16.822   05 Jun 2027 08:35:04.103            47.281               Magadan2          1477.531
       471   05 Jun 2027 08:35:10.852   05 Jun 2027 08:35:52.454            41.602                Irkutsk          1300.062
       472   05 Jun 2027 08:36:34.942   05 Jun 2027 08:36:45.870            10.928                Irkutsk           341.500
       473   05 Jun 2027 09:11:39.169   05 Jun 2027 09:12:36.860            57.691            RioGallegos          1802.844
       474   05 Jun 2027 09:13:32.470   05 Jun 2027 09:13:32.971             0.501            RioGallegos            15.656
       475   05 Jun 2027 09:16:44.682   05 Jun 2027 09:17:06.255            21.573            RioGallegos           674.156
       476   05 Jun 2027 09:46:25.905   05 Jun 2027 09:47:37.740            71.835                Sumatra          2244.844
       477   05 Jun 2027 10:08:41.731   05 Jun 2027 10:09:38.213            56.482                Novosib          1765.063
       478   05 Jun 2027 10:09:56.068   05 Jun 2027 10:10:01.310             5.242                Novosib           163.813
       479   05 Jun 2027 10:10:21.202   05 Jun 2027 10:10:30.884             9.682                Irkutsk           302.562
       480   05 Jun 2027 10:10:36.585   05 Jun 2027 10:10:39.205             2.620                Norilsk            81.875
       481   05 Jun 2027 10:10:46.582   05 Jun 2027 10:11:04.970            18.388                Norilsk           574.625
       482   05 Jun 2027 10:11:06.194   05 Jun 2027 10:12:01.244            55.050                Novosib          1720.313
