uniorb/output/strategy_4/Drop/Drop_KinoSat_110701.txt

KinoSat_110701
-------------------------
    Access    *     Start Time (UTCG)     *     Stop Time (UTCG)  *   Duration (s)        *       Station  *  Data (Mbytes)
         1   01 Jun 2027 04:20:03.572   01 Jun 2027 04:20:18.386            14.814               Magadan1           462.938
         2   01 Jun 2027 04:20:18.386   01 Jun 2027 04:22:04.633           106.247               Magadan2          3320.219
         3   01 Jun 2027 04:22:07.181   01 Jun 2027 04:22:43.954            36.773                Anadyr2          1149.156
         4   01 Jun 2027 05:55:34.015   01 Jun 2027 05:56:03.864            29.849                Irkutsk           932.781
         5   01 Jun 2027 05:56:19.525   01 Jun 2027 05:57:38.171            78.646               Magadan2          2457.687
         6   01 Jun 2027 05:57:44.242   01 Jun 2027 05:58:55.576            71.334               Magadan1          2229.188
         7   01 Jun 2027 05:59:07.032   01 Jun 2027 05:59:57.335            50.303                Norilsk          1571.969
         8   01 Jun 2027 05:59:57.933   01 Jun 2027 06:00:38.983            41.050              Murmansk1          1282.812
         9   01 Jun 2027 06:00:38.983   01 Jun 2027 06:01:02.462            23.479              Murmansk2           733.719
        10   01 Jun 2027 06:34:53.326   01 Jun 2027 06:37:09.118           135.792            RioGallegos          4243.500
        11   01 Jun 2027 07:10:33.558   01 Jun 2027 07:11:53.274            79.716                Sumatra          2491.125
        12   01 Jun 2027 07:12:12.686   01 Jun 2027 07:14:06.225           113.539                Sumatra          3548.094
        13   01 Jun 2027 07:32:35.499   01 Jun 2027 07:33:39.679            64.180                Norilsk          2005.625
        14   01 Jun 2027 07:33:45.466   01 Jun 2027 07:36:09.878           144.412                Irkutsk          4512.875
        15   01 Jun 2027 07:36:23.456   01 Jun 2027 07:36:44.941            21.485              Murmansk1           671.406
        16   01 Jun 2027 07:36:50.932   01 Jun 2027 07:37:39.747            48.815                Novosib          1525.469
        17   01 Jun 2027 08:46:30.935   01 Jun 2027 08:47:04.541            33.606                Sumatra          1050.188
        18   01 Jun 2027 08:49:10.466   01 Jun 2027 08:50:09.771            59.305                Sumatra          1853.281
        19   01 Jun 2027 08:54:11.871   01 Jun 2027 08:57:53.092           221.221                  Delhi          6913.156
        20   01 Jun 2027 09:10:09.623   01 Jun 2027 09:10:42.997            33.374                 Moscow          1042.938
        21   01 Jun 2027 09:10:48.560   01 Jun 2027 09:11:08.315            19.755              Murmansk2           617.344
        22   01 Jun 2027 09:11:08.554   01 Jun 2027 09:11:40.721            32.167                Norilsk          1005.219
        23   01 Jun 2027 09:11:44.515   01 Jun 2027 09:12:07.300            22.785                Novosib           712.031
        24   01 Jun 2027 09:12:30.644   01 Jun 2027 09:13:26.952            56.308                Norilsk          1759.625
        25   01 Jun 2027 10:31:37.671   01 Jun 2027 10:33:25.233           107.562                  Delhi          3361.313
        26   01 Jun 2027 10:34:24.791   01 Jun 2027 10:35:47.066            82.275                  Delhi          2571.094
        27   01 Jun 2027 10:46:03.869   01 Jun 2027 10:47:09.417            65.548                Norilsk          2048.375
        28   01 Jun 2027 10:47:17.666   01 Jun 2027 10:48:28.544            70.878              Murmansk2          2214.937
        29   01 Jun 2027 10:48:54.193   01 Jun 2027 10:49:32.542            38.349                Norilsk          1198.406
        30   01 Jun 2027 10:51:37.702   01 Jun 2027 10:52:04.816            27.114                Norilsk           847.312
        31   01 Jun 2027 12:14:35.764   01 Jun 2027 12:15:40.778            65.014                 Moscow          2031.687
        32   01 Jun 2027 12:16:47.281   01 Jun 2027 12:17:32.244            44.963                 Moscow          1405.094
        33   01 Jun 2027 12:18:06.007   01 Jun 2027 12:23:07.127           301.120              Murmansk2          9410.000
        34   01 Jun 2027 12:23:50.018   01 Jun 2027 12:24:41.763            51.745              Murmansk2          1617.031
        35   01 Jun 2027 12:26:08.636   01 Jun 2027 12:26:31.452            22.816                Norilsk           713.000
        36   01 Jun 2027 12:33:43.389   01 Jun 2027 12:37:17.883           214.494                Anadyr2          6702.938
        37   01 Jun 2027 12:38:16.039   01 Jun 2027 12:39:34.434            78.395                Anadyr1          2449.844
        38   01 Jun 2027 13:27:55.242   01 Jun 2027 13:29:35.842           100.600               CapeTown          3143.750
        39   01 Jun 2027 13:56:14.676   01 Jun 2027 13:58:14.928           120.252              Murmansk1          3757.875
        40   01 Jun 2027 14:08:32.354   01 Jun 2027 14:11:50.674           198.320                Anadyr1          6197.500
        41   01 Jun 2027 14:12:03.268   01 Jun 2027 14:12:44.853            41.585                Anadyr1          1299.531
        42   01 Jun 2027 15:08:47.948   01 Jun 2027 15:09:27.108            39.160               CapeTown          1223.750
        43   01 Jun 2027 15:37:28.652   01 Jun 2027 15:37:58.732            30.080              Murmansk1           940.000
        44   01 Jun 2027 15:37:58.732   01 Jun 2027 15:39:35.898            97.166              Murmansk2          3036.438
        45   01 Jun 2027 15:44:20.795   01 Jun 2027 15:46:31.640           130.845                Anadyr1          4088.906
        46   01 Jun 2027 15:46:59.760   01 Jun 2027 15:51:02.583           242.823               Magadan2          7588.219
        47   01 Jun 2027 15:56:12.497   01 Jun 2027 15:57:57.213           104.716               Magadan1          3272.375
        48   01 Jun 2027 17:20:15.761   01 Jun 2027 17:21:36.298            80.537                Anadyr2          2516.781
        49   01 Jun 2027 17:22:32.755   01 Jun 2027 17:24:28.083           115.328               Magadan1          3604.000
        50   01 Jun 2027 17:25:37.226   01 Jun 2027 17:25:37.914             0.688                Norilsk            21.500
        51   01 Jun 2027 17:28:18.520   01 Jun 2027 17:28:21.952             3.432               Magadan2           107.250
        52   01 Jun 2027 17:34:44.410   01 Jun 2027 17:35:05.921            21.511               Magadan2           672.219
        53   01 Jun 2027 18:15:01.489   01 Jun 2027 18:21:20.278           378.789            RioGallegos         11837.156
        54   01 Jun 2027 18:58:08.522   01 Jun 2027 19:01:36.961           208.439                Norilsk          6513.719
        55   01 Jun 2027 19:02:27.650   01 Jun 2027 19:03:22.284            54.634                Irkutsk          1707.313
        56   01 Jun 2027 19:04:19.209   01 Jun 2027 19:05:35.269            76.060                Irkutsk          2376.875
        57   01 Jun 2027 19:12:45.191   01 Jun 2027 19:13:41.002            55.811                Irkutsk          1744.094
        58   01 Jun 2027 19:16:22.619   01 Jun 2027 19:17:47.985            85.366                Sumatra          2667.687
        59   01 Jun 2027 19:20:05.085   01 Jun 2027 19:22:39.761           154.676                Sumatra          4833.625
        60   01 Jun 2027 20:44:40.555   01 Jun 2027 20:45:11.844            31.289                Novosib           977.781
        61   01 Jun 2027 20:45:39.024   01 Jun 2027 20:46:18.392            39.368                Novosib          1230.250
        62   01 Jun 2027 20:46:49.318   01 Jun 2027 20:49:08.868           139.550                  Delhi          4360.937
        63   01 Jun 2027 20:52:26.963   01 Jun 2027 20:53:04.946            37.983                  Delhi          1186.969
        64   01 Jun 2027 22:10:49.797   01 Jun 2027 22:11:11.884            22.087                Norilsk           690.219
        65   01 Jun 2027 22:12:31.220   01 Jun 2027 22:19:00.032           388.812              Murmansk1         12150.375
        66   01 Jun 2027 22:19:15.156   01 Jun 2027 22:22:27.408           192.252                 Moscow          6007.875
        67   01 Jun 2027 23:48:10.620   01 Jun 2027 23:48:24.422            13.802              Murmansk1           431.312
        68   01 Jun 2027 23:49:26.074   01 Jun 2027 23:51:36.928           130.854              Murmansk2          4089.188
        69   01 Jun 2027 23:52:32.390   01 Jun 2027 23:53:47.214            74.824                 Moscow          2338.250
        70   01 Jun 2027 23:59:52.737   02 Jun 2027 00:00:06.586            13.849                 Moscow           432.781
        71   02 Jun 2027 00:16:16.870   02 Jun 2027 00:19:42.516           205.646               CapeTown          6426.437
        72   02 Jun 2027 01:20:01.354   02 Jun 2027 01:20:10.263             8.909               Magadan1           278.406
        73   02 Jun 2027 01:22:38.975   02 Jun 2027 01:23:12.843            33.868               Magadan1          1058.375
        74   02 Jun 2027 01:24:08.324   02 Jun 2027 01:26:28.580           140.256              Murmansk1          4383.000
        75   02 Jun 2027 01:27:21.234   02 Jun 2027 01:28:20.771            59.537                 Moscow          1860.531
        76   02 Jun 2027 01:51:39.077   02 Jun 2027 01:52:41.319            62.242               CapeTown          1945.062
        77   02 Jun 2027 01:58:44.096   02 Jun 2027 01:58:46.823             2.727               CapeTown            85.219
        78   02 Jun 2027 01:59:49.474   02 Jun 2027 02:01:05.579            76.105               CapeTown          2378.281
        79   02 Jun 2027 02:48:14.278   02 Jun 2027 02:50:56.059           161.781               Magadan1          5055.656
        80   02 Jun 2027 02:56:43.871   02 Jun 2027 02:56:56.666            12.795                Norilsk           399.844
        81   02 Jun 2027 02:58:12.511   02 Jun 2027 02:58:21.790             9.279                Norilsk           289.969
        82   02 Jun 2027 02:58:57.600   02 Jun 2027 02:59:04.553             6.953                Norilsk           217.281
        83   02 Jun 2027 03:00:01.799   02 Jun 2027 03:00:43.765            41.966              Murmansk1          1311.437
        84   02 Jun 2027 04:30:17.692   02 Jun 2027 04:30:44.360            26.668                Irkutsk           833.375
        85   02 Jun 2027 04:31:05.986   02 Jun 2027 04:31:46.801            40.815                Irkutsk          1275.469
        86   02 Jun 2027 04:32:42.025   02 Jun 2027 04:33:35.476            53.451                Irkutsk          1670.344
        87   02 Jun 2027 04:34:07.808   02 Jun 2027 04:34:47.822            40.014                Anadyr1          1250.437
        88   02 Jun 2027 04:35:02.476   02 Jun 2027 04:35:03.967             1.491                Irkutsk            46.594
        89   02 Jun 2027 04:35:15.359   02 Jun 2027 04:36:23.414            68.055               Magadan2          2126.719
        90   02 Jun 2027 05:12:40.025   02 Jun 2027 05:14:37.276           117.251            RioGallegos          3664.094
        91   02 Jun 2027 06:07:42.395   02 Jun 2027 06:08:06.398            24.003                Irkutsk           750.094
        92   02 Jun 2027 06:08:24.658   02 Jun 2027 06:10:36.709           132.051                Irkutsk          4126.594
        93   02 Jun 2027 06:11:23.906   02 Jun 2027 06:12:08.412            44.506                Irkutsk          1390.812
        94   02 Jun 2027 06:12:31.346   02 Jun 2027 06:12:48.462            17.116                Novosib           534.875
        95   02 Jun 2027 07:24:34.953   02 Jun 2027 07:26:05.335            90.382                Sumatra          2824.437
        96   02 Jun 2027 07:44:02.183   02 Jun 2027 07:45:09.401            67.218                Irkutsk          2100.563
        97   02 Jun 2027 07:46:07.770   02 Jun 2027 07:46:39.963            32.193              Murmansk2          1006.031
        98   02 Jun 2027 07:46:52.602   02 Jun 2027 07:48:08.694            76.092                Irkutsk          2377.875
        99   02 Jun 2027 09:22:03.044   02 Jun 2027 09:22:17.491            14.447                Novosib           451.469
       100   02 Jun 2027 09:22:50.823   02 Jun 2027 09:22:53.321             2.498                Novosib            78.062
       101   02 Jun 2027 09:22:59.590   02 Jun 2027 09:23:06.142             6.552                Novosib           204.750
       102   02 Jun 2027 09:23:55.303   02 Jun 2027 09:24:12.022            16.719                Novosib           522.469
       103   02 Jun 2027 09:24:38.625   02 Jun 2027 09:25:34.164            55.539                Novosib          1735.594
       104   02 Jun 2027 10:44:30.362   02 Jun 2027 10:46:21.213           110.851                  Delhi          3464.094
       105   02 Jun 2027 11:02:26.806   02 Jun 2027 11:02:30.715             3.909                Norilsk           122.156
       106   02 Jun 2027 12:12:27.405   02 Jun 2027 12:12:41.729            14.324               CapeTown           447.625
       107   02 Jun 2027 12:26:49.484   02 Jun 2027 12:27:39.177            49.693                 Moscow          1552.906
       108   02 Jun 2027 12:28:34.861   02 Jun 2027 12:29:30.421            55.560                 Moscow          1736.250
       109   02 Jun 2027 12:30:16.894   02 Jun 2027 12:32:54.105           157.211              Murmansk2          4912.844
       110   02 Jun 2027 12:33:08.636   02 Jun 2027 12:33:15.479             6.843              Murmansk1           213.844
       111   02 Jun 2027 12:33:40.261   02 Jun 2027 12:34:26.666            46.405              Murmansk1          1450.156
       112   02 Jun 2027 12:35:35.389   02 Jun 2027 12:35:42.182             6.793              Murmansk1           212.281
       113   02 Jun 2027 12:41:51.890   02 Jun 2027 12:41:54.929             3.039              Murmansk1            94.969
       114   02 Jun 2027 12:45:25.806   02 Jun 2027 12:49:11.796           225.990                Anadyr1          7062.188
       115   02 Jun 2027 12:50:34.637   02 Jun 2027 12:52:28.927           114.290                Anadyr2          3571.563
       116   02 Jun 2027 14:08:42.871   02 Jun 2027 14:09:01.584            18.713              Murmansk2           584.781
       117   02 Jun 2027 14:09:22.584   02 Jun 2027 14:09:46.105            23.521              Murmansk2           735.031
       118   02 Jun 2027 14:10:16.242   02 Jun 2027 14:10:21.776             5.534              Murmansk2           172.937
       119   02 Jun 2027 14:10:24.779   02 Jun 2027 14:10:48.528            23.749              Murmansk2           742.156
       120   02 Jun 2027 14:20:31.483   02 Jun 2027 14:22:09.978            98.495                Anadyr1          3077.969
       121   02 Jun 2027 14:22:16.771   02 Jun 2027 14:24:04.604           107.833                Anadyr2          3369.781
       122   02 Jun 2027 14:26:05.283   02 Jun 2027 14:27:51.189           105.906               Magadan2          3309.562
       123   02 Jun 2027 15:50:54.197   02 Jun 2027 15:51:51.494            57.297              Murmansk1          1790.531
       124   02 Jun 2027 15:56:22.097   02 Jun 2027 15:58:24.563           122.466                Anadyr2          3827.062
       125   02 Jun 2027 15:58:55.052   02 Jun 2027 16:01:55.460           180.408               Magadan1          5637.750
       126   02 Jun 2027 16:01:55.460   02 Jun 2027 16:02:10.320            14.860               Magadan2           464.375
       127   02 Jun 2027 16:03:01.104   02 Jun 2027 16:04:19.215            78.111               Magadan2          2440.969
       128   02 Jun 2027 17:32:16.414   02 Jun 2027 17:33:29.312            72.898                Anadyr1          2278.063
       129   02 Jun 2027 17:34:33.829   02 Jun 2027 17:36:24.990           111.161               Magadan1          3473.781
       130   02 Jun 2027 17:37:04.101   02 Jun 2027 17:37:45.273            41.172               Magadan2          1286.625
       131   02 Jun 2027 17:37:50.147   02 Jun 2027 17:38:26.566            36.419                Norilsk          1138.094
       132   02 Jun 2027 18:26:47.244   02 Jun 2027 18:29:42.551           175.307            RioGallegos          5478.344
       133   02 Jun 2027 18:30:35.603   02 Jun 2027 18:31:20.672            45.069            RioGallegos          1408.406
       134   02 Jun 2027 18:35:26.214   02 Jun 2027 18:36:12.981            46.767            RioGallegos          1461.469
       135   02 Jun 2027 19:10:08.505   02 Jun 2027 19:10:15.325             6.820                Norilsk           213.125
       136   02 Jun 2027 19:11:09.726   02 Jun 2027 19:11:36.173            26.447               Magadan1           826.469
       137   02 Jun 2027 19:12:06.075   02 Jun 2027 19:13:38.410            92.335                Norilsk          2885.469
       138   02 Jun 2027 19:14:20.161   02 Jun 2027 19:16:58.725           158.564                Irkutsk          4955.125
       139   02 Jun 2027 19:17:25.282   02 Jun 2027 19:21:16.275           230.993                Novosib          7218.531
       140   02 Jun 2027 19:30:43.218   02 Jun 2027 19:31:57.716            74.498                Sumatra          2328.062
       141   02 Jun 2027 19:39:10.609   02 Jun 2027 19:40:27.514            76.905                Sumatra          2403.281
       142   02 Jun 2027 20:50:05.848   02 Jun 2027 20:50:58.383            52.535                Novosib          1641.719
       143   02 Jun 2027 20:57:03.209   02 Jun 2027 20:57:21.956            18.747                Novosib           585.844
       144   02 Jun 2027 20:57:55.642   02 Jun 2027 21:01:23.923           208.281                  Delhi          6508.781
       145   02 Jun 2027 21:03:09.705   02 Jun 2027 21:04:19.905            70.200                  Delhi          2193.750
       146   02 Jun 2027 22:24:27.614   02 Jun 2027 22:26:42.117           134.503              Murmansk2          4203.219
       147   02 Jun 2027 22:26:57.984   02 Jun 2027 22:28:36.870            98.886              Murmansk1          3090.187
       148   02 Jun 2027 22:29:24.094   02 Jun 2027 22:34:03.074           278.980                 Moscow          8718.125
       149   03 Jun 2027 00:00:11.863   03 Jun 2027 00:01:03.328            51.465              Murmansk1          1608.281
       150   03 Jun 2027 00:03:34.189   03 Jun 2027 00:05:20.041           105.852                 Moscow          3307.875
       151   03 Jun 2027 00:05:50.068   03 Jun 2027 00:06:10.403            20.335                 Moscow           635.469
       152   03 Jun 2027 00:07:21.560   03 Jun 2027 00:07:44.264            22.704                 Moscow           709.500
       153   03 Jun 2027 00:27:55.761   03 Jun 2027 00:31:37.723           221.962               CapeTown          6936.312
       154   03 Jun 2027 01:30:29.253   03 Jun 2027 01:30:41.853            12.600               Magadan2           393.750
       155   03 Jun 2027 01:31:14.319   03 Jun 2027 01:31:39.337            25.018               Magadan2           781.813
       156   03 Jun 2027 01:36:09.882   03 Jun 2027 01:37:27.838            77.956              Murmansk1          2436.125
       157   03 Jun 2027 01:39:07.887   03 Jun 2027 01:39:08.933             1.046              Murmansk2            32.687
       158   03 Jun 2027 01:39:23.930   03 Jun 2027 01:40:42.129            78.199                 Moscow          2443.719
       159   03 Jun 2027 01:43:48.980   03 Jun 2027 01:43:55.688             6.708                 Moscow           209.625
       160   03 Jun 2027 01:44:32.022   03 Jun 2027 01:44:41.648             9.626                 Moscow           300.813
       161   03 Jun 2027 01:45:09.255   03 Jun 2027 01:45:15.577             6.322                 Moscow           197.562
       162   03 Jun 2027 01:46:22.097   03 Jun 2027 01:48:03.066           100.969                 Moscow          3155.281
       163   03 Jun 2027 02:13:58.435   03 Jun 2027 02:14:09.742            11.307               CapeTown           353.344
       164   03 Jun 2027 03:00:04.264   03 Jun 2027 03:02:07.167           122.903               Magadan1          3840.719
       165   03 Jun 2027 03:04:36.506   03 Jun 2027 03:04:38.707             2.201                Anadyr2            68.781
       166   03 Jun 2027 03:05:22.851   03 Jun 2027 03:09:45.208           262.357               Magadan2          8198.656
       167   03 Jun 2027 03:09:45.208   03 Jun 2027 03:11:30.454           105.246               Magadan1          3288.937
       168   03 Jun 2027 03:11:30.454   03 Jun 2027 03:12:34.736            64.282               Magadan2          2008.813
       169   03 Jun 2027 04:44:20.710   03 Jun 2027 04:45:23.515            62.805               Magadan1          1962.656
       170   03 Jun 2027 04:45:36.513   03 Jun 2027 04:45:45.125             8.612               Magadan2           269.125
       171   03 Jun 2027 04:45:49.483   03 Jun 2027 04:46:38.486            49.003                Anadyr2          1531.344
       172   03 Jun 2027 04:46:38.486   03 Jun 2027 04:48:01.453            82.967                Anadyr1          2592.719
       173   03 Jun 2027 06:19:01.221   03 Jun 2027 06:19:18.444            17.223               Magadan2           538.219
       174   03 Jun 2027 06:19:40.374   03 Jun 2027 06:19:50.920            10.546               Magadan2           329.562
       175   03 Jun 2027 06:19:51.976   03 Jun 2027 06:21:42.302           110.326               Magadan1          3447.688
       176   03 Jun 2027 06:21:52.587   03 Jun 2027 06:22:31.694            39.107               Magadan1          1222.094
       177   03 Jun 2027 06:22:37.309   03 Jun 2027 06:23:31.448            54.139               Magadan2          1691.844
       178   03 Jun 2027 06:28:22.338   03 Jun 2027 06:28:28.459             6.121                Norilsk           191.281
       179   03 Jun 2027 07:54:38.531   03 Jun 2027 07:54:53.949            15.418                Irkutsk           481.813
       180   03 Jun 2027 07:56:02.925   03 Jun 2027 07:57:22.627            79.702                Irkutsk          2490.687
       181   03 Jun 2027 07:57:30.004   03 Jun 2027 07:57:46.559            16.555                Irkutsk           517.344
       182   03 Jun 2027 07:58:02.042   03 Jun 2027 07:58:16.559            14.517              Murmansk1           453.656
       183   03 Jun 2027 07:58:17.722   03 Jun 2027 07:58:17.799             0.077                Irkutsk             2.406
       184   03 Jun 2027 07:59:01.199   03 Jun 2027 07:59:04.822             3.623                Irkutsk           113.219
       185   03 Jun 2027 08:01:04.457   03 Jun 2027 08:01:35.174            30.717              Murmansk2           959.906
       186   03 Jun 2027 08:37:33.606   03 Jun 2027 08:37:51.989            18.383            RioGallegos           574.469
       187   03 Jun 2027 08:39:48.798   03 Jun 2027 08:40:23.107            34.309            RioGallegos          1072.156
       188   03 Jun 2027 09:11:54.875   03 Jun 2027 09:13:21.070            86.195                Sumatra          2693.594
       189   03 Jun 2027 09:31:58.183   03 Jun 2027 09:32:46.631            48.448                Novosib          1514.000
       190   03 Jun 2027 09:34:19.269   03 Jun 2027 09:34:33.230            13.961                Norilsk           436.281
       191   03 Jun 2027 09:34:44.330   03 Jun 2027 09:35:02.671            18.341                Norilsk           573.156
       192   03 Jun 2027 09:35:05.415   03 Jun 2027 09:35:12.106             6.691                Norilsk           209.094
       193   03 Jun 2027 09:35:39.201   03 Jun 2027 09:35:40.781             1.580                Novosib            49.375
       194   03 Jun 2027 10:57:49.429   03 Jun 2027 11:00:30.885           161.456                  Delhi          5045.500
       195   03 Jun 2027 11:15:00.247   03 Jun 2027 11:15:09.239             8.992                Norilsk           281.000
       196   03 Jun 2027 12:39:06.820   03 Jun 2027 12:39:40.425            33.605                 Moscow          1050.156
       197   03 Jun 2027 12:40:39.814   03 Jun 2027 12:41:13.894            34.080                 Moscow          1065.000
       198   03 Jun 2027 12:42:29.651   03 Jun 2027 12:44:36.204           126.553              Murmansk2          3954.781
       199   03 Jun 2027 12:45:10.246   03 Jun 2027 12:46:25.127            74.881              Murmansk2          2340.031
       200   03 Jun 2027 12:46:28.277   03 Jun 2027 12:46:42.849            14.572              Murmansk1           455.375
       201   03 Jun 2027 12:47:00.927   03 Jun 2027 12:47:31.742            30.815              Murmansk1           962.969
       202   03 Jun 2027 12:57:13.733   03 Jun 2027 12:59:58.147           164.414                Anadyr2          5137.937
       203   03 Jun 2027 13:00:12.320   03 Jun 2027 13:03:14.244           181.924                Anadyr1          5685.125
       204   03 Jun 2027 14:22:17.725   03 Jun 2027 14:22:43.797            26.072              Murmansk1           814.750
       205   03 Jun 2027 14:23:52.569   03 Jun 2027 14:24:17.825            25.256              Murmansk2           789.250
       206   03 Jun 2027 14:25:06.104   03 Jun 2027 14:25:36.247            30.143              Murmansk2           941.969
       207   03 Jun 2027 14:32:31.137   03 Jun 2027 14:34:18.715           107.578                Anadyr2          3361.812
       208   03 Jun 2027 14:35:51.952   03 Jun 2027 14:36:31.041            39.089                Anadyr1          1221.531
       209   03 Jun 2027 14:36:50.246   03 Jun 2027 14:41:29.309           279.063               Magadan1          8720.719
       210   03 Jun 2027 14:41:29.309   03 Jun 2027 14:41:44.676            15.367               Magadan2           480.219
       211   03 Jun 2027 16:08:23.442   03 Jun 2027 16:09:43.772            80.330                Anadyr1          2510.313
       212   03 Jun 2027 16:10:51.607   03 Jun 2027 16:14:13.010           201.403               Magadan1          6293.844
       213   03 Jun 2027 16:17:56.758   03 Jun 2027 16:18:59.622            62.864               Magadan2          1964.500
       214   03 Jun 2027 17:44:16.812   03 Jun 2027 17:45:35.784            78.972                Anadyr1          2467.875
       215   03 Jun 2027 17:46:35.218   03 Jun 2027 17:47:58.229            83.011               Magadan1          2594.094
       216   03 Jun 2027 17:48:11.887   03 Jun 2027 17:50:41.273           149.386                Norilsk          4668.313
       217   03 Jun 2027 17:53:34.335   03 Jun 2027 17:55:34.306           119.971                Irkutsk          3749.094
       218   03 Jun 2027 18:39:26.212   03 Jun 2027 18:40:26.831            60.619            RioGallegos          1894.344
       219   03 Jun 2027 18:41:45.038   03 Jun 2027 18:41:53.520             8.482            RioGallegos           265.062
       220   03 Jun 2027 19:22:08.974   03 Jun 2027 19:23:39.101            90.127                Norilsk          2816.469
       221   03 Jun 2027 19:25:39.686   03 Jun 2027 19:25:49.655             9.969                Norilsk           311.531
       222   03 Jun 2027 19:26:14.654   03 Jun 2027 19:26:19.480             4.826                Irkutsk           150.812
       223   03 Jun 2027 19:26:26.191   03 Jun 2027 19:27:06.205            40.014                Norilsk          1250.437
       224   03 Jun 2027 19:27:09.833   03 Jun 2027 19:28:25.085            75.252                Irkutsk          2351.625
       225   03 Jun 2027 19:29:27.922   03 Jun 2027 19:34:30.737           302.815                Novosib          9462.969
       226   03 Jun 2027 19:41:10.142   03 Jun 2027 19:42:40.260            90.118                Sumatra          2816.188
       227   03 Jun 2027 21:01:59.138   03 Jun 2027 21:02:01.248             2.110                Irkutsk            65.938
       228   03 Jun 2027 21:02:41.159   03 Jun 2027 21:03:57.714            76.555                Novosib          2392.344
       229   03 Jun 2027 21:05:38.312   03 Jun 2027 21:05:52.300            13.988                Novosib           437.125
       230   03 Jun 2027 21:09:40.254   03 Jun 2027 21:13:33.609           233.355                  Delhi          7292.344
       231   03 Jun 2027 22:35:06.811   03 Jun 2027 22:35:13.127             6.316                Norilsk           197.375
       232   03 Jun 2027 22:35:16.338   03 Jun 2027 22:35:25.790             9.452               Magadan1           295.375
       233   03 Jun 2027 22:36:25.280   03 Jun 2027 22:38:22.205           116.925              Murmansk1          3653.906
       234   03 Jun 2027 22:39:43.867   03 Jun 2027 22:41:59.205           135.338              Murmansk2          4229.312
       235   03 Jun 2027 22:42:38.472   03 Jun 2027 22:43:07.416            28.944              Murmansk1           904.500
       236   03 Jun 2027 22:43:12.022   03 Jun 2027 22:47:49.866           277.844                 Moscow          8682.625
       237   04 Jun 2027 00:12:13.273   04 Jun 2027 00:13:34.526            81.253              Murmansk2          2539.156
       238   04 Jun 2027 00:14:24.700   04 Jun 2027 00:14:38.749            14.049              Murmansk1           439.031
       239   04 Jun 2027 00:15:32.113   04 Jun 2027 00:17:47.438           135.325                 Moscow          4228.906
       240   04 Jun 2027 00:24:10.822   04 Jun 2027 00:24:59.431            48.609                 Moscow          1519.031
       241   04 Jun 2027 00:39:40.201   04 Jun 2027 00:41:27.612           107.411               CapeTown          3356.594
       242   04 Jun 2027 00:42:12.555   04 Jun 2027 00:43:14.365            61.810               CapeTown          1931.562
       243   04 Jun 2027 01:39:31.609   04 Jun 2027 01:40:09.517            37.908               Magadan2          1184.625
       244   04 Jun 2027 01:41:22.775   04 Jun 2027 01:41:29.841             7.066               Magadan1           220.813
       245   04 Jun 2027 01:42:28.976   04 Jun 2027 01:42:43.854            14.878               Magadan2           464.938
       246   04 Jun 2027 01:43:17.002   04 Jun 2027 01:44:05.003            48.001               Magadan2          1500.031
       247   04 Jun 2027 01:48:11.343   04 Jun 2027 01:49:29.560            78.217              Murmansk1          2444.281
       248   04 Jun 2027 01:51:27.111   04 Jun 2027 01:52:17.154            50.043                 Moscow          1563.844
       249   04 Jun 2027 01:54:19.040   04 Jun 2027 01:54:34.552            15.512                 Moscow           484.750
       250   04 Jun 2027 01:55:47.425   04 Jun 2027 01:55:53.651             6.226                 Moscow           194.563
       251   04 Jun 2027 01:57:01.866   04 Jun 2027 01:57:14.105            12.239                 Moscow           382.469
       252   04 Jun 2027 01:58:21.153   04 Jun 2027 01:59:59.847            98.694                 Moscow          3084.187
       253   04 Jun 2027 03:11:56.419   04 Jun 2027 03:12:11.291            14.872               Magadan1           464.750
       254   04 Jun 2027 03:12:12.355   04 Jun 2027 03:12:19.789             7.434               Magadan2           232.313
       255   04 Jun 2027 03:12:34.676   04 Jun 2027 03:13:24.465            49.789               Magadan2          1555.906
       256   04 Jun 2027 03:16:36.667   04 Jun 2027 03:17:34.939            58.272                Anadyr1          1821.000
       257   04 Jun 2027 03:17:39.689   04 Jun 2027 03:18:00.137            20.448                Anadyr1           639.000
       258   04 Jun 2027 03:18:00.137   04 Jun 2027 03:19:23.487            83.350                Anadyr2          2604.687
       259   04 Jun 2027 03:19:29.498   04 Jun 2027 03:21:04.990            95.492                Anadyr1          2984.125
       260   04 Jun 2027 03:21:08.655   04 Jun 2027 03:22:16.355            67.700                Anadyr2          2115.625
       261   04 Jun 2027 04:55:48.292   04 Jun 2027 04:59:34.694           226.402                Irkutsk          7075.063
       262   04 Jun 2027 04:59:39.495   04 Jun 2027 05:00:27.135            47.640               Magadan2          1488.750
       263   04 Jun 2027 06:29:53.520   04 Jun 2027 06:30:07.573            14.053               Magadan2           439.156
       264   04 Jun 2027 06:31:34.632   04 Jun 2027 06:31:45.165            10.533               Magadan2           329.156
       265   04 Jun 2027 06:31:52.866   04 Jun 2027 06:32:22.939            30.073               Magadan2           939.781
       266   04 Jun 2027 06:33:42.687   04 Jun 2027 06:34:12.869            30.182               Magadan2           943.187
       267   04 Jun 2027 06:34:31.509   04 Jun 2027 06:35:03.365            31.856               Magadan1           995.500
       268   04 Jun 2027 06:42:53.918   04 Jun 2027 06:43:00.905             6.987              Murmansk1           218.344
       269   04 Jun 2027 08:08:02.740   04 Jun 2027 08:08:19.595            16.855                Irkutsk           526.719
       270   04 Jun 2027 08:09:01.464   04 Jun 2027 08:09:26.855            25.391              Murmansk1           793.469
       271   04 Jun 2027 08:09:33.767   04 Jun 2027 08:09:39.799             6.032                Irkutsk           188.500
       272   04 Jun 2027 08:09:44.339   04 Jun 2027 08:09:57.340            13.001                Irkutsk           406.281
       273   04 Jun 2027 08:10:17.330   04 Jun 2027 08:11:08.679            51.349                Irkutsk          1604.656
       274   04 Jun 2027 08:12:48.393   04 Jun 2027 08:13:04.153            15.760              Murmansk1           492.500
       275   04 Jun 2027 08:50:24.390   04 Jun 2027 08:51:08.577            44.187            RioGallegos          1380.844
       276   04 Jun 2027 08:53:10.826   04 Jun 2027 08:53:33.265            22.439            RioGallegos           701.219
       277   04 Jun 2027 09:25:17.284   04 Jun 2027 09:26:01.415            44.131                Sumatra          1379.094
       278   04 Jun 2027 09:27:22.267   04 Jun 2027 09:27:43.025            20.758                Sumatra           648.688
       279   04 Jun 2027 09:44:43.446   04 Jun 2027 09:44:52.411             8.965                Novosib           280.156
       280   04 Jun 2027 09:46:37.052   04 Jun 2027 09:47:04.470            27.418                Novosib           856.812
       281   04 Jun 2027 09:47:09.616   04 Jun 2027 09:47:18.596             8.980                Norilsk           280.625
       282   04 Jun 2027 09:47:31.950   04 Jun 2027 09:47:48.391            16.441                Novosib           513.781
       283   04 Jun 2027 11:24:52.540   04 Jun 2027 11:24:55.171             2.631                Norilsk            82.219
       284   04 Jun 2027 12:51:28.072   04 Jun 2027 12:51:57.794            29.722                 Moscow           928.812
       285   04 Jun 2027 12:52:44.263   04 Jun 2027 12:53:23.374            39.111                 Moscow          1222.219
       286   04 Jun 2027 12:53:36.101   04 Jun 2027 12:54:02.875            26.774                 Moscow           836.687
       287   04 Jun 2027 12:54:44.342   04 Jun 2027 12:55:15.929            31.587              Murmansk1           987.094
       288   04 Jun 2027 12:55:20.908   04 Jun 2027 12:56:15.631            54.723              Murmansk2          1710.094
       289   04 Jun 2027 12:56:50.627   04 Jun 2027 12:57:07.929            17.302              Murmansk1           540.688
       290   04 Jun 2027 12:57:07.929   04 Jun 2027 12:58:11.850            63.921              Murmansk2          1997.531
       291   04 Jun 2027 12:59:28.836   04 Jun 2027 12:59:42.343            13.507              Murmansk1           422.094
       292   04 Jun 2027 13:09:05.082   04 Jun 2027 13:13:52.284           287.202                Anadyr1          8975.063
       293   04 Jun 2027 13:14:04.674   04 Jun 2027 13:14:55.459            50.785                Anadyr1          1587.031
       294   04 Jun 2027 14:34:19.360   04 Jun 2027 14:34:45.665            26.305              Murmansk1           822.031
       295   04 Jun 2027 14:36:09.116   04 Jun 2027 14:36:49.976            40.860              Murmansk2          1276.875
       296   04 Jun 2027 14:38:29.136   04 Jun 2027 14:38:51.177            22.041              Murmansk2           688.781
       297   04 Jun 2027 14:40:10.360   04 Jun 2027 14:40:10.910             0.550              Murmansk1            17.188
       298   04 Jun 2027 14:44:31.207   04 Jun 2027 14:46:02.210            91.003                Anadyr2          2843.844
       299   04 Jun 2027 14:46:03.406   04 Jun 2027 14:47:08.744            65.338                Anadyr1          2041.812
       300   04 Jun 2027 14:47:52.188   04 Jun 2027 14:48:07.259            15.071                Anadyr1           470.969
       301   04 Jun 2027 14:48:16.850   04 Jun 2027 14:54:53.564           396.714               Magadan1         12397.313
       302   04 Jun 2027 16:22:49.200   04 Jun 2027 16:26:15.734           206.534               Magadan2          6454.187
       303   04 Jun 2027 17:56:16.903   04 Jun 2027 17:57:51.605            94.702                Anadyr1          2959.438
       304   04 Jun 2027 17:58:22.228   04 Jun 2027 17:58:45.873            23.645                Anadyr1           738.906
       305   04 Jun 2027 17:59:11.398   04 Jun 2027 18:04:36.181           324.783                Norilsk         10149.469
       306   04 Jun 2027 18:05:36.697   04 Jun 2027 18:07:17.218           100.521                Irkutsk          3141.281
       307   04 Jun 2027 18:21:46.418   04 Jun 2027 18:23:47.417           120.999                Sumatra          3781.219
       308   04 Jun 2027 19:34:09.839   04 Jun 2027 19:35:10.198            60.359                Norilsk          1886.219
       309   04 Jun 2027 19:37:51.516   04 Jun 2027 19:38:20.294            28.778                Norilsk           899.312
       310   04 Jun 2027 19:38:40.666   04 Jun 2027 19:39:58.701            78.035                Irkutsk          2438.594
       311   04 Jun 2027 19:40:00.521   04 Jun 2027 19:46:17.589           377.068                Novosib         11783.375
       312   04 Jun 2027 21:14:01.033   04 Jun 2027 21:16:15.771           134.738                Novosib          4210.563
       313   04 Jun 2027 21:21:29.665   04 Jun 2027 21:23:10.866           101.201                  Delhi          3162.531
       314   04 Jun 2027 21:24:11.533   04 Jun 2027 21:24:54.100            42.567                  Delhi          1330.219
       315   04 Jun 2027 21:32:49.419   04 Jun 2027 21:33:53.965            64.546                  Delhi          2017.062
       316   04 Jun 2027 22:48:23.913   04 Jun 2027 22:50:10.231           106.318              Murmansk2          3322.437
       317   04 Jun 2027 22:50:15.377   04 Jun 2027 22:54:50.912           275.535              Murmansk1          8610.469
       318   04 Jun 2027 22:55:04.644   04 Jun 2027 22:57:35.074           150.430                 Moscow          4700.938
       319   04 Jun 2027 22:57:44.148   04 Jun 2027 22:58:25.588            41.440                 Moscow          1295.000
       320   04 Jun 2027 23:20:28.565   04 Jun 2027 23:21:41.825            73.260               CapeTown          2289.375
       321   04 Jun 2027 23:24:02.916   04 Jun 2027 23:25:34.716            91.800               CapeTown          2868.750
       322   05 Jun 2027 00:26:24.387   05 Jun 2027 00:26:50.121            25.734              Murmansk2           804.187
       323   05 Jun 2027 00:27:30.977   05 Jun 2027 00:28:55.817            84.840                 Moscow          2651.250
       324   05 Jun 2027 00:51:29.832   05 Jun 2027 00:53:17.282           107.450               CapeTown          3357.812
       325   05 Jun 2027 01:49:49.351   05 Jun 2027 01:50:11.561            22.210               Magadan1           694.062
       326   05 Jun 2027 01:50:11.561   05 Jun 2027 01:50:46.368            34.807               Magadan2          1087.719
       327   05 Jun 2027 01:51:28.396   05 Jun 2027 01:52:07.178            38.782               Magadan1          1211.937
       328   05 Jun 2027 01:57:27.585   05 Jun 2027 01:57:30.746             3.161                Norilsk            98.781
       329   05 Jun 2027 01:58:01.485   05 Jun 2027 01:58:44.602            43.117               Magadan1          1347.406
       330   05 Jun 2027 02:00:12.681   05 Jun 2027 02:01:09.032            56.351              Murmansk2          1760.969
       331   05 Jun 2027 02:01:23.872   05 Jun 2027 02:01:27.933             4.061              Murmansk2           126.906
       332   05 Jun 2027 02:02:59.512   05 Jun 2027 02:03:33.706            34.194              Murmansk2          1068.563
       333   05 Jun 2027 02:03:45.235   05 Jun 2027 02:04:33.781            48.546                 Moscow          1517.063
       334   05 Jun 2027 02:07:25.545   05 Jun 2027 02:07:58.061            32.516                 Moscow          1016.125
       335   05 Jun 2027 02:12:20.215   05 Jun 2027 02:12:40.508            20.293                 Moscow           634.156
       336   05 Jun 2027 02:29:09.772   05 Jun 2027 02:30:46.181            96.409               CapeTown          3012.781
       337   05 Jun 2027 03:28:19.412   05 Jun 2027 03:29:18.912            59.500               Magadan2          1859.375
       338   05 Jun 2027 03:29:22.854   05 Jun 2027 03:29:41.410            18.556                Anadyr2           579.875
       339   05 Jun 2027 03:29:55.580   05 Jun 2027 03:30:23.232            27.652                Anadyr2           864.125
       340   05 Jun 2027 03:30:31.279   05 Jun 2027 03:31:20.953            49.674               Magadan2          1552.313
       341   05 Jun 2027 03:31:27.650   05 Jun 2027 03:34:51.676           204.026                Anadyr1          6375.812
       342   05 Jun 2027 04:22:23.334   05 Jun 2027 04:22:44.165            20.831            RioGallegos           650.969
       343   05 Jun 2027 05:06:17.293   05 Jun 2027 05:08:13.918           116.625                Anadyr1          3644.531
       344   05 Jun 2027 05:08:13.918   05 Jun 2027 05:09:36.976            83.058                Anadyr2          2595.563
       345   05 Jun 2027 05:09:51.050   05 Jun 2027 05:11:42.206           111.156               Magadan1          3473.625
       346   05 Jun 2027 05:11:42.206   05 Jun 2027 05:12:25.369            43.163               Magadan2          1348.844
       347   05 Jun 2027 06:42:55.657   05 Jun 2027 06:42:58.800             3.143               Magadan2            98.219
       348   05 Jun 2027 06:43:36.106   05 Jun 2027 06:43:54.540            18.434               Magadan1           576.063
       349   05 Jun 2027 06:44:05.972   05 Jun 2027 06:44:13.525             7.553               Magadan1           236.031
       350   05 Jun 2027 06:44:13.525   05 Jun 2027 06:44:29.143            15.618               Magadan2           488.063
       351   05 Jun 2027 06:45:47.968   05 Jun 2027 06:45:56.015             8.047               Magadan1           251.469
       352   05 Jun 2027 06:45:58.054   05 Jun 2027 06:46:28.008            29.954               Magadan1           936.062
       353   05 Jun 2027 06:46:34.942   05 Jun 2027 06:46:51.208            16.266               Magadan2           508.313
       354   05 Jun 2027 06:48:00.363   05 Jun 2027 06:48:20.834            20.471                Norilsk           639.719
       355   05 Jun 2027 08:07:13.691   05 Jun 2027 08:07:28.875            15.184                Sumatra           474.500
       356   05 Jun 2027 08:20:38.644   05 Jun 2027 08:20:38.775             0.131                Irkutsk             4.094
       357   05 Jun 2027 08:21:28.223   05 Jun 2027 08:21:36.761             8.538                Irkutsk           266.812
       358   05 Jun 2027 08:22:20.160   05 Jun 2027 08:22:28.578             8.418                Irkutsk           263.063
       359   05 Jun 2027 08:23:15.182   05 Jun 2027 08:23:57.464            42.282                Irkutsk          1321.312
       360   05 Jun 2027 08:27:57.283   05 Jun 2027 08:28:25.326            28.043                Norilsk           876.344
       361   05 Jun 2027 09:03:30.487   05 Jun 2027 09:04:03.013            32.526            RioGallegos          1016.437
       362   05 Jun 2027 09:43:51.488   05 Jun 2027 09:44:28.180            36.692                  Delhi          1146.625
       363   05 Jun 2027 09:56:57.630   05 Jun 2027 09:57:27.003            29.373                Novosib           917.906
       364   05 Jun 2027 09:58:43.590   05 Jun 2027 09:58:45.065             1.475                Novosib            46.094
       365   05 Jun 2027 09:58:56.724   05 Jun 2027 09:58:56.800             0.076                Norilsk             2.375
       366   05 Jun 2027 09:59:06.316   05 Jun 2027 09:59:55.645            49.329                Novosib          1541.531
       367   05 Jun 2027 11:39:35.985   05 Jun 2027 11:40:21.366            45.381                Norilsk          1418.156
       368   05 Jun 2027 13:04:13.230   05 Jun 2027 13:04:48.230            35.000                 Moscow          1093.750
       369   05 Jun 2027 13:05:30.500   05 Jun 2027 13:06:37.872            67.372                 Moscow          2105.375
       370   05 Jun 2027 13:07:01.052   05 Jun 2027 13:07:47.881            46.829              Murmansk2          1463.406
       371   05 Jun 2027 13:07:47.881   05 Jun 2027 13:08:15.147            27.266              Murmansk1           852.062
       372   05 Jun 2027 13:08:22.396   05 Jun 2027 13:09:05.110            42.714              Murmansk1          1334.813
       373   05 Jun 2027 13:11:23.312   05 Jun 2027 13:12:12.504            49.192              Murmansk1          1537.250
       374   05 Jun 2027 13:20:58.775   05 Jun 2027 13:23:36.661           157.886                Anadyr1          4933.937
       375   05 Jun 2027 13:26:19.490   05 Jun 2027 13:26:42.707            23.217                Anadyr1           725.531
       376   05 Jun 2027 13:28:51.206   05 Jun 2027 13:30:31.986           100.780                Anadyr2          3149.375
       377   05 Jun 2027 14:46:24.906   05 Jun 2027 14:48:10.814           105.908              Murmansk2          3309.625
       378   05 Jun 2027 14:50:07.285   05 Jun 2027 14:50:12.351             5.066              Murmansk1           158.312
       379   05 Jun 2027 14:50:28.557   05 Jun 2027 14:50:35.828             7.271              Murmansk2           227.219
       380   05 Jun 2027 14:56:31.628   05 Jun 2027 14:58:29.732           118.104                Anadyr2          3690.750
       381   05 Jun 2027 14:58:57.659   05 Jun 2027 14:59:52.073            54.414                Anadyr2          1700.437
       382   05 Jun 2027 14:59:55.381   05 Jun 2027 15:04:01.084           245.703               Magadan2          7678.219
       383   05 Jun 2027 15:04:01.084   05 Jun 2027 15:07:02.983           181.899               Magadan1          5684.344
       384   05 Jun 2027 16:34:47.639   05 Jun 2027 16:36:55.346           127.707               Magadan2          3990.844
       385   05 Jun 2027 16:37:28.179   05 Jun 2027 16:38:18.459            50.280               Magadan1          1571.250
       386   05 Jun 2027 17:30:10.614   05 Jun 2027 17:31:46.126            95.512            RioGallegos          2984.750
       387   05 Jun 2027 18:08:16.633   05 Jun 2027 18:09:36.681            80.048                Anadyr2          2501.500
       388   05 Jun 2027 18:10:32.142   05 Jun 2027 18:14:37.414           245.272                Norilsk          7664.750
       389   05 Jun 2027 18:15:38.176   05 Jun 2027 18:16:51.828            73.652                Norilsk          2301.625
       390   05 Jun 2027 18:17:40.972   05 Jun 2027 18:20:20.127           159.155                Irkutsk          4973.594
       391   05 Jun 2027 18:20:57.027   05 Jun 2027 18:22:24.847            87.820                Irkutsk          2744.375
       392   05 Jun 2027 18:31:27.309   05 Jun 2027 18:33:11.157           103.848                Sumatra          3245.250
       393   05 Jun 2027 18:34:30.573   05 Jun 2027 18:36:42.040           131.467                Sumatra          4108.344
       394   05 Jun 2027 18:37:42.037   05 Jun 2027 18:37:52.073            10.036                Sumatra           313.625
       395   05 Jun 2027 19:51:50.602   05 Jun 2027 19:54:43.304           172.702                Novosib          5396.937
       396   05 Jun 2027 19:56:10.087   05 Jun 2027 19:56:56.026            45.939                Novosib          1435.594
       397   05 Jun 2027 21:25:31.587   05 Jun 2027 21:29:23.967           232.380              Murmansk1          7261.875
       398   05 Jun 2027 21:33:23.111   05 Jun 2027 21:34:52.670            89.559                  Delhi          2798.719
       399   05 Jun 2027 21:42:55.006   05 Jun 2027 21:43:29.477            34.471                  Delhi          1077.219
       400   05 Jun 2027 23:00:23.276   05 Jun 2027 23:02:02.395            99.119              Murmansk2          3097.469
       401   05 Jun 2027 23:02:11.387   05 Jun 2027 23:05:52.889           221.502              Murmansk1          6921.938
       402   05 Jun 2027 23:06:17.461   05 Jun 2027 23:07:01.501            44.040              Murmansk2          1376.250
       403   05 Jun 2027 23:07:08.636   05 Jun 2027 23:09:30.698           142.062                 Moscow          4439.437
       404   05 Jun 2027 23:31:11.546   05 Jun 2027 23:33:08.403           116.857               CapeTown          3651.781
       405   05 Jun 2027 23:36:22.653   05 Jun 2027 23:38:27.819           125.166               CapeTown          3911.438
       406   06 Jun 2027 00:39:30.666   06 Jun 2027 00:41:16.853           106.187                 Moscow          3318.344
       407   06 Jun 2027 01:03:24.455   06 Jun 2027 01:04:08.598            44.143               CapeTown          1379.469
       408   06 Jun 2027 01:07:08.876   06 Jun 2027 01:07:49.228            40.352               CapeTown          1261.000
       409   06 Jun 2027 01:11:55.535   06 Jun 2027 01:12:21.160            25.625               CapeTown           800.781
       410   06 Jun 2027 02:00:06.713   06 Jun 2027 02:00:46.374            39.661                Anadyr1          1239.406
       411   06 Jun 2027 02:01:29.364   06 Jun 2027 02:02:09.456            40.092               Magadan2          1252.875
       412   06 Jun 2027 02:02:13.821   06 Jun 2027 02:02:15.349             1.528               Magadan1            47.750
       413   06 Jun 2027 02:03:00.383   06 Jun 2027 02:03:27.524            27.141               Magadan2           848.156
       414   06 Jun 2027 02:04:05.998   06 Jun 2027 02:04:13.601             7.603               Magadan1           237.594
       415   06 Jun 2027 02:05:54.266   06 Jun 2027 02:06:02.723             8.457               Magadan1           264.281
       416   06 Jun 2027 02:06:02.723   06 Jun 2027 02:06:26.474            23.751               Magadan2           742.219
       417   06 Jun 2027 02:09:20.593   06 Jun 2027 02:09:33.525            12.932                Norilsk           404.125
       418   06 Jun 2027 02:12:13.862   06 Jun 2027 02:12:15.885             2.023              Murmansk2            63.219
       419   06 Jun 2027 02:12:25.944   06 Jun 2027 02:13:52.983            87.039              Murmansk2          2719.969
       420   06 Jun 2027 02:14:53.993   06 Jun 2027 02:15:33.087            39.094              Murmansk2          1221.688
       421   06 Jun 2027 02:15:34.912   06 Jun 2027 02:16:01.998            27.086                 Moscow           846.437
       422   06 Jun 2027 02:17:49.952   06 Jun 2027 02:18:08.583            18.631                 Moscow           582.219
       423   06 Jun 2027 02:23:45.223   06 Jun 2027 02:23:48.526             3.303                 Moscow           103.219
       424   06 Jun 2027 02:24:21.124   06 Jun 2027 02:24:48.828            27.704                 Moscow           865.750
       425   06 Jun 2027 02:42:02.744   06 Jun 2027 02:42:33.500            30.756               CapeTown           961.125
       426   06 Jun 2027 02:44:12.989   06 Jun 2027 02:45:28.096            75.107               CapeTown          2347.094
       427   06 Jun 2027 03:42:09.637   06 Jun 2027 03:43:24.924            75.287                Anadyr1          2352.719
       428   06 Jun 2027 03:43:24.924   06 Jun 2027 03:44:14.868            49.944                Anadyr2          1560.750
       429   06 Jun 2027 03:44:22.515   06 Jun 2027 03:46:19.130           116.615                Anadyr1          3644.219
       430   06 Jun 2027 05:18:52.632   06 Jun 2027 05:23:55.828           303.196                Irkutsk          9474.875
       431   06 Jun 2027 06:54:36.081   06 Jun 2027 06:54:52.294            16.213               Magadan1           506.656
       432   06 Jun 2027 06:54:52.294   06 Jun 2027 06:55:23.963            31.669               Magadan2           989.656
       433   06 Jun 2027 06:55:23.963   06 Jun 2027 06:55:52.397            28.434               Magadan1           888.563
       434   06 Jun 2027 06:55:55.887   06 Jun 2027 06:56:38.035            42.148               Magadan1          1317.125
       435   06 Jun 2027 06:57:37.878   06 Jun 2027 06:57:41.195             3.317               Magadan2           103.656
       436   06 Jun 2027 06:57:51.135   06 Jun 2027 06:58:00.532             9.397               Magadan2           293.656
       437   06 Jun 2027 06:58:07.980   06 Jun 2027 06:58:12.599             4.619               Magadan2           144.344
       438   06 Jun 2027 07:01:32.899   06 Jun 2027 07:02:24.638            51.739              Murmansk2          1616.844
       439   06 Jun 2027 08:31:46.102   06 Jun 2027 08:31:59.188            13.086                Irkutsk           408.938
       440   06 Jun 2027 08:32:54.142   06 Jun 2027 08:33:32.286            38.144              Murmansk2          1192.000
       441   06 Jun 2027 08:33:34.439   06 Jun 2027 08:33:56.913            22.474                 Moscow           702.312
       442   06 Jun 2027 08:34:26.311   06 Jun 2027 08:34:27.654             1.343                Irkutsk            41.969
       443   06 Jun 2027 08:35:17.087   06 Jun 2027 08:35:22.682             5.595                Norilsk           174.844
       444   06 Jun 2027 08:35:32.013   06 Jun 2027 08:36:00.994            28.981                Norilsk           905.656
       445   06 Jun 2027 08:36:31.395   06 Jun 2027 08:36:34.038             2.643                Norilsk            82.594
       446   06 Jun 2027 09:17:13.133   06 Jun 2027 09:18:21.135            68.002            RioGallegos          2125.062
       447   06 Jun 2027 09:54:25.515   06 Jun 2027 09:55:38.040            72.525                  Delhi          2266.406
       448   06 Jun 2027 10:03:47.336   06 Jun 2027 10:04:15.892            28.556                  Delhi           892.375
       449   06 Jun 2027 10:07:23.947   06 Jun 2027 10:07:33.757             9.810                Novosib           306.562
       450   06 Jun 2027 10:08:09.538   06 Jun 2027 10:08:42.883            33.345                Novosib          1042.031
       451   06 Jun 2027 10:09:56.563   06 Jun 2027 10:10:08.785            12.222                Novosib           381.937
       452   06 Jun 2027 10:10:52.240   06 Jun 2027 10:10:57.876             5.636                Novosib           176.125
       453   06 Jun 2027 10:11:07.425   06 Jun 2027 10:12:06.092            58.667                Novosib          1833.344
       454   06 Jun 2027 12:56:22.880   06 Jun 2027 12:57:54.918            92.038               CapeTown          2876.187
       455   06 Jun 2027 13:18:43.468   06 Jun 2027 13:18:58.635            15.167                 Moscow           473.969
       456   06 Jun 2027 13:19:19.850   06 Jun 2027 13:19:32.476            12.626              Murmansk2           394.562
       457   06 Jun 2027 13:19:41.187   06 Jun 2027 13:21:46.373           125.186              Murmansk1          3912.062
       458   06 Jun 2027 13:22:10.461   06 Jun 2027 13:22:33.416            22.955              Murmansk1           717.344
       459   06 Jun 2027 13:22:58.057   06 Jun 2027 13:24:09.187            71.130              Murmansk2          2222.813
       460   06 Jun 2027 13:29:10.651   06 Jun 2027 13:29:10.955             0.304              Murmansk1             9.500
       461   06 Jun 2027 13:32:54.178   06 Jun 2027 13:35:08.808           134.630                Anadyr1          4207.187
       462   06 Jun 2027 13:36:02.205   06 Jun 2027 13:37:00.511            58.306                Anadyr2          1822.062
       463   06 Jun 2027 13:38:43.549   06 Jun 2027 13:39:12.793            29.244                Anadyr1           913.875
       464   06 Jun 2027 13:40:52.469   06 Jun 2027 13:42:07.144            74.675                Anadyr1          2333.594
       465   06 Jun 2027 14:59:05.897   06 Jun 2027 15:00:37.787            91.890              Murmansk2          2871.563
       466   06 Jun 2027 15:02:09.197   06 Jun 2027 15:02:27.264            18.067              Murmansk1           564.594
       467   06 Jun 2027 15:05:28.920   06 Jun 2027 15:05:57.363            28.443              Murmansk2           888.844
       468   06 Jun 2027 15:08:32.319   06 Jun 2027 15:10:57.458           145.139                Anadyr1          4535.594
       469   06 Jun 2027 15:11:40.219   06 Jun 2027 15:15:27.366           227.147               Magadan1          7098.344
       470   06 Jun 2027 15:16:32.477   06 Jun 2027 15:19:04.271           151.794               Magadan2          4743.562
       471   06 Jun 2027 16:46:46.783   06 Jun 2027 16:49:06.946           140.163               Magadan1          4380.094
       472   06 Jun 2027 16:53:12.489   06 Jun 2027 16:54:01.746            49.257               Magadan2          1539.281
       473   06 Jun 2027 17:40:42.578   06 Jun 2027 17:43:27.684           165.106            RioGallegos          5159.563
       474   06 Jun 2027 18:20:15.943   06 Jun 2027 18:21:04.178            48.235                Anadyr2          1507.344
       475   06 Jun 2027 18:22:27.992   06 Jun 2027 18:26:36.828           248.836                Norilsk          7776.125
       476   06 Jun 2027 18:27:23.069   06 Jun 2027 18:27:59.152            36.083                Irkutsk          1127.594
       477   06 Jun 2027 18:28:30.950   06 Jun 2027 18:30:54.833           143.883                Irkutsk          4496.344
       478   06 Jun 2027 18:32:05.959   06 Jun 2027 18:33:03.427            57.468                Irkutsk          1795.875
       479   06 Jun 2027 18:42:19.764   06 Jun 2027 18:44:48.307           148.543                Sumatra          4641.969
       480   06 Jun 2027 18:46:23.536   06 Jun 2027 18:48:39.993           136.457                Sumatra          4264.281
       481   06 Jun 2027 18:50:35.540   06 Jun 2027 18:51:00.699            25.159                Sumatra           786.219
       482   06 Jun 2027 20:03:55.468   06 Jun 2027 20:05:38.759           103.291                Novosib          3227.844
