uniorb/output/strategy_4/Drop/Drop_KinoSat_110802.txt

KinoSat_110802
-------------------------
    Access    *     Start Time (UTCG)     *     Stop Time (UTCG)  *   Duration (s)        *       Station  *  Data (Mbytes)
         1   01 Jun 2027 04:04:47.319   01 Jun 2027 04:05:15.332            28.013                Anadyr1           875.406
         2   01 Jun 2027 04:05:15.332   01 Jun 2027 04:06:45.248            89.916                Anadyr2          2809.875
         3   01 Jun 2027 04:06:50.606   01 Jun 2027 04:07:21.802            31.196                Anadyr2           974.875
         4   01 Jun 2027 04:07:25.521   01 Jun 2027 04:07:54.083            28.562               Magadan1           892.563
         5   01 Jun 2027 04:08:37.981   01 Jun 2027 04:10:23.040           105.059                Anadyr2          3283.094
         6   01 Jun 2027 04:10:33.298   01 Jun 2027 04:10:42.595             9.297               Magadan2           290.531
         7   01 Jun 2027 04:51:16.956   01 Jun 2027 04:51:19.614             2.658            RioGallegos            83.063
         8   01 Jun 2027 04:51:38.197   01 Jun 2027 04:51:55.693            17.496            RioGallegos           546.750
         9   01 Jun 2027 04:55:44.037   01 Jun 2027 04:56:37.842            53.805            RioGallegos          1681.406
        10   01 Jun 2027 05:38:41.224   01 Jun 2027 05:39:31.668            50.444               Magadan2          1576.375
        11   01 Jun 2027 05:40:07.460   01 Jun 2027 05:40:23.503            16.043               Magadan1           501.344
        12   01 Jun 2027 05:40:30.946   01 Jun 2027 05:45:56.453           325.507                Anadyr2         10172.094
        13   01 Jun 2027 05:46:03.162   01 Jun 2027 05:46:39.963            36.801                Novosib          1150.031
        14   01 Jun 2027 06:29:34.625   01 Jun 2027 06:29:36.647             2.022            RioGallegos            63.187
        15   01 Jun 2027 06:59:56.637   01 Jun 2027 07:01:20.819            84.182                Sumatra          2630.687
        16   01 Jun 2027 07:02:13.707   01 Jun 2027 07:02:24.146            10.439                Sumatra           326.219
        17   01 Jun 2027 07:17:03.774   01 Jun 2027 07:18:02.507            58.733               Magadan1          1835.406
        18   01 Jun 2027 07:18:12.662   01 Jun 2027 07:18:36.706            24.044                Irkutsk           751.375
        19   01 Jun 2027 07:18:51.370   01 Jun 2027 07:21:50.716           179.346                Norilsk          5604.563
        20   01 Jun 2027 07:21:57.645   01 Jun 2027 07:22:31.324            33.679                Norilsk          1052.469
        21   01 Jun 2027 07:22:43.464   01 Jun 2027 07:23:49.007            65.543              Murmansk2          2048.219
        22   01 Jun 2027 07:23:49.007   01 Jun 2027 07:24:45.387            56.380              Murmansk1          1761.875
        23   01 Jun 2027 07:57:18.586   01 Jun 2027 07:58:17.577            58.991            RioGallegos          1843.469
        24   01 Jun 2027 08:31:55.555   01 Jun 2027 08:32:33.123            37.568                Sumatra          1174.000
        25   01 Jun 2027 08:35:04.577   01 Jun 2027 08:35:39.477            34.900                Sumatra          1090.625
        26   01 Jun 2027 08:41:09.384   01 Jun 2027 08:41:18.041             8.657                Sumatra           270.531
        27   01 Jun 2027 08:41:53.963   01 Jun 2027 08:43:47.061           113.098                  Delhi          3534.312
        28   01 Jun 2027 08:46:32.802   01 Jun 2027 08:47:22.030            49.228                  Delhi          1538.375
        29   01 Jun 2027 08:54:47.162   01 Jun 2027 08:56:06.465            79.303                Novosib          2478.219
        30   01 Jun 2027 08:56:10.248   01 Jun 2027 08:56:25.361            15.113                Irkutsk           472.281
        31   01 Jun 2027 08:56:35.050   01 Jun 2027 08:56:53.882            18.832                Novosib           588.500
        32   01 Jun 2027 08:57:05.113   01 Jun 2027 08:57:37.105            31.992                Norilsk           999.750
        33   01 Jun 2027 08:57:45.267   01 Jun 2027 08:57:59.700            14.433                Irkutsk           451.031
        34   01 Jun 2027 08:58:27.707   01 Jun 2027 08:59:53.868            86.161                Novosib          2692.531
        35   01 Jun 2027 08:59:56.064   01 Jun 2027 09:03:55.702           239.638              Murmansk1          7488.688
        36   01 Jun 2027 09:03:55.702   01 Jun 2027 09:04:34.525            38.823              Murmansk2          1213.219
        37   01 Jun 2027 09:05:17.244   01 Jun 2027 09:05:26.961             9.717              Murmansk1           303.656
        38   01 Jun 2027 09:37:51.867   01 Jun 2027 09:40:37.719           165.852            RioGallegos          5182.875
        39   01 Jun 2027 09:43:14.275   01 Jun 2027 09:43:19.224             4.949            RioGallegos           154.656
        40   01 Jun 2027 10:16:17.709   01 Jun 2027 10:19:11.990           174.281                  Delhi          5446.281
        41   01 Jun 2027 10:20:40.798   01 Jun 2027 10:21:31.636            50.838                  Delhi          1588.688
        42   01 Jun 2027 10:31:46.272   01 Jun 2027 10:32:21.443            35.171              Murmansk1          1099.094
        43   01 Jun 2027 10:32:24.462   01 Jun 2027 10:32:37.929            13.467                Novosib           420.844
        44   01 Jun 2027 10:32:42.055   01 Jun 2027 10:33:01.056            19.001                Norilsk           593.781
        45   01 Jun 2027 10:33:08.506   01 Jun 2027 10:34:41.210            92.704              Murmansk1          2897.000
        46   01 Jun 2027 10:35:17.954   01 Jun 2027 10:36:15.230            57.276              Murmansk2          1789.875
        47   01 Jun 2027 10:36:21.974   01 Jun 2027 10:37:16.113            54.139                 Moscow          1691.844
        48   01 Jun 2027 12:09:18.998   01 Jun 2027 12:11:02.038           103.040                Norilsk          3220.000
        49   01 Jun 2027 12:11:03.501   01 Jun 2027 12:12:31.561            88.060                Norilsk          2751.875
        50   01 Jun 2027 13:18:25.765   01 Jun 2027 13:21:06.805           161.040               CapeTown          5032.500
        51   01 Jun 2027 13:49:18.726   01 Jun 2027 13:50:13.883            55.157              Murmansk2          1723.656
        52   01 Jun 2027 13:55:01.084   01 Jun 2027 13:57:29.194           148.110                Anadyr2          4628.437
        53   01 Jun 2027 13:58:51.116   01 Jun 2027 13:59:48.434            57.318                Anadyr1          1791.187
        54   01 Jun 2027 14:02:27.696   01 Jun 2027 14:03:10.203            42.507                Anadyr2          1328.344
        55   01 Jun 2027 15:25:37.155   01 Jun 2027 15:26:25.406            48.251              Murmansk1          1507.844
        56   01 Jun 2027 15:28:22.896   01 Jun 2027 15:28:31.380             8.484              Murmansk2           265.125
        57   01 Jun 2027 15:31:35.368   01 Jun 2027 15:32:13.841            38.473                Anadyr1          1202.281
        58   01 Jun 2027 15:33:01.871   01 Jun 2027 15:33:22.042            20.171                Anadyr1           630.344
        59   01 Jun 2027 15:33:42.038   01 Jun 2027 15:33:51.943             9.905                Anadyr1           309.531
        60   01 Jun 2027 15:33:54.995   01 Jun 2027 15:37:34.493           219.498               Magadan1          6859.312
        61   01 Jun 2027 15:37:34.493   01 Jun 2027 15:38:00.632            26.139               Magadan2           816.844
        62   01 Jun 2027 15:38:57.429   01 Jun 2027 15:40:31.162            93.733               Magadan1          2929.156
        63   01 Jun 2027 17:10:02.387   01 Jun 2027 17:10:07.083             4.696               Magadan2           146.750
        64   01 Jun 2027 17:10:07.083   01 Jun 2027 17:10:43.405            36.322               Magadan1          1135.063
        65   01 Jun 2027 17:11:47.372   01 Jun 2027 17:11:55.497             8.125               Magadan1           253.906
        66   01 Jun 2027 17:12:05.273   01 Jun 2027 17:12:52.719            47.446               Magadan1          1482.687
        67   01 Jun 2027 17:15:20.686   01 Jun 2027 17:15:43.424            22.738                Anadyr2           710.563
        68   01 Jun 2027 17:16:05.224   01 Jun 2027 17:16:12.319             7.095               Magadan1           221.719
        69   01 Jun 2027 17:16:19.269   01 Jun 2027 17:16:32.781            13.512               Magadan1           422.250
        70   01 Jun 2027 17:18:56.283   01 Jun 2027 17:20:31.223            94.940               Magadan2          2966.875
        71   01 Jun 2027 18:03:42.889   01 Jun 2027 18:05:41.786           118.897            RioGallegos          3715.531
        72   01 Jun 2027 18:44:34.433   01 Jun 2027 18:47:14.345           159.912                Norilsk          4997.250
        73   01 Jun 2027 18:47:36.963   01 Jun 2027 18:47:42.759             5.796                Norilsk           181.125
        74   01 Jun 2027 18:48:34.467   01 Jun 2027 18:49:16.592            42.125                Norilsk          1316.406
        75   01 Jun 2027 18:49:44.799   01 Jun 2027 18:53:44.067           239.268                Irkutsk          7477.125
        76   01 Jun 2027 18:54:38.591   01 Jun 2027 18:56:00.942            82.351                Irkutsk          2573.469
        77   01 Jun 2027 19:05:13.065   01 Jun 2027 19:07:06.512           113.447                Sumatra          3545.219
        78   01 Jun 2027 19:08:29.802   01 Jun 2027 19:10:25.436           115.634                Sumatra          3613.563
        79   01 Jun 2027 20:27:31.807   01 Jun 2027 20:27:52.192            20.385                Novosib           637.031
        80   01 Jun 2027 20:28:40.028   01 Jun 2027 20:29:48.209            68.181                Novosib          2130.656
        81   01 Jun 2027 20:37:00.463   01 Jun 2027 20:38:03.084            62.621                  Delhi          1956.906
        82   01 Jun 2027 20:49:32.407   01 Jun 2027 20:50:32.775            60.368                Sumatra          1886.500
        83   01 Jun 2027 21:56:48.327   01 Jun 2027 21:57:31.767            43.440               Magadan2          1357.500
        84   01 Jun 2027 21:59:02.777   01 Jun 2027 21:59:42.327            39.550               Magadan2          1235.937
        85   01 Jun 2027 22:00:03.538   01 Jun 2027 22:01:53.574           110.036                Novosib          3438.625
        86   01 Jun 2027 22:02:32.411   01 Jun 2027 22:03:43.040            70.629              Murmansk1          2207.156
        87   01 Jun 2027 22:10:08.311   01 Jun 2027 22:11:17.183            68.872                  Delhi          2152.250
        88   01 Jun 2027 22:14:38.281   01 Jun 2027 22:15:33.684            55.403                  Delhi          1731.344
        89   01 Jun 2027 22:20:08.137   01 Jun 2027 22:20:09.381             1.244                  Delhi            38.875
        90   01 Jun 2027 23:25:56.090   01 Jun 2027 23:26:14.464            18.374                Anadyr1           574.187
        91   01 Jun 2027 23:27:28.164   01 Jun 2027 23:27:48.777            20.613                Anadyr2           644.156
        92   01 Jun 2027 23:29:58.922   01 Jun 2027 23:30:00.434             1.512                Anadyr1            47.250
        93   01 Jun 2027 23:30:07.754   01 Jun 2027 23:31:08.896            61.142                Anadyr2          1910.688
        94   01 Jun 2027 23:31:21.001   01 Jun 2027 23:32:53.746            92.745               Magadan2          2898.281
        95   01 Jun 2027 23:32:53.746   01 Jun 2027 23:33:31.743            37.997               Magadan1          1187.406
        96   01 Jun 2027 23:34:26.696   01 Jun 2027 23:34:55.157            28.461              Murmansk1           889.406
        97   01 Jun 2027 23:34:55.157   01 Jun 2027 23:37:13.854           138.697              Murmansk2          4334.281
        98   01 Jun 2027 23:37:18.529   01 Jun 2027 23:37:42.581            24.052              Murmansk1           751.625
        99   01 Jun 2027 23:37:58.799   01 Jun 2027 23:38:35.256            36.457              Murmansk1          1139.281
       100   01 Jun 2027 23:40:27.282   01 Jun 2027 23:41:08.937            41.655                 Moscow          1301.719
       101   01 Jun 2027 23:46:40.950   01 Jun 2027 23:47:48.661            67.711                 Moscow          2115.969
       102   02 Jun 2027 00:05:01.515   02 Jun 2027 00:07:03.597           122.082               CapeTown          3815.063
       103   02 Jun 2027 00:09:50.664   02 Jun 2027 00:12:14.482           143.818               CapeTown          4494.313
       104   02 Jun 2027 01:10:20.340   02 Jun 2027 01:11:38.091            77.751              Murmansk2          2429.719
       105   02 Jun 2027 01:15:44.388   02 Jun 2027 01:16:56.398            72.010              Murmansk1          2250.313
       106   02 Jun 2027 01:22:04.505   02 Jun 2027 01:22:07.271             2.766                 Moscow            86.437
       107   02 Jun 2027 01:22:11.872   02 Jun 2027 01:22:12.364             0.492              Murmansk2            15.375
       108   02 Jun 2027 01:24:14.567   02 Jun 2027 01:24:48.842            34.275                 Moscow          1071.094
       109   02 Jun 2027 01:40:28.309   02 Jun 2027 01:40:40.146            11.837               CapeTown           369.906
       110   02 Jun 2027 01:41:45.662   02 Jun 2027 01:43:14.672            89.010               CapeTown          2781.562
       111   02 Jun 2027 02:34:10.902   02 Jun 2027 02:35:27.580            76.678                Anadyr2          2396.187
       112   02 Jun 2027 02:35:28.815   02 Jun 2027 02:36:16.709            47.894               Magadan2          1496.688
       113   02 Jun 2027 02:36:51.324   02 Jun 2027 02:37:04.499            13.175               Magadan2           411.719
       114   02 Jun 2027 02:37:11.262   02 Jun 2027 02:37:26.443            15.181               Magadan2           474.406
       115   02 Jun 2027 02:38:29.373   02 Jun 2027 02:39:04.981            35.608               Magadan2          1112.750
       116   02 Jun 2027 02:40:17.305   02 Jun 2027 02:40:29.705            12.400               Magadan2           387.500
       117   02 Jun 2027 02:42:55.941   02 Jun 2027 02:43:17.362            21.421                Norilsk           669.406
       118   02 Jun 2027 02:45:45.374   02 Jun 2027 02:46:13.216            27.842                Norilsk           870.063
       119   02 Jun 2027 02:46:17.699   02 Jun 2027 02:46:33.951            16.252              Murmansk1           507.875
       120   02 Jun 2027 02:46:54.609   02 Jun 2027 02:47:24.701            30.092              Murmansk2           940.375
       121   02 Jun 2027 02:47:36.255   02 Jun 2027 02:47:56.493            20.238              Murmansk2           632.438
       122   02 Jun 2027 02:49:23.143   02 Jun 2027 02:49:36.339            13.196              Murmansk1           412.375
       123   02 Jun 2027 02:50:24.163   02 Jun 2027 02:50:56.365            32.202                 Moscow          1006.312
       124   02 Jun 2027 02:53:51.078   02 Jun 2027 02:54:02.257            11.179                 Moscow           349.344
       125   02 Jun 2027 02:57:07.148   02 Jun 2027 02:57:10.060             2.912                 Moscow            91.000
       126   02 Jun 2027 02:57:42.063   02 Jun 2027 02:57:50.881             8.818                 Moscow           275.562
       127   02 Jun 2027 03:00:00.625   02 Jun 2027 03:00:37.789            37.164                 Moscow          1161.375
       128   02 Jun 2027 03:16:30.347   02 Jun 2027 03:16:50.801            20.454               CapeTown           639.187
       129   02 Jun 2027 04:16:36.049   02 Jun 2027 04:17:19.052            43.003               Magadan2          1343.844
       130   02 Jun 2027 04:17:47.212   02 Jun 2027 04:21:32.214           225.002               Magadan2          7031.313
       131   02 Jun 2027 05:02:03.896   02 Jun 2027 05:03:15.401            71.505            RioGallegos          2234.531
       132   02 Jun 2027 05:52:43.136   02 Jun 2027 05:53:28.898            45.762                Irkutsk          1430.062
       133   02 Jun 2027 05:53:32.788   02 Jun 2027 05:55:58.003           145.215                Anadyr2          4537.969
       134   02 Jun 2027 05:56:16.010   02 Jun 2027 05:58:12.453           116.443               Magadan1          3638.844
       135   02 Jun 2027 05:58:19.488   02 Jun 2027 05:58:25.636             6.148               Magadan1           192.125
       136   02 Jun 2027 07:30:17.069   02 Jun 2027 07:32:47.623           150.554                Irkutsk          4704.813
       137   02 Jun 2027 07:33:09.134   02 Jun 2027 07:33:27.347            18.213                Irkutsk           569.156
       138   02 Jun 2027 07:33:58.955   02 Jun 2027 07:34:19.936            20.981                Norilsk           655.656
       139   02 Jun 2027 07:34:28.833   02 Jun 2027 07:35:51.001            82.168              Murmansk1          2567.750
       140   02 Jun 2027 07:35:51.001   02 Jun 2027 07:36:58.313            67.312              Murmansk2          2103.500
       141   02 Jun 2027 07:37:09.622   02 Jun 2027 07:37:46.956            37.334              Murmansk2          1166.687
       142   02 Jun 2027 08:12:05.467   02 Jun 2027 08:13:00.767            55.300            RioGallegos          1728.125
       143   02 Jun 2027 08:13:51.496   02 Jun 2027 08:14:40.934            49.438            RioGallegos          1544.938
       144   02 Jun 2027 08:44:00.896   02 Jun 2027 08:46:03.510           122.614                Sumatra          3831.687
       145   02 Jun 2027 08:48:06.182   02 Jun 2027 08:49:02.373            56.191                Sumatra          1755.969
       146   02 Jun 2027 09:07:51.017   02 Jun 2027 09:08:37.776            46.759                Irkutsk          1461.219
       147   02 Jun 2027 09:08:45.434   02 Jun 2027 09:09:52.097            66.663                Irkutsk          2083.219
       148   02 Jun 2027 09:10:30.240   02 Jun 2027 09:11:26.813            56.573                Novosib          1767.906
       149   02 Jun 2027 09:51:57.764   02 Jun 2027 09:53:03.638            65.874            RioGallegos          2058.562
       150   02 Jun 2027 10:28:33.069   02 Jun 2027 10:32:02.667           209.598                  Delhi          6549.937
       151   02 Jun 2027 10:42:41.971   02 Jun 2027 10:42:43.561             1.590                Novosib            49.687
       152   02 Jun 2027 10:45:25.384   02 Jun 2027 10:45:27.209             1.825                Novosib            57.031
       153   02 Jun 2027 10:45:27.569   02 Jun 2027 10:45:53.320            25.751                Norilsk           804.719
       154   02 Jun 2027 12:16:03.418   02 Jun 2027 12:19:20.694           197.276              Murmansk1          6164.875
       155   02 Jun 2027 12:20:14.732   02 Jun 2027 12:20:33.525            18.793              Murmansk1           587.281
       156   02 Jun 2027 12:21:04.091   02 Jun 2027 12:21:57.344            53.253                Norilsk          1664.156
       157   02 Jun 2027 13:26:41.166   02 Jun 2027 13:29:38.987           177.821               CapeTown          5556.906
       158   02 Jun 2027 13:30:19.760   02 Jun 2027 13:31:40.447            80.687               CapeTown          2521.469
       159   02 Jun 2027 13:53:27.865   02 Jun 2027 13:53:52.448            24.583              Murmansk2           768.219
       160   02 Jun 2027 13:54:04.674   02 Jun 2027 13:54:50.512            45.838              Murmansk1          1432.438
       161   02 Jun 2027 13:55:18.283   02 Jun 2027 13:55:25.785             7.502              Murmansk1           234.437
       162   02 Jun 2027 13:55:56.462   02 Jun 2027 13:56:49.162            52.700              Murmansk2          1646.875
       163   02 Jun 2027 14:06:56.832   02 Jun 2027 14:07:19.734            22.902                Anadyr1           715.687
       164   02 Jun 2027 14:07:33.146   02 Jun 2027 14:09:13.810           100.664                Anadyr1          3145.750
       165   02 Jun 2027 14:09:31.979   02 Jun 2027 14:09:57.847            25.868                Anadyr2           808.375
       166   02 Jun 2027 14:13:06.056   02 Jun 2027 14:14:16.329            70.273                Anadyr2          2196.031
       167   02 Jun 2027 15:11:55.081   02 Jun 2027 15:12:07.947            12.866               CapeTown           402.063
       168   02 Jun 2027 15:33:19.016   02 Jun 2027 15:35:23.276           124.260              Murmansk2          3883.125
       169   02 Jun 2027 15:39:41.965   02 Jun 2027 15:40:08.324            26.359              Murmansk1           823.719
       170   02 Jun 2027 15:42:36.075   02 Jun 2027 15:44:48.087           132.012                Anadyr1          4125.375
       171   02 Jun 2027 15:45:40.902   02 Jun 2027 15:50:31.713           290.811               Magadan1          9087.844
       172   02 Jun 2027 15:50:31.713   02 Jun 2027 15:51:15.350            43.637               Magadan2          1363.656
       173   02 Jun 2027 17:19:45.758   02 Jun 2027 17:20:02.630            16.872                Anadyr2           527.250
       174   02 Jun 2027 17:20:50.242   02 Jun 2027 17:22:38.066           107.824               Magadan1          3369.500
       175   02 Jun 2027 17:27:52.187   02 Jun 2027 17:28:17.109            24.922               Magadan1           778.813
       176   02 Jun 2027 18:14:34.987   02 Jun 2027 18:17:23.752           168.765            RioGallegos          5273.906
       177   02 Jun 2027 18:20:06.655   02 Jun 2027 18:20:36.254            29.599            RioGallegos           924.969
       178   02 Jun 2027 18:55:45.000   02 Jun 2027 18:55:52.214             7.214                Anadyr2           225.437
       179   02 Jun 2027 18:56:30.717   02 Jun 2027 18:59:18.173           167.456                Norilsk          5233.000
       180   02 Jun 2027 19:01:22.114   02 Jun 2027 19:01:48.092            25.978                Irkutsk           811.812
       181   02 Jun 2027 19:02:44.313   02 Jun 2027 19:04:51.430           127.117                Irkutsk          3972.406
       182   02 Jun 2027 19:05:45.005   02 Jun 2027 19:06:45.859            60.854                Irkutsk          1901.688
       183   02 Jun 2027 19:16:11.709   02 Jun 2027 19:18:44.215           152.506                Sumatra          4765.812
       184   02 Jun 2027 19:20:10.885   02 Jun 2027 19:22:30.484           139.599                Sumatra          4362.469
       185   02 Jun 2027 19:23:47.451   02 Jun 2027 19:24:37.811            50.360                Sumatra          1573.750
       186   02 Jun 2027 20:37:34.457   02 Jun 2027 20:37:55.146            20.689                Novosib           646.531
       187   02 Jun 2027 20:38:49.868   02 Jun 2027 20:39:06.845            16.977                Novosib           530.531
       188   02 Jun 2027 20:39:25.107   02 Jun 2027 20:39:39.969            14.862                Novosib           464.438
       189   02 Jun 2027 20:46:34.439   02 Jun 2027 20:49:22.999           168.560                  Delhi          5267.500
       190   02 Jun 2027 20:51:36.999   02 Jun 2027 20:52:43.485            66.486                  Delhi          2077.688
       191   02 Jun 2027 22:11:11.484   02 Jun 2027 22:14:55.843           224.359              Murmansk1          7011.219
       192   02 Jun 2027 22:14:58.275   02 Jun 2027 22:16:42.510           104.235              Murmansk2          3257.344
       193   02 Jun 2027 23:41:58.008   02 Jun 2027 23:42:13.499            15.491                Anadyr2           484.094
       194   02 Jun 2027 23:42:55.845   02 Jun 2027 23:44:56.281           120.436               Magadan1          3763.625
       195   02 Jun 2027 23:45:34.356   02 Jun 2027 23:45:57.890            23.534               Magadan1           735.438
       196   02 Jun 2027 23:46:26.766   02 Jun 2027 23:49:13.201           166.435              Murmansk2          5201.094
       197   02 Jun 2027 23:49:13.201   02 Jun 2027 23:49:19.701             6.500              Murmansk1           203.125
       198   02 Jun 2027 23:49:44.245   02 Jun 2027 23:50:36.327            52.082              Murmansk1          1627.562
       199   02 Jun 2027 23:50:57.507   02 Jun 2027 23:52:40.964           103.457                 Moscow          3233.031
       200   02 Jun 2027 23:53:18.004   02 Jun 2027 23:54:02.113            44.109                 Moscow          1378.406
       201   03 Jun 2027 00:16:09.136   03 Jun 2027 00:16:52.081            42.945               CapeTown          1342.031
       202   03 Jun 2027 00:17:56.883   03 Jun 2027 00:18:37.616            40.733               CapeTown          1272.906
       203   03 Jun 2027 00:22:06.618   03 Jun 2027 00:23:47.640           101.022               CapeTown          3156.938
       204   03 Jun 2027 01:22:22.038   03 Jun 2027 01:23:31.819            69.781              Murmansk1          2180.656
       205   03 Jun 2027 01:25:34.858   03 Jun 2027 01:26:36.395            61.537                 Moscow          1923.031
       206   03 Jun 2027 01:27:14.856   03 Jun 2027 01:27:16.630             1.774                 Moscow            55.438
       207   03 Jun 2027 01:29:41.494   03 Jun 2027 01:29:43.280             1.786                 Moscow            55.812
       208   03 Jun 2027 01:29:47.209   03 Jun 2027 01:30:42.167            54.958                 Moscow          1717.438
       209   03 Jun 2027 01:37:17.698   03 Jun 2027 01:38:26.513            68.815                 Moscow          2150.469
       210   03 Jun 2027 01:56:20.125   03 Jun 2027 01:56:33.981            13.856               CapeTown           433.000
       211   03 Jun 2027 02:00:27.013   03 Jun 2027 02:01:06.153            39.140               CapeTown          1223.125
       212   03 Jun 2027 02:46:14.858   03 Jun 2027 02:47:37.630            82.772                Anadyr1          2586.625
       213   03 Jun 2027 02:47:42.691   03 Jun 2027 02:47:47.261             4.570               Magadan2           142.813
       214   03 Jun 2027 02:48:06.254   03 Jun 2027 02:49:02.664            56.410               Magadan1          1762.812
       215   03 Jun 2027 02:49:07.218   03 Jun 2027 02:49:12.189             4.971               Magadan1           155.344
       216   03 Jun 2027 02:49:44.825   03 Jun 2027 02:50:31.929            47.104               Magadan1          1472.000
       217   03 Jun 2027 02:55:29.326   03 Jun 2027 02:56:01.430            32.104                Norilsk          1003.250
       218   03 Jun 2027 02:58:18.682   03 Jun 2027 02:58:28.682            10.000              Murmansk2           312.500
       219   03 Jun 2027 02:59:03.732   03 Jun 2027 02:59:56.775            53.043              Murmansk1          1657.594
       220   03 Jun 2027 04:30:14.498   03 Jun 2027 04:30:21.938             7.440                Anadyr2           232.500
       221   03 Jun 2027 04:30:22.170   03 Jun 2027 04:31:25.017            62.847                Irkutsk          1963.969
       222   03 Jun 2027 04:31:26.067   03 Jun 2027 04:31:59.584            33.517               Magadan2          1047.406
       223   03 Jun 2027 06:05:00.413   03 Jun 2027 06:06:26.954            86.541               Magadan1          2704.406
       224   03 Jun 2027 06:06:40.523   03 Jun 2027 06:11:09.280           268.757                Novosib          8398.656
       225   03 Jun 2027 07:42:32.082   03 Jun 2027 07:42:57.889            25.807                Novosib           806.469
       226   03 Jun 2027 07:45:04.669   03 Jun 2027 07:45:09.698             5.029                Irkutsk           157.156
       227   03 Jun 2027 07:45:13.166   03 Jun 2027 07:45:46.774            33.608                Irkutsk          1050.250
       228   03 Jun 2027 07:46:00.428   03 Jun 2027 07:46:08.674             8.246                Norilsk           257.687
       229   03 Jun 2027 07:46:28.882   03 Jun 2027 07:46:44.127            15.245              Murmansk2           476.406
       230   03 Jun 2027 07:46:53.707   03 Jun 2027 07:46:53.958             0.251                Novosib             7.844
       231   03 Jun 2027 07:47:31.596   03 Jun 2027 07:47:52.861            21.265              Murmansk2           664.531
       232   03 Jun 2027 08:21:52.263   03 Jun 2027 08:22:35.284            43.021            RioGallegos          1344.406
       233   03 Jun 2027 08:26:02.377   03 Jun 2027 08:26:51.714            49.337            RioGallegos          1541.781
       234   03 Jun 2027 08:56:12.190   03 Jun 2027 08:57:47.146            94.956                Sumatra          2967.375
       235   03 Jun 2027 09:19:07.278   03 Jun 2027 09:19:44.733            37.455                Novosib          1170.469
       236   03 Jun 2027 09:20:49.285   03 Jun 2027 09:21:25.641            36.356                Novosib          1136.125
       237   03 Jun 2027 09:22:20.503   03 Jun 2027 09:22:21.854             1.351                Novosib            42.219
       238   03 Jun 2027 10:40:55.294   03 Jun 2027 10:44:41.128           225.834                  Delhi          7057.312
       239   03 Jun 2027 10:54:56.752   03 Jun 2027 10:55:27.622            30.870                Novosib           964.687
       240   03 Jun 2027 10:57:27.274   03 Jun 2027 10:57:31.415             4.141                Novosib           129.406
       241   03 Jun 2027 10:58:57.355   03 Jun 2027 10:59:04.706             7.351                Novosib           229.719
       242   03 Jun 2027 12:28:09.486   03 Jun 2027 12:30:16.998           127.512              Murmansk2          3984.750
       243   03 Jun 2027 12:30:51.808   03 Jun 2027 12:31:01.647             9.839              Murmansk2           307.469
       244   03 Jun 2027 12:31:22.359   03 Jun 2027 12:31:42.969            20.610              Murmansk2           644.062
       245   03 Jun 2027 12:32:08.324   03 Jun 2027 12:32:52.970            44.646              Murmansk2          1395.187
       246   03 Jun 2027 12:33:24.122   03 Jun 2027 12:33:57.030            32.908              Murmansk2          1028.375
       247   03 Jun 2027 12:33:58.490   03 Jun 2027 12:34:57.896            59.406                Norilsk          1856.438
       248   03 Jun 2027 12:35:48.812   03 Jun 2027 12:36:53.247            64.435                Norilsk          2013.594
       249   03 Jun 2027 12:45:11.946   03 Jun 2027 12:47:31.267           139.321                Anadyr2          4353.781
       250   03 Jun 2027 13:41:52.700   03 Jun 2027 13:42:14.497            21.797               CapeTown           681.156
       251   03 Jun 2027 13:49:07.638   03 Jun 2027 13:49:33.115            25.477               CapeTown           796.156
       252   03 Jun 2027 14:05:49.370   03 Jun 2027 14:07:11.259            81.889              Murmansk2          2559.031
       253   03 Jun 2027 14:07:19.245   03 Jun 2027 14:07:24.510             5.265              Murmansk2           164.531
       254   03 Jun 2027 14:08:50.889   03 Jun 2027 14:09:22.265            31.376              Murmansk1           980.500
       255   03 Jun 2027 14:10:40.082   03 Jun 2027 14:10:41.560             1.478              Murmansk2            46.188
       256   03 Jun 2027 14:11:04.343   03 Jun 2027 14:11:14.348            10.005              Murmansk1           312.656
       257   03 Jun 2027 14:11:26.964   03 Jun 2027 14:11:28.071             1.107              Murmansk1            34.594
       258   03 Jun 2027 14:12:42.159   03 Jun 2027 14:13:13.900            31.741              Murmansk2           991.906
       259   03 Jun 2027 14:18:53.800   03 Jun 2027 14:21:29.153           155.353                Anadyr2          4854.781
       260   03 Jun 2027 14:21:33.245   03 Jun 2027 14:21:58.888            25.643                Anadyr2           801.344
       261   03 Jun 2027 14:22:13.894   03 Jun 2027 14:23:20.853            66.959                Anadyr2          2092.469
       262   03 Jun 2027 15:46:05.771   03 Jun 2027 15:48:33.678           147.907              Murmansk1          4622.094
       263   03 Jun 2027 15:54:37.053   03 Jun 2027 15:54:43.362             6.309                Anadyr1           197.156
       264   03 Jun 2027 15:55:14.193   03 Jun 2027 15:56:44.097            89.904                Anadyr2          2809.500
       265   03 Jun 2027 15:57:30.486   03 Jun 2027 16:00:55.581           205.095               Magadan2          6409.219
       266   03 Jun 2027 16:01:19.485   03 Jun 2027 16:01:19.739             0.254               Magadan1             7.937
       267   03 Jun 2027 16:04:36.342   03 Jun 2027 16:05:26.353            50.011               Magadan1          1562.844
       268   03 Jun 2027 17:30:32.458   03 Jun 2027 17:32:16.735           104.277                Anadyr1          3258.656
       269   03 Jun 2027 17:32:50.137   03 Jun 2027 17:33:57.501            67.364               Magadan1          2105.125
       270   03 Jun 2027 17:35:52.721   03 Jun 2027 17:36:09.891            17.170               Magadan2           536.562
       271   03 Jun 2027 17:36:21.909   03 Jun 2027 17:36:58.963            37.054               Magadan2          1157.938
       272   03 Jun 2027 17:45:38.318   03 Jun 2027 17:45:38.666             0.348               Magadan2            10.875
       273   03 Jun 2027 18:25:58.421   03 Jun 2027 18:29:10.309           191.888            RioGallegos          5996.500
       274   03 Jun 2027 18:30:46.407   03 Jun 2027 18:32:08.449            82.042            RioGallegos          2563.812
       275   03 Jun 2027 18:33:00.137   03 Jun 2027 18:33:17.998            17.861            RioGallegos           558.156
       276   03 Jun 2027 19:08:28.433   03 Jun 2027 19:09:26.072            57.639                Norilsk          1801.219
       277   03 Jun 2027 19:09:50.200   03 Jun 2027 19:12:34.037           163.837                Norilsk          5119.906
       278   03 Jun 2027 19:13:05.604   03 Jun 2027 19:14:03.780            58.176                Irkutsk          1818.000
       279   03 Jun 2027 19:15:18.906   03 Jun 2027 19:16:21.446            62.540                Irkutsk          1954.375
       280   03 Jun 2027 19:27:29.159   03 Jun 2027 19:29:53.049           143.890                Sumatra          4496.562
       281   03 Jun 2027 19:31:03.091   03 Jun 2027 19:31:54.200            51.109                Sumatra          1597.156
       282   03 Jun 2027 19:33:11.542   03 Jun 2027 19:34:47.996            96.454                Sumatra          3014.187
       283   03 Jun 2027 20:48:39.804   03 Jun 2027 20:49:28.933            49.129                Novosib          1535.281
       284   03 Jun 2027 20:50:07.237   03 Jun 2027 20:50:15.928             8.691                Novosib           271.594
       285   03 Jun 2027 20:51:11.108   03 Jun 2027 20:52:30.632            79.524                Novosib          2485.125
       286   03 Jun 2027 20:57:35.537   03 Jun 2027 21:00:17.581           162.044                  Delhi          5063.875
       287   03 Jun 2027 21:03:53.004   03 Jun 2027 21:05:30.181            97.177                  Delhi          3036.781
       288   03 Jun 2027 22:23:00.542   03 Jun 2027 22:26:52.527           231.985              Murmansk2          7249.531
       289   03 Jun 2027 22:27:21.718   03 Jun 2027 22:29:02.587           100.869              Murmansk1          3152.156
       290   03 Jun 2027 23:55:20.158   03 Jun 2027 23:56:11.863            51.705               Magadan2          1615.781
       291   03 Jun 2027 23:57:36.500   03 Jun 2027 23:58:03.843            27.343               Magadan2           854.469
       292   03 Jun 2027 23:58:27.266   04 Jun 2027 00:01:12.148           164.882              Murmansk1          5152.563
       293   04 Jun 2027 00:02:04.695   04 Jun 2027 00:03:17.512            72.817                 Moscow          2275.531
       294   04 Jun 2027 00:03:45.268   04 Jun 2027 00:04:45.617            60.349                 Moscow          1885.906
       295   04 Jun 2027 00:27:28.079   04 Jun 2027 00:29:00.860            92.781               CapeTown          2899.406
       296   04 Jun 2027 00:31:58.120   04 Jun 2027 00:34:02.817           124.697               CapeTown          3896.781
       297   04 Jun 2027 01:32:54.724   04 Jun 2027 01:33:07.732            13.008               Magadan1           406.500
       298   04 Jun 2027 01:33:40.325   04 Jun 2027 01:33:58.529            18.204               Magadan2           568.875
       299   04 Jun 2027 01:34:23.742   04 Jun 2027 01:35:24.470            60.728              Murmansk2          1897.750
       300   04 Jun 2027 01:36:38.073   04 Jun 2027 01:37:03.687            25.614              Murmansk2           800.437
       301   04 Jun 2027 01:37:08.710   04 Jun 2027 01:37:36.352            27.642                Novosib           863.813
       302   04 Jun 2027 01:37:40.900   04 Jun 2027 01:37:51.216            10.316              Murmansk2           322.375
       303   04 Jun 2027 01:38:26.265   04 Jun 2027 01:39:01.701            35.436                 Moscow          1107.375
       304   04 Jun 2027 01:46:15.343   04 Jun 2027 01:47:06.863            51.520                 Moscow          1610.000
       305   04 Jun 2027 02:02:39.809   04 Jun 2027 02:03:28.429            48.620               CapeTown          1519.375
       306   04 Jun 2027 02:10:58.708   04 Jun 2027 02:11:16.895            18.187               CapeTown           568.344
       307   04 Jun 2027 02:58:20.852   04 Jun 2027 03:00:21.616           120.764                Anadyr2          3773.875
       308   04 Jun 2027 03:00:30.035   04 Jun 2027 03:00:55.537            25.502               Magadan1           796.938
       309   04 Jun 2027 03:04:20.360   04 Jun 2027 03:07:42.156           201.796               Magadan2          6306.125
       310   04 Jun 2027 03:07:42.156   04 Jun 2027 03:08:18.827            36.671               Magadan1          1145.969
       311   04 Jun 2027 03:08:19.275   04 Jun 2027 03:10:45.152           145.877                Anadyr1          4558.656
       312   04 Jun 2027 04:40:54.070   04 Jun 2027 04:41:11.726            17.656                Irkutsk           551.750
       313   04 Jun 2027 04:44:32.809   04 Jun 2027 04:44:35.127             2.318                Irkutsk            72.438
       314   04 Jun 2027 04:44:41.583   04 Jun 2027 04:46:39.957           118.374                Anadyr1          3699.188
       315   04 Jun 2027 06:17:06.273   04 Jun 2027 06:17:27.539            21.266               Magadan2           664.562
       316   04 Jun 2027 06:18:27.033   04 Jun 2027 06:18:30.659             3.626               Magadan1           113.312
       317   04 Jun 2027 06:18:33.219   04 Jun 2027 06:19:01.712            28.493               Magadan2           890.406
       318   04 Jun 2027 06:19:17.851   04 Jun 2027 06:19:38.246            20.395               Magadan2           637.344
       319   04 Jun 2027 06:20:18.780   04 Jun 2027 06:20:30.808            12.028               Magadan2           375.875
       320   04 Jun 2027 06:21:24.723   04 Jun 2027 06:21:33.049             8.326               Magadan1           260.188
       321   04 Jun 2027 06:21:41.679   04 Jun 2027 06:22:01.126            19.447               Magadan2           607.719
       322   04 Jun 2027 06:22:09.101   04 Jun 2027 06:23:07.111            58.010                Norilsk          1812.813
       323   04 Jun 2027 07:54:08.354   04 Jun 2027 07:54:35.194            26.840                Novosib           838.750
       324   04 Jun 2027 07:56:58.476   04 Jun 2027 07:57:02.044             3.568                Irkutsk           111.500
       325   04 Jun 2027 07:57:21.880   04 Jun 2027 07:57:28.248             6.368                Irkutsk           199.000
       326   04 Jun 2027 07:58:04.037   04 Jun 2027 07:58:55.185            51.148                Novosib          1598.375
       327   04 Jun 2027 08:34:15.883   04 Jun 2027 08:34:40.039            24.156            RioGallegos           754.875
       328   04 Jun 2027 08:35:46.586   04 Jun 2027 08:35:58.931            12.345            RioGallegos           385.781
       329   04 Jun 2027 09:08:30.203   04 Jun 2027 09:09:37.154            66.951                Sumatra          2092.219
       330   04 Jun 2027 09:33:08.699   04 Jun 2027 09:33:37.508            28.809                Norilsk           900.281
       331   04 Jun 2027 09:33:50.513   04 Jun 2027 09:33:57.070             6.557                Novosib           204.906
       332   04 Jun 2027 10:53:25.763   04 Jun 2027 10:56:16.961           171.198                  Delhi          5349.938
       333   04 Jun 2027 11:07:31.346   04 Jun 2027 11:07:41.721            10.375                Norilsk           324.219
       334   04 Jun 2027 11:08:47.284   04 Jun 2027 11:09:00.872            13.588                Novosib           424.625
       335   04 Jun 2027 11:09:26.552   04 Jun 2027 11:09:36.878            10.326                Novosib           322.688
       336   04 Jun 2027 11:10:29.557   04 Jun 2027 11:11:07.808            38.251                Norilsk          1195.344
       337   04 Jun 2027 12:36:45.917   04 Jun 2027 12:37:13.464            27.547                 Moscow           860.844
       338   04 Jun 2027 12:38:18.432   04 Jun 2027 12:39:09.702            51.270                 Moscow          1602.188
       339   04 Jun 2027 12:40:17.244   04 Jun 2027 12:41:39.303            82.059              Murmansk2          2564.344
       340   04 Jun 2027 12:41:39.303   04 Jun 2027 12:42:18.289            38.986              Murmansk1          1218.312
       341   04 Jun 2027 12:44:02.680   04 Jun 2027 12:44:54.333            51.653              Murmansk1          1614.156
       342   04 Jun 2027 12:47:05.008   04 Jun 2027 12:47:52.934            47.926                Norilsk          1497.688
       343   04 Jun 2027 12:56:21.507   04 Jun 2027 12:59:37.233           195.726                Anadyr1          6116.438
       344   04 Jun 2027 12:59:47.458   04 Jun 2027 13:01:03.128            75.670                Anadyr2          2364.687
       345   04 Jun 2027 14:18:13.185   04 Jun 2027 14:18:53.743            40.558              Murmansk2          1267.438
       346   04 Jun 2027 14:20:52.545   04 Jun 2027 14:21:26.368            33.823              Murmansk1          1056.969
       347   04 Jun 2027 14:22:41.902   04 Jun 2027 14:22:53.375            11.473              Murmansk1           358.531
       348   04 Jun 2027 14:30:51.715   04 Jun 2027 14:32:49.646           117.931                Anadyr1          3685.344
       349   04 Jun 2027 14:33:28.540   04 Jun 2027 14:34:56.594            88.054                Anadyr2          2751.688
       350   04 Jun 2027 15:26:38.675   04 Jun 2027 15:26:43.100             4.425               CapeTown           138.281
       351   04 Jun 2027 15:30:46.074   04 Jun 2027 15:31:21.063            34.989               CapeTown          1093.406
       352   04 Jun 2027 15:58:59.107   04 Jun 2027 16:00:29.661            90.554              Murmansk2          2829.812
       353   04 Jun 2027 16:00:29.661   04 Jun 2027 16:00:42.281            12.620              Murmansk1           394.375
       354   04 Jun 2027 16:00:56.562   04 Jun 2027 16:01:26.312            29.750              Murmansk2           929.688
       355   04 Jun 2027 16:06:38.197   04 Jun 2027 16:08:12.255            94.058                Anadyr1          2939.312
       356   04 Jun 2027 16:08:42.607   04 Jun 2027 16:09:20.461            37.854                Anadyr2          1182.937
       357   04 Jun 2027 16:09:22.666   04 Jun 2027 16:14:09.510           286.844               Magadan2          8963.875
       358   04 Jun 2027 17:42:33.486   04 Jun 2027 17:43:30.068            56.582                Anadyr2          1768.188
       359   04 Jun 2027 17:43:58.415   04 Jun 2027 17:44:20.927            22.512                Anadyr2           703.500
       360   04 Jun 2027 17:44:50.523   04 Jun 2027 17:45:35.237            44.714               Magadan1          1397.313
       361   04 Jun 2027 17:46:48.807   04 Jun 2027 17:47:55.284            66.477               Magadan2          2077.406
       362   04 Jun 2027 17:48:39.692   04 Jun 2027 17:48:48.843             9.151               Magadan2           285.969
       363   04 Jun 2027 17:53:46.260   04 Jun 2027 17:54:03.652            17.392               Magadan2           543.500
       364   04 Jun 2027 18:37:33.795   04 Jun 2027 18:41:00.194           206.399            RioGallegos          6449.969
       365   04 Jun 2027 18:41:48.742   04 Jun 2027 18:42:53.422            64.680            RioGallegos          2021.250
       366   04 Jun 2027 19:20:49.864   04 Jun 2027 19:21:40.992            51.128               Magadan2          1597.750
       367   04 Jun 2027 19:21:40.992   04 Jun 2027 19:22:12.471            31.479               Magadan1           983.719
       368   04 Jun 2027 19:23:19.571   04 Jun 2027 19:23:54.131            34.560                Norilsk          1080.000
       369   04 Jun 2027 19:24:53.257   04 Jun 2027 19:27:25.136           151.879                Irkutsk          4746.219
       370   04 Jun 2027 19:27:33.027   04 Jun 2027 19:28:30.893            57.866                Irkutsk          1808.313
       371   04 Jun 2027 19:38:58.425   04 Jun 2027 19:40:02.726            64.301                Sumatra          2009.406
       372   04 Jun 2027 19:40:23.713   04 Jun 2027 19:42:19.922           116.209                Sumatra          3631.531
       373   04 Jun 2027 19:44:30.061   04 Jun 2027 19:45:46.109            76.048                Sumatra          2376.500
       374   04 Jun 2027 21:00:11.048   04 Jun 2027 21:01:29.361            78.313                Irkutsk          2447.281
       375   04 Jun 2027 21:01:38.780   04 Jun 2027 21:04:00.263           141.483                Novosib          4421.344
       376   04 Jun 2027 21:08:56.981   04 Jun 2027 21:10:54.341           117.360                  Delhi          3667.500
       377   04 Jun 2027 21:10:58.183   04 Jun 2027 21:12:03.241            65.058                  Delhi          2033.062
       378   04 Jun 2027 22:34:53.314   04 Jun 2027 22:38:50.409           237.095              Murmansk1          7409.219
       379   04 Jun 2027 22:39:42.873   04 Jun 2027 22:42:11.797           148.924              Murmansk2          4653.875
       380   05 Jun 2027 00:05:57.655   05 Jun 2027 00:06:11.848            14.193               Magadan1           443.531
       381   05 Jun 2027 00:06:56.476   05 Jun 2027 00:07:09.631            13.155               Magadan2           411.094
       382   05 Jun 2027 00:07:50.527   05 Jun 2027 00:08:30.482            39.955               Magadan2          1248.594
       383   05 Jun 2027 00:09:36.479   05 Jun 2027 00:10:27.276            50.797               Magadan2          1587.406
       384   05 Jun 2027 00:10:28.109   05 Jun 2027 00:12:09.872           101.763              Murmansk1          3180.094
       385   05 Jun 2027 00:13:47.520   05 Jun 2027 00:14:39.050            51.530              Murmansk1          1610.313
       386   05 Jun 2027 00:15:51.592   05 Jun 2027 00:16:25.547            33.955                 Moscow          1061.094
       387   05 Jun 2027 00:17:00.258   05 Jun 2027 00:17:41.317            41.059                 Moscow          1283.094
       388   05 Jun 2027 00:20:53.018   05 Jun 2027 00:21:19.095            26.077                 Moscow           814.906
       389   05 Jun 2027 00:21:56.311   05 Jun 2027 00:22:10.385            14.074                 Moscow           439.813
       390   05 Jun 2027 00:38:55.437   05 Jun 2027 00:41:15.245           139.808               CapeTown          4369.000
       391   05 Jun 2027 00:43:51.461   05 Jun 2027 00:44:45.544            54.083               CapeTown          1690.094
       392   05 Jun 2027 01:37:55.820   05 Jun 2027 01:38:10.379            14.559               Magadan1           454.969
       393   05 Jun 2027 01:38:36.537   05 Jun 2027 01:39:08.963            32.426               Magadan1          1013.313
       394   05 Jun 2027 01:43:44.873   05 Jun 2027 01:43:50.527             5.654               Magadan2           176.687
       395   05 Jun 2027 01:44:04.553   05 Jun 2027 01:44:05.419             0.866                Norilsk            27.063
       396   05 Jun 2027 01:44:54.332   05 Jun 2027 01:45:09.695            15.363               Magadan1           480.094
       397   05 Jun 2027 01:45:36.348   05 Jun 2027 01:45:51.423            15.075                Norilsk           471.094
       398   05 Jun 2027 01:46:25.422   05 Jun 2027 01:47:55.220            89.798              Murmansk1          2806.188
       399   05 Jun 2027 01:48:22.910   05 Jun 2027 01:48:36.722            13.812              Murmansk2           431.625
       400   05 Jun 2027 01:49:01.591   05 Jun 2027 01:49:38.423            36.832              Murmansk2          1151.000
       401   05 Jun 2027 01:52:53.069   05 Jun 2027 01:53:20.067            26.998                 Moscow           843.687
       402   05 Jun 2027 01:59:31.038   05 Jun 2027 01:59:47.414            16.376                 Moscow           511.750
       403   05 Jun 2027 02:13:45.072   05 Jun 2027 02:15:15.603            90.531               CapeTown          2829.094
       404   05 Jun 2027 03:10:28.975   05 Jun 2027 03:11:42.666            73.691                Anadyr1          2302.844
       405   05 Jun 2027 03:13:05.364   05 Jun 2027 03:13:10.908             5.544                Anadyr1           173.250
       406   05 Jun 2027 03:13:21.569   05 Jun 2027 03:13:41.310            19.741               Magadan2           616.906
       407   05 Jun 2027 03:14:44.866   05 Jun 2027 03:14:53.883             9.017               Magadan2           281.781
       408   05 Jun 2027 03:16:22.525   05 Jun 2027 03:18:24.200           121.675               Magadan2          3802.344
       409   05 Jun 2027 03:18:24.200   05 Jun 2027 03:20:44.092           139.892               Magadan1          4371.625
       410   05 Jun 2027 03:21:15.828   05 Jun 2027 03:21:54.654            38.826                Anadyr1          1213.313
       411   05 Jun 2027 04:56:28.556   05 Jun 2027 04:57:32.957            64.401                Anadyr2          2012.531
       412   05 Jun 2027 04:57:32.957   05 Jun 2027 04:58:23.315            50.358                Anadyr1          1573.687
       413   05 Jun 2027 04:58:41.486   05 Jun 2027 04:58:46.296             4.810                Anadyr1           150.313
       414   05 Jun 2027 06:29:14.804   05 Jun 2027 06:30:16.313            61.509               Magadan1          1922.156
       415   05 Jun 2027 06:30:32.070   05 Jun 2027 06:30:33.764             1.694               Magadan2            52.937
       416   05 Jun 2027 06:30:40.903   05 Jun 2027 06:32:19.085            98.182               Magadan2          3068.187
       417   05 Jun 2027 06:32:33.895   05 Jun 2027 06:33:31.213            57.318               Magadan1          1791.187
       418   05 Jun 2027 06:33:38.238   05 Jun 2027 06:33:40.745             2.507               Magadan2            78.344
       419   05 Jun 2027 06:33:57.356   05 Jun 2027 06:34:21.081            23.725                Novosib           741.406
       420   05 Jun 2027 06:35:48.442   05 Jun 2027 06:35:51.993             3.551              Murmansk2           110.969
       421   05 Jun 2027 06:36:09.558   05 Jun 2027 06:36:34.950            25.392              Murmansk2           793.500
       422   05 Jun 2027 08:06:25.715   05 Jun 2027 08:06:32.291             6.576                Irkutsk           205.500
       423   05 Jun 2027 08:07:48.066   05 Jun 2027 08:07:58.231            10.165                Irkutsk           317.656
       424   05 Jun 2027 08:08:50.138   05 Jun 2027 08:08:53.979             3.841                Irkutsk           120.031
       425   05 Jun 2027 08:08:58.858   05 Jun 2027 08:09:32.231            33.373                Irkutsk          1042.906
       426   05 Jun 2027 08:09:56.662   05 Jun 2027 08:10:23.602            26.940                Novosib           841.875
       427   05 Jun 2027 08:12:21.574   05 Jun 2027 08:12:50.997            29.423              Murmansk2           919.469
       428   05 Jun 2027 08:46:44.802   05 Jun 2027 08:46:48.318             3.516            RioGallegos           109.875
       429   05 Jun 2027 08:47:50.338   05 Jun 2027 08:48:31.794            41.456            RioGallegos          1295.500
       430   05 Jun 2027 09:20:56.406   05 Jun 2027 09:21:32.974            36.568                Sumatra          1142.750
       431   05 Jun 2027 09:23:56.934   05 Jun 2027 09:24:31.063            34.129                Sumatra          1066.531
       432   05 Jun 2027 09:45:00.454   05 Jun 2027 09:45:00.881             0.427                Novosib            13.344
       433   05 Jun 2027 09:45:10.002   05 Jun 2027 09:45:40.424            30.422                Norilsk           950.687
       434   05 Jun 2027 09:45:47.930   05 Jun 2027 09:46:03.587            15.657                Norilsk           489.281
       435   05 Jun 2027 09:46:11.011   05 Jun 2027 09:46:44.601            33.590                Norilsk          1049.687
       436   05 Jun 2027 11:06:06.994   05 Jun 2027 11:08:53.319           166.325                  Delhi          5197.656
       437   05 Jun 2027 11:18:44.465   05 Jun 2027 11:19:12.761            28.296                Novosib           884.250
       438   05 Jun 2027 11:19:21.061   05 Jun 2027 11:19:43.499            22.438                Novosib           701.188
       439   05 Jun 2027 11:20:13.050   05 Jun 2027 11:21:24.924            71.874                Novosib          2246.062
       440   05 Jun 2027 11:22:35.138   05 Jun 2027 11:22:45.849            10.711                Norilsk           334.719
       441   05 Jun 2027 12:48:57.060   05 Jun 2027 12:49:46.872            49.812                 Moscow          1556.625
       442   05 Jun 2027 12:51:50.286   05 Jun 2027 12:52:37.551            47.265                 Moscow          1477.031
       443   05 Jun 2027 12:53:00.683   05 Jun 2027 12:53:20.274            19.591                 Moscow           612.219
       444   05 Jun 2027 12:53:30.357   05 Jun 2027 12:54:19.386            49.029              Murmansk1          1532.156
       445   05 Jun 2027 12:54:19.386   05 Jun 2027 12:54:26.305             6.919              Murmansk2           216.219
       446   05 Jun 2027 12:55:01.678   05 Jun 2027 12:55:25.761            24.083              Murmansk1           752.594
       447   05 Jun 2027 12:56:55.835   05 Jun 2027 12:57:13.020            17.185              Murmansk1           537.031
       448   05 Jun 2027 13:01:31.325   05 Jun 2027 13:01:52.378            21.053              Murmansk1           657.906
       449   05 Jun 2027 13:07:56.664   05 Jun 2027 13:09:40.160           103.496                Anadyr1          3234.250
       450   05 Jun 2027 13:10:11.124   05 Jun 2027 13:11:29.122            77.998                Anadyr1          2437.438
       451   05 Jun 2027 14:02:12.470   05 Jun 2027 14:03:03.631            51.161               CapeTown          1598.781
       452   05 Jun 2027 14:30:39.439   05 Jun 2027 14:32:54.099           134.660              Murmansk1          4208.125
       453   05 Jun 2027 14:34:43.098   05 Jun 2027 14:35:08.032            24.934              Murmansk1           779.187
       454   05 Jun 2027 14:42:50.392   05 Jun 2027 14:46:01.330           190.938                Anadyr2          5966.812
       455   05 Jun 2027 15:38:58.986   05 Jun 2027 15:39:34.702            35.716               CapeTown          1116.125
       456   05 Jun 2027 16:12:03.508   05 Jun 2027 16:14:26.733           143.225              Murmansk2          4475.781
       457   05 Jun 2027 16:14:26.733   05 Jun 2027 16:14:45.951            19.218              Murmansk1           600.563
       458   05 Jun 2027 16:18:39.451   05 Jun 2027 16:20:12.608            93.157                Anadyr1          2911.156
       459   05 Jun 2027 16:20:37.094   05 Jun 2027 16:21:18.694            41.600                Anadyr2          1300.000
       460   05 Jun 2027 16:22:00.282   05 Jun 2027 16:25:14.295           194.013               Magadan1          6062.906
       461   05 Jun 2027 16:28:41.764   05 Jun 2027 16:29:25.603            43.839               Magadan2          1369.969
       462   05 Jun 2027 17:54:34.332   05 Jun 2027 17:56:06.924            92.592                Anadyr2          2893.500
       463   05 Jun 2027 17:56:19.918   05 Jun 2027 17:57:11.308            51.390                Anadyr1          1605.937
       464   05 Jun 2027 17:57:19.702   05 Jun 2027 17:59:32.785           133.083               Magadan2          4158.844
       465   05 Jun 2027 17:59:32.785   05 Jun 2027 17:59:55.690            22.905               Magadan1           715.781
       466   05 Jun 2027 18:00:10.128   05 Jun 2027 18:00:19.963             9.835               Magadan1           307.344
       467   05 Jun 2027 18:08:07.747   05 Jun 2027 18:08:45.530            37.783               Magadan2          1180.719
       468   05 Jun 2027 18:49:15.987   05 Jun 2027 18:52:44.945           208.958            RioGallegos          6529.938
       469   05 Jun 2027 18:52:48.853   05 Jun 2027 18:55:32.235           163.382            RioGallegos          5105.688
       470   05 Jun 2027 19:34:47.695   05 Jun 2027 19:36:35.523           107.828                Norilsk          3369.625
       471   05 Jun 2027 19:36:43.959   05 Jun 2027 19:38:09.705            85.746                Irkutsk          2679.563
       472   05 Jun 2027 19:38:23.868   05 Jun 2027 19:39:32.320            68.452                Irkutsk          2139.125
       473   05 Jun 2027 19:39:50.385   05 Jun 2027 19:41:41.595           111.210                Novosib          3475.313
       474   05 Jun 2027 19:51:54.090   05 Jun 2027 19:54:16.916           142.826                Sumatra          4463.312
       475   05 Jun 2027 21:13:09.824   05 Jun 2027 21:13:19.585             9.761                Novosib           305.031
       476   05 Jun 2027 21:14:21.745   05 Jun 2027 21:15:21.158            59.413                Novosib          1856.656
       477   05 Jun 2027 21:20:27.287   05 Jun 2027 21:21:18.801            51.514                Novosib          1609.812
       478   05 Jun 2027 21:21:37.112   05 Jun 2027 21:23:53.510           136.398                  Delhi          4262.438
       479   05 Jun 2027 21:25:33.145   05 Jun 2027 21:26:40.066            66.921                  Delhi          2091.281
       480   05 Jun 2027 22:45:18.822   05 Jun 2027 22:46:02.241            43.419               Magadan1          1356.844
       481   05 Jun 2027 22:46:48.440   05 Jun 2027 22:50:46.298           237.858              Murmansk1          7433.062
       482   05 Jun 2027 22:50:46.298   05 Jun 2027 22:54:13.176           206.878              Murmansk2          6464.937
