uniorb/output/strategy_4/Drop/Drop_KinoSat_111503.txt

KinoSat_111503
-------------------------
    Access    *     Start Time (UTCG)     *     Stop Time (UTCG)  *   Duration (s)        *       Station  *  Data (Mbytes)
         1   01 Jun 2027 03:40:41.920   01 Jun 2027 03:40:52.186            10.266                Norilsk           320.812
         2   01 Jun 2027 03:40:58.388   01 Jun 2027 03:42:12.838            74.450              Murmansk1          2326.562
         3   01 Jun 2027 03:42:12.838   01 Jun 2027 03:42:23.669            10.831              Murmansk2           338.469
         4   01 Jun 2027 03:42:27.642   01 Jun 2027 03:42:59.399            31.757                Novosib           992.406
         5   01 Jun 2027 03:43:02.225   01 Jun 2027 03:44:00.331            58.106              Murmansk1          1815.812
         6   01 Jun 2027 03:44:00.331   01 Jun 2027 03:44:03.912             3.581              Murmansk2           111.906
         7   01 Jun 2027 03:44:20.138   01 Jun 2027 03:44:42.004            21.866                Novosib           683.313
         8   01 Jun 2027 03:44:46.906   01 Jun 2027 03:45:07.387            20.481              Murmansk2           640.031
         9   01 Jun 2027 03:45:12.404   01 Jun 2027 03:46:22.875            70.471                 Moscow          2202.219
        10   01 Jun 2027 03:47:30.116   01 Jun 2027 03:47:38.382             8.266                 Moscow           258.313
        11   01 Jun 2027 03:47:59.934   01 Jun 2027 03:48:31.055            31.121                 Moscow           972.531
        12   01 Jun 2027 04:07:29.223   01 Jun 2027 04:07:48.044            18.821               CapeTown           588.156
        13   01 Jun 2027 05:16:48.634   01 Jun 2027 05:17:41.177            52.543                Norilsk          1641.969
        14   01 Jun 2027 05:17:50.073   01 Jun 2027 05:20:22.231           152.158                 Moscow          4754.938
        15   01 Jun 2027 05:20:40.918   01 Jun 2027 05:21:03.729            22.811              Murmansk1           712.844
        16   01 Jun 2027 05:21:03.729   01 Jun 2027 05:22:22.496            78.767              Murmansk2          2461.469
        17   01 Jun 2027 05:23:39.003   01 Jun 2027 05:24:17.417            38.414                 Moscow          1200.438
        18   01 Jun 2027 06:40:29.544   01 Jun 2027 06:42:47.786           138.242               Magadan2          4320.062
        19   01 Jun 2027 08:16:30.985   01 Jun 2027 08:17:35.685            64.700                Anadyr1          2021.875
        20   01 Jun 2027 08:18:30.170   01 Jun 2027 08:19:02.550            32.380                Anadyr2          1011.875
        21   01 Jun 2027 08:19:26.705   01 Jun 2027 08:19:51.125            24.420               Magadan2           763.125
        22   01 Jun 2027 08:19:51.125   01 Jun 2027 08:21:44.866           113.741               Magadan1          3554.406
        23   01 Jun 2027 09:52:07.507   01 Jun 2027 09:56:53.419           285.912               Magadan2          8934.750
        24   01 Jun 2027 09:57:58.490   01 Jun 2027 09:58:27.776            29.286                Novosib           915.187
        25   01 Jun 2027 09:58:49.516   01 Jun 2027 09:59:18.981            29.465                Norilsk           920.781
        26   01 Jun 2027 10:32:10.731   01 Jun 2027 10:33:21.809            71.078            RioGallegos          2221.188
        27   01 Jun 2027 10:33:30.907   01 Jun 2027 10:34:31.705            60.798            RioGallegos          1899.937
        28   01 Jun 2027 11:07:19.203   01 Jun 2027 11:09:36.835           137.632                Sumatra          4301.000
        29   01 Jun 2027 11:29:25.253   01 Jun 2027 11:31:13.987           108.734                Norilsk          3397.937
        30   01 Jun 2027 11:31:18.451   01 Jun 2027 11:31:49.339            30.888              Murmansk1           965.250
        31   01 Jun 2027 11:31:55.397   01 Jun 2027 11:33:14.318            78.921                Novosib          2466.281
        32   01 Jun 2027 11:33:16.345   01 Jun 2027 11:33:23.757             7.412                Irkutsk           231.625
        33   01 Jun 2027 11:33:29.032   01 Jun 2027 11:34:59.934            90.902                Norilsk          2840.688
        34   01 Jun 2027 12:10:36.289   01 Jun 2027 12:10:51.090            14.801            RioGallegos           462.531
        35   01 Jun 2027 12:13:16.176   01 Jun 2027 12:15:24.571           128.395            RioGallegos          4012.344
        36   01 Jun 2027 12:44:55.627   01 Jun 2027 12:45:14.714            19.087                Sumatra           596.469
        37   01 Jun 2027 12:47:16.182   01 Jun 2027 12:49:45.777           149.595                Sumatra          4674.844
        38   01 Jun 2027 12:58:33.321   01 Jun 2027 12:59:04.057            30.736                Novosib           960.500
        39   01 Jun 2027 12:59:38.849   01 Jun 2027 13:01:16.517            97.668                Novosib          3052.125
        40   01 Jun 2027 13:01:28.710   01 Jun 2027 13:03:47.900           139.190                Irkutsk          4349.688
        41   01 Jun 2027 13:06:55.138   01 Jun 2027 13:07:03.090             7.952                Norilsk           248.500
        42   01 Jun 2027 14:30:38.391   01 Jun 2027 14:32:05.805            87.414                  Delhi          2731.687
        43   01 Jun 2027 14:34:25.788   01 Jun 2027 14:34:54.640            28.852                  Delhi           901.625
        44   01 Jun 2027 14:35:51.699   01 Jun 2027 14:36:53.413            61.714                 Moscow          1928.563
        45   01 Jun 2027 14:39:06.634   01 Jun 2027 14:41:13.773           127.139                Novosib          3973.094
        46   01 Jun 2027 14:41:46.521   01 Jun 2027 14:44:21.188           154.667                Norilsk          4833.344
        47   01 Jun 2027 14:45:51.252   01 Jun 2027 14:46:38.992            47.740                Norilsk          1491.875
        48   01 Jun 2027 15:51:35.961   01 Jun 2027 15:53:35.253           119.292               CapeTown          3727.875
        49   01 Jun 2027 16:12:17.290   01 Jun 2027 16:13:43.345            86.055                 Moscow          2689.219
        50   01 Jun 2027 16:15:41.537   01 Jun 2027 16:16:40.813            59.276              Murmansk1          1852.375
        51   01 Jun 2027 16:16:40.813   01 Jun 2027 16:18:04.932            84.119              Murmansk2          2628.719
        52   01 Jun 2027 16:30:29.991   01 Jun 2027 16:32:18.762           108.771                Anadyr2          3399.094
        53   01 Jun 2027 16:33:18.159   01 Jun 2027 16:33:30.141            11.982                Anadyr2           374.438
        54   01 Jun 2027 17:25:07.007   01 Jun 2027 17:27:39.656           152.649               CapeTown          4770.281
        55   01 Jun 2027 17:53:50.903   01 Jun 2027 17:57:30.310           219.407                 Moscow          6856.469
        56   01 Jun 2027 17:57:56.400   01 Jun 2027 18:00:04.431           128.031              Murmansk1          4000.969
        57   01 Jun 2027 18:11:34.917   01 Jun 2027 18:13:40.160           125.243               Magadan1          3913.844
        58   01 Jun 2027 19:02:42.071   01 Jun 2027 19:03:26.611            44.540               CapeTown          1391.875
        59   01 Jun 2027 19:41:39.209   01 Jun 2027 19:42:37.454            58.245                Anadyr2          1820.156
        60   01 Jun 2027 19:42:37.454   01 Jun 2027 19:43:11.311            33.857                Anadyr1          1058.031
        61   01 Jun 2027 19:43:23.687   01 Jun 2027 19:45:17.360           113.673                Anadyr2          3552.281
        62   01 Jun 2027 19:45:48.888   01 Jun 2027 19:46:36.741            47.853               Magadan1          1495.406
        63   01 Jun 2027 19:46:53.102   01 Jun 2027 19:47:08.989            15.887                Anadyr2           496.469
        64   01 Jun 2027 19:47:29.312   01 Jun 2027 19:48:55.596            86.284               Magadan1          2696.375
        65   01 Jun 2027 19:54:36.226   01 Jun 2027 19:55:12.647            36.421               Magadan2          1138.156
        66   01 Jun 2027 21:17:33.676   01 Jun 2027 21:21:36.046           242.370                Anadyr2          7574.063
        67   01 Jun 2027 21:22:02.962   01 Jun 2027 21:23:26.761            83.799                Norilsk          2618.719
        68   01 Jun 2027 21:23:32.823   01 Jun 2027 21:24:30.028            57.205               Magadan1          1787.656
        69   01 Jun 2027 21:25:58.772   01 Jun 2027 21:26:13.764            14.992               Magadan1           468.500
        70   01 Jun 2027 21:26:44.603   01 Jun 2027 21:27:47.538            62.935               Magadan2          1966.719
        71   01 Jun 2027 21:28:32.860   01 Jun 2027 21:28:41.333             8.473                Irkutsk           264.781
        72   01 Jun 2027 21:29:57.947   01 Jun 2027 21:30:07.393             9.446               Magadan1           295.187
        73   01 Jun 2027 21:30:32.575   01 Jun 2027 21:30:54.704            22.129               Magadan1           691.531
        74   01 Jun 2027 22:11:54.088   01 Jun 2027 22:14:12.606           138.518            RioGallegos          4328.687
        75   01 Jun 2027 22:14:48.719   01 Jun 2027 22:15:15.971            27.252            RioGallegos           851.625
        76   01 Jun 2027 22:17:55.790   01 Jun 2027 22:18:05.627             9.837            RioGallegos           307.406
        77   01 Jun 2027 22:20:29.009   01 Jun 2027 22:20:54.734            25.725            RioGallegos           803.906
        78   01 Jun 2027 22:53:08.029   01 Jun 2027 22:55:28.194           140.165                Anadyr1          4380.156
        79   01 Jun 2027 22:55:41.655   01 Jun 2027 22:57:06.985            85.330                Norilsk          2666.563
        80   01 Jun 2027 22:57:14.958   01 Jun 2027 22:59:05.049           110.091               Magadan2          3440.344
        81   01 Jun 2027 23:00:25.567   01 Jun 2027 23:00:42.639            17.072                Irkutsk           533.500
        82   01 Jun 2027 23:01:08.474   01 Jun 2027 23:02:12.863            64.389                Novosib          2012.156
        83   01 Jun 2027 23:06:24.341   01 Jun 2027 23:07:31.201            66.860                Novosib          2089.375
        84   01 Jun 2027 23:13:14.184   01 Jun 2027 23:13:54.069            39.885                Sumatra          1246.406
        85   01 Jun 2027 23:47:55.900   01 Jun 2027 23:48:09.628            13.728            RioGallegos           429.000
        86   01 Jun 2027 23:48:48.545   01 Jun 2027 23:49:19.803            31.258            RioGallegos           976.812
        87   01 Jun 2027 23:55:59.081   01 Jun 2027 23:56:24.782            25.701            RioGallegos           803.156
        88   01 Jun 2027 23:57:33.051   01 Jun 2027 23:57:47.114            14.063            RioGallegos           439.469
        89   02 Jun 2027 00:27:47.092   02 Jun 2027 00:29:21.483            94.391                Anadyr2          2949.719
        90   02 Jun 2027 00:30:02.334   02 Jun 2027 00:30:21.150            18.816                Anadyr2           588.000
        91   02 Jun 2027 00:31:21.605   02 Jun 2027 00:31:26.364             4.759                Norilsk           148.719
        92   02 Jun 2027 00:32:01.344   02 Jun 2027 00:34:09.222           127.878               Magadan1          3996.188
        93   02 Jun 2027 00:35:14.736   02 Jun 2027 00:35:54.920            40.184                Irkutsk          1255.750
        94   02 Jun 2027 00:36:23.198   02 Jun 2027 00:37:34.806            71.608                Novosib          2237.750
        95   02 Jun 2027 00:38:28.763   02 Jun 2027 00:38:59.211            30.448                Novosib           951.500
        96   02 Jun 2027 00:42:59.468   02 Jun 2027 00:44:18.663            79.195                  Delhi          2474.844
        97   02 Jun 2027 00:50:06.177   02 Jun 2027 00:50:08.291             2.114                  Delhi            66.063
        98   02 Jun 2027 00:51:26.259   02 Jun 2027 00:53:11.168           104.909                Sumatra          3278.406
        99   02 Jun 2027 01:25:27.732   02 Jun 2027 01:26:22.897            55.165            RioGallegos          1723.906
       100   02 Jun 2027 02:01:16.191   02 Jun 2027 02:02:24.308            68.117                Anadyr2          2128.656
       101   02 Jun 2027 02:03:19.821   02 Jun 2027 02:03:37.325            17.504                Anadyr1           547.000
       102   02 Jun 2027 02:03:56.531   02 Jun 2027 02:04:13.194            16.663                Anadyr1           520.719
       103   02 Jun 2027 02:06:47.629   02 Jun 2027 02:07:20.492            32.863                Anadyr1          1026.969
       104   02 Jun 2027 02:07:20.861   02 Jun 2027 02:08:41.484            80.623                Norilsk          2519.469
       105   02 Jun 2027 02:09:39.851   02 Jun 2027 02:09:58.170            18.319              Murmansk1           572.469
       106   02 Jun 2027 02:09:58.170   02 Jun 2027 02:11:14.683            76.513              Murmansk2          2391.031
       107   02 Jun 2027 02:12:00.346   02 Jun 2027 02:12:28.279            27.933                Novosib           872.906
       108   02 Jun 2027 02:13:03.521   02 Jun 2027 02:13:11.589             8.068                Novosib           252.125
       109   02 Jun 2027 02:14:31.828   02 Jun 2027 02:15:11.753            39.925                Irkutsk          1247.656
       110   02 Jun 2027 02:18:54.244   02 Jun 2027 02:19:27.940            33.696                  Delhi          1053.000
       111   02 Jun 2027 02:23:22.576   02 Jun 2027 02:23:29.436             6.860                  Delhi           214.375
       112   02 Jun 2027 02:24:27.694   02 Jun 2027 02:24:49.724            22.030                  Delhi           688.438
       113   02 Jun 2027 02:29:12.977   02 Jun 2027 02:29:27.176            14.199                  Delhi           443.719
       114   02 Jun 2027 03:35:21.302   02 Jun 2027 03:36:10.296            48.994                Anadyr1          1531.063
       115   02 Jun 2027 03:44:37.758   02 Jun 2027 03:44:47.354             9.596                Anadyr1           299.875
       116   02 Jun 2027 03:44:53.264   02 Jun 2027 03:46:11.512            78.248                Anadyr1          2445.250
       117   02 Jun 2027 03:53:19.623   02 Jun 2027 03:55:48.822           149.199              Murmansk2          4662.469
       118   02 Jun 2027 03:55:48.822   02 Jun 2027 03:56:09.469            20.647              Murmansk1           645.219
       119   02 Jun 2027 03:56:38.761   02 Jun 2027 04:01:22.254           283.493                 Moscow          8859.156
       120   02 Jun 2027 04:20:25.809   02 Jun 2027 04:21:11.471            45.662               CapeTown          1426.938
       121   02 Jun 2027 05:16:25.035   02 Jun 2027 05:17:47.365            82.330                Anadyr2          2572.813
       122   02 Jun 2027 06:53:08.361   02 Jun 2027 06:58:09.345           300.984                Anadyr1          9405.750
       123   02 Jun 2027 08:29:44.785   02 Jun 2027 08:33:30.207           225.422                Anadyr1          7044.438
       124   02 Jun 2027 10:04:07.760   02 Jun 2027 10:06:38.226           150.466               Magadan1          4702.063
       125   02 Jun 2027 10:06:51.575   02 Jun 2027 10:07:52.505            60.930               Magadan2          1904.063
       126   02 Jun 2027 10:07:58.610   02 Jun 2027 10:08:14.385            15.775                Irkutsk           492.969
       127   02 Jun 2027 10:08:35.233   02 Jun 2027 10:08:54.239            19.006                Novosib           593.937
       128   02 Jun 2027 10:08:56.385   02 Jun 2027 10:09:31.797            35.412                Irkutsk          1106.625
       129   02 Jun 2027 10:44:16.354   02 Jun 2027 10:44:33.594            17.240            RioGallegos           538.750
       130   02 Jun 2027 10:45:37.116   02 Jun 2027 10:46:24.503            47.387            RioGallegos          1480.844
       131   02 Jun 2027 11:19:10.662   02 Jun 2027 11:19:47.245            36.583                Sumatra          1143.219
       132   02 Jun 2027 11:31:33.967   02 Jun 2027 11:31:43.585             9.618                Sumatra           300.563
       133   02 Jun 2027 11:32:15.263   02 Jun 2027 11:32:21.233             5.970                  Delhi           186.563
       134   02 Jun 2027 11:40:34.888   02 Jun 2027 11:41:44.641            69.753                Irkutsk          2179.781
       135   02 Jun 2027 11:42:27.656   02 Jun 2027 11:42:39.974            12.318                Irkutsk           384.937
       136   02 Jun 2027 11:42:50.600   02 Jun 2027 11:43:14.537            23.937                Irkutsk           748.031
       137   02 Jun 2027 11:43:22.935   02 Jun 2027 11:43:41.008            18.073                Norilsk           564.781
       138   02 Jun 2027 11:43:47.567   02 Jun 2027 11:44:19.427            31.860                Irkutsk           995.625
       139   02 Jun 2027 11:44:39.776   02 Jun 2027 11:44:46.467             6.691                Norilsk           209.094
       140   02 Jun 2027 11:44:46.968   02 Jun 2027 11:44:53.695             6.727                Norilsk           210.219
       141   02 Jun 2027 11:44:56.225   02 Jun 2027 11:45:29.915            33.690                Norilsk          1052.813
       142   02 Jun 2027 12:23:24.117   02 Jun 2027 12:24:13.077            48.960            RioGallegos          1530.000
       143   02 Jun 2027 12:25:11.094   02 Jun 2027 12:27:25.132           134.038            RioGallegos          4188.687
       144   02 Jun 2027 13:10:50.631   02 Jun 2027 13:11:41.413            50.782                Novosib          1586.938
       145   02 Jun 2027 13:13:14.082   02 Jun 2027 13:15:29.243           135.161                Novosib          4223.781
       146   02 Jun 2027 13:22:44.895   02 Jun 2027 13:23:08.786            23.891                Norilsk           746.594
       147   02 Jun 2027 14:44:57.090   02 Jun 2027 14:46:56.452           119.362                  Delhi          3730.063
       148   02 Jun 2027 14:48:53.815   02 Jun 2027 14:49:54.617            60.802                 Moscow          1900.062
       149   02 Jun 2027 14:50:16.037   02 Jun 2027 14:50:59.944            43.907                 Moscow          1372.094
       150   02 Jun 2027 14:51:08.076   02 Jun 2027 14:52:25.239            77.163              Murmansk2          2411.344
       151   02 Jun 2027 14:52:47.806   02 Jun 2027 14:53:46.552            58.746                Novosib          1835.813
       152   02 Jun 2027 14:54:24.153   02 Jun 2027 14:54:56.088            31.935                Norilsk           997.969
       153   02 Jun 2027 14:58:28.369   02 Jun 2027 14:59:28.589            60.220                Norilsk          1881.875
       154   02 Jun 2027 14:59:32.411   02 Jun 2027 14:59:47.462            15.051                Norilsk           470.344
       155   02 Jun 2027 16:02:52.847   02 Jun 2027 16:03:49.693            56.846               CapeTown          1776.437
       156   02 Jun 2027 16:05:00.085   02 Jun 2027 16:05:37.239            37.154               CapeTown          1161.062
       157   02 Jun 2027 16:11:39.875   02 Jun 2027 16:11:56.771            16.896               CapeTown           528.000
       158   02 Jun 2027 16:24:37.666   02 Jun 2027 16:25:50.219            72.553                 Moscow          2267.281
       159   02 Jun 2027 16:27:55.928   02 Jun 2027 16:28:23.002            27.074              Murmansk1           846.063
       160   02 Jun 2027 16:30:00.821   02 Jun 2027 16:30:28.456            27.635              Murmansk2           863.594
       161   02 Jun 2027 16:34:26.581   02 Jun 2027 16:35:50.954            84.373              Murmansk2          2636.656
       162   02 Jun 2027 16:42:21.146   02 Jun 2027 16:43:23.551            62.405                Anadyr2          1950.156
       163   02 Jun 2027 16:43:29.284   02 Jun 2027 16:44:20.030            50.746                Anadyr1          1585.813
       164   02 Jun 2027 17:37:08.787   02 Jun 2027 17:39:29.149           140.362               CapeTown          4386.312
       165   02 Jun 2027 18:06:52.774   02 Jun 2027 18:09:53.005           180.231              Murmansk1          5632.219
       166   02 Jun 2027 18:13:56.159   02 Jun 2027 18:14:17.523            21.364              Murmansk1           667.625
       167   02 Jun 2027 18:18:52.941   02 Jun 2027 18:19:26.759            33.818                Anadyr2          1056.812
       168   02 Jun 2027 18:21:37.049   02 Jun 2027 18:22:53.760            76.711               Magadan2          2397.219
       169   02 Jun 2027 18:27:09.765   02 Jun 2027 18:27:55.803            46.038               Magadan1          1438.687
       170   02 Jun 2027 19:15:29.574   02 Jun 2027 19:15:41.103            11.529               CapeTown           360.281
       171   02 Jun 2027 19:19:49.036   02 Jun 2027 19:20:17.256            28.220               CapeTown           881.875
       172   02 Jun 2027 19:53:40.908   02 Jun 2027 19:57:25.573           224.665                Anadyr2          7020.781
       173   02 Jun 2027 19:57:50.208   02 Jun 2027 20:00:35.475           165.267               Magadan2          5164.594
       174   02 Jun 2027 21:29:34.193   02 Jun 2027 21:31:41.938           127.745                Anadyr1          3992.031
       175   02 Jun 2027 21:31:52.957   02 Jun 2027 21:35:39.250           226.293               Magadan2          7071.656
       176   02 Jun 2027 21:35:41.897   02 Jun 2027 21:36:02.437            20.540               Magadan1           641.875
       177   02 Jun 2027 21:36:30.839   02 Jun 2027 21:37:01.768            30.929                Norilsk           966.531
       178   02 Jun 2027 21:37:11.131   02 Jun 2027 21:37:43.143            32.012               Magadan2          1000.375
       179   02 Jun 2027 21:37:50.237   02 Jun 2027 21:39:00.603            70.366                Irkutsk          2198.937
       180   02 Jun 2027 21:39:17.566   02 Jun 2027 21:40:17.599            60.033                Irkutsk          1876.031
       181   02 Jun 2027 22:23:45.798   02 Jun 2027 22:24:41.326            55.528            RioGallegos          1735.250
       182   02 Jun 2027 22:29:12.195   02 Jun 2027 22:29:52.657            40.462            RioGallegos          1264.438
       183   02 Jun 2027 22:35:22.471   02 Jun 2027 22:35:23.097             0.626            RioGallegos            19.563
       184   02 Jun 2027 23:05:03.843   02 Jun 2027 23:06:55.846           112.003                Anadyr2          3500.094
       185   02 Jun 2027 23:07:08.093   02 Jun 2027 23:07:53.564            45.471                Anadyr1          1420.969
       186   02 Jun 2027 23:07:58.274   02 Jun 2027 23:08:20.714            22.440               Magadan1           701.250
       187   02 Jun 2027 23:08:33.233   02 Jun 2027 23:08:55.831            22.598                Norilsk           706.187
       188   02 Jun 2027 23:09:31.830   02 Jun 2027 23:09:47.293            15.463               Magadan1           483.219
       189   02 Jun 2027 23:10:52.212   02 Jun 2027 23:11:12.842            20.630               Magadan2           644.687
       190   02 Jun 2027 23:11:27.387   02 Jun 2027 23:12:07.698            40.311                Irkutsk          1259.719
       191   02 Jun 2027 23:12:40.214   02 Jun 2027 23:13:31.094            50.880                Novosib          1590.000
       192   02 Jun 2027 23:13:51.714   02 Jun 2027 23:14:24.674            32.960                Novosib          1030.000
       193   02 Jun 2027 23:18:22.863   02 Jun 2027 23:18:35.779            12.916                Novosib           403.625
       194   02 Jun 2027 23:23:09.308   02 Jun 2027 23:23:30.443            21.135                Irkutsk           660.469
       195   02 Jun 2027 23:25:08.582   02 Jun 2027 23:25:38.755            30.173                Sumatra           942.906
       196   02 Jun 2027 23:28:12.672   02 Jun 2027 23:28:15.826             3.154                Sumatra            98.562
       197   02 Jun 2027 23:28:58.417   02 Jun 2027 23:31:12.801           134.384                Sumatra          4199.500
       198   03 Jun 2027 00:39:33.365   03 Jun 2027 00:40:51.378            78.013                Anadyr2          2437.906
       199   03 Jun 2027 00:41:02.816   03 Jun 2027 00:41:48.654            45.838                Anadyr2          1432.438
       200   03 Jun 2027 00:43:23.859   03 Jun 2027 00:43:26.598             2.739                Norilsk            85.594
       201   03 Jun 2027 00:44:03.184   03 Jun 2027 00:44:34.482            31.298               Magadan2           978.063
       202   03 Jun 2027 00:46:06.246   03 Jun 2027 00:46:35.062            28.816               Magadan2           900.500
       203   03 Jun 2027 00:46:43.292   03 Jun 2027 00:47:09.886            26.594                Norilsk           831.063
       204   03 Jun 2027 00:47:17.305   03 Jun 2027 00:49:19.065           121.760                Novosib          3805.000
       205   03 Jun 2027 00:50:06.722   03 Jun 2027 00:50:40.647            33.925                Novosib          1060.156
       206   03 Jun 2027 00:53:00.444   03 Jun 2027 00:54:12.951            72.507                Novosib          2265.844
       207   03 Jun 2027 00:57:23.467   03 Jun 2027 00:57:25.093             1.626                  Delhi            50.813
       208   03 Jun 2027 01:01:00.698   03 Jun 2027 01:01:29.298            28.600                  Delhi           893.750
       209   03 Jun 2027 01:05:05.790   03 Jun 2027 01:05:30.874            25.084                  Delhi           783.875
       210   03 Jun 2027 01:35:57.927   03 Jun 2027 01:37:21.764            83.837            RioGallegos          2619.906
       211   03 Jun 2027 01:42:35.089   03 Jun 2027 01:43:14.538            39.449            RioGallegos          1232.781
       212   03 Jun 2027 02:12:57.231   03 Jun 2027 02:13:19.053            21.822                Anadyr2           681.937
       213   03 Jun 2027 02:15:20.553   03 Jun 2027 02:15:54.932            34.379                Anadyr2          1074.344
       214   03 Jun 2027 02:18:47.974   03 Jun 2027 02:18:56.348             8.374                Anadyr1           261.688
       215   03 Jun 2027 02:19:10.156   03 Jun 2027 02:19:13.078             2.922               Magadan2            91.312
       216   03 Jun 2027 02:19:17.320   03 Jun 2027 02:20:16.003            58.683               Magadan1          1833.844
       217   03 Jun 2027 02:20:17.146   03 Jun 2027 02:20:22.511             5.365               Magadan2           167.656
       218   03 Jun 2027 02:20:30.355   03 Jun 2027 02:21:36.347            65.992               Magadan2          2062.250
       219   03 Jun 2027 02:21:53.210   03 Jun 2027 02:22:19.973            26.763              Murmansk2           836.344
       220   03 Jun 2027 02:23:07.704   03 Jun 2027 02:24:06.183            58.479              Murmansk2          1827.469
       221   03 Jun 2027 02:25:54.948   03 Jun 2027 02:26:00.149             5.201                 Moscow           162.531
       222   03 Jun 2027 02:26:26.671   03 Jun 2027 02:27:00.103            33.432                Irkutsk          1044.750
       223   03 Jun 2027 02:31:00.634   03 Jun 2027 02:31:52.602            51.968                Irkutsk          1624.000
       224   03 Jun 2027 02:38:56.313   03 Jun 2027 02:40:51.578           115.265                  Delhi          3602.031
       225   03 Jun 2027 04:05:59.173   03 Jun 2027 04:06:22.809            23.636                Novosib           738.625
       226   03 Jun 2027 04:06:25.406   03 Jun 2027 04:08:00.793            95.387              Murmansk1          2980.844
       227   03 Jun 2027 04:08:18.816   03 Jun 2027 04:09:09.947            51.131              Murmansk2          1597.844
       228   03 Jun 2027 04:09:23.284   03 Jun 2027 04:10:15.676            52.392                 Moscow          1637.250
       229   03 Jun 2027 04:10:28.454   03 Jun 2027 04:10:58.307            29.853                 Moscow           932.906
       230   03 Jun 2027 04:11:28.927   03 Jun 2027 04:11:53.810            24.883                 Moscow           777.594
       231   03 Jun 2027 04:37:04.499   03 Jun 2027 04:37:25.073            20.574               CapeTown           642.938
       232   03 Jun 2027 05:27:16.696   03 Jun 2027 05:28:03.357            46.661                Anadyr1          1458.156
       233   03 Jun 2027 05:28:26.599   03 Jun 2027 05:29:07.280            40.681                Anadyr1          1271.281
       234   03 Jun 2027 05:29:16.090   03 Jun 2027 05:31:49.151           153.061               Magadan1          4783.156
       235   03 Jun 2027 05:32:11.594   03 Jun 2027 05:34:17.591           125.997                Anadyr2          3937.406
       236   03 Jun 2027 07:02:36.922   03 Jun 2027 07:03:41.895            64.973                Anadyr2          2030.406
       237   03 Jun 2027 07:04:03.998   03 Jun 2027 07:04:08.189             4.191               Magadan1           130.969
       238   03 Jun 2027 07:04:14.946   03 Jun 2027 07:06:27.683           132.737                Anadyr2          4148.031
       239   03 Jun 2027 07:06:39.878   03 Jun 2027 07:07:00.067            20.189               Magadan2           630.906
       240   03 Jun 2027 07:07:04.253   03 Jun 2027 07:07:30.433            26.180                Anadyr2           818.125
       241   03 Jun 2027 07:07:48.850   03 Jun 2027 07:08:03.692            14.842               Magadan2           463.812
       242   03 Jun 2027 07:15:02.988   03 Jun 2027 07:15:52.225            49.237                 Moscow          1538.656
       243   03 Jun 2027 08:37:06.041   03 Jun 2027 08:37:12.038             5.997               Magadan1           187.406
       244   03 Jun 2027 08:37:59.170   03 Jun 2027 08:38:20.253            21.083               Magadan2           658.844
       245   03 Jun 2027 08:38:26.312   03 Jun 2027 08:38:58.450            32.138                Anadyr2          1004.312
       246   03 Jun 2027 08:39:03.865   03 Jun 2027 08:39:46.102            42.237               Magadan2          1319.906
       247   03 Jun 2027 08:40:15.154   03 Jun 2027 08:40:17.280             2.126               Magadan2            66.437
       248   03 Jun 2027 08:40:32.632   03 Jun 2027 08:41:59.095            86.463                Anadyr2          2701.969
       249   03 Jun 2027 08:42:24.050   03 Jun 2027 08:43:24.762            60.712                Anadyr1          1897.250
       250   03 Jun 2027 08:44:04.235   03 Jun 2027 08:44:07.859             3.624               Magadan1           113.250
       251   03 Jun 2027 08:44:19.203   03 Jun 2027 08:45:19.499            60.296                Anadyr2          1884.250
       252   03 Jun 2027 09:21:28.957   03 Jun 2027 09:22:00.807            31.850            RioGallegos           995.313
       253   03 Jun 2027 10:00:11.891   03 Jun 2027 10:00:44.919            33.028                Sumatra          1032.125
       254   03 Jun 2027 10:15:08.683   03 Jun 2027 10:15:09.202             0.519                Irkutsk            16.219
       255   03 Jun 2027 10:16:00.472   03 Jun 2027 10:16:05.491             5.019                Irkutsk           156.844
       256   03 Jun 2027 10:18:27.888   03 Jun 2027 10:18:32.796             4.908                Irkutsk           153.375
       257   03 Jun 2027 10:18:45.337   03 Jun 2027 10:19:06.223            20.886                Norilsk           652.687
       258   03 Jun 2027 10:19:10.602   03 Jun 2027 10:19:23.245            12.643                Norilsk           395.094
       259   03 Jun 2027 10:19:24.354   03 Jun 2027 10:19:30.670             6.316                Irkutsk           197.375
       260   03 Jun 2027 10:19:34.263   03 Jun 2027 10:20:43.449            69.186                Norilsk          2162.063
       261   03 Jun 2027 10:20:52.850   03 Jun 2027 10:20:53.364             0.514                Norilsk            16.063
       262   03 Jun 2027 10:20:58.469   03 Jun 2027 10:21:12.520            14.051                Novosib           439.094
       263   03 Jun 2027 10:21:18.975   03 Jun 2027 10:22:28.495            69.520                Norilsk          2172.500
       264   03 Jun 2027 10:56:25.572   03 Jun 2027 10:56:27.030             1.458            RioGallegos            45.563
       265   03 Jun 2027 10:56:58.560   03 Jun 2027 10:57:42.401            43.841            RioGallegos          1370.031
       266   03 Jun 2027 11:31:07.919   03 Jun 2027 11:31:51.486            43.567                Sumatra          1361.469
       267   03 Jun 2027 11:51:12.463   03 Jun 2027 11:51:55.051            42.588                Irkutsk          1330.875
       268   03 Jun 2027 11:52:32.807   03 Jun 2027 11:53:43.463            70.656                Irkutsk          2208.000
       269   03 Jun 2027 11:54:22.424   03 Jun 2027 11:54:40.916            18.492                Novosib           577.875
       270   03 Jun 2027 11:54:59.687   03 Jun 2027 11:55:01.054             1.367                Norilsk            42.719
       271   03 Jun 2027 11:55:11.131   03 Jun 2027 11:55:11.548             0.417                Irkutsk            13.031
       272   03 Jun 2027 11:55:18.727   03 Jun 2027 11:55:48.177            29.450                Novosib           920.312
       273   03 Jun 2027 11:55:50.196   03 Jun 2027 11:56:25.171            34.975                Irkutsk          1092.969
       274   03 Jun 2027 11:56:41.958   03 Jun 2027 11:56:46.728             4.770                Norilsk           149.063
       275   03 Jun 2027 11:56:56.998   03 Jun 2027 11:57:08.363            11.365                Norilsk           355.156
       276   03 Jun 2027 11:57:09.377   03 Jun 2027 11:58:08.843            59.466                Novosib          1858.313
       277   03 Jun 2027 12:02:20.205   03 Jun 2027 12:02:25.738             5.533                Norilsk           172.906
       278   03 Jun 2027 12:36:25.030   03 Jun 2027 12:39:24.592           179.562            RioGallegos          5611.313
       279   03 Jun 2027 13:23:11.867   03 Jun 2027 13:24:21.507            69.640                Novosib          2176.250
       280   03 Jun 2027 13:25:10.401   03 Jun 2027 13:26:12.586            62.185                Novosib          1943.281
       281   03 Jun 2027 13:27:29.592   03 Jun 2027 13:28:34.281            64.689                Novosib          2021.531
       282   03 Jun 2027 13:36:46.263   03 Jun 2027 13:37:02.520            16.257                Norilsk           508.031
       283   03 Jun 2027 14:59:44.457   03 Jun 2027 15:02:12.254           147.797                 Moscow          4618.656
       284   03 Jun 2027 15:03:10.336   03 Jun 2027 15:04:27.154            76.818              Murmansk1          2400.563
       285   03 Jun 2027 15:07:05.236   03 Jun 2027 15:08:35.338            90.102                Norilsk          2815.688
       286   03 Jun 2027 15:10:38.496   03 Jun 2027 15:12:40.172           121.676                Norilsk          3802.375
       287   03 Jun 2027 16:14:23.123   03 Jun 2027 16:14:32.302             9.179               CapeTown           286.844
       288   03 Jun 2027 16:15:31.466   03 Jun 2027 16:17:23.308           111.842               CapeTown          3495.062
       289   03 Jun 2027 16:37:02.282   03 Jun 2027 16:37:20.513            18.231                 Moscow           569.719
       290   03 Jun 2027 16:40:12.321   03 Jun 2027 16:41:54.664           102.343              Murmansk2          3198.219
       291   03 Jun 2027 16:48:20.905   03 Jun 2027 16:48:47.488            26.583              Murmansk2           830.719
       292   03 Jun 2027 16:51:22.103   03 Jun 2027 16:52:05.907            43.804              Murmansk2          1368.875
       293   03 Jun 2027 16:54:14.815   03 Jun 2027 16:55:23.408            68.593                Anadyr1          2143.531
       294   03 Jun 2027 16:56:53.728   03 Jun 2027 16:57:08.342            14.614                Anadyr1           456.687
       295   03 Jun 2027 16:59:22.352   03 Jun 2027 16:59:23.685             1.333                Anadyr2            41.656
       296   03 Jun 2027 16:59:46.620   03 Jun 2027 17:00:18.364            31.744                Anadyr1           992.000
       297   03 Jun 2027 17:49:13.326   03 Jun 2027 17:51:04.858           111.532               CapeTown          3485.375
       298   03 Jun 2027 18:19:29.201   03 Jun 2027 18:21:47.796           138.595              Murmansk2          4331.094
       299   03 Jun 2027 18:22:27.878   03 Jun 2027 18:23:41.396            73.518              Murmansk2          2297.437
       300   03 Jun 2027 18:25:45.342   03 Jun 2027 18:25:50.746             5.404              Murmansk2           168.875
       301   03 Jun 2027 18:26:19.022   03 Jun 2027 18:27:48.815            89.793              Murmansk2          2806.031
       302   03 Jun 2027 18:33:30.386   03 Jun 2027 18:33:37.271             6.885               Magadan1           215.156
       303   03 Jun 2027 18:33:49.665   03 Jun 2027 18:34:21.991            32.326               Magadan1          1010.188
       304   03 Jun 2027 18:36:08.185   03 Jun 2027 18:36:24.888            16.703               Magadan2           521.969
       305   03 Jun 2027 18:38:57.270   03 Jun 2027 18:39:12.536            15.266               Magadan1           477.062
       306   03 Jun 2027 18:40:50.374   03 Jun 2027 18:40:52.850             2.476               Magadan2            77.375
       307   03 Jun 2027 19:31:01.212   03 Jun 2027 19:31:08.366             7.154               CapeTown           223.562
       308   03 Jun 2027 20:05:42.592   03 Jun 2027 20:09:39.325           236.733                Anadyr1          7397.906
       309   03 Jun 2027 20:09:43.275   03 Jun 2027 20:11:44.216           120.941               Magadan2          3779.406
       310   03 Jun 2027 20:13:09.858   03 Jun 2027 20:13:35.749            25.891               Magadan1           809.094
       311   03 Jun 2027 20:14:51.272   03 Jun 2027 20:14:55.183             3.911               Magadan1           122.219
       312   03 Jun 2027 20:15:02.346   03 Jun 2027 20:16:03.765            61.419               Magadan1          1919.344
       313   03 Jun 2027 21:41:34.356   03 Jun 2027 21:43:43.294           128.938                Anadyr1          4029.313
       314   03 Jun 2027 21:43:46.808   03 Jun 2027 21:48:28.560           281.752                Norilsk          8804.750
       315   03 Jun 2027 21:49:09.555   03 Jun 2027 21:49:31.536            21.981                Irkutsk           686.906
       316   03 Jun 2027 21:50:09.330   03 Jun 2027 21:51:15.065            65.735                Irkutsk          2054.219
       317   03 Jun 2027 22:05:08.024   03 Jun 2027 22:06:28.930            80.906                Sumatra          2528.313
       318   03 Jun 2027 22:09:09.384   03 Jun 2027 22:09:50.175            40.791                Sumatra          1274.719
       319   03 Jun 2027 22:43:07.978   03 Jun 2027 22:43:25.954            17.976            RioGallegos           561.750
       320   03 Jun 2027 22:44:13.867   03 Jun 2027 22:44:53.421            39.554            RioGallegos          1236.062
       321   03 Jun 2027 23:16:58.684   03 Jun 2027 23:17:30.304            31.620                Anadyr2           988.125
       322   03 Jun 2027 23:17:31.201   03 Jun 2027 23:18:57.082            85.881                Anadyr1          2683.781
       323   03 Jun 2027 23:19:26.010   03 Jun 2027 23:19:27.980             1.970                Norilsk            61.563
       324   03 Jun 2027 23:19:49.092   03 Jun 2027 23:20:06.844            17.752                Anadyr2           554.750
       325   03 Jun 2027 23:20:13.797   03 Jun 2027 23:21:11.136            57.339                Norilsk          1791.844
       326   03 Jun 2027 23:21:12.573   03 Jun 2027 23:21:49.170            36.597               Magadan2          1143.656
       327   03 Jun 2027 23:23:15.597   03 Jun 2027 23:23:28.364            12.767               Magadan1           398.969
       328   03 Jun 2027 23:23:38.796   03 Jun 2027 23:23:49.031            10.235               Magadan1           319.844
       329   03 Jun 2027 23:24:20.764   03 Jun 2027 23:25:39.873            79.109                Novosib          2472.156
       330   03 Jun 2027 23:27:48.662   03 Jun 2027 23:28:23.597            34.935                Novosib          1091.719
       331   03 Jun 2027 23:30:34.227   03 Jun 2027 23:30:46.524            12.297                Novosib           384.281
       332   03 Jun 2027 23:37:08.667   03 Jun 2027 23:38:05.699            57.032                Sumatra          1782.250
       333   03 Jun 2027 23:43:40.559   03 Jun 2027 23:45:06.621            86.062                Sumatra          2689.437
       334   04 Jun 2027 00:20:26.481   04 Jun 2027 00:20:38.496            12.015            RioGallegos           375.469
       335   04 Jun 2027 00:51:18.433   04 Jun 2027 00:52:50.877            92.444                Anadyr1          2888.875
       336   04 Jun 2027 00:53:41.542   04 Jun 2027 00:54:19.959            38.417                Anadyr1          1200.531
       337   04 Jun 2027 00:55:26.084   04 Jun 2027 00:55:57.742            31.658                Norilsk           989.313
       338   04 Jun 2027 00:56:04.457   04 Jun 2027 00:57:06.045            61.588               Magadan1          1924.625
       339   04 Jun 2027 00:58:48.870   04 Jun 2027 01:00:12.397            83.527              Murmansk1          2610.219
       340   04 Jun 2027 01:00:25.383   04 Jun 2027 01:01:00.684            35.301                Novosib          1103.156
       341   04 Jun 2027 01:01:36.793   04 Jun 2027 01:02:27.893            51.100              Murmansk1          1596.875
       342   04 Jun 2027 01:06:16.078   04 Jun 2027 01:07:08.179            52.101                Irkutsk          1628.156
       343   04 Jun 2027 01:14:16.031   04 Jun 2027 01:14:24.025             7.994                  Delhi           249.812
       344   04 Jun 2027 01:16:54.426   04 Jun 2027 01:18:38.249           103.823                  Delhi          3244.469
       345   04 Jun 2027 01:48:26.681   04 Jun 2027 01:49:29.159            62.478            RioGallegos          1952.437
       346   04 Jun 2027 02:26:24.070   04 Jun 2027 02:26:36.311            12.241                Anadyr2           382.531
       347   04 Jun 2027 02:26:54.390   04 Jun 2027 02:27:04.775            10.385                Anadyr1           324.531
       348   04 Jun 2027 02:27:04.775   04 Jun 2027 02:27:22.276            17.501                Anadyr2           546.906
       349   04 Jun 2027 02:30:13.064   04 Jun 2027 02:30:20.992             7.928                Anadyr2           247.750
       350   04 Jun 2027 02:30:45.316   04 Jun 2027 02:31:00.808            15.492                Anadyr2           484.125
       351   04 Jun 2027 02:31:19.659   04 Jun 2027 02:31:45.126            25.467               Magadan1           795.844
       352   04 Jun 2027 02:31:50.459   04 Jun 2027 02:32:19.875            29.416               Magadan2           919.250
       353   04 Jun 2027 02:32:27.950   04 Jun 2027 02:32:36.483             8.533               Magadan2           266.656
       354   04 Jun 2027 02:32:50.516   04 Jun 2027 02:33:54.108            63.592                Norilsk          1987.250
       355   04 Jun 2027 02:33:55.242   04 Jun 2027 02:34:15.646            20.404              Murmansk1           637.625
       356   04 Jun 2027 02:35:06.728   04 Jun 2027 02:35:53.424            46.696              Murmansk2          1459.250
       357   04 Jun 2027 02:35:53.424   04 Jun 2027 02:36:08.304            14.880              Murmansk1           465.000
       358   04 Jun 2027 02:36:15.639   04 Jun 2027 02:36:44.166            28.527                Novosib           891.469
       359   04 Jun 2027 02:39:36.647   04 Jun 2027 02:41:07.069            90.422                Irkutsk          2825.687
       360   04 Jun 2027 03:09:02.071   04 Jun 2027 03:09:29.117            27.046               CapeTown           845.188
       361   04 Jun 2027 03:58:18.131   04 Jun 2027 03:58:41.755            23.624                Anadyr1           738.250
       362   04 Jun 2027 04:16:43.995   04 Jun 2027 04:17:01.408            17.413                Norilsk           544.156
       363   04 Jun 2027 04:17:47.733   04 Jun 2027 04:19:31.452           103.719                Novosib          3241.219
       364   04 Jun 2027 04:20:23.740   04 Jun 2027 04:22:06.712           102.972              Murmansk1          3217.875
       365   04 Jun 2027 04:23:24.123   04 Jun 2027 04:25:38.439           134.316                 Moscow          4197.375
       366   04 Jun 2027 05:40:03.283   04 Jun 2027 05:42:26.256           142.973               Magadan2          4467.906
       367   04 Jun 2027 05:42:34.336   04 Jun 2027 05:43:41.387            67.051                Anadyr1          2095.344
       368   04 Jun 2027 05:43:41.387   04 Jun 2027 05:45:38.044           116.657                Anadyr2          3645.531
       369   04 Jun 2027 05:45:54.870   04 Jun 2027 05:46:19.240            24.370                Anadyr2           761.563
       370   04 Jun 2027 07:15:18.416   04 Jun 2027 07:16:40.796            82.380                Anadyr2          2574.375
       371   04 Jun 2027 07:17:02.387   04 Jun 2027 07:17:18.770            16.383                Anadyr2           511.969
       372   04 Jun 2027 07:17:41.339   04 Jun 2027 07:17:54.710            13.371               Magadan2           417.844
       373   04 Jun 2027 07:18:10.342   04 Jun 2027 07:18:36.103            25.761               Magadan1           805.031
       374   04 Jun 2027 07:18:36.103   04 Jun 2027 07:18:37.928             1.825               Magadan2            57.031
       375   04 Jun 2027 07:19:02.232   04 Jun 2027 07:20:04.559            62.327                Anadyr2          1947.719
       376   04 Jun 2027 08:48:08.536   04 Jun 2027 08:48:19.844            11.308               Magadan2           353.375
       377   04 Jun 2027 08:48:59.334   04 Jun 2027 08:49:02.268             2.934               Magadan1            91.688
       378   04 Jun 2027 08:50:24.118   04 Jun 2027 08:50:46.653            22.535               Magadan2           704.219
       379   04 Jun 2027 08:50:53.114   04 Jun 2027 08:52:32.871            99.757                Anadyr2          3117.406
       380   04 Jun 2027 08:52:50.337   04 Jun 2027 08:54:03.729            73.392               Magadan1          2293.500
       381   04 Jun 2027 08:54:53.793   04 Jun 2027 08:55:08.804            15.011               Magadan1           469.094
       382   04 Jun 2027 08:55:15.285   04 Jun 2027 08:56:17.890            62.605                Anadyr1          1956.406
       383   04 Jun 2027 08:56:50.226   04 Jun 2027 08:57:38.395            48.169               Magadan1          1505.281
       384   04 Jun 2027 09:32:48.405   04 Jun 2027 09:33:22.793            34.388            RioGallegos          1074.625
       385   04 Jun 2027 09:41:10.938   04 Jun 2027 09:42:14.031            63.093            RioGallegos          1971.656
       386   04 Jun 2027 10:28:06.296   04 Jun 2027 10:29:03.543            57.247               Magadan1          1788.969
       387   04 Jun 2027 10:29:10.333   04 Jun 2027 10:29:49.363            39.030                Irkutsk          1219.688
       388   04 Jun 2027 10:30:08.781   04 Jun 2027 10:30:23.661            14.880                Irkutsk           465.000
       389   04 Jun 2027 10:30:44.643   04 Jun 2027 10:31:10.310            25.667                Norilsk           802.094
       390   04 Jun 2027 10:31:12.680   04 Jun 2027 10:31:32.067            19.387                Norilsk           605.844
       391   04 Jun 2027 10:31:34.958   04 Jun 2027 10:31:45.855            10.897                Norilsk           340.531
       392   04 Jun 2027 10:31:46.346   04 Jun 2027 10:31:46.618             0.272               Magadan1             8.500
       393   04 Jun 2027 10:32:31.161   04 Jun 2027 10:33:02.218            31.057                Novosib           970.531
       394   04 Jun 2027 10:33:06.787   04 Jun 2027 10:33:16.473             9.686                Novosib           302.688
       395   04 Jun 2027 10:33:37.790   04 Jun 2027 10:34:49.233            71.443                Novosib          2232.594
       396   04 Jun 2027 11:11:54.811   04 Jun 2027 11:12:46.012            51.201            RioGallegos          1600.031
       397   04 Jun 2027 11:44:48.381   04 Jun 2027 11:45:42.911            54.530                Sumatra          1704.062
       398   04 Jun 2027 12:06:08.452   04 Jun 2027 12:06:34.004            25.552                Novosib           798.500
       399   04 Jun 2027 12:08:01.956   04 Jun 2027 12:08:06.174             4.218                Irkutsk           131.812
       400   04 Jun 2027 12:09:54.273   04 Jun 2027 12:10:13.318            19.045                Novosib           595.156
       401   04 Jun 2027 12:49:51.503   04 Jun 2027 12:51:22.832            91.329            RioGallegos          2854.031
       402   04 Jun 2027 13:30:21.889   04 Jun 2027 13:32:14.945           113.056                  Delhi          3533.000
       403   04 Jun 2027 13:35:37.436   04 Jun 2027 13:35:44.786             7.350                Novosib           229.688
       404   04 Jun 2027 13:36:04.141   04 Jun 2027 13:37:26.897            82.756                  Delhi          2586.125
       405   04 Jun 2027 13:39:29.136   04 Jun 2027 13:40:25.454            56.318                Novosib          1759.937
       406   04 Jun 2027 13:43:24.739   04 Jun 2027 13:43:59.003            34.264                Novosib          1070.750
       407   04 Jun 2027 15:11:45.088   04 Jun 2027 15:14:09.642           144.554                 Moscow          4517.312
       408   04 Jun 2027 15:14:40.579   04 Jun 2027 15:15:04.004            23.425                 Moscow           732.031
       409   04 Jun 2027 15:16:42.530   04 Jun 2027 15:18:11.413            88.883              Murmansk1          2777.594
       410   04 Jun 2027 15:19:50.412   04 Jun 2027 15:22:36.928           166.516                Norilsk          5203.625
       411   04 Jun 2027 15:24:00.760   04 Jun 2027 15:24:26.349            25.589                Norilsk           799.656
       412   04 Jun 2027 16:31:59.185   04 Jun 2027 16:32:30.667            31.482               CapeTown           983.812
       413   04 Jun 2027 16:35:58.648   04 Jun 2027 16:36:17.970            19.322               CapeTown           603.813
       414   04 Jun 2027 16:49:31.671   04 Jun 2027 16:50:13.745            42.074                 Moscow          1314.813
       415   04 Jun 2027 16:52:30.807   04 Jun 2027 16:53:45.416            74.609              Murmansk2          2331.531
       416   04 Jun 2027 16:56:14.534   04 Jun 2027 16:56:36.225            21.691              Murmansk2           677.844
       417   04 Jun 2027 16:59:15.175   04 Jun 2027 16:59:43.618            28.443              Murmansk2           888.844
       418   04 Jun 2027 17:01:57.699   04 Jun 2027 17:02:21.365            23.666              Murmansk1           739.563
       419   04 Jun 2027 17:06:10.295   04 Jun 2027 17:07:22.874            72.579                Anadyr1          2268.094
       420   04 Jun 2027 17:09:05.170   04 Jun 2027 17:09:28.059            22.889                Anadyr2           715.281
       421   04 Jun 2027 17:12:37.732   04 Jun 2027 17:13:02.716            24.984                Anadyr2           780.750
       422   04 Jun 2027 18:01:20.729   04 Jun 2027 18:02:05.062            44.333               CapeTown          1385.406
       423   04 Jun 2027 18:07:09.608   04 Jun 2027 18:09:16.125           126.517               CapeTown          3953.656
       424   04 Jun 2027 18:32:09.211   04 Jun 2027 18:33:33.291            84.080              Murmansk1          2627.500
       425   04 Jun 2027 18:33:39.889   04 Jun 2027 18:36:11.328           151.439              Murmansk2          4732.469
       426   04 Jun 2027 18:47:10.796   04 Jun 2027 18:47:53.999            43.203               Magadan2          1350.094
       427   04 Jun 2027 18:51:01.473   04 Jun 2027 18:51:12.850            11.377               Magadan2           355.531
       428   04 Jun 2027 20:17:44.220   04 Jun 2027 20:19:22.263            98.043                Anadyr2          3063.844
       429   04 Jun 2027 20:19:48.944   04 Jun 2027 20:23:07.858           198.914                Anadyr1          6216.062
       430   04 Jun 2027 20:23:24.324   04 Jun 2027 20:24:17.829            53.505               Magadan2          1672.031
       431   04 Jun 2027 20:24:54.299   04 Jun 2027 20:25:39.935            45.636               Magadan1          1426.125
       432   04 Jun 2027 20:26:06.951   04 Jun 2027 20:26:23.219            16.268               Magadan1           508.375
       433   04 Jun 2027 20:27:03.894   04 Jun 2027 20:27:23.971            20.077               Magadan1           627.406
       434   04 Jun 2027 20:28:42.864   04 Jun 2027 20:28:54.394            11.530               Magadan2           360.312
       435   04 Jun 2027 20:31:24.622   04 Jun 2027 20:31:34.381             9.759               Magadan2           304.969
       436   04 Jun 2027 21:14:09.994   04 Jun 2027 21:16:29.944           139.950            RioGallegos          4373.437
       437   04 Jun 2027 21:18:54.034   04 Jun 2027 21:19:11.726            17.692            RioGallegos           552.875
       438   04 Jun 2027 21:53:34.117   04 Jun 2027 21:54:49.879            75.762                Anadyr1          2367.562
       439   04 Jun 2027 21:54:52.022   04 Jun 2027 21:55:44.431            52.409                Anadyr2          1637.781
       440   04 Jun 2027 21:55:57.600   04 Jun 2027 21:57:23.926            86.326               Magadan1          2697.687
       441   04 Jun 2027 21:57:47.093   04 Jun 2027 21:58:07.006            19.913               Magadan1           622.281
       442   04 Jun 2027 21:58:27.797   04 Jun 2027 21:59:07.017            39.220                Norilsk          1225.625
       443   04 Jun 2027 22:00:43.270   04 Jun 2027 22:01:15.170            31.900                Irkutsk           996.875
       444   04 Jun 2027 22:02:28.393   04 Jun 2027 22:02:34.228             5.835                Irkutsk           182.344
       445   04 Jun 2027 22:03:01.988   04 Jun 2027 22:03:18.149            16.161                Irkutsk           505.031
       446   04 Jun 2027 22:06:20.359   04 Jun 2027 22:07:12.100            51.741                Irkutsk          1616.906
       447   04 Jun 2027 22:15:51.003   04 Jun 2027 22:17:38.569           107.566                Sumatra          3361.438
       448   04 Jun 2027 22:21:41.600   04 Jun 2027 22:23:44.247           122.647                Sumatra          3832.719
       449   04 Jun 2027 23:30:58.197   04 Jun 2027 23:31:10.378            12.181                Anadyr2           380.656
       450   04 Jun 2027 23:31:27.743   04 Jun 2027 23:33:06.075            98.332                Norilsk          3072.875
       451   04 Jun 2027 23:34:28.234   04 Jun 2027 23:35:15.859            47.625               Magadan2          1488.281
       452   04 Jun 2027 23:35:23.622   04 Jun 2027 23:36:29.724            66.102                Irkutsk          2065.688
       453   04 Jun 2027 23:38:28.570   04 Jun 2027 23:39:30.856            62.286                Novosib          1946.437
       454   04 Jun 2027 23:46:29.184   04 Jun 2027 23:47:55.508            86.324                  Delhi          2697.625
       455   04 Jun 2027 23:57:12.822   04 Jun 2027 23:57:45.322            32.500                Sumatra          1015.625
       456   05 Jun 2027 00:29:24.074   05 Jun 2027 00:30:09.837            45.763            RioGallegos          1430.094
       457   05 Jun 2027 01:03:02.402   05 Jun 2027 01:03:28.026            25.624                Anadyr2           800.750
       458   05 Jun 2027 01:03:28.026   05 Jun 2027 01:04:07.421            39.395                Anadyr1          1231.094
       459   05 Jun 2027 01:04:26.289   05 Jun 2027 01:04:50.780            24.491                Anadyr1           765.344
       460   05 Jun 2027 01:05:25.912   05 Jun 2027 01:05:40.211            14.299                Anadyr2           446.844
       461   05 Jun 2027 01:07:28.261   05 Jun 2027 01:07:28.664             0.403                Norilsk            12.594
       462   05 Jun 2027 01:07:51.957   05 Jun 2027 01:07:53.270             1.313                Norilsk            41.031
       463   05 Jun 2027 01:07:55.977   05 Jun 2027 01:09:30.668            94.691                Norilsk          2959.094
       464   05 Jun 2027 01:09:55.858   05 Jun 2027 01:10:03.492             7.634               Magadan1           238.563
       465   05 Jun 2027 01:10:27.468   05 Jun 2027 01:11:27.826            60.358              Murmansk1          1886.188
       466   05 Jun 2027 01:11:28.985   05 Jun 2027 01:12:32.107            63.122                Irkutsk          1972.563
       467   05 Jun 2027 01:12:39.645   05 Jun 2027 01:14:30.061           110.416                Novosib          3450.500
       468   05 Jun 2027 01:25:26.564   05 Jun 2027 01:26:26.090            59.526                  Delhi          1860.187
       469   05 Jun 2027 02:00:27.294   05 Jun 2027 02:01:49.992            82.698            RioGallegos          2584.312
       470   05 Jun 2027 02:02:11.497   05 Jun 2027 02:02:39.205            27.708            RioGallegos           865.875
       471   05 Jun 2027 02:37:08.223   05 Jun 2027 02:37:21.029            12.806                Anadyr1           400.187
       472   05 Jun 2027 02:38:23.229   05 Jun 2027 02:38:36.692            13.463                Anadyr2           420.719
       473   05 Jun 2027 02:38:36.692   05 Jun 2027 02:38:50.136            13.444                Anadyr1           420.125
       474   05 Jun 2027 02:39:23.318   05 Jun 2027 02:39:35.139            11.821                Anadyr2           369.406
       475   05 Jun 2027 02:42:09.644   05 Jun 2027 02:42:25.693            16.049                Anadyr1           501.531
       476   05 Jun 2027 02:42:27.114   05 Jun 2027 02:43:15.236            48.122               Magadan1          1503.812
       477   05 Jun 2027 02:43:24.265   05 Jun 2027 02:43:28.136             3.871                Norilsk           120.969
       478   05 Jun 2027 02:44:21.867   05 Jun 2027 02:44:40.121            18.254                Norilsk           570.437
       479   05 Jun 2027 02:45:38.574   05 Jun 2027 02:47:40.530           121.956              Murmansk2          3811.125
       480   05 Jun 2027 02:48:23.149   05 Jun 2027 02:48:47.469            24.320                Novosib           760.000
       481   05 Jun 2027 02:49:43.481   05 Jun 2027 02:50:08.068            24.587                Irkutsk           768.344
       482   05 Jun 2027 02:50:22.269   05 Jun 2027 02:50:53.705            31.436                Irkutsk           982.375
