uniorb/output/strategy_4/Drop/Drop_KinoSat_111903.txt

KinoSat_111903
-------------------------
    Access    *     Start Time (UTCG)     *     Stop Time (UTCG)  *   Duration (s)        *       Station  *  Data (Mbytes)
         1   01 Jun 2027 03:22:12.552   01 Jun 2027 03:23:45.783            93.231              Murmansk2          2913.469
         2   01 Jun 2027 03:23:49.250   01 Jun 2027 03:24:31.186            41.936              Murmansk2          1310.500
         3   01 Jun 2027 03:24:32.517   01 Jun 2027 03:25:47.434            74.917                Irkutsk          2341.156
         4   01 Jun 2027 03:26:13.193   01 Jun 2027 03:29:21.104           187.911                Novosib          5872.219
         5   01 Jun 2027 03:29:35.371   01 Jun 2027 03:30:45.359            69.988                Irkutsk          2187.125
         6   01 Jun 2027 04:10:03.388   01 Jun 2027 04:14:04.648           241.260            RioGallegos          7539.375
         7   01 Jun 2027 04:59:41.370   01 Jun 2027 05:03:09.118           207.748                Novosib          6492.125
         8   01 Jun 2027 05:03:19.710   01 Jun 2027 05:05:19.188           119.478              Murmansk1          3733.687
         9   01 Jun 2027 05:06:08.098   01 Jun 2027 05:06:18.207            10.109                Novosib           315.906
        10   01 Jun 2027 06:38:17.602   01 Jun 2027 06:38:47.278            29.676                Norilsk           927.375
        11   01 Jun 2027 06:38:54.661   01 Jun 2027 06:40:50.456           115.795              Murmansk2          3618.594
        12   01 Jun 2027 06:40:50.456   01 Jun 2027 06:41:09.728            19.272              Murmansk1           602.250
        13   01 Jun 2027 06:41:12.828   01 Jun 2027 06:42:59.617           106.789                 Moscow          3337.156
        14   01 Jun 2027 06:57:28.384   01 Jun 2027 06:59:25.339           116.955               CapeTown          3654.844
        15   01 Jun 2027 08:02:19.292   01 Jun 2027 08:04:08.216           108.924                Norilsk          3403.875
        16   01 Jun 2027 08:04:27.474   01 Jun 2027 08:04:39.690            12.216                Norilsk           381.750
        17   01 Jun 2027 08:04:41.093   01 Jun 2027 08:05:08.597            27.504               Magadan1           859.500
        18   01 Jun 2027 08:06:05.877   01 Jun 2027 08:06:38.852            32.975              Murmansk2          1030.469
        19   01 Jun 2027 08:06:38.852   01 Jun 2027 08:06:58.709            19.857              Murmansk1           620.531
        20   01 Jun 2027 09:36:39.703   01 Jun 2027 09:38:37.476           117.773                Anadyr1          3680.406
        21   01 Jun 2027 09:39:59.763   01 Jun 2027 09:42:34.992           155.229                Anadyr1          4850.906
        22   01 Jun 2027 11:13:09.113   01 Jun 2027 11:17:58.175           289.062               Magadan1          9033.187
        23   01 Jun 2027 14:20:40.986   01 Jun 2027 14:22:29.984           108.998                Irkutsk          3406.187
        24   01 Jun 2027 14:24:23.356   01 Jun 2027 14:24:38.531            15.175                Irkutsk           474.219
        25   01 Jun 2027 15:49:45.548   01 Jun 2027 15:51:57.435           131.887                  Delhi          4121.469
        26   01 Jun 2027 15:56:19.502   01 Jun 2027 15:56:58.643            39.141                  Delhi          1223.156
        27   01 Jun 2027 15:58:14.062   01 Jun 2027 16:05:02.229           408.167                Novosib         12755.219
        28   01 Jun 2027 19:12:28.118   01 Jun 2027 19:16:42.153           254.035                 Moscow          7938.594
        29   01 Jun 2027 20:22:43.351   01 Jun 2027 20:23:24.144            40.793               CapeTown          1274.781
        30   01 Jun 2027 20:24:57.196   01 Jun 2027 20:26:21.409            84.213               CapeTown          2631.656
        31   01 Jun 2027 20:27:53.581   01 Jun 2027 20:27:58.663             5.082               CapeTown           158.813
        32   01 Jun 2027 20:55:30.176   01 Jun 2027 20:59:41.978           251.802              Murmansk2          7868.812
        33   01 Jun 2027 22:38:20.820   01 Jun 2027 22:41:00.333           159.513                Anadyr1          4984.781
        34   01 Jun 2027 22:41:02.535   01 Jun 2027 22:43:35.237           152.702               Magadan2          4771.938
        35   01 Jun 2027 22:44:53.223   01 Jun 2027 22:44:56.571             3.348               Magadan2           104.625
        36   01 Jun 2027 22:45:10.753   01 Jun 2027 22:45:54.952            44.199               Magadan2          1381.219
        37   01 Jun 2027 22:51:17.400   01 Jun 2027 22:52:44.374            86.974               Magadan1          2717.937
        38   01 Jun 2027 23:33:01.043   01 Jun 2027 23:35:04.657           123.614            RioGallegos          3862.938
        39   01 Jun 2027 23:38:29.839   01 Jun 2027 23:39:20.130            50.291            RioGallegos          1571.594
        40   02 Jun 2027 00:14:02.063   02 Jun 2027 00:15:14.518            72.455                Anadyr2          2264.219
        41   02 Jun 2027 00:16:09.377   02 Jun 2027 00:17:46.333            96.956                Norilsk          3029.875
        42   02 Jun 2027 00:18:23.544   02 Jun 2027 00:19:51.690            88.146               Magadan2          2754.563
        43   02 Jun 2027 00:20:28.859   02 Jun 2027 00:21:10.585            41.726                Irkutsk          1303.938
        44   02 Jun 2027 00:22:46.055   02 Jun 2027 00:23:23.446            37.391                Irkutsk          1168.469
        45   02 Jun 2027 00:23:40.292   02 Jun 2027 00:24:18.497            38.205                Novosib          1193.906
        46   02 Jun 2027 00:25:06.078   02 Jun 2027 00:25:17.809            11.731                Novosib           366.594
        47   02 Jun 2027 00:34:24.110   02 Jun 2027 00:36:09.074           104.964                Sumatra          3280.125
        48   02 Jun 2027 00:37:02.414   02 Jun 2027 00:37:44.652            42.238                Sumatra          1319.938
        49   02 Jun 2027 01:08:02.888   02 Jun 2027 01:09:07.378            64.490            RioGallegos          2015.312
        50   02 Jun 2027 01:09:49.937   02 Jun 2027 01:10:05.851            15.914            RioGallegos           497.312
        51   02 Jun 2027 01:10:57.990   02 Jun 2027 01:11:19.391            21.401            RioGallegos           668.781
        52   02 Jun 2027 01:48:55.966   02 Jun 2027 01:50:00.040            64.074                Anadyr1          2002.312
        53   02 Jun 2027 01:50:00.040   02 Jun 2027 01:50:23.437            23.397                Anadyr2           731.156
        54   02 Jun 2027 01:51:05.993   02 Jun 2027 01:51:37.922            31.929                Anadyr1           997.781
        55   02 Jun 2027 01:52:05.747   02 Jun 2027 01:53:22.370            76.623                Norilsk          2394.469
        56   02 Jun 2027 01:53:46.181   02 Jun 2027 01:54:10.109            23.928               Magadan2           747.750
        57   02 Jun 2027 01:55:58.239   02 Jun 2027 01:58:53.050           174.811                Irkutsk          5462.844
        58   02 Jun 2027 02:04:16.845   02 Jun 2027 02:04:57.903            41.058                  Delhi          1283.062
        59   02 Jun 2027 02:08:16.400   02 Jun 2027 02:08:30.645            14.245                  Delhi           445.156
        60   02 Jun 2027 02:09:56.705   02 Jun 2027 02:10:57.023            60.318                  Delhi          1884.937
        61   02 Jun 2027 02:11:46.728   02 Jun 2027 02:15:50.354           243.626                Sumatra          7613.312
        62   02 Jun 2027 03:34:51.633   02 Jun 2027 03:37:28.790           157.157                Norilsk          4911.156
        63   02 Jun 2027 03:37:29.710   02 Jun 2027 03:41:07.135           217.425                Irkutsk          6794.531
        64   02 Jun 2027 03:41:52.072   02 Jun 2027 03:42:52.791            60.719                Novosib          1897.469
        65   02 Jun 2027 04:23:35.533   02 Jun 2027 04:23:58.968            23.435            RioGallegos           732.344
        66   02 Jun 2027 05:14:55.076   02 Jun 2027 05:18:14.690           199.614                Novosib          6237.938
        67   02 Jun 2027 05:20:26.234   02 Jun 2027 05:21:47.962            81.728                 Moscow          2554.000
        68   02 Jun 2027 05:40:20.707   02 Jun 2027 05:41:01.123            40.416               CapeTown          1263.000
        69   02 Jun 2027 05:41:10.939   02 Jun 2027 05:41:42.825            31.886               CapeTown           996.437
        70   02 Jun 2027 05:43:36.454   02 Jun 2027 05:44:40.168            63.714               CapeTown          1991.063
        71   02 Jun 2027 06:33:03.509   02 Jun 2027 06:33:17.509            14.000               Magadan1           437.500
        72   02 Jun 2027 06:33:17.509   02 Jun 2027 06:34:36.912            79.403               Magadan2          2481.344
        73   02 Jun 2027 06:36:46.665   02 Jun 2027 06:38:25.471            98.806               Magadan2          3087.688
        74   02 Jun 2027 06:51:47.388   02 Jun 2027 06:53:05.446            78.058              Murmansk2          2439.313
        75   02 Jun 2027 06:53:18.014   02 Jun 2027 06:53:52.222            34.208                 Moscow          1069.000
        76   02 Jun 2027 06:57:03.822   02 Jun 2027 06:58:00.639            56.817                 Moscow          1775.531
        77   02 Jun 2027 07:09:44.943   02 Jun 2027 07:17:50.535           485.592               CapeTown         15174.750
        78   02 Jun 2027 08:13:23.630   02 Jun 2027 08:15:16.545           112.915               Magadan2          3528.594
        79   02 Jun 2027 08:15:16.545   02 Jun 2027 08:17:13.683           117.138               Magadan1          3660.562
        80   02 Jun 2027 08:17:13.683   02 Jun 2027 08:18:15.725            62.042               Magadan2          1938.813
        81   02 Jun 2027 09:49:47.603   02 Jun 2027 09:50:48.575            60.972                Anadyr1          1905.375
        82   02 Jun 2027 09:51:11.171   02 Jun 2027 09:51:41.154            29.983                Anadyr2           936.969
        83   02 Jun 2027 09:52:26.027   02 Jun 2027 09:52:56.420            30.393               Magadan2           949.781
        84   02 Jun 2027 10:30:42.789   02 Jun 2027 10:31:51.320            68.531            RioGallegos          2141.594
        85   02 Jun 2027 11:20:19.420   02 Jun 2027 11:20:22.375             2.955               Magadan2            92.344
        86   02 Jun 2027 11:23:40.402   02 Jun 2027 11:26:01.494           141.092               Magadan2          4409.125
        87   02 Jun 2027 11:26:11.165   02 Jun 2027 11:29:49.684           218.519               Magadan2          6828.719
        88   02 Jun 2027 11:30:04.056   02 Jun 2027 11:30:25.961            21.905                Norilsk           684.531
        89   02 Jun 2027 12:04:57.267   02 Jun 2027 12:05:09.311            12.044            RioGallegos           376.375
        90   02 Jun 2027 12:06:09.778   02 Jun 2027 12:08:06.597           116.819            RioGallegos          3650.594
        91   02 Jun 2027 12:40:59.858   02 Jun 2027 12:42:20.663            80.805                Sumatra          2525.156
        92   02 Jun 2027 12:53:31.816   02 Jun 2027 12:54:24.263            52.447                Irkutsk          1638.969
        93   02 Jun 2027 12:55:21.173   02 Jun 2027 12:55:36.751            15.578                Novosib           486.813
        94   02 Jun 2027 12:56:39.834   02 Jun 2027 12:57:44.048            64.214                Irkutsk          2006.687
        95   02 Jun 2027 13:42:59.421   02 Jun 2027 13:45:42.882           163.461            RioGallegos          5108.156
        96   02 Jun 2027 14:17:14.769   02 Jun 2027 14:22:00.974           286.205                Sumatra          8943.906
        97   02 Jun 2027 14:32:53.992   02 Jun 2027 14:35:54.330           180.338                Irkutsk          5635.562
        98   02 Jun 2027 16:02:40.669   02 Jun 2027 16:08:01.899           321.230                  Delhi         10038.438
        99   02 Jun 2027 16:11:10.820   02 Jun 2027 16:17:57.927           407.107                Novosib         12722.094
       100   02 Jun 2027 18:57:55.494   02 Jun 2027 18:58:45.241            49.747               CapeTown          1554.594
       101   02 Jun 2027 19:04:28.964   02 Jun 2027 19:04:52.505            23.541               CapeTown           735.656
       102   02 Jun 2027 19:25:38.023   02 Jun 2027 19:29:28.404           230.381                 Moscow          7199.406
       103   02 Jun 2027 19:31:00.099   02 Jun 2027 19:32:50.667           110.568              Murmansk2          3455.250
       104   02 Jun 2027 19:45:08.224   02 Jun 2027 19:45:36.768            28.544               Magadan1           892.000
       105   02 Jun 2027 20:35:10.516   02 Jun 2027 20:38:37.107           206.591               CapeTown          6455.969
       106   02 Jun 2027 21:08:51.333   02 Jun 2027 21:11:06.200           134.867              Murmansk1          4214.594
       107   02 Jun 2027 21:16:57.095   02 Jun 2027 21:17:36.042            38.947               Magadan2          1217.094
       108   02 Jun 2027 21:17:47.457   02 Jun 2027 21:18:08.367            20.910               Magadan2           653.438
       109   02 Jun 2027 21:19:22.532   02 Jun 2027 21:19:38.059            15.527               Magadan2           485.219
       110   02 Jun 2027 21:20:26.172   02 Jun 2027 21:20:39.445            13.273               Magadan2           414.781
       111   02 Jun 2027 21:22:48.077   02 Jun 2027 21:23:03.859            15.782               Magadan1           493.188
       112   02 Jun 2027 21:23:27.779   02 Jun 2027 21:23:33.262             5.483               Magadan2           171.344
       113   02 Jun 2027 21:24:33.109   02 Jun 2027 21:25:02.640            29.531               Magadan1           922.844
       114   02 Jun 2027 22:50:21.992   02 Jun 2027 22:55:32.900           310.908                Anadyr2          9715.875
       115   02 Jun 2027 22:55:44.142   02 Jun 2027 22:56:14.955            30.813                Norilsk           962.906
       116   02 Jun 2027 22:56:19.685   02 Jun 2027 22:57:48.878            89.193               Magadan2          2787.281
       117   02 Jun 2027 22:57:48.878   02 Jun 2027 22:58:19.223            30.345               Magadan1           948.281
       118   02 Jun 2027 23:04:58.651   02 Jun 2027 23:05:32.774            34.123               Magadan2          1066.344
       119   02 Jun 2027 23:44:47.961   02 Jun 2027 23:47:46.950           178.989            RioGallegos          5593.406
       120   02 Jun 2027 23:49:43.186   02 Jun 2027 23:50:17.313            34.127            RioGallegos          1066.469
       121   03 Jun 2027 00:25:59.434   03 Jun 2027 00:26:56.818            57.384                Anadyr1          1793.250
       122   03 Jun 2027 00:27:40.628   03 Jun 2027 00:28:17.193            36.565                Anadyr1          1142.656
       123   03 Jun 2027 00:28:25.243   03 Jun 2027 00:30:01.377            96.134                Norilsk          3004.188
       124   03 Jun 2027 00:30:39.812   03 Jun 2027 00:32:16.877            97.065               Magadan2          3033.281
       125   03 Jun 2027 00:32:22.252   03 Jun 2027 00:33:50.516            88.264                Irkutsk          2758.250
       126   03 Jun 2027 00:34:19.208   03 Jun 2027 00:34:51.128            31.920                Novosib           997.500
       127   03 Jun 2027 00:46:08.692   03 Jun 2027 00:48:34.504           145.812                Sumatra          4556.625
       128   03 Jun 2027 01:20:56.856   03 Jun 2027 01:21:04.432             7.576            RioGallegos           236.750
       129   03 Jun 2027 01:23:22.269   03 Jun 2027 01:23:34.063            11.794            RioGallegos           368.562
       130   03 Jun 2027 01:23:58.613   03 Jun 2027 01:24:40.099            41.486            RioGallegos          1296.438
       131   03 Jun 2027 01:28:41.848   03 Jun 2027 01:28:51.619             9.771            RioGallegos           305.344
       132   03 Jun 2027 01:29:40.234   03 Jun 2027 01:30:06.852            26.618            RioGallegos           831.813
       133   03 Jun 2027 01:32:55.917   03 Jun 2027 01:32:56.381             0.464            RioGallegos            14.500
       134   03 Jun 2027 02:00:44.429   03 Jun 2027 02:01:34.412            49.983                Anadyr1          1561.969
       135   03 Jun 2027 02:01:34.412   03 Jun 2027 02:02:14.004            39.592                Anadyr2          1237.250
       136   03 Jun 2027 02:04:08.192   03 Jun 2027 02:05:15.355            67.163                Norilsk          2098.844
       137   03 Jun 2027 02:05:31.058   03 Jun 2027 02:06:01.948            30.890                Norilsk           965.312
       138   03 Jun 2027 02:08:01.199   03 Jun 2027 02:11:11.277           190.078                Irkutsk          5939.937
       139   03 Jun 2027 02:23:13.347   03 Jun 2027 02:25:19.274           125.927                  Delhi          3935.219
       140   03 Jun 2027 02:29:50.994   03 Jun 2027 02:32:04.974           133.980                Sumatra          4186.875
       141   03 Jun 2027 03:00:04.393   03 Jun 2027 03:00:22.915            18.522            RioGallegos           578.813
       142   03 Jun 2027 03:46:55.976   03 Jun 2027 03:52:43.111           347.135                Irkutsk         10847.969
       143   03 Jun 2027 05:25:34.573   03 Jun 2027 05:26:20.064            45.491                Norilsk          1421.594
       144   03 Jun 2027 05:26:57.860   03 Jun 2027 05:29:31.452           153.592                Novosib          4799.750
       145   03 Jun 2027 05:29:58.450   03 Jun 2027 05:31:00.183            61.733                 Moscow          1929.156
       146   03 Jun 2027 05:45:58.437   03 Jun 2027 05:47:00.132            61.695               CapeTown          1927.969
       147   03 Jun 2027 05:52:09.930   03 Jun 2027 05:52:22.103            12.173               CapeTown           380.406
       148   03 Jun 2027 05:52:26.808   03 Jun 2027 05:53:06.095            39.287               CapeTown          1227.719
       149   03 Jun 2027 06:49:44.297   03 Jun 2027 06:49:53.035             8.738                Anadyr1           273.063
       150   03 Jun 2027 06:49:53.035   03 Jun 2027 06:51:00.407            67.372                Anadyr2          2105.375
       151   03 Jun 2027 07:01:43.108   03 Jun 2027 07:01:58.587            15.479                Norilsk           483.719
       152   03 Jun 2027 07:03:16.357   03 Jun 2027 07:03:23.234             6.877              Murmansk1           214.906
       153   03 Jun 2027 07:04:07.114   03 Jun 2027 07:04:32.644            25.530                 Moscow           797.812
       154   03 Jun 2027 07:05:14.431   03 Jun 2027 07:06:21.238            66.807                 Moscow          2087.719
       155   03 Jun 2027 07:22:08.129   03 Jun 2027 07:23:44.242            96.113               CapeTown          3003.531
       156   03 Jun 2027 08:23:45.361   03 Jun 2027 08:24:10.046            24.685               Magadan2           771.406
       157   03 Jun 2027 08:24:27.013   03 Jun 2027 08:24:56.006            28.993               Magadan2           906.031
       158   03 Jun 2027 08:25:11.377   03 Jun 2027 08:26:26.296            74.919                Anadyr1          2341.219
       159   03 Jun 2027 08:26:36.069   03 Jun 2027 08:26:40.173             4.104               Magadan1           128.250
       160   03 Jun 2027 08:27:04.009   03 Jun 2027 08:28:21.674            77.665                Anadyr2          2427.031
       161   03 Jun 2027 10:00:44.991   03 Jun 2027 10:01:39.335            54.344               Magadan2          1698.250
       162   03 Jun 2027 10:02:17.745   03 Jun 2027 10:04:00.399           102.654                Anadyr2          3207.938
       163   03 Jun 2027 10:04:22.546   03 Jun 2027 10:06:33.507           130.961               Magadan2          4092.531
       164   03 Jun 2027 11:33:00.253   03 Jun 2027 11:37:35.025           274.772               Magadan1          8586.625
       165   03 Jun 2027 11:38:11.070   03 Jun 2027 11:39:06.794            55.724               Magadan1          1741.375
       166   03 Jun 2027 11:39:29.755   03 Jun 2027 11:40:01.429            31.674                Irkutsk           989.812
       167   03 Jun 2027 11:40:27.300   03 Jun 2027 11:40:29.908             2.608                Irkutsk            81.500
       168   03 Jun 2027 11:40:49.778   03 Jun 2027 11:41:05.346            15.568                Irkutsk           486.500
       169   03 Jun 2027 11:41:15.697   03 Jun 2027 11:41:38.109            22.412               Magadan2           700.375
       170   03 Jun 2027 11:41:44.138   03 Jun 2027 11:42:17.231            33.093                Irkutsk          1034.156
       171   03 Jun 2027 11:42:39.113   03 Jun 2027 11:42:48.905             9.792                Novosib           306.000
       172   03 Jun 2027 12:17:00.896   03 Jun 2027 12:17:57.851            56.955            RioGallegos          1779.844
       173   03 Jun 2027 12:20:16.466   03 Jun 2027 12:20:37.883            21.417            RioGallegos           669.281
       174   03 Jun 2027 12:52:03.428   03 Jun 2027 12:54:50.966           167.538                Sumatra          5235.562
       175   03 Jun 2027 13:05:42.837   03 Jun 2027 13:06:04.736            21.899                Irkutsk           684.344
       176   03 Jun 2027 13:08:38.914   03 Jun 2027 13:09:28.744            49.830                Irkutsk          1557.187
       177   03 Jun 2027 13:10:21.372   03 Jun 2027 13:11:24.469            63.097                Norilsk          1971.781
       178   03 Jun 2027 13:55:41.602   03 Jun 2027 13:57:58.173           136.571            RioGallegos          4267.844
       179   03 Jun 2027 14:30:08.048   03 Jun 2027 14:34:28.870           260.822                Sumatra          8150.688
       180   03 Jun 2027 14:36:49.216   03 Jun 2027 14:37:33.072            43.856                Sumatra          1370.500
       181   03 Jun 2027 14:45:58.937   03 Jun 2027 14:49:57.124           238.187                Irkutsk          7443.344
       182   03 Jun 2027 16:16:04.627   03 Jun 2027 16:21:17.378           312.751                  Delhi          9773.469
       183   03 Jun 2027 16:24:25.827   03 Jun 2027 16:29:17.332           291.505                Novosib          9109.531
       184   03 Jun 2027 19:09:55.819   03 Jun 2027 19:12:51.543           175.724               CapeTown          5491.375
       185   03 Jun 2027 19:39:19.803   03 Jun 2027 19:40:01.116            41.313              Murmansk1          1291.031
       186   03 Jun 2027 19:40:02.510   03 Jun 2027 19:41:40.965            98.455                 Moscow          3076.719
       187   03 Jun 2027 19:42:19.550   03 Jun 2027 19:44:51.571           152.021              Murmansk2          4750.656
       188   03 Jun 2027 20:47:48.172   03 Jun 2027 20:54:46.952           418.780               CapeTown         13086.875
       189   03 Jun 2027 21:31:46.207   03 Jun 2027 21:31:54.336             8.129               Magadan2           254.031
       190   03 Jun 2027 21:33:22.895   03 Jun 2027 21:33:53.396            30.501               Magadan2           953.156
       191   03 Jun 2027 21:34:36.718   03 Jun 2027 21:34:40.390             3.672               Magadan2           114.750
       192   03 Jun 2027 21:34:43.063   03 Jun 2027 21:34:54.018            10.955               Magadan2           342.344
       193   03 Jun 2027 21:36:03.065   03 Jun 2027 21:36:07.451             4.386               Magadan1           137.063
       194   03 Jun 2027 23:02:22.903   03 Jun 2027 23:06:10.599           227.696                Anadyr2          7115.500
       195   03 Jun 2027 23:06:28.015   03 Jun 2027 23:10:00.835           212.820               Magadan1          6650.625
       196   03 Jun 2027 23:11:16.271   03 Jun 2027 23:11:38.236            21.965                Irkutsk           686.406
       197   03 Jun 2027 23:12:02.527   03 Jun 2027 23:12:53.957            51.430                Irkutsk          1607.188
       198   03 Jun 2027 23:56:38.279   03 Jun 2027 23:59:53.036           194.757            RioGallegos          6086.156
       199   04 Jun 2027 00:05:36.556   04 Jun 2027 00:06:06.702            30.146            RioGallegos           942.062
       200   04 Jun 2027 00:37:55.978   04 Jun 2027 00:38:45.872            49.894                Anadyr2          1559.187
       201   04 Jun 2027 00:39:24.512   04 Jun 2027 00:40:12.722            48.210                Anadyr1          1506.562
       202   04 Jun 2027 00:40:23.907   04 Jun 2027 00:42:03.644            99.737                Norilsk          3116.781
       203   04 Jun 2027 00:42:17.944   04 Jun 2027 00:42:50.486            32.542               Magadan2          1016.937
       204   04 Jun 2027 00:43:59.448   04 Jun 2027 00:44:59.091            59.643               Magadan1          1863.844
       205   04 Jun 2027 00:45:14.912   04 Jun 2027 00:45:26.325            11.413                Irkutsk           356.656
       206   04 Jun 2027 00:45:42.494   04 Jun 2027 00:48:10.998           148.504                Novosib          4640.750
       207   04 Jun 2027 00:57:59.680   04 Jun 2027 00:58:43.345            43.665                Sumatra          1364.531
       208   04 Jun 2027 01:01:00.363   04 Jun 2027 01:01:26.323            25.960                Sumatra           811.250
       209   04 Jun 2027 01:01:49.317   04 Jun 2027 01:02:53.509            64.192                Sumatra          2006.000
       210   04 Jun 2027 01:35:05.826   04 Jun 2027 01:35:16.889            11.063            RioGallegos           345.719
       211   04 Jun 2027 01:36:48.561   04 Jun 2027 01:37:31.315            42.754            RioGallegos          1336.063
       212   04 Jun 2027 01:42:04.148   04 Jun 2027 01:42:09.117             4.969            RioGallegos           155.281
       213   04 Jun 2027 01:44:02.762   04 Jun 2027 01:44:34.859            32.097            RioGallegos          1003.031
       214   04 Jun 2027 02:12:31.569   04 Jun 2027 02:13:19.114            47.545                Anadyr2          1485.781
       215   04 Jun 2027 02:16:10.655   04 Jun 2027 02:17:25.784            75.129                Norilsk          2347.781
       216   04 Jun 2027 02:17:36.516   04 Jun 2027 02:18:03.762            27.246                Norilsk           851.437
       217   04 Jun 2027 02:20:04.948   04 Jun 2027 02:22:48.680           163.732                Irkutsk          5116.625
       218   04 Jun 2027 02:27:42.498   04 Jun 2027 02:27:56.336            13.838                  Delhi           432.437
       219   04 Jun 2027 02:31:13.385   04 Jun 2027 02:31:57.528            44.143                  Delhi          1379.469
       220   04 Jun 2027 02:36:45.882   04 Jun 2027 02:40:46.913           241.031                Sumatra          7532.219
       221   04 Jun 2027 03:12:12.682   04 Jun 2027 03:12:50.131            37.449            RioGallegos          1170.281
       222   04 Jun 2027 03:59:16.354   04 Jun 2027 03:59:45.611            29.257                Norilsk           914.281
       223   04 Jun 2027 04:00:24.515   04 Jun 2027 04:01:11.861            47.346                Norilsk          1479.562
       224   04 Jun 2027 04:01:16.283   04 Jun 2027 04:05:09.714           233.431                Irkutsk          7294.719
       225   04 Jun 2027 04:07:15.974   04 Jun 2027 04:07:38.981            23.007                Novosib           718.969
       226   04 Jun 2027 05:37:46.151   04 Jun 2027 05:38:12.666            26.515                Norilsk           828.594
       227   04 Jun 2027 05:39:07.603   04 Jun 2027 05:41:15.283           127.680                Novosib          3990.000
       228   04 Jun 2027 05:41:46.785   04 Jun 2027 05:43:05.303            78.518                 Moscow          2453.687
       229   04 Jun 2027 05:57:43.648   04 Jun 2027 05:58:39.276            55.628               CapeTown          1738.375
       230   04 Jun 2027 07:00:53.276   04 Jun 2027 07:01:25.532            32.256               Magadan2          1008.000
       231   04 Jun 2027 07:02:00.982   04 Jun 2027 07:03:00.755            59.773                Anadyr1          1867.906
       232   04 Jun 2027 07:13:44.998   04 Jun 2027 07:13:47.056             2.058                Norilsk            64.313
       233   04 Jun 2027 07:16:35.646   04 Jun 2027 07:17:30.066            54.420                 Moscow          1700.625
       234   04 Jun 2027 07:21:13.238   04 Jun 2027 07:21:29.404            16.166                 Moscow           505.187
       235   04 Jun 2027 07:34:39.200   04 Jun 2027 07:38:25.121           225.921               CapeTown          7060.031
       236   04 Jun 2027 08:34:53.485   04 Jun 2027 08:35:15.193            21.708                Anadyr1           678.375
       237   04 Jun 2027 08:35:19.670   04 Jun 2027 08:35:58.751            39.081               Magadan1          1221.281
       238   04 Jun 2027 08:36:08.930   04 Jun 2027 08:37:11.115            62.185                Anadyr1          1943.281
       239   04 Jun 2027 08:37:29.538   04 Jun 2027 08:38:35.323            65.785               Magadan2          2055.781
       240   04 Jun 2027 08:38:43.281   04 Jun 2027 08:39:30.831            47.550               Magadan1          1485.937
       241   04 Jun 2027 08:39:35.322   04 Jun 2027 08:40:28.904            53.582               Magadan1          1674.437
       242   04 Jun 2027 09:22:42.897   04 Jun 2027 09:23:24.801            41.904            RioGallegos          1309.500
       243   04 Jun 2027 10:11:33.367   04 Jun 2027 10:12:25.241            51.874               Magadan1          1621.063
       244   04 Jun 2027 10:12:43.077   04 Jun 2027 10:13:22.736            39.659               Magadan2          1239.344
       245   04 Jun 2027 10:14:42.110   04 Jun 2027 10:15:31.568            49.458               Magadan2          1545.562
       246   04 Jun 2027 10:15:36.685   04 Jun 2027 10:15:57.097            20.412               Magadan2           637.875
       247   04 Jun 2027 10:16:12.994   04 Jun 2027 10:16:17.660             4.666               Magadan1           145.813
       248   04 Jun 2027 10:16:17.660   04 Jun 2027 10:18:32.994           135.334               Magadan2          4229.187
       249   04 Jun 2027 11:45:48.365   04 Jun 2027 11:50:11.352           262.987               Magadan1          8218.344
       250   04 Jun 2027 11:51:22.588   04 Jun 2027 11:51:36.430            13.842                Norilsk           432.563
       251   04 Jun 2027 11:52:09.075   04 Jun 2027 11:53:18.773            69.698                Norilsk          2178.063
       252   04 Jun 2027 11:53:29.153   04 Jun 2027 11:53:53.999            24.846                Novosib           776.437
       253   04 Jun 2027 11:54:04.093   04 Jun 2027 11:54:40.096            36.003                Norilsk          1125.094
       254   04 Jun 2027 12:29:08.039   04 Jun 2027 12:29:59.844            51.805            RioGallegos          1618.906
       255   04 Jun 2027 12:32:16.580   04 Jun 2027 12:33:15.917            59.337            RioGallegos          1854.281
       256   04 Jun 2027 13:03:57.394   04 Jun 2027 13:07:03.832           186.438                Sumatra          5826.188
       257   04 Jun 2027 13:18:06.526   04 Jun 2027 13:20:36.786           150.260                Irkutsk          4695.625
       258   04 Jun 2027 14:08:33.938   04 Jun 2027 14:12:07.231           213.293            RioGallegos          6665.406
       259   04 Jun 2027 14:43:39.929   04 Jun 2027 14:47:55.396           255.467                Sumatra          7983.344
       260   04 Jun 2027 14:59:35.507   04 Jun 2027 15:03:01.868           206.361                Irkutsk          6448.781
       261   04 Jun 2027 16:39:27.158   04 Jun 2027 16:40:55.701            88.543                Norilsk          2766.969
       262   04 Jun 2027 16:43:18.526   04 Jun 2027 16:45:08.112           109.586                Norilsk          3424.562
       263   04 Jun 2027 17:52:15.741   04 Jun 2027 17:53:19.584            63.843               CapeTown          1995.094
       264   04 Jun 2027 18:09:35.170   04 Jun 2027 18:09:56.498            21.328                 Moscow           666.500
       265   04 Jun 2027 18:11:29.359   04 Jun 2027 18:14:37.283           187.924                 Moscow          5872.625
       266   04 Jun 2027 18:18:44.700   04 Jun 2027 18:19:09.663            24.963              Murmansk1           780.094
       267   04 Jun 2027 18:30:06.622   04 Jun 2027 18:30:42.717            36.095                Anadyr1          1127.969
       268   04 Jun 2027 19:21:58.948   04 Jun 2027 19:24:22.067           143.119               CapeTown          4472.469
       269   04 Jun 2027 19:28:28.995   04 Jun 2027 19:29:48.586            79.591               CapeTown          2487.219
       270   04 Jun 2027 19:51:54.374   04 Jun 2027 19:52:53.919            59.545              Murmansk2          1860.781
       271   04 Jun 2027 19:54:20.454   04 Jun 2027 20:00:40.527           380.073              Murmansk1         11877.281
       272   04 Jun 2027 21:00:47.942   04 Jun 2027 21:05:23.580           275.638               CapeTown          8613.687
       273   04 Jun 2027 21:42:05.379   04 Jun 2027 21:42:21.526            16.147               Magadan2           504.594
       274   04 Jun 2027 21:45:54.869   04 Jun 2027 21:46:15.272            20.403               Magadan1           637.594
       275   04 Jun 2027 21:49:11.325   04 Jun 2027 21:49:29.914            18.589               Magadan2           580.906
       276   04 Jun 2027 21:49:48.378   04 Jun 2027 21:49:51.953             3.575               Magadan1           111.719
       277   04 Jun 2027 21:52:31.493   04 Jun 2027 21:52:52.559            21.066               Magadan1           658.312
       278   04 Jun 2027 23:14:23.493   04 Jun 2027 23:18:10.115           226.622                Anadyr1          7081.937
       279   04 Jun 2027 23:18:29.442   04 Jun 2027 23:19:33.855            64.413                Anadyr1          2012.906
       280   04 Jun 2027 23:19:34.498   04 Jun 2027 23:19:48.136            13.638                Norilsk           426.187
       281   04 Jun 2027 23:19:56.281   04 Jun 2027 23:20:26.564            30.283               Magadan1           946.344
       282   04 Jun 2027 23:20:28.191   04 Jun 2027 23:20:58.557            30.366               Magadan2           948.938
       283   04 Jun 2027 23:21:33.132   04 Jun 2027 23:22:10.112            36.980               Magadan1          1155.625
       284   04 Jun 2027 23:22:17.964   04 Jun 2027 23:23:08.347            50.383                Irkutsk          1574.469
       285   04 Jun 2027 23:24:23.863   04 Jun 2027 23:25:01.836            37.973                Irkutsk          1186.656
       286   04 Jun 2027 23:26:04.528   04 Jun 2027 23:26:10.181             5.653               Magadan2           176.656
       287   04 Jun 2027 23:26:57.038   04 Jun 2027 23:27:29.758            32.720                Irkutsk          1022.500
       288   04 Jun 2027 23:39:19.283   04 Jun 2027 23:41:34.851           135.568                Sumatra          4236.500
       289   05 Jun 2027 00:09:44.622   05 Jun 2027 00:10:01.523            16.901            RioGallegos           528.156
       290   05 Jun 2027 00:12:00.124   05 Jun 2027 00:12:08.857             8.733            RioGallegos           272.906
       291   05 Jun 2027 00:13:18.742   05 Jun 2027 00:13:42.530            23.788            RioGallegos           743.375
       292   05 Jun 2027 00:16:26.785   05 Jun 2027 00:16:49.626            22.841            RioGallegos           713.781
       293   05 Jun 2027 00:19:37.802   05 Jun 2027 00:20:03.107            25.305            RioGallegos           790.781
       294   05 Jun 2027 00:49:51.603   05 Jun 2027 00:50:21.216            29.613                Anadyr1           925.406
       295   05 Jun 2027 00:50:55.619   05 Jun 2027 00:51:22.764            27.145                Anadyr1           848.281
       296   05 Jun 2027 00:52:08.745   05 Jun 2027 00:52:30.881            22.136                Anadyr1           691.750
       297   05 Jun 2027 00:52:36.853   05 Jun 2027 00:54:05.947            89.094                Norilsk          2784.187
       298   05 Jun 2027 00:54:21.431   05 Jun 2027 00:55:50.635            89.204               Magadan2          2787.625
       299   05 Jun 2027 00:56:14.482   05 Jun 2027 00:57:29.079            74.597                Irkutsk          2331.156
       300   05 Jun 2027 00:59:06.309   05 Jun 2027 00:59:39.219            32.910                Novosib          1028.437
       301   05 Jun 2027 01:03:09.217   05 Jun 2027 01:03:25.183            15.966                Novosib           498.937
       302   05 Jun 2027 01:05:22.515   05 Jun 2027 01:05:40.866            18.351                Novosib           573.469
       303   05 Jun 2027 01:09:56.543   05 Jun 2027 01:12:43.066           166.523                Sumatra          5203.844
       304   05 Jun 2027 01:47:36.960   05 Jun 2027 01:48:08.343            31.383            RioGallegos           980.719
       305   05 Jun 2027 01:53:44.452   05 Jun 2027 01:55:07.193            82.741            RioGallegos          2585.656
       306   05 Jun 2027 02:26:49.493   05 Jun 2027 02:27:00.276            10.783                Anadyr1           336.969
       307   05 Jun 2027 02:28:13.107   05 Jun 2027 02:29:14.247            61.140                Norilsk          1910.625
       308   05 Jun 2027 02:29:29.799   05 Jun 2027 02:29:40.437            10.638                Norilsk           332.437
       309   05 Jun 2027 02:30:02.470   05 Jun 2027 02:30:05.397             2.927                Norilsk            91.469
       310   05 Jun 2027 02:31:10.386   05 Jun 2027 02:31:17.704             7.318                Norilsk           228.687
       311   05 Jun 2027 02:31:54.972   05 Jun 2027 02:32:24.398            29.426              Murmansk1           919.563
       312   05 Jun 2027 02:32:43.814   05 Jun 2027 02:33:38.349            54.535              Murmansk2          1704.219
       313   05 Jun 2027 02:34:18.162   05 Jun 2027 02:34:38.506            20.344                Irkutsk           635.750
       314   05 Jun 2027 02:34:55.567   05 Jun 2027 02:35:28.297            32.730                Irkutsk          1022.813
       315   05 Jun 2027 02:35:46.037   05 Jun 2027 02:35:53.083             7.046                Novosib           220.188
       316   05 Jun 2027 02:37:26.880   05 Jun 2027 02:37:32.530             5.650                Irkutsk           176.562
       317   05 Jun 2027 02:38:06.133   05 Jun 2027 02:38:53.988            47.855                Irkutsk          1495.469
       318   05 Jun 2027 02:43:39.481   05 Jun 2027 02:45:36.140           116.659                  Delhi          3645.594
       319   05 Jun 2027 03:21:54.633   05 Jun 2027 03:22:30.899            36.266            RioGallegos          1133.312
       320   05 Jun 2027 03:27:08.233   05 Jun 2027 03:28:26.852            78.619            RioGallegos          2456.844
       321   05 Jun 2027 04:11:50.393   05 Jun 2027 04:12:12.969            22.576                Norilsk           705.500
       322   05 Jun 2027 04:12:59.984   05 Jun 2027 04:13:39.790            39.806                Norilsk          1243.937
       323   05 Jun 2027 04:13:42.087   05 Jun 2027 04:14:12.932            30.845              Murmansk2           963.906
       324   05 Jun 2027 04:14:20.954   05 Jun 2027 04:15:00.963            40.009                 Moscow          1250.281
       325   05 Jun 2027 04:15:01.203   05 Jun 2027 04:16:29.057            87.854                Irkutsk          2745.438
       326   05 Jun 2027 04:16:36.013   05 Jun 2027 04:16:58.689            22.676                 Moscow           708.625
       327   05 Jun 2027 04:19:43.336   05 Jun 2027 04:20:10.774            27.438                Novosib           857.437
       328   05 Jun 2027 04:23:31.692   05 Jun 2027 04:26:09.437           157.745                  Delhi          4929.531
       329   05 Jun 2027 05:48:54.310   05 Jun 2027 05:50:05.646            71.336                Novosib          2229.250
       330   05 Jun 2027 05:51:01.454   05 Jun 2027 05:52:41.000            99.546                Novosib          3110.812
       331   05 Jun 2027 05:53:14.451   05 Jun 2027 05:53:30.556            16.105                 Moscow           503.281
       332   05 Jun 2027 05:56:44.170   05 Jun 2027 05:57:04.663            20.493                 Moscow           640.406
       333   05 Jun 2027 05:57:44.312   05 Jun 2027 05:58:23.631            39.319                 Moscow          1228.719
       334   05 Jun 2027 06:09:34.130   05 Jun 2027 06:10:34.975            60.845               CapeTown          1901.406
       335   05 Jun 2027 06:13:52.526   05 Jun 2027 06:14:04.782            12.256               CapeTown           383.000
       336   05 Jun 2027 06:17:40.975   05 Jun 2027 06:17:58.366            17.391               CapeTown           543.469
       337   05 Jun 2027 06:20:03.491   05 Jun 2027 06:22:15.301           131.810               CapeTown          4119.063
       338   05 Jun 2027 07:12:26.958   05 Jun 2027 07:12:41.477            14.519                Anadyr1           453.719
       339   05 Jun 2027 07:12:56.537   05 Jun 2027 07:13:12.978            16.441               Magadan2           513.781
       340   05 Jun 2027 07:13:22.752   05 Jun 2027 07:13:32.956            10.204                Anadyr1           318.875
       341   05 Jun 2027 07:14:07.051   05 Jun 2027 07:14:15.325             8.274               Magadan1           258.562
       342   05 Jun 2027 07:14:16.225   05 Jun 2027 07:14:38.287            22.062               Magadan1           689.438
       343   05 Jun 2027 07:15:00.655   05 Jun 2027 07:15:11.110            10.455                Anadyr1           326.719
       344   05 Jun 2027 07:15:46.233   05 Jun 2027 07:16:10.999            24.766                Anadyr2           773.938
       345   05 Jun 2027 07:17:10.271   05 Jun 2027 07:17:39.627            29.356                Anadyr2           917.375
       346   05 Jun 2027 07:25:46.871   05 Jun 2027 07:26:01.942            15.071                Norilsk           470.969
       347   05 Jun 2027 07:28:38.149   05 Jun 2027 07:28:53.411            15.262                 Moscow           476.937
       348   05 Jun 2027 07:33:17.215   05 Jun 2027 07:33:29.948            12.733                 Moscow           397.906
       349   05 Jun 2027 07:47:20.381   05 Jun 2027 07:49:30.580           130.199               CapeTown          4068.719
       350   05 Jun 2027 07:53:43.870   05 Jun 2027 07:54:29.983            46.113               CapeTown          1441.031
       351   05 Jun 2027 08:46:47.934   05 Jun 2027 08:47:43.298            55.364                Anadyr1          1730.125
       352   05 Jun 2027 08:49:00.099   05 Jun 2027 08:49:27.806            27.707               Magadan1           865.844
       353   05 Jun 2027 08:49:36.393   05 Jun 2027 08:50:33.812            57.419               Magadan2          1794.344
       354   05 Jun 2027 08:50:46.248   05 Jun 2027 08:51:21.779            35.531               Magadan1          1110.344
       355   05 Jun 2027 08:51:27.550   05 Jun 2027 08:52:47.184            79.634               Magadan2          2488.562
       356   05 Jun 2027 09:34:26.450   05 Jun 2027 09:35:11.604            45.154            RioGallegos          1411.062
       357   05 Jun 2027 10:22:02.987   05 Jun 2027 10:23:06.815            63.828               Magadan1          1994.625
       358   05 Jun 2027 10:23:19.835   05 Jun 2027 10:23:43.857            24.022               Magadan1           750.687
       359   05 Jun 2027 10:24:40.126   05 Jun 2027 10:24:58.517            18.391               Magadan2           574.719
       360   05 Jun 2027 10:24:58.517   05 Jun 2027 10:26:42.597           104.080               Magadan1          3252.500
       361   05 Jun 2027 10:28:06.296   05 Jun 2027 10:28:15.407             9.111               Magadan2           284.719
       362   05 Jun 2027 10:28:15.407   05 Jun 2027 10:29:25.382            69.975               Magadan1          2186.719
       363   05 Jun 2027 10:33:08.937   05 Jun 2027 10:33:13.766             4.829                Norilsk           150.906
       364   05 Jun 2027 11:05:45.240   05 Jun 2027 11:05:50.577             5.337            RioGallegos           166.781
       365   05 Jun 2027 11:06:28.063   05 Jun 2027 11:07:00.226            32.163            RioGallegos          1005.094
       366   05 Jun 2027 11:07:50.201   05 Jun 2027 11:08:14.149            23.948            RioGallegos           748.375
       367   05 Jun 2027 11:12:13.353   05 Jun 2027 11:12:44.736            31.383            RioGallegos           980.719
       368   05 Jun 2027 11:44:06.884   05 Jun 2027 11:44:45.822            38.938                Sumatra          1216.812
       369   05 Jun 2027 11:58:46.743   05 Jun 2027 12:04:58.513           371.770               Magadan1         11617.812
       370   05 Jun 2027 13:36:03.392   05 Jun 2027 13:36:37.465            34.073                Irkutsk          1064.781
       371   05 Jun 2027 13:38:21.875   05 Jun 2027 13:39:12.784            50.909                Irkutsk          1590.906
       372   05 Jun 2027 14:21:42.296   05 Jun 2027 14:25:35.773           233.477            RioGallegos          7296.156
       373   05 Jun 2027 15:08:09.913   05 Jun 2027 15:08:36.778            26.865                Novosib           839.531
       374   05 Jun 2027 15:12:11.897   05 Jun 2027 15:12:56.306            44.409                Norilsk          1387.781
       375   05 Jun 2027 15:17:37.706   05 Jun 2027 15:17:55.546            17.840                Norilsk           557.500
       376   05 Jun 2027 15:21:11.348   05 Jun 2027 15:21:23.098            11.750                Norilsk           367.187
       377   05 Jun 2027 15:21:32.433   05 Jun 2027 15:22:04.544            32.111                Norilsk          1003.469
       378   05 Jun 2027 16:44:33.094   05 Jun 2027 16:47:08.614           155.520                 Moscow          4860.000
       379   05 Jun 2027 16:48:00.356   05 Jun 2027 16:48:57.259            56.903              Murmansk1          1778.219
       380   05 Jun 2027 16:52:09.779   05 Jun 2027 16:54:42.476           152.697                Norilsk          4771.781
       381   05 Jun 2027 16:55:20.352   05 Jun 2027 16:58:04.901           164.549                Norilsk          5142.156
       382   05 Jun 2027 18:22:01.761   05 Jun 2027 18:22:52.489            50.728                 Moscow          1585.250
       383   05 Jun 2027 18:25:07.813   05 Jun 2027 18:25:40.130            32.317              Murmansk2          1009.906
       384   05 Jun 2027 18:26:30.693   05 Jun 2027 18:27:20.210            49.517              Murmansk1          1547.406
       385   05 Jun 2027 18:28:49.370   05 Jun 2027 18:30:21.710            92.340              Murmansk1          2885.625
       386   05 Jun 2027 18:33:00.028   05 Jun 2027 18:34:56.659           116.631              Murmansk1          3644.719
       387   05 Jun 2027 19:34:04.882   05 Jun 2027 19:35:28.844            83.962               CapeTown          2623.812
       388   05 Jun 2027 19:42:38.337   05 Jun 2027 19:42:52.914            14.577               CapeTown           455.531
       389   05 Jun 2027 20:04:32.248   05 Jun 2027 20:10:10.970           338.722              Murmansk1         10585.063
       390   05 Jun 2027 20:10:40.521   05 Jun 2027 20:12:37.750           117.229              Murmansk2          3663.406
       391   05 Jun 2027 21:50:32.156   05 Jun 2027 21:53:40.788           188.632                Anadyr1          5894.750
       392   05 Jun 2027 21:53:49.902   05 Jun 2027 21:56:23.061           153.159               Magadan2          4786.219
       393   05 Jun 2027 21:56:55.096   05 Jun 2027 21:56:55.726             0.630               Magadan2            19.687
       394   05 Jun 2027 22:00:47.943   05 Jun 2027 22:00:56.465             8.522               Magadan2           266.312
       395   05 Jun 2027 22:01:20.632   05 Jun 2027 22:01:44.460            23.828               Magadan1           744.625
       396   05 Jun 2027 22:47:43.298   05 Jun 2027 22:49:33.955           110.657            RioGallegos          3458.031
       397   05 Jun 2027 23:26:23.707   05 Jun 2027 23:29:05.357           161.650                Anadyr2          5051.563
       398   05 Jun 2027 23:29:05.357   05 Jun 2027 23:30:06.278            60.921                Anadyr1          1903.781
       399   05 Jun 2027 23:30:15.917   05 Jun 2027 23:30:42.840            26.923               Magadan2           841.344
       400   05 Jun 2027 23:31:02.596   05 Jun 2027 23:31:35.102            32.506                Norilsk          1015.812
       401   05 Jun 2027 23:32:09.720   05 Jun 2027 23:33:01.177            51.457               Magadan1          1608.031
       402   05 Jun 2027 23:33:44.981   05 Jun 2027 23:34:50.517            65.536                Irkutsk          2048.000
       403   05 Jun 2027 23:36:03.161   05 Jun 2027 23:36:08.802             5.641                Irkutsk           176.281
       404   05 Jun 2027 23:36:46.687   05 Jun 2027 23:37:49.157            62.470                Irkutsk          1952.187
       405   05 Jun 2027 23:49:20.642   05 Jun 2027 23:50:59.978            99.336                Sumatra          3104.250
       406   06 Jun 2027 00:20:26.137   06 Jun 2027 00:21:05.926            39.789            RioGallegos          1243.406
       407   06 Jun 2027 00:22:50.574   06 Jun 2027 00:22:55.338             4.764            RioGallegos           148.875
       408   06 Jun 2027 00:24:08.344   06 Jun 2027 00:25:16.553            68.209            RioGallegos          2131.531
       409   06 Jun 2027 01:01:46.198   06 Jun 2027 01:02:48.729            62.531                Anadyr1          1954.094
       410   06 Jun 2027 01:04:01.993   06 Jun 2027 01:04:30.808            28.815                Anadyr2           900.469
       411   06 Jun 2027 01:04:33.279   06 Jun 2027 01:04:36.927             3.648                Anadyr2           114.000
       412   06 Jun 2027 01:04:49.551   06 Jun 2027 01:06:08.259            78.708                Norilsk          2459.625
       413   06 Jun 2027 01:06:25.287   06 Jun 2027 01:06:55.466            30.179               Magadan2           943.094
       414   06 Jun 2027 01:06:55.466   06 Jun 2027 01:07:20.006            24.540               Magadan1           766.875
       415   06 Jun 2027 01:08:12.731   06 Jun 2027 01:09:45.339            92.608                Irkutsk          2894.000
       416   06 Jun 2027 01:11:47.214   06 Jun 2027 01:12:00.127            12.913                Irkutsk           403.531
       417   06 Jun 2027 01:12:53.343   06 Jun 2027 01:13:22.992            29.649                Novosib           926.531
       418   06 Jun 2027 01:16:57.045   06 Jun 2027 01:17:40.970            43.925                Novosib          1372.656
       419   06 Jun 2027 01:21:59.096   06 Jun 2027 01:23:40.054           100.958                Sumatra          3154.938
       420   06 Jun 2027 01:31:39.460   06 Jun 2027 01:31:53.040            13.580                Sumatra           424.375
       421   06 Jun 2027 01:56:13.826   06 Jun 2027 01:57:38.801            84.975            RioGallegos          2655.469
       422   06 Jun 2027 02:05:27.632   06 Jun 2027 02:05:51.899            24.267            RioGallegos           758.344
       423   06 Jun 2027 02:37:38.505   06 Jun 2027 02:38:30.722            52.217                Anadyr1          1631.781
       424   06 Jun 2027 02:40:15.522   06 Jun 2027 02:41:27.297            71.775                Norilsk          2242.969
       425   06 Jun 2027 02:42:58.055   06 Jun 2027 02:43:03.290             5.235                Norilsk           163.594
       426   06 Jun 2027 02:43:23.810   06 Jun 2027 02:44:00.891            37.081              Murmansk1          1158.781
       427   06 Jun 2027 02:44:04.855   06 Jun 2027 02:44:31.252            26.397              Murmansk2           824.906
       428   06 Jun 2027 02:45:10.418   06 Jun 2027 02:45:57.463            47.045                Novosib          1470.156
       429   06 Jun 2027 02:46:23.123   06 Jun 2027 02:47:46.221            83.098                Irkutsk          2596.813
       430   06 Jun 2027 02:54:31.123   06 Jun 2027 02:54:46.505            15.382                  Delhi           480.688
       431   06 Jun 2027 02:57:27.045   06 Jun 2027 02:57:56.824            29.779                  Delhi           930.594
       432   06 Jun 2027 03:01:42.470   06 Jun 2027 03:03:49.006           126.536                  Delhi          3954.250
       433   06 Jun 2027 03:33:07.432   06 Jun 2027 03:35:08.364           120.932            RioGallegos          3779.125
       434   06 Jun 2027 04:24:38.121   06 Jun 2027 04:24:43.311             5.190              Murmansk2           162.187
       435   06 Jun 2027 04:24:51.557   06 Jun 2027 04:25:12.485            20.928                Norilsk           654.000
       436   06 Jun 2027 04:25:16.486   06 Jun 2027 04:26:00.094            43.608              Murmansk2          1362.750
       437   06 Jun 2027 04:26:00.094   06 Jun 2027 04:26:54.380            54.286              Murmansk1          1696.437
       438   06 Jun 2027 04:27:02.343   06 Jun 2027 04:27:45.626            43.283              Murmansk2          1352.594
       439   06 Jun 2027 04:28:08.059   06 Jun 2027 04:28:37.341            29.282                Novosib           915.062
       440   06 Jun 2027 04:29:43.341   06 Jun 2027 04:31:12.352            89.011                  Delhi          2781.594
       441   06 Jun 2027 04:31:32.858   06 Jun 2027 04:31:56.066            23.208                Novosib           725.250
       442   06 Jun 2027 04:35:08.951   06 Jun 2027 04:35:19.286            10.335                  Delhi           322.969
       443   06 Jun 2027 06:02:47.274   06 Jun 2027 06:03:43.378            56.104                Novosib          1753.250
       444   06 Jun 2027 06:03:56.376   06 Jun 2027 06:04:03.334             6.958                Novosib           217.438
       445   06 Jun 2027 06:04:20.102   06 Jun 2027 06:04:45.690            25.588              Murmansk1           799.625
       446   06 Jun 2027 06:05:03.250   06 Jun 2027 06:06:07.514            64.264                 Moscow          2008.250
       447   06 Jun 2027 06:06:17.993   06 Jun 2027 06:08:07.321           109.328                 Moscow          3416.500
       448   06 Jun 2027 06:08:52.781   06 Jun 2027 06:09:08.992            16.211                 Moscow           506.594
       449   06 Jun 2027 06:21:29.702   06 Jun 2027 06:22:27.317            57.615               CapeTown          1800.469
       450   06 Jun 2027 06:24:41.808   06 Jun 2027 06:24:54.147            12.339               CapeTown           385.594
       451   06 Jun 2027 07:24:36.956   06 Jun 2027 07:25:10.944            33.988                Anadyr2          1062.125
       452   06 Jun 2027 07:25:24.346   06 Jun 2027 07:26:23.626            59.280                Anadyr1          1852.500
       453   06 Jun 2027 07:26:41.681   06 Jun 2027 07:26:48.563             6.882               Magadan1           215.063
       454   06 Jun 2027 07:27:00.020   06 Jun 2027 07:27:13.050            13.030                Anadyr2           407.187
       455   06 Jun 2027 07:27:49.909   06 Jun 2027 07:29:11.345            81.436                Anadyr1          2544.875
       456   06 Jun 2027 08:00:16.192   06 Jun 2027 08:04:30.968           254.776               CapeTown          7961.750
       457   06 Jun 2027 09:00:32.367   06 Jun 2027 09:00:40.245             7.878               Magadan1           246.187
       458   06 Jun 2027 09:00:42.585   06 Jun 2027 09:01:08.577            25.992                Anadyr2           812.250
       459   06 Jun 2027 09:01:45.981   06 Jun 2027 09:02:31.390            45.409               Magadan1          1419.031
       460   06 Jun 2027 09:02:49.036   06 Jun 2027 09:03:02.848            13.812               Magadan1           431.625
       461   06 Jun 2027 09:03:02.848   06 Jun 2027 09:03:26.656            23.808               Magadan2           744.000
       462   06 Jun 2027 09:04:43.854   06 Jun 2027 09:05:21.150            37.296                Anadyr1          1165.500
       463   06 Jun 2027 09:45:39.917   06 Jun 2027 09:45:46.521             6.604            RioGallegos           206.375
       464   06 Jun 2027 09:47:41.057   06 Jun 2027 09:47:58.081            17.024            RioGallegos           532.000
       465   06 Jun 2027 10:35:35.065   06 Jun 2027 10:35:57.279            22.214               Magadan2           694.188
       466   06 Jun 2027 10:36:12.467   06 Jun 2027 10:36:18.174             5.707               Magadan2           178.344
       467   06 Jun 2027 10:36:35.890   06 Jun 2027 10:40:01.954           206.064               Magadan1          6439.500
       468   06 Jun 2027 10:40:37.165   06 Jun 2027 10:40:46.720             9.555               Magadan1           298.594
       469   06 Jun 2027 10:40:46.720   06 Jun 2027 10:42:29.551           102.831               Magadan2          3213.469
       470   06 Jun 2027 11:54:45.426   06 Jun 2027 11:56:40.840           115.414                Sumatra          3606.687
       471   06 Jun 2027 12:12:03.444   06 Jun 2027 12:16:19.627           256.183               Magadan2          8005.719
       472   06 Jun 2027 13:33:40.116   06 Jun 2027 13:36:38.033           177.917                Sumatra          5559.906
       473   06 Jun 2027 13:50:48.258   06 Jun 2027 13:52:36.502           108.244                Irkutsk          3382.625
       474   06 Jun 2027 14:35:31.361   06 Jun 2027 14:38:15.862           164.501            RioGallegos          5140.656
       475   06 Jun 2027 15:20:32.861   06 Jun 2027 15:21:01.134            28.273                  Delhi           883.531
       476   06 Jun 2027 15:24:35.405   06 Jun 2027 15:25:01.799            26.394                Norilsk           824.812
       477   06 Jun 2027 15:25:14.708   06 Jun 2027 15:25:57.199            42.491                Novosib          1327.844
       478   06 Jun 2027 15:27:44.473   06 Jun 2027 15:31:20.489           216.016                Novosib          6750.500
       479   06 Jun 2027 17:00:04.956   06 Jun 2027 17:00:55.625            50.669              Murmansk1          1583.406
       480   06 Jun 2027 17:04:56.793   06 Jun 2027 17:09:19.699           262.906                Norilsk          8215.813
       481   06 Jun 2027 18:20:21.808   06 Jun 2027 18:20:52.730            30.922               CapeTown           966.312
       482   06 Jun 2027 18:34:33.410   06 Jun 2027 18:36:06.099            92.689                 Moscow          2896.531
