uniorb/output/strategy_4/Drop/Drop_KinoSat_110605.txt

KinoSat_110605
-------------------------
    Access    *     Start Time (UTCG)     *     Stop Time (UTCG)  *   Duration (s)        *       Station  *  Data (Mbytes)
         1   01 Jun 2027 03:45:35.443   01 Jun 2027 03:45:56.590            21.147               Magadan2           660.844
         2   01 Jun 2027 03:46:06.013   01 Jun 2027 03:46:37.435            31.422                Anadyr1           981.938
         3   01 Jun 2027 03:47:02.080   01 Jun 2027 03:48:57.009           114.929               Magadan2          3591.531
         4   01 Jun 2027 03:49:20.654   01 Jun 2027 03:49:48.915            28.261                Anadyr2           883.156
         5   01 Jun 2027 03:49:48.915   01 Jun 2027 03:50:05.662            16.747                Anadyr1           523.344
         6   01 Jun 2027 05:20:55.988   01 Jun 2027 05:21:21.081            25.093                Irkutsk           784.156
         7   01 Jun 2027 05:21:50.521   01 Jun 2027 05:24:59.593           189.072               Magadan2          5908.500
         8   01 Jun 2027 05:25:03.559   01 Jun 2027 05:25:33.401            29.842               Magadan2           932.563
         9   01 Jun 2027 05:25:59.526   01 Jun 2027 05:26:22.976            23.450                Norilsk           732.813
        10   01 Jun 2027 05:26:44.663   01 Jun 2027 05:26:52.894             8.231                Novosib           257.219
        11   01 Jun 2027 05:27:29.187   01 Jun 2027 05:28:01.717            32.530              Murmansk2          1016.562
        12   01 Jun 2027 05:28:36.817   01 Jun 2027 05:29:25.874            49.057              Murmansk2          1533.031
        13   01 Jun 2027 05:31:32.411   01 Jun 2027 05:32:25.045            52.634              Murmansk2          1644.812
        14   01 Jun 2027 05:33:11.846   01 Jun 2027 05:33:21.591             9.745              Murmansk2           304.531
        15   01 Jun 2027 06:00:48.963   01 Jun 2027 06:02:59.070           130.107            RioGallegos          4065.844
        16   01 Jun 2027 06:04:04.737   01 Jun 2027 06:04:49.699            44.962            RioGallegos          1405.063
        17   01 Jun 2027 06:05:44.827   01 Jun 2027 06:06:23.693            38.866            RioGallegos          1214.563
        18   01 Jun 2027 06:36:30.859   01 Jun 2027 06:40:08.092           217.233                Sumatra          6788.531
        19   01 Jun 2027 06:41:07.818   01 Jun 2027 06:41:22.578            14.760                Sumatra           461.250
        20   01 Jun 2027 06:41:47.522   01 Jun 2027 06:43:15.133            87.611                Sumatra          2737.844
        21   01 Jun 2027 06:57:46.877   01 Jun 2027 06:58:09.054            22.177                Norilsk           693.031
        22   01 Jun 2027 06:58:28.109   01 Jun 2027 06:59:07.863            39.754                Novosib          1242.313
        23   01 Jun 2027 06:59:13.249   01 Jun 2027 07:01:54.020           160.771                Norilsk          5024.094
        24   01 Jun 2027 07:02:10.590   01 Jun 2027 07:03:13.623            63.033              Murmansk1          1969.781
        25   01 Jun 2027 07:03:13.623   01 Jun 2027 07:03:21.296             7.673              Murmansk2           239.781
        26   01 Jun 2027 07:03:45.937   01 Jun 2027 07:04:11.886            25.949              Murmansk2           810.906
        27   01 Jun 2027 07:38:12.337   01 Jun 2027 07:39:36.586            84.249            RioGallegos          2632.781
        28   01 Jun 2027 07:42:35.277   01 Jun 2027 07:42:37.889             2.612            RioGallegos            81.625
        29   01 Jun 2027 08:12:24.289   01 Jun 2027 08:12:49.645            25.356                Sumatra           792.375
        30   01 Jun 2027 08:13:56.472   01 Jun 2027 08:15:22.080            85.608                Sumatra          2675.250
        31   01 Jun 2027 08:20:08.170   01 Jun 2027 08:23:55.289           227.119                  Delhi          7097.469
        32   01 Jun 2027 08:35:31.268   01 Jun 2027 08:36:32.280            61.012                Novosib          1906.625
        33   01 Jun 2027 08:36:40.277   01 Jun 2027 08:38:20.064            99.787                Norilsk          3118.344
        34   01 Jun 2027 08:38:42.825   01 Jun 2027 08:40:24.481           101.656                 Moscow          3176.750
        35   01 Jun 2027 09:57:29.869   01 Jun 2027 10:00:08.333           158.464                  Delhi          4952.000
        36   01 Jun 2027 10:01:10.688   01 Jun 2027 10:01:38.481            27.793                  Delhi           868.531
        37   01 Jun 2027 10:11:56.407   01 Jun 2027 10:13:19.678            83.271              Murmansk2          2602.219
        38   01 Jun 2027 10:13:33.124   01 Jun 2027 10:14:14.561            41.437                Novosib          1294.906
        39   01 Jun 2027 10:14:19.111   01 Jun 2027 10:16:01.604           102.493                Norilsk          3202.906
        40   01 Jun 2027 10:16:24.959   01 Jun 2027 10:16:51.767            26.808              Murmansk2           837.750
        41   01 Jun 2027 11:59:40.666   01 Jun 2027 12:05:25.274           344.608                Anadyr2         10769.000
        42   01 Jun 2027 15:12:55.700   01 Jun 2027 15:15:21.728           146.028               Magadan2          4563.375
        43   01 Jun 2027 15:17:51.068   01 Jun 2027 15:18:51.587            60.519               Magadan1          1891.219
        44   01 Jun 2027 15:21:24.701   01 Jun 2027 15:22:26.264            61.563               Magadan1          1923.844
        45   01 Jun 2027 17:43:23.617   01 Jun 2027 17:47:17.857           234.240            RioGallegos          7320.000
        46   01 Jun 2027 18:25:21.090   01 Jun 2027 18:27:34.178           133.088                Norilsk          4159.000
        47   01 Jun 2027 18:28:23.819   01 Jun 2027 18:30:29.591           125.772                Irkutsk          3930.375
        48   01 Jun 2027 18:38:57.824   01 Jun 2027 18:39:34.524            36.700                Irkutsk          1146.875
        49   01 Jun 2027 18:42:19.624   01 Jun 2027 18:46:07.192           227.568                Sumatra          7111.500
        50   01 Jun 2027 18:47:49.552   01 Jun 2027 18:48:52.522            62.970                Sumatra          1967.813
        51   01 Jun 2027 20:04:05.963   01 Jun 2027 20:05:27.088            81.125                Novosib          2535.156
        52   01 Jun 2027 20:06:26.726   01 Jun 2027 20:07:48.932            82.206                Novosib          2568.938
        53   01 Jun 2027 20:12:14.462   01 Jun 2027 20:13:41.034            86.572                  Delhi          2705.375
        54   01 Jun 2027 20:15:22.350   01 Jun 2027 20:19:07.501           225.151                  Delhi          7035.969
        55   01 Jun 2027 21:38:27.131   01 Jun 2027 21:44:05.236           338.105              Murmansk1         10565.781
        56   01 Jun 2027 21:44:11.841   01 Jun 2027 21:48:14.977           243.136                 Moscow          7598.000
        57   01 Jun 2027 23:16:59.207   01 Jun 2027 23:18:05.130            65.923              Murmansk2          2060.094
        58   01 Jun 2027 23:42:14.156   01 Jun 2027 23:45:44.073           209.917               CapeTown          6559.906
        59   01 Jun 2027 23:47:49.535   01 Jun 2027 23:48:03.966            14.431               CapeTown           450.969
        60   02 Jun 2027 00:45:29.511   02 Jun 2027 00:46:00.218            30.707               Magadan2           959.594
        61   02 Jun 2027 00:47:22.435   02 Jun 2027 00:47:25.174             2.739               Magadan1            85.594
        62   02 Jun 2027 00:47:28.467   02 Jun 2027 00:48:30.408            61.941               Magadan1          1935.656
        63   02 Jun 2027 00:50:03.685   02 Jun 2027 00:51:02.415            58.730              Murmansk1          1835.313
        64   02 Jun 2027 00:52:36.614   02 Jun 2027 00:53:21.781            45.167              Murmansk2          1411.469
        65   02 Jun 2027 00:53:24.101   02 Jun 2027 00:54:24.663            60.562                 Moscow          1892.562
        66   02 Jun 2027 01:00:17.388   02 Jun 2027 01:01:52.238            94.850                 Moscow          2964.062
        67   02 Jun 2027 01:17:33.181   02 Jun 2027 01:18:27.664            54.483               CapeTown          1702.594
        68   02 Jun 2027 02:14:10.572   02 Jun 2027 02:17:28.675           198.103               Magadan1          6190.719
        69   02 Jun 2027 02:19:16.756   02 Jun 2027 02:20:16.858            60.102               Magadan2          1878.187
        70   02 Jun 2027 02:25:57.244   02 Jun 2027 02:26:38.346            41.102              Murmansk2          1284.438
        71   02 Jun 2027 02:28:31.506   02 Jun 2027 02:28:36.895             5.389              Murmansk1           168.406
        72   02 Jun 2027 02:29:33.360   02 Jun 2027 02:30:16.247            42.887              Murmansk2          1340.219
        73   02 Jun 2027 02:31:05.507   02 Jun 2027 02:32:05.008            59.501                 Moscow          1859.406
        74   02 Jun 2027 02:38:55.966   02 Jun 2027 02:39:15.932            19.966                 Moscow           623.938
        75   02 Jun 2027 03:56:33.616   02 Jun 2027 03:58:47.912           134.296               Magadan1          4196.750
        76   02 Jun 2027 03:59:04.207   02 Jun 2027 04:00:26.161            81.954               Magadan2          2561.063
        77   02 Jun 2027 04:00:26.161   02 Jun 2027 04:01:01.118            34.957               Magadan1          1092.406
        78   02 Jun 2027 04:01:22.967   02 Jun 2027 04:02:24.014            61.047               Magadan1          1907.719
        79   02 Jun 2027 04:43:22.474   02 Jun 2027 04:44:08.285            45.811            RioGallegos          1431.594
        80   02 Jun 2027 04:45:06.067   02 Jun 2027 04:45:51.684            45.617            RioGallegos          1425.531
        81   02 Jun 2027 05:33:48.092   02 Jun 2027 05:33:52.595             4.503               Magadan2           140.719
        82   02 Jun 2027 05:33:52.982   02 Jun 2027 05:34:16.205            23.223                Irkutsk           725.719
        83   02 Jun 2027 05:35:06.687   02 Jun 2027 05:37:39.659           152.972               Magadan1          4780.375
        84   02 Jun 2027 05:42:30.257   02 Jun 2027 05:43:13.693            43.436                Norilsk          1357.375
        85   02 Jun 2027 06:54:09.803   02 Jun 2027 06:54:23.652            13.849                Sumatra           432.781
        86   02 Jun 2027 06:57:12.032   02 Jun 2027 06:57:19.311             7.279                Sumatra           227.469
        87   02 Jun 2027 06:59:04.789   02 Jun 2027 07:00:16.372            71.583                Sumatra          2236.969
        88   02 Jun 2027 07:09:38.788   02 Jun 2027 07:12:15.115           156.327                Irkutsk          4885.219
        89   02 Jun 2027 07:12:38.483   02 Jun 2027 07:14:04.275            85.792                Irkutsk          2681.000
        90   02 Jun 2027 07:14:12.253   02 Jun 2027 07:15:17.158            64.905                Novosib          2028.281
        91   02 Jun 2027 10:10:59.025   02 Jun 2027 10:12:06.012            66.987                  Delhi          2093.344
        92   02 Jun 2027 10:17:22.487   02 Jun 2027 10:18:24.846            62.359                  Delhi          1948.719
        93   02 Jun 2027 10:22:58.686   02 Jun 2027 10:23:18.249            19.563                Novosib           611.344
        94   02 Jun 2027 10:27:31.208   02 Jun 2027 10:28:04.966            33.758              Murmansk2          1054.937
        95   02 Jun 2027 12:02:57.023   02 Jun 2027 12:03:25.926            28.903              Murmansk1           903.219
        96   02 Jun 2027 12:05:39.733   02 Jun 2027 12:06:41.629            61.896              Murmansk1          1934.250
        97   02 Jun 2027 12:11:22.486   02 Jun 2027 12:18:20.525           418.039                Anadyr1         13063.719
        98   02 Jun 2027 13:40:26.636   02 Jun 2027 13:40:48.795            22.159              Murmansk1           692.469
        99   02 Jun 2027 13:42:12.129   02 Jun 2027 13:43:14.250            62.121              Murmansk2          1941.281
       100   02 Jun 2027 13:46:27.033   02 Jun 2027 13:48:27.741           120.708                Anadyr1          3772.125
       101   02 Jun 2027 13:48:57.185   02 Jun 2027 13:50:19.946            82.761                Anadyr1          2586.281
       102   02 Jun 2027 13:52:16.314   02 Jun 2027 13:53:28.122            71.808               Magadan1          2244.000
       103   02 Jun 2027 15:16:41.426   02 Jun 2027 15:17:26.590            45.164              Murmansk2          1411.375
       104   02 Jun 2027 15:22:17.468   02 Jun 2027 15:24:31.492           134.024                Anadyr2          4188.250
       105   02 Jun 2027 15:24:50.865   02 Jun 2027 15:26:56.861           125.996               Magadan2          3937.375
       106   02 Jun 2027 15:27:07.603   02 Jun 2027 15:28:32.681            85.078               Magadan1          2658.688
       107   02 Jun 2027 15:28:40.355   02 Jun 2027 15:29:03.170            22.815               Magadan1           712.969
       108   02 Jun 2027 15:30:30.672   02 Jun 2027 15:31:46.927            76.255               Magadan1          2382.969
       109   02 Jun 2027 15:33:20.661   02 Jun 2027 15:34:23.307            62.646               Magadan2          1957.688
       110   02 Jun 2027 17:00:29.206   02 Jun 2027 17:01:42.623            73.417               Magadan1          2294.281
       111   02 Jun 2027 17:03:11.240   02 Jun 2027 17:03:38.452            27.212               Magadan1           850.375
       112   02 Jun 2027 17:04:06.034   02 Jun 2027 17:04:45.736            39.702                Norilsk          1240.688
       113   02 Jun 2027 17:52:43.698   02 Jun 2027 17:55:59.107           195.409            RioGallegos          6106.531
       114   02 Jun 2027 17:56:37.365   02 Jun 2027 17:58:46.583           129.218            RioGallegos          4038.063
       115   02 Jun 2027 18:37:39.101   02 Jun 2027 18:40:04.153           145.052                Norilsk          4532.875
       116   02 Jun 2027 18:40:16.152   02 Jun 2027 18:42:05.113           108.961                Irkutsk          3405.031
       117   02 Jun 2027 18:42:27.806   02 Jun 2027 18:47:04.707           276.901                Novosib          8653.156
       118   02 Jun 2027 18:55:36.718   02 Jun 2027 18:57:46.255           129.537                Sumatra          4048.031
       119   02 Jun 2027 20:19:51.828   02 Jun 2027 20:21:35.074           103.246                Novosib          3226.438
       120   02 Jun 2027 20:23:52.516   02 Jun 2027 20:25:38.002           105.486                  Delhi          3296.437
       121   02 Jun 2027 20:27:37.970   02 Jun 2027 20:30:17.879           159.909                  Delhi          4997.156
       122   02 Jun 2027 21:50:23.388   02 Jun 2027 21:55:55.824           332.436              Murmansk2         10388.625
       123   02 Jun 2027 21:56:45.880   02 Jun 2027 21:59:00.929           135.049              Murmansk1          4220.281
       124   02 Jun 2027 22:00:25.625   02 Jun 2027 22:01:38.339            72.714                 Moscow          2272.313
       125   02 Jun 2027 23:29:29.879   02 Jun 2027 23:31:58.612           148.733                 Moscow          4647.906
       126   02 Jun 2027 23:39:45.274   02 Jun 2027 23:40:54.414            69.140                 Moscow          2160.625
       127   02 Jun 2027 23:53:52.607   02 Jun 2027 23:55:41.362           108.755               CapeTown          3398.594
       128   02 Jun 2027 23:56:08.840   02 Jun 2027 23:57:12.427            63.587               CapeTown          1987.094
       129   03 Jun 2027 01:02:05.236   03 Jun 2027 01:02:57.920            52.684              Murmansk2          1646.375
       130   03 Jun 2027 01:05:19.157   03 Jun 2027 01:06:25.218            66.061                 Moscow          2064.406
       131   03 Jun 2027 01:09:18.918   03 Jun 2027 01:09:36.117            17.199                 Moscow           537.469
       132   03 Jun 2027 01:09:59.996   03 Jun 2027 01:10:54.871            54.875                 Moscow          1714.844
       133   03 Jun 2027 01:29:54.584   03 Jun 2027 01:30:20.443            25.859               CapeTown           808.094
       134   03 Jun 2027 01:31:18.591   03 Jun 2027 01:31:55.823            37.232               CapeTown          1163.500
       135   03 Jun 2027 01:38:48.663   03 Jun 2027 01:39:06.125            17.462               CapeTown           545.687
       136   03 Jun 2027 02:26:00.394   03 Jun 2027 02:28:29.521           149.127               Magadan1          4660.219
       137   03 Jun 2027 02:29:25.302   03 Jun 2027 02:29:53.842            28.540               Magadan2           891.875
       138   03 Jun 2027 02:30:45.491   03 Jun 2027 02:31:18.979            33.488               Magadan2          1046.500
       139   03 Jun 2027 02:34:43.640   03 Jun 2027 02:34:48.907             5.267                Norilsk           164.594
       140   03 Jun 2027 02:35:44.614   03 Jun 2027 02:35:50.854             6.240                Norilsk           195.000
       141   03 Jun 2027 02:36:30.852   03 Jun 2027 02:36:49.612            18.760                Norilsk           586.250
       142   03 Jun 2027 02:37:57.248   03 Jun 2027 02:39:39.431           102.183              Murmansk2          3193.219
       143   03 Jun 2027 02:41:43.755   03 Jun 2027 02:42:12.576            28.821                 Moscow           900.656
       144   03 Jun 2027 02:44:11.250   03 Jun 2027 02:44:26.519            15.269                 Moscow           477.156
       145   03 Jun 2027 02:47:07.688   03 Jun 2027 02:47:53.785            46.097                 Moscow          1440.531
       146   03 Jun 2027 03:19:45.150   03 Jun 2027 03:20:21.830            36.680            RioGallegos          1146.250
       147   03 Jun 2027 03:21:11.164   03 Jun 2027 03:22:27.225            76.061            RioGallegos          2376.906
       148   03 Jun 2027 04:06:57.678   03 Jun 2027 04:06:59.314             1.636               Magadan1            51.125
       149   03 Jun 2027 04:06:59.314   03 Jun 2027 04:07:20.053            20.739               Magadan2           648.094
       150   03 Jun 2027 04:08:11.170   03 Jun 2027 04:11:10.334           179.164               Magadan1          5598.875
       151   03 Jun 2027 04:11:14.108   03 Jun 2027 04:11:27.644            13.536               Magadan1           423.000
       152   03 Jun 2027 04:11:31.361   03 Jun 2027 04:13:49.591           138.230                Anadyr1          4319.688
       153   03 Jun 2027 04:50:14.157   03 Jun 2027 04:52:53.413           159.256            RioGallegos          4976.750
       154   03 Jun 2027 05:44:26.267   03 Jun 2027 05:45:02.357            36.090                Irkutsk          1127.812
       155   03 Jun 2027 05:45:37.198   03 Jun 2027 05:46:07.776            30.578                Irkutsk           955.563
       156   03 Jun 2027 05:46:11.009   03 Jun 2027 05:47:53.888           102.879                Irkutsk          3214.969
       157   03 Jun 2027 05:48:04.166   03 Jun 2027 05:48:18.814            14.648                Novosib           457.750
       158   03 Jun 2027 05:48:27.691   03 Jun 2027 05:49:27.862            60.171               Magadan1          1880.344
       159   03 Jun 2027 05:49:32.915   03 Jun 2027 05:50:08.230            35.315                Irkutsk          1103.594
       160   03 Jun 2027 07:26:58.393   03 Jun 2027 07:26:59.560             1.167                Norilsk            36.469
       161   03 Jun 2027 07:28:19.016   03 Jun 2027 07:28:25.429             6.413              Murmansk1           200.406
       162   03 Jun 2027 08:05:45.824   03 Jun 2027 08:06:41.390            55.566            RioGallegos          1736.438
       163   03 Jun 2027 08:09:55.866   03 Jun 2027 08:10:39.487            43.621            RioGallegos          1363.156
       164   03 Jun 2027 08:39:54.604   03 Jun 2027 08:40:42.482            47.878                Sumatra          1496.187
       165   03 Jun 2027 09:01:39.923   03 Jun 2027 09:01:56.501            16.578                Norilsk           518.062
       166   03 Jun 2027 10:23:37.378   03 Jun 2027 10:25:35.592           118.214                  Delhi          3694.187
       167   03 Jun 2027 10:26:13.033   03 Jun 2027 10:26:26.542            13.509                  Delhi           422.156
       168   03 Jun 2027 10:40:05.234   03 Jun 2027 10:40:20.630            15.396                Norilsk           481.125
       169   03 Jun 2027 12:08:51.558   03 Jun 2027 12:09:04.679            13.121              Murmansk2           410.031
       170   03 Jun 2027 12:17:41.075   03 Jun 2027 12:17:48.301             7.226              Murmansk2           225.812
       171   03 Jun 2027 12:23:10.062   03 Jun 2027 12:29:09.222           359.160                Anadyr1         11223.750
       172   03 Jun 2027 12:29:12.145   03 Jun 2027 12:31:07.539           115.394                Anadyr2          3606.062
       173   03 Jun 2027 13:47:06.885   03 Jun 2027 13:47:40.865            33.980              Murmansk2          1061.875
       174   03 Jun 2027 13:48:08.558   03 Jun 2027 13:48:55.402            46.844              Murmansk2          1463.875
       175   03 Jun 2027 13:50:42.586   03 Jun 2027 13:51:07.808            25.222              Murmansk2           788.188
       176   03 Jun 2027 13:53:39.221   03 Jun 2027 13:53:55.293            16.072              Murmansk2           502.250
       177   03 Jun 2027 13:55:33.156   03 Jun 2027 13:55:41.056             7.900              Murmansk1           246.875
       178   03 Jun 2027 13:58:26.638   03 Jun 2027 14:00:46.694           140.056                Anadyr2          4376.750
       179   03 Jun 2027 14:01:02.355   03 Jun 2027 14:02:20.293            77.938                Anadyr2          2435.563
       180   03 Jun 2027 14:02:49.256   03 Jun 2027 14:07:33.825           284.569               Magadan2          8892.781
       181   03 Jun 2027 15:36:47.321   03 Jun 2027 15:39:13.262           145.941               Magadan1          4560.656
       182   03 Jun 2027 15:40:22.430   03 Jun 2027 15:42:18.088           115.658               Magadan1          3614.312
       183   03 Jun 2027 15:43:46.814   03 Jun 2027 15:44:55.465            68.651               Magadan2          2145.344
       184   03 Jun 2027 17:12:30.558   03 Jun 2027 17:14:18.307           107.749               Magadan2          3367.156
       185   03 Jun 2027 17:14:32.404   03 Jun 2027 17:16:07.046            94.642                Norilsk          2957.563
       186   03 Jun 2027 17:19:39.623   03 Jun 2027 17:22:15.318           155.695                Irkutsk          4865.469
       187   03 Jun 2027 18:05:39.684   03 Jun 2027 18:06:37.146            57.462            RioGallegos          1795.688
       188   03 Jun 2027 18:15:00.320   03 Jun 2027 18:15:42.201            41.881            RioGallegos          1308.781
       189   03 Jun 2027 18:48:37.295   03 Jun 2027 18:49:23.704            46.409                Norilsk          1450.281
       190   03 Jun 2027 18:52:10.493   03 Jun 2027 18:52:54.818            44.325                Irkutsk          1385.156
       191   03 Jun 2027 18:53:44.454   03 Jun 2027 19:00:21.295           396.841                Novosib         12401.281
       192   03 Jun 2027 19:06:04.923   03 Jun 2027 19:07:04.953            60.030                Sumatra          1875.937
       193   03 Jun 2027 19:07:12.214   03 Jun 2027 19:08:06.065            53.851                Sumatra          1682.844
       194   03 Jun 2027 20:29:25.205   03 Jun 2027 20:29:47.442            22.237                Novosib           694.906
       195   03 Jun 2027 20:30:27.374   03 Jun 2027 20:30:37.201             9.827                Novosib           307.094
       196   03 Jun 2027 20:31:55.464   03 Jun 2027 20:32:25.983            30.519                Novosib           953.719
       197   03 Jun 2027 20:33:11.910   03 Jun 2027 20:33:28.577            16.667                Novosib           520.844
       198   03 Jun 2027 20:34:34.437   03 Jun 2027 20:35:10.716            36.279                Novosib          1133.719
       199   03 Jun 2027 20:35:36.719   03 Jun 2027 20:39:35.695           238.976                  Delhi          7468.000
       200   03 Jun 2027 22:02:20.951   03 Jun 2027 22:04:11.857           110.906              Murmansk1          3465.812
       201   03 Jun 2027 22:04:34.458   03 Jun 2027 22:07:49.531           195.073              Murmansk2          6096.031
       202   03 Jun 2027 22:07:53.288   03 Jun 2027 22:14:32.650           399.362                 Moscow         12480.063
       203   03 Jun 2027 23:41:27.706   03 Jun 2027 23:42:06.342            38.636                 Moscow          1207.375
       204   03 Jun 2027 23:45:29.361   03 Jun 2027 23:46:03.452            34.091                 Moscow          1065.344
       205   04 Jun 2027 00:05:36.641   04 Jun 2027 00:09:29.689           233.048               CapeTown          7282.750
       206   04 Jun 2027 01:14:06.693   04 Jun 2027 01:16:26.629           139.936              Murmansk2          4373.000
       207   04 Jun 2027 01:20:31.491   04 Jun 2027 01:20:42.038            10.547              Murmansk2           329.594
       208   04 Jun 2027 01:22:22.741   04 Jun 2027 01:22:36.723            13.982                 Moscow           436.938
       209   04 Jun 2027 01:26:34.674   04 Jun 2027 01:26:43.872             9.198                 Moscow           287.438
       210   04 Jun 2027 01:42:23.485   04 Jun 2027 01:43:40.705            77.220               CapeTown          2413.125
       211   04 Jun 2027 01:49:30.105   04 Jun 2027 01:49:50.088            19.983               CapeTown           624.469
       212   04 Jun 2027 02:37:52.379   04 Jun 2027 02:40:45.478           173.099               Magadan1          5409.344
       213   04 Jun 2027 02:42:02.266   04 Jun 2027 02:42:13.203            10.937               Magadan2           341.781
       214   04 Jun 2027 02:42:24.396   04 Jun 2027 02:42:41.101            16.705               Magadan2           522.031
       215   04 Jun 2027 02:45:40.865   04 Jun 2027 02:46:09.547            28.682                Norilsk           896.313
       216   04 Jun 2027 02:47:05.128   04 Jun 2027 02:47:38.822            33.694                Norilsk          1052.938
       217   04 Jun 2027 02:49:56.923   04 Jun 2027 02:51:22.979            86.056              Murmansk2          2689.250
       218   04 Jun 2027 02:53:51.581   04 Jun 2027 02:54:32.362            40.781                 Moscow          1274.406
       219   04 Jun 2027 02:59:42.371   04 Jun 2027 02:59:57.313            14.942                 Moscow           466.937
       220   04 Jun 2027 03:30:39.695   04 Jun 2027 03:32:45.882           126.187            RioGallegos          3943.344
       221   04 Jun 2027 03:33:30.218   04 Jun 2027 03:33:44.567            14.349            RioGallegos           448.406
       222   04 Jun 2027 03:34:00.884   04 Jun 2027 03:35:21.961            81.077            RioGallegos          2533.656
       223   04 Jun 2027 04:18:22.995   04 Jun 2027 04:19:49.102            86.107                Anadyr2          2690.844
       224   04 Jun 2027 04:20:07.302   04 Jun 2027 04:20:35.265            27.963                Anadyr2           873.844
       225   04 Jun 2027 04:20:56.045   04 Jun 2027 04:23:29.799           153.754               Magadan2          4804.813
       226   04 Jun 2027 04:23:43.036   04 Jun 2027 04:24:09.684            26.648                Anadyr1           832.750
       227   04 Jun 2027 04:24:12.019   04 Jun 2027 04:25:30.922            78.903                Anadyr2          2465.719
       228   04 Jun 2027 04:26:07.885   04 Jun 2027 04:26:18.462            10.577              Murmansk1           330.531
       229   04 Jun 2027 04:27:41.358   04 Jun 2027 04:27:52.271            10.913              Murmansk1           341.031
       230   04 Jun 2027 04:30:00.912   04 Jun 2027 04:30:27.375            26.463              Murmansk1           826.969
       231   04 Jun 2027 05:01:54.365   04 Jun 2027 05:05:33.651           219.286            RioGallegos          6852.688
       232   04 Jun 2027 05:08:05.361   04 Jun 2027 05:08:06.458             1.097            RioGallegos            34.281
       233   04 Jun 2027 05:57:15.588   04 Jun 2027 05:59:16.593           121.005               Magadan1          3781.406
       234   04 Jun 2027 05:59:20.912   04 Jun 2027 06:00:00.485            39.573               Magadan2          1236.656
       235   04 Jun 2027 06:00:08.662   04 Jun 2027 06:01:21.504            72.842                Novosib          2276.313
       236   04 Jun 2027 06:01:53.448   04 Jun 2027 06:02:12.158            18.710                Irkutsk           584.688
       237   04 Jun 2027 06:03:05.599   04 Jun 2027 06:03:25.686            20.087                Novosib           627.719
       238   04 Jun 2027 07:35:42.817   04 Jun 2027 07:36:50.073            67.256                 Moscow          2101.750
       239   04 Jun 2027 07:37:16.550   04 Jun 2027 07:37:47.778            31.228                Irkutsk           975.875
       240   04 Jun 2027 07:37:52.581   04 Jun 2027 07:37:58.453             5.872                Irkutsk           183.500
       241   04 Jun 2027 08:16:15.634   04 Jun 2027 08:17:46.517            90.883            RioGallegos          2840.094
       242   04 Jun 2027 08:51:04.191   04 Jun 2027 08:51:32.445            28.254                Sumatra           882.938
       243   04 Jun 2027 08:51:48.294   04 Jun 2027 08:53:05.577            77.283                Sumatra          2415.094
       244   04 Jun 2027 09:14:14.153   04 Jun 2027 09:15:17.557            63.404                Novosib          1981.375
       245   04 Jun 2027 10:53:46.886   04 Jun 2027 10:54:03.061            16.175                Norilsk           505.469
       246   04 Jun 2027 12:20:40.279   04 Jun 2027 12:20:42.385             2.106                 Moscow            65.813
       247   04 Jun 2027 12:20:56.633   04 Jun 2027 12:21:12.536            15.903              Murmansk1           496.969
       248   04 Jun 2027 12:21:34.473   04 Jun 2027 12:21:49.998            15.525              Murmansk1           485.156
       249   04 Jun 2027 12:22:24.533   04 Jun 2027 12:23:07.075            42.542              Murmansk2          1329.437
       250   04 Jun 2027 12:23:50.659   04 Jun 2027 12:24:37.775            47.116              Murmansk1          1472.375
       251   04 Jun 2027 12:25:03.464   04 Jun 2027 12:25:28.783            25.319              Murmansk2           791.219
       252   04 Jun 2027 12:25:43.274   04 Jun 2027 12:26:09.788            26.514              Murmansk1           828.563
       253   04 Jun 2027 12:31:25.067   04 Jun 2027 12:31:57.990            32.923              Murmansk2          1028.844
       254   04 Jun 2027 12:35:01.176   04 Jun 2027 12:40:48.352           347.176                Anadyr2         10849.250
       255   04 Jun 2027 12:41:24.742   04 Jun 2027 12:43:48.570           143.828                Anadyr1          4494.625
       256   04 Jun 2027 14:10:26.664   04 Jun 2027 14:11:46.448            79.784                Anadyr1          2493.250
       257   04 Jun 2027 14:12:18.732   04 Jun 2027 14:13:03.042            44.310                Anadyr2          1384.687
       258   04 Jun 2027 14:14:14.417   04 Jun 2027 14:20:44.341           389.924               Magadan2         12185.125
       259   04 Jun 2027 15:48:44.824   04 Jun 2027 15:52:36.481           231.657               Magadan1          7239.281
       260   04 Jun 2027 17:22:12.326   04 Jun 2027 17:23:00.285            47.959                Anadyr1          1498.719
       261   04 Jun 2027 17:23:22.746   04 Jun 2027 17:24:09.376            46.630                Anadyr2          1457.188
       262   04 Jun 2027 17:24:32.201   04 Jun 2027 17:25:41.104            68.903               Magadan2          2153.219
       263   04 Jun 2027 17:26:03.497   04 Jun 2027 17:26:09.965             6.468               Magadan1           202.125
       264   04 Jun 2027 17:28:08.329   04 Jun 2027 17:29:41.319            92.990                Norilsk          2905.937
       265   04 Jun 2027 17:30:23.469   04 Jun 2027 17:36:04.446           340.977                Irkutsk         10655.531
       266   04 Jun 2027 17:48:14.218   04 Jun 2027 17:49:11.170            56.952                Sumatra          1779.750
       267   04 Jun 2027 19:05:17.513   04 Jun 2027 19:12:40.831           443.318                Novosib         13853.688
       268   04 Jun 2027 19:27:21.958   04 Jun 2027 19:28:33.346            71.388                Sumatra          2230.875
       269   04 Jun 2027 20:42:23.489   04 Jun 2027 20:42:51.344            27.855                Novosib           870.469
       270   04 Jun 2027 20:43:27.512   04 Jun 2027 20:43:59.448            31.936                Novosib           998.000
       271   04 Jun 2027 20:47:25.781   04 Jun 2027 20:50:05.766           159.985                  Delhi          4999.531
       272   04 Jun 2027 20:56:54.541   04 Jun 2027 20:58:07.031            72.490                  Delhi          2265.313
       273   04 Jun 2027 22:14:19.501   04 Jun 2027 22:19:45.289           325.788              Murmansk2         10180.875
       274   04 Jun 2027 22:19:48.373   04 Jun 2027 22:24:55.786           307.413                 Moscow          9606.656
       275   04 Jun 2027 22:46:31.310   04 Jun 2027 22:51:24.835           293.525               CapeTown          9172.656
       276   05 Jun 2027 00:19:24.101   05 Jun 2027 00:19:41.988            17.887               CapeTown           558.969
       277   05 Jun 2027 00:27:17.060   05 Jun 2027 00:28:06.614            49.554               CapeTown          1548.562
       278   05 Jun 2027 01:26:08.028   05 Jun 2027 01:26:53.318            45.290              Murmansk1          1415.312
       279   05 Jun 2027 01:28:19.914   05 Jun 2027 01:29:23.863            63.949              Murmansk1          1998.406
       280   05 Jun 2027 01:29:25.899   05 Jun 2027 01:30:26.445            60.546                 Moscow          1892.063
       281   05 Jun 2027 01:33:45.176   05 Jun 2027 01:34:01.439            16.263                 Moscow           508.219
       282   05 Jun 2027 01:34:48.253   05 Jun 2027 01:35:24.637            36.384                 Moscow          1137.000
       283   05 Jun 2027 01:55:01.853   05 Jun 2027 01:56:29.620            87.767               CapeTown          2742.719
       284   05 Jun 2027 02:49:46.583   05 Jun 2027 02:52:16.947           150.364               Magadan1          4698.875
       285   05 Jun 2027 02:52:16.947   05 Jun 2027 02:52:26.719             9.772               Magadan2           305.375
       286   05 Jun 2027 02:53:23.452   05 Jun 2027 02:53:40.579            17.127               Magadan1           535.219
       287   05 Jun 2027 02:54:44.124   05 Jun 2027 02:55:09.291            25.167               Magadan1           786.469
       288   05 Jun 2027 02:58:06.280   05 Jun 2027 02:58:26.800            20.520                Norilsk           641.250
       289   05 Jun 2027 03:41:47.217   05 Jun 2027 03:45:21.902           214.685            RioGallegos          6708.906
       290   05 Jun 2027 04:30:50.316   05 Jun 2027 04:31:24.578            34.262               Magadan2          1070.687
       291   05 Jun 2027 04:31:28.411   05 Jun 2027 04:32:30.926            62.515                Anadyr1          1953.594
       292   05 Jun 2027 04:32:42.021   05 Jun 2027 04:35:24.288           162.267                Irkutsk          5070.844
       293   05 Jun 2027 04:36:02.419   05 Jun 2027 04:36:18.339            15.920               Magadan2           497.500
       294   05 Jun 2027 04:36:18.339   05 Jun 2027 04:36:37.583            19.244               Magadan1           601.375
       295   05 Jun 2027 04:36:56.202   05 Jun 2027 04:37:09.492            13.290               Magadan2           415.313
       296   05 Jun 2027 04:37:09.492   05 Jun 2027 04:38:05.315            55.823               Magadan1          1744.469
       297   05 Jun 2027 05:13:37.844   05 Jun 2027 05:16:57.800           199.956            RioGallegos          6248.625
       298   05 Jun 2027 06:09:19.466   05 Jun 2027 06:09:52.212            32.746               Magadan2          1023.312
       299   05 Jun 2027 06:11:19.314   05 Jun 2027 06:11:55.041            35.727               Magadan2          1116.469
       300   05 Jun 2027 06:12:25.774   05 Jun 2027 06:12:48.687            22.913               Magadan2           716.031
       301   05 Jun 2027 06:14:10.230   05 Jun 2027 06:14:19.678             9.448                Norilsk           295.250
       302   05 Jun 2027 07:52:22.041   05 Jun 2027 07:52:45.172            23.131              Murmansk2           722.844
       303   05 Jun 2027 08:29:20.224   05 Jun 2027 08:29:35.544            15.320            RioGallegos           478.750
       304   05 Jun 2027 08:30:07.298   05 Jun 2027 08:30:43.953            36.655            RioGallegos          1145.469
       305   05 Jun 2027 09:25:50.935   05 Jun 2027 09:26:18.400            27.465                Novosib           858.281
       306   05 Jun 2027 11:04:32.011   05 Jun 2027 11:05:48.907            76.896                Norilsk          2403.000
       307   05 Jun 2027 12:30:58.160   05 Jun 2027 12:31:57.279            59.119                 Moscow          1847.469
       308   05 Jun 2027 12:32:42.607   05 Jun 2027 12:32:53.381            10.774                 Moscow           336.687
       309   05 Jun 2027 12:32:55.177   05 Jun 2027 12:34:23.516            88.339              Murmansk2          2760.594
       310   05 Jun 2027 12:35:08.468   05 Jun 2027 12:35:37.998            29.530              Murmansk2           922.813
       311   05 Jun 2027 12:35:37.998   05 Jun 2027 12:35:52.740            14.742              Murmansk1           460.687
       312   05 Jun 2027 12:36:14.010   05 Jun 2027 12:36:31.820            17.810              Murmansk1           556.563
       313   05 Jun 2027 12:36:31.820   05 Jun 2027 12:36:57.377            25.557              Murmansk2           798.656
       314   05 Jun 2027 12:39:10.200   05 Jun 2027 12:39:17.720             7.520              Murmansk1           235.000
       315   05 Jun 2027 12:46:54.702   05 Jun 2027 12:49:36.442           161.740                Anadyr1          5054.375
       316   05 Jun 2027 12:50:00.948   05 Jun 2027 12:56:24.805           383.857                Anadyr2         11995.531
       317   05 Jun 2027 14:22:27.047   05 Jun 2027 14:23:33.270            66.223                Anadyr1          2069.469
       318   05 Jun 2027 14:25:52.286   05 Jun 2027 14:32:26.691           394.405               Magadan1         12325.156
       319   05 Jun 2027 14:33:25.777   05 Jun 2027 14:33:39.290            13.513               Magadan2           422.281
       320   05 Jun 2027 16:00:43.190   05 Jun 2027 16:02:24.960           101.770               Magadan2          3180.312
       321   05 Jun 2027 16:04:38.677   05 Jun 2027 16:04:48.621             9.944               Magadan2           310.750
       322   05 Jun 2027 16:05:02.609   05 Jun 2027 16:05:24.984            22.375               Magadan2           699.219
       323   05 Jun 2027 16:56:23.229   05 Jun 2027 16:57:49.848            86.619            RioGallegos          2706.844
       324   05 Jun 2027 17:34:12.071   05 Jun 2027 17:34:34.313            22.242                Anadyr2           695.063
       325   05 Jun 2027 17:36:28.088   05 Jun 2027 17:37:16.620            48.532                Norilsk          1516.625
       326   05 Jun 2027 17:37:38.244   05 Jun 2027 17:37:41.206             2.962               Magadan2            92.562
       327   05 Jun 2027 17:37:46.701   05 Jun 2027 17:38:38.526            51.825               Magadan1          1619.531
       328   05 Jun 2027 17:39:48.189   05 Jun 2027 17:40:39.501            51.312                Norilsk          1603.500
       329   05 Jun 2027 17:41:45.401   05 Jun 2027 17:49:12.311           446.910                Irkutsk         13965.938
       330   05 Jun 2027 17:57:29.356   05 Jun 2027 18:03:48.689           379.333                Sumatra         11854.156
       331   05 Jun 2027 19:18:39.761   05 Jun 2027 19:24:43.269           363.508                Novosib         11359.625
       332   05 Jun 2027 20:51:29.384   05 Jun 2027 20:55:13.783           224.399              Murmansk2          7012.469
       333   05 Jun 2027 22:26:18.798   05 Jun 2027 22:27:48.249            89.451              Murmansk1          2795.344
       334   05 Jun 2027 22:28:04.470   05 Jun 2027 22:32:21.427           256.957              Murmansk2          8029.906
       335   05 Jun 2027 22:33:16.538   05 Jun 2027 22:38:16.329           299.791                 Moscow          9368.469
       336   05 Jun 2027 22:57:11.834   05 Jun 2027 23:04:20.142           428.308               CapeTown         13384.625
       337   06 Jun 2027 02:08:13.649   06 Jun 2027 02:09:28.801            75.152               CapeTown          2348.500
       338   06 Jun 2027 03:01:43.062   06 Jun 2027 03:01:53.191            10.129               Magadan2           316.531
       339   06 Jun 2027 03:02:40.070   06 Jun 2027 03:03:40.605            60.535               Magadan2          1891.719
       340   06 Jun 2027 03:06:01.682   06 Jun 2027 03:10:31.332           269.650                Anadyr1          8426.562
       341   06 Jun 2027 03:10:34.067   06 Jun 2027 03:11:53.453            79.386                Anadyr2          2480.813
       342   06 Jun 2027 04:45:01.104   06 Jun 2027 04:49:12.499           251.395                Irkutsk          7856.094
       343   06 Jun 2027 04:49:24.972   06 Jun 2027 04:49:50.628            25.656                Irkutsk           801.750
       344   06 Jun 2027 06:20:17.944   06 Jun 2027 06:20:21.095             3.151               Magadan1            98.469
       345   06 Jun 2027 06:20:21.095   06 Jun 2027 06:21:15.956            54.861               Magadan2          1714.406
       346   06 Jun 2027 06:21:18.416   06 Jun 2027 06:21:21.020             2.604               Magadan1            81.375
       347   06 Jun 2027 06:21:33.884   06 Jun 2027 06:22:00.500            26.616               Magadan1           831.750
       348   06 Jun 2027 06:22:37.091   06 Jun 2027 06:23:16.939            39.848               Magadan1          1245.250
       349   06 Jun 2027 06:23:21.893   06 Jun 2027 06:23:23.482             1.589               Magadan1            49.656
       350   06 Jun 2027 06:23:51.908   06 Jun 2027 06:23:57.930             6.022               Magadan2           188.188
       351   06 Jun 2027 06:26:56.699   06 Jun 2027 06:27:00.055             3.356                Norilsk           104.875
       352   06 Jun 2027 07:58:20.648   06 Jun 2027 07:58:32.485            11.837                Novosib           369.906
       353   06 Jun 2027 07:58:51.257   06 Jun 2027 07:59:27.254            35.997                Novosib          1124.906
       354   06 Jun 2027 07:59:43.848   06 Jun 2027 07:59:44.719             0.871              Murmansk2            27.219
       355   06 Jun 2027 08:03:20.703   06 Jun 2027 08:03:40.958            20.255              Murmansk2           632.969
       356   06 Jun 2027 08:42:57.843   06 Jun 2027 08:44:04.488            66.645            RioGallegos          2082.656
       357   06 Jun 2027 09:33:25.724   06 Jun 2027 09:33:27.227             1.503                Novosib            46.969
       358   06 Jun 2027 09:38:22.173   06 Jun 2027 09:38:39.454            17.281                Novosib           540.031
       359   06 Jun 2027 11:16:21.855   06 Jun 2027 11:16:40.101            18.246                Norilsk           570.187
       360   06 Jun 2027 12:42:17.151   06 Jun 2027 12:43:01.971            44.820                 Moscow          1400.625
       361   06 Jun 2027 12:44:42.011   06 Jun 2027 12:45:36.881            54.870                 Moscow          1714.688
       362   06 Jun 2027 12:45:51.807   06 Jun 2027 12:47:09.687            77.880              Murmansk2          2433.750
       363   06 Jun 2027 12:47:25.237   06 Jun 2027 12:47:42.537            17.300              Murmansk1           540.625
       364   06 Jun 2027 12:48:15.714   06 Jun 2027 12:48:52.042            36.328              Murmansk1          1135.250
       365   06 Jun 2027 12:49:45.970   06 Jun 2027 12:50:38.886            52.916              Murmansk2          1653.625
       366   06 Jun 2027 12:51:01.275   06 Jun 2027 12:51:15.715            14.440              Murmansk2           451.250
       367   06 Jun 2027 12:58:49.970   06 Jun 2027 13:04:24.596           334.626                Anadyr1         10457.062
       368   06 Jun 2027 13:06:21.646   06 Jun 2027 13:08:21.690           120.044                Anadyr2          3751.375
       369   06 Jun 2027 14:34:27.706   06 Jun 2027 14:35:42.070            74.364                Anadyr2          2323.875
       370   06 Jun 2027 14:36:18.990   06 Jun 2027 14:37:06.069            47.079                Anadyr1          1471.219
       371   06 Jun 2027 14:37:36.719   06 Jun 2027 14:43:44.511           367.792               Magadan2         11493.500
       372   06 Jun 2027 14:43:53.200   06 Jun 2027 14:46:24.895           151.695               Magadan1          4740.469
       373   06 Jun 2027 16:12:42.275   06 Jun 2027 16:13:48.107            65.832               Magadan1          2057.250
       374   06 Jun 2027 16:16:41.033   06 Jun 2027 16:16:51.321            10.288               Magadan1           321.500
       375   06 Jun 2027 17:06:42.256   06 Jun 2027 17:12:03.603           321.347            RioGallegos         10042.094
       376   06 Jun 2027 17:48:23.775   06 Jun 2027 17:50:12.587           108.812                Norilsk          3400.375
       377   06 Jun 2027 17:53:20.159   06 Jun 2027 18:00:01.568           401.409                Irkutsk         12544.031
       378   06 Jun 2027 18:08:19.407   06 Jun 2027 18:16:52.386           512.979                Sumatra         16030.594
       379   06 Jun 2027 19:32:00.005   06 Jun 2027 19:36:46.213           286.208                Novosib          8944.000
       380   06 Jun 2027 19:38:51.853   06 Jun 2027 19:44:05.810           313.957                  Delhi          9811.156
       381   06 Jun 2027 21:03:08.147   06 Jun 2027 21:08:17.321           309.174              Murmansk1          9661.688
       382   06 Jun 2027 22:41:09.553   06 Jun 2027 22:44:17.073           187.520              Murmansk1          5860.000
       383   06 Jun 2027 22:48:55.623   06 Jun 2027 22:50:19.649            84.026                 Moscow          2625.813
       384   06 Jun 2027 23:08:15.133   06 Jun 2027 23:16:28.227           493.094               CapeTown         15409.187
       385   07 Jun 2027 03:20:37.930   07 Jun 2027 03:21:14.640            36.710               Magadan1          1147.188
       386   07 Jun 2027 03:21:16.729   07 Jun 2027 03:23:53.824           157.095                Anadyr1          4909.219
       387   07 Jun 2027 03:23:53.824   07 Jun 2027 03:24:46.205            52.381                Anadyr2          1636.906
       388   07 Jun 2027 03:25:20.945   07 Jun 2027 03:25:31.738            10.793                Anadyr2           337.281
       389   07 Jun 2027 03:26:14.113   07 Jun 2027 03:26:36.911            22.798               Magadan1           712.437
       390   07 Jun 2027 04:09:54.505   07 Jun 2027 04:10:14.013            19.508            RioGallegos           609.625
       391   07 Jun 2027 04:55:33.970   07 Jun 2027 04:58:34.618           180.648                Irkutsk          5645.250
       392   07 Jun 2027 05:00:31.012   07 Jun 2027 05:01:14.605            43.593               Magadan1          1362.281
       393   07 Jun 2027 05:01:15.487   07 Jun 2027 05:01:55.141            39.654               Magadan2          1239.187
       394   07 Jun 2027 05:02:07.354   07 Jun 2027 05:02:14.679             7.325               Magadan1           228.906
       395   07 Jun 2027 06:40:43.477   07 Jun 2027 06:40:50.864             7.387              Murmansk1           230.844
       396   07 Jun 2027 08:11:41.570   07 Jun 2027 08:11:52.560            10.990              Murmansk1           343.438
       397   07 Jun 2027 08:14:14.734   07 Jun 2027 08:14:34.166            19.432                Norilsk           607.250
       398   07 Jun 2027 09:37:47.731   07 Jun 2027 09:39:14.861            87.130                  Delhi          2722.812
       399   07 Jun 2027 09:50:19.803   07 Jun 2027 09:50:25.457             5.654                Novosib           176.688
       400   07 Jun 2027 12:54:52.976   07 Jun 2027 12:55:33.925            40.949                 Moscow          1279.656
       401   07 Jun 2027 12:56:08.722   07 Jun 2027 12:56:40.552            31.830                 Moscow           994.687
       402   07 Jun 2027 12:57:23.593   07 Jun 2027 12:58:11.466            47.873                 Moscow          1496.031
       403   07 Jun 2027 12:58:18.522   07 Jun 2027 12:58:59.407            40.885                 Moscow          1277.656
       404   07 Jun 2027 12:59:10.688   07 Jun 2027 12:59:42.532            31.844              Murmansk2           995.125
       405   07 Jun 2027 13:00:17.407   07 Jun 2027 13:00:47.435            30.028              Murmansk2           938.375
       406   07 Jun 2027 13:00:47.435   07 Jun 2027 13:01:47.520            60.085              Murmansk1          1877.656
       407   07 Jun 2027 13:02:02.496   07 Jun 2027 13:02:05.244             2.748              Murmansk2            85.875
       408   07 Jun 2027 13:02:26.667   07 Jun 2027 13:02:36.709            10.042              Murmansk2           313.813
       409   07 Jun 2027 13:03:07.950   07 Jun 2027 13:03:19.816            11.866              Murmansk1           370.813
       410   07 Jun 2027 13:03:31.796   07 Jun 2027 13:03:38.695             6.899              Murmansk1           215.594
       411   07 Jun 2027 13:06:42.603   07 Jun 2027 13:07:06.751            24.148              Murmansk2           754.625
       412   07 Jun 2027 13:10:46.562   07 Jun 2027 13:16:17.457           330.895                Anadyr2         10340.469
       413   07 Jun 2027 14:37:43.338   07 Jun 2027 14:38:13.435            30.097              Murmansk1           940.531
       414   07 Jun 2027 14:40:14.475   07 Jun 2027 14:40:28.539            14.064              Murmansk1           439.500
       415   07 Jun 2027 14:46:28.593   07 Jun 2027 14:48:59.040           150.447                Anadyr2          4701.469
       416   07 Jun 2027 14:48:59.040   07 Jun 2027 14:49:35.797            36.757                Anadyr1          1148.656
       417   07 Jun 2027 14:50:48.970   07 Jun 2027 14:55:19.350           270.380               Magadan1          8449.375
       418   07 Jun 2027 14:55:31.756   07 Jun 2027 14:59:03.679           211.923               Magadan2          6622.594
       419   07 Jun 2027 16:24:41.968   07 Jun 2027 16:26:06.296            84.328               Magadan2          2635.250
       420   07 Jun 2027 17:17:59.813   07 Jun 2027 17:25:15.613           435.800            RioGallegos         13618.750
       421   07 Jun 2027 18:02:21.472   07 Jun 2027 18:03:21.529            60.057                Norilsk          1876.781
       422   07 Jun 2027 18:05:02.024   07 Jun 2027 18:11:16.593           374.569                Irkutsk         11705.281
       423   07 Jun 2027 18:19:32.296   07 Jun 2027 18:27:21.957           469.661                Sumatra         14676.906
       424   07 Jun 2027 19:49:42.276   07 Jun 2027 19:57:28.262           465.986                  Delhi         14562.062
       425   07 Jun 2027 21:14:55.525   07 Jun 2027 21:21:00.627           365.102              Murmansk2         11409.437
       426   07 Jun 2027 22:54:03.261   07 Jun 2027 22:54:18.907            15.646              Murmansk1           488.937
       427   07 Jun 2027 23:19:31.129   07 Jun 2027 23:20:25.095            53.966               CapeTown          1686.437
       428   07 Jun 2027 23:21:41.703   07 Jun 2027 23:26:54.898           313.195               CapeTown          9787.344
       429   08 Jun 2027 01:50:51.646   08 Jun 2027 01:51:08.177            16.531               Magadan1           516.594
       430   08 Jun 2027 01:51:36.779   08 Jun 2027 01:52:10.242            33.463               Magadan2          1045.719
       431   08 Jun 2027 01:52:10.242   08 Jun 2027 01:52:23.665            13.423               Magadan1           419.469
       432   08 Jun 2027 01:53:00.987   08 Jun 2027 01:53:50.291            49.304               Magadan2          1540.750
       433   08 Jun 2027 02:01:43.653   08 Jun 2027 02:02:02.972            19.319               Magadan1           603.719
       434   08 Jun 2027 02:02:11.021   08 Jun 2027 02:02:52.568            41.547              Murmansk2          1298.344
       435   08 Jun 2027 02:03:13.484   08 Jun 2027 02:03:18.666             5.182              Murmansk1           161.937
       436   08 Jun 2027 02:03:50.677   08 Jun 2027 02:04:48.628            57.951              Murmansk2          1810.969
       437   08 Jun 2027 02:05:39.633   08 Jun 2027 02:06:27.075            47.442                 Moscow          1482.562
       438   08 Jun 2027 02:10:20.849   08 Jun 2027 02:10:49.631            28.782                 Moscow           899.437
       439   08 Jun 2027 03:27:04.274   08 Jun 2027 03:27:34.277            30.003               Magadan1           937.594
       440   08 Jun 2027 03:27:57.816   08 Jun 2027 03:29:02.603            64.787               Magadan1          2024.594
       441   08 Jun 2027 03:29:09.929   08 Jun 2027 03:30:03.469            53.540                Anadyr2          1673.125
       442   08 Jun 2027 03:32:29.656   08 Jun 2027 03:35:54.506           204.850                Anadyr2          6401.563
       443   08 Jun 2027 04:20:29.047   08 Jun 2027 04:21:22.634            53.587            RioGallegos          1674.594
       444   08 Jun 2027 05:07:48.707   08 Jun 2027 05:08:03.407            14.700                Irkutsk           459.375
       445   08 Jun 2027 05:08:46.934   08 Jun 2027 05:11:05.874           138.940                Irkutsk          4341.875
       446   08 Jun 2027 05:13:15.603   08 Jun 2027 05:14:09.684            54.081               Magadan2          1690.031
       447   08 Jun 2027 06:48:39.582   08 Jun 2027 06:49:14.324            34.742                Irkutsk          1085.688
       448   08 Jun 2027 06:50:06.963   08 Jun 2027 06:50:11.909             4.946                Norilsk           154.563
       449   08 Jun 2027 08:05:09.756   08 Jun 2027 08:05:27.423            17.667                Sumatra           552.094
       450   08 Jun 2027 08:25:35.534   08 Jun 2027 08:25:49.016            13.482                Novosib           421.312
       451   08 Jun 2027 09:49:06.933   08 Jun 2027 09:50:59.160           112.227                  Delhi          3507.094
       452   08 Jun 2027 10:02:38.143   08 Jun 2027 10:02:46.684             8.541                Norilsk           266.906
       453   08 Jun 2027 12:51:09.998   08 Jun 2027 12:51:41.357            31.359               CapeTown           979.969
       454   08 Jun 2027 12:52:45.087   08 Jun 2027 12:53:32.921            47.834               CapeTown          1494.813
       455   08 Jun 2027 13:08:38.090   08 Jun 2027 13:09:12.975            34.885                 Moscow          1090.156
       456   08 Jun 2027 13:09:57.697   08 Jun 2027 13:12:21.301           143.604              Murmansk1          4487.625
       457   08 Jun 2027 13:12:43.522   08 Jun 2027 13:13:49.159            65.637              Murmansk2          2051.156
       458   08 Jun 2027 13:19:30.065   08 Jun 2027 13:19:47.087            17.022              Murmansk2           531.937
       459   08 Jun 2027 13:22:44.173   08 Jun 2027 13:24:59.063           134.890                Anadyr2          4215.313
       460   08 Jun 2027 13:25:21.402   08 Jun 2027 13:28:12.243           170.841                Anadyr2          5338.781
       461   08 Jun 2027 13:29:53.012   08 Jun 2027 13:30:34.522            41.510                Anadyr1          1297.188
       462   08 Jun 2027 14:50:34.457   08 Jun 2027 14:51:37.505            63.048              Murmansk2          1970.250
       463   08 Jun 2027 14:58:29.659   08 Jun 2027 15:00:59.399           149.740                Anadyr1          4679.375
       464   08 Jun 2027 15:01:16.727   08 Jun 2027 15:07:20.042           363.315               Magadan1         11353.594
       465   08 Jun 2027 15:08:23.035   08 Jun 2027 15:11:36.989           193.954               Magadan2          6061.063
       466   08 Jun 2027 16:45:36.551   08 Jun 2027 16:46:17.205            40.654               Magadan2          1270.438
       467   08 Jun 2027 17:29:32.311   08 Jun 2027 17:36:23.001           410.690            RioGallegos         12834.063
       468   08 Jun 2027 18:14:32.083   08 Jun 2027 18:17:20.176           168.093                Norilsk          5252.906
       469   08 Jun 2027 18:18:04.440   08 Jun 2027 18:20:06.282           121.842                Irkutsk          3807.562
       470   08 Jun 2027 18:20:51.788   08 Jun 2027 18:22:48.191           116.403                Irkutsk          3637.594
       471   08 Jun 2027 18:32:06.345   08 Jun 2027 18:34:24.940           138.595                Sumatra          4331.094
       472   08 Jun 2027 18:35:24.993   08 Jun 2027 18:37:59.443           154.450                Sumatra          4826.562
       473   08 Jun 2027 19:53:46.482   08 Jun 2027 19:56:01.143           134.661                Novosib          4208.156
       474   08 Jun 2027 20:00:59.031   08 Jun 2027 20:08:48.494           469.463                  Delhi         14670.719
       475   08 Jun 2027 21:26:47.282   08 Jun 2027 21:28:22.460            95.178              Murmansk2          2974.312
       476   08 Jun 2027 21:30:18.697   08 Jun 2027 21:33:56.608           217.911              Murmansk1          6809.719
       477   08 Jun 2027 23:07:15.431   08 Jun 2027 23:07:38.353            22.922                 Moscow           716.313
       478   08 Jun 2027 23:08:11.467   08 Jun 2027 23:08:13.804             2.337                 Moscow            73.031
       479   08 Jun 2027 23:11:48.495   08 Jun 2027 23:12:40.335            51.840                 Moscow          1620.000
       480   08 Jun 2027 23:30:56.183   08 Jun 2027 23:34:00.180           183.997               CapeTown          5749.906
       481   08 Jun 2027 23:36:01.336   08 Jun 2027 23:37:52.624           111.288               CapeTown          3477.750
       482   09 Jun 2027 01:05:32.941   09 Jun 2027 01:06:54.519            81.578               CapeTown          2549.312
