uniorb/output/strategy_4/Drop/Drop_KinoSat_110504.txt

KinoSat_110504
-------------------------
    Access    *     Start Time (UTCG)     *     Stop Time (UTCG)  *   Duration (s)        *       Station  *  Data (Mbytes)
         1   01 Jun 2027 03:56:38.112   01 Jun 2027 03:56:52.465            14.353               Magadan1          1794.125
         2   01 Jun 2027 03:56:59.315   01 Jun 2027 03:57:52.722            53.407               Magadan1          6675.875
         3   01 Jun 2027 03:58:34.989   01 Jun 2027 04:01:05.015           150.026               Magadan2         18753.250
         4   01 Jun 2027 04:01:06.645   01 Jun 2027 04:01:58.770            52.125               Magadan1          6515.625
         5   01 Jun 2027 04:02:56.660   01 Jun 2027 04:03:46.191            49.531                Anadyr1          6191.375
         6   01 Jun 2027 04:03:47.717   01 Jun 2027 04:04:15.603            27.886               Magadan2          3485.750
         7   01 Jun 2027 04:39:31.510   01 Jun 2027 04:40:35.600            64.090            RioGallegos          8011.250
         8   01 Jun 2027 05:18:07.514   01 Jun 2027 05:19:19.709            72.195                Sumatra          9024.375
         9   01 Jun 2027 05:35:07.403   01 Jun 2027 05:35:37.023            29.620                Irkutsk          3702.500
        10   01 Jun 2027 05:35:37.692   01 Jun 2027 05:36:33.405            55.713               Magadan1          6964.125
        11   01 Jun 2027 05:36:40.137   01 Jun 2027 05:37:05.967            25.830               Magadan1          3228.750
        12   01 Jun 2027 05:37:17.567   01 Jun 2027 05:38:08.425            50.858               Magadan2          6357.250
        13   01 Jun 2027 05:38:28.502   01 Jun 2027 05:38:41.224            12.722               Magadan2          1590.250
        14   01 Jun 2027 05:38:59.162   01 Jun 2027 05:39:26.831            27.669                Norilsk          3458.625
        15   01 Jun 2027 05:39:36.777   01 Jun 2027 05:40:10.397            33.620                Irkutsk          4202.500
        16   01 Jun 2027 05:40:50.870   01 Jun 2027 05:41:11.655            20.785                Novosib          2598.125
        17   01 Jun 2027 06:15:02.630   01 Jun 2027 06:15:42.887            40.257            RioGallegos          5032.125
        18   01 Jun 2027 06:49:41.854   01 Jun 2027 06:51:43.359           121.505                Sumatra         15188.125
        19   01 Jun 2027 07:10:33.658   01 Jun 2027 07:11:12.544            38.886                Novosib          4860.750
        20   01 Jun 2027 07:12:41.298   01 Jun 2027 07:13:32.171            50.873                 Moscow          6359.125
        21   01 Jun 2027 07:13:51.693   01 Jun 2027 07:14:00.952             9.259                Irkutsk          1157.375
        22   01 Jun 2027 07:14:06.761   01 Jun 2027 07:14:34.245            27.484                 Moscow          3435.500
        23   01 Jun 2027 07:14:47.150   01 Jun 2027 07:15:02.269            15.119                Novosib          1889.875
        24   01 Jun 2027 07:15:04.808   01 Jun 2027 07:15:38.775            33.967                Norilsk          4245.875
        25   01 Jun 2027 07:15:41.321   01 Jun 2027 07:16:11.737            30.416              Murmansk1          3802.000
        26   01 Jun 2027 07:17:37.843   01 Jun 2027 07:17:45.893             8.050                 Moscow          1006.250
        27   01 Jun 2027 08:34:01.885   01 Jun 2027 08:35:27.239            85.354                  Delhi         10669.250
        28   01 Jun 2027 08:51:05.537   01 Jun 2027 08:52:07.600            62.063              Murmansk2          7757.875
        29   01 Jun 2027 08:52:17.890   01 Jun 2027 08:55:01.824           163.934                 Moscow         20491.750
        30   01 Jun 2027 08:55:09.159   01 Jun 2027 08:57:05.113           115.954                Norilsk         14494.250
        31   01 Jun 2027 08:57:13.684   01 Jun 2027 08:58:47.899            94.215              Murmansk1         11776.875
        32   01 Jun 2027 10:18:17.969   01 Jun 2027 10:20:57.809           159.840                 Moscow         19980.000
        33   01 Jun 2027 10:25:11.204   01 Jun 2027 10:26:04.866            53.662                 Moscow          6707.750
        34   01 Jun 2027 10:26:45.366   01 Jun 2027 10:27:37.421            52.055                 Moscow          6506.875
        35   01 Jun 2027 10:27:45.728   01 Jun 2027 10:31:12.029           206.301                 Moscow         25787.625
        36   01 Jun 2027 10:31:12.882   01 Jun 2027 10:32:42.055            89.173                Norilsk         11146.625
        37   01 Jun 2027 10:33:08.506   01 Jun 2027 10:34:41.210            92.704              Murmansk2         11588.000
        38   01 Jun 2027 11:33:17.575   01 Jun 2027 11:43:22.563           604.988               CapeTown         75623.500
        39   01 Jun 2027 12:12:49.120   01 Jun 2027 12:18:23.094           333.974                Anadyr1         41746.750
        40   01 Jun 2027 13:51:45.719   01 Jun 2027 13:58:04.089           378.370               Magadan1         47296.250
        41   01 Jun 2027 16:22:00.733   01 Jun 2027 16:24:04.746           124.013            RioGallegos         15501.625
        42   01 Jun 2027 17:07:37.907   01 Jun 2027 17:13:33.629           355.722                Irkutsk         44465.250
        43   01 Jun 2027 17:15:11.274   01 Jun 2027 17:15:11.715             0.441                Irkutsk            55.125
        44   01 Jun 2027 17:23:17.315   01 Jun 2027 17:25:06.560           109.245                Sumatra         13655.625
        45   01 Jun 2027 17:26:43.674   01 Jun 2027 17:28:57.325           133.651                Sumatra         16706.375
        46   01 Jun 2027 18:46:11.888   01 Jun 2027 18:46:45.057            33.169                Novosib          4146.125
        47   01 Jun 2027 18:48:22.619   01 Jun 2027 18:49:08.102            45.483                Novosib          5685.375
        48   01 Jun 2027 20:18:48.551   01 Jun 2027 20:19:01.810            13.259              Murmansk1           507.374
        49   02 Jun 2027 04:14:19.653   02 Jun 2027 04:14:40.806            21.153               Magadan2          2644.125
        50   02 Jun 2027 04:14:57.702   02 Jun 2027 04:15:21.825            24.123                Anadyr1          3015.375
        51   02 Jun 2027 04:15:21.825   02 Jun 2027 04:15:27.750             5.925                Anadyr2           740.625
        52   02 Jun 2027 04:15:32.087   02 Jun 2027 04:16:12.923            40.836               Magadan2          5104.500
        53   02 Jun 2027 04:16:16.251   02 Jun 2027 04:17:22.085            65.834                Norilsk          8229.250
        54   02 Jun 2027 04:53:42.211   02 Jun 2027 04:53:57.897            15.686            RioGallegos          1960.750
        55   02 Jun 2027 05:28:39.888   02 Jun 2027 05:30:33.800           113.912                Sumatra         14239.000
        56   02 Jun 2027 05:48:00.286   02 Jun 2027 05:48:56.459            56.173                Irkutsk          7021.625
        57   02 Jun 2027 05:49:31.327   02 Jun 2027 05:50:56.320            84.993                Irkutsk         10624.125
        58   02 Jun 2027 05:51:32.723   02 Jun 2027 05:52:12.744            40.021                Irkutsk          5002.625
        59   02 Jun 2027 05:52:22.567   02 Jun 2027 05:53:33.714            71.147                Norilsk          8893.375
        60   02 Jun 2027 05:53:54.664   02 Jun 2027 05:57:06.900           192.236              Murmansk1         24029.500
        61   02 Jun 2027 05:58:35.626   02 Jun 2027 06:00:10.502            94.876              Murmansk2         11859.500
        62   02 Jun 2027 06:34:01.622   02 Jun 2027 06:39:28.524           326.902            RioGallegos         40862.750
        63   02 Jun 2027 07:03:40.250   02 Jun 2027 07:04:46.000            65.750                Sumatra          8218.750
        64   02 Jun 2027 07:26:41.916   02 Jun 2027 07:29:41.446           179.530                Novosib         22441.250
        65   02 Jun 2027 07:29:48.449   02 Jun 2027 07:33:07.847           199.398                Norilsk         24924.750
        66   02 Jun 2027 07:34:25.912   02 Jun 2027 07:35:11.301            45.389              Murmansk2          5673.625
        67   02 Jun 2027 08:09:04.144   02 Jun 2027 08:12:05.467           181.323            RioGallegos         22665.375
        68   02 Jun 2027 08:52:16.117   02 Jun 2027 08:58:18.312           362.195                  Delhi         45274.375
        69   02 Jun 2027 08:58:35.512   02 Jun 2027 08:59:00.678            25.166                Novosib          3145.750
        70   02 Jun 2027 09:03:45.209   02 Jun 2027 09:05:03.940            78.731                Novosib          9841.375
        71   02 Jun 2027 09:05:04.130   02 Jun 2027 09:09:06.178           242.048                Norilsk         30256.000
        72   02 Jun 2027 09:10:21.028   02 Jun 2027 09:10:48.151            27.123              Murmansk1          3390.375
        73   02 Jun 2027 10:33:37.685   02 Jun 2027 10:35:25.261           107.576                 Moscow         13447.000
        74   02 Jun 2027 10:38:47.911   02 Jun 2027 10:43:12.719           264.808                 Moscow         33101.000
        75   02 Jun 2027 10:43:14.845   02 Jun 2027 10:44:34.797            79.952                Norilsk          9994.000
        76   02 Jun 2027 10:44:44.749   02 Jun 2027 10:46:42.814           118.065              Murmansk2         14758.125
        77   02 Jun 2027 12:09:00.230   02 Jun 2027 12:18:26.913           566.683                 Moscow         70835.375
        78   02 Jun 2027 12:19:02.176   02 Jun 2027 12:22:39.938           217.762              Murmansk2         27220.250
        79   02 Jun 2027 12:24:44.504   02 Jun 2027 12:30:54.552           370.048                Anadyr2         46256.000
        80   02 Jun 2027 12:33:37.045   02 Jun 2027 12:34:16.297            39.252                Anadyr2          4906.500
        81   02 Jun 2027 14:03:30.538   02 Jun 2027 14:07:29.488           238.950               Magadan1         29868.750
        82   02 Jun 2027 14:08:45.550   02 Jun 2027 14:10:11.952            86.402               Magadan2         10800.250
        83   02 Jun 2027 16:32:32.848   02 Jun 2027 16:35:26.509           173.661            RioGallegos         21707.625
        84   02 Jun 2027 17:19:13.360   02 Jun 2027 17:22:55.994           222.634                Irkutsk         27829.250
        85   02 Jun 2027 17:24:29.520   02 Jun 2027 17:25:54.937            85.417                Irkutsk         10677.125
        86   02 Jun 2027 17:34:09.879   02 Jun 2027 17:36:46.224           156.345                Sumatra         19543.125
        87   02 Jun 2027 17:38:36.204   02 Jun 2027 17:40:22.790           106.586                Sumatra         13323.250
        88   02 Jun 2027 18:57:42.461   02 Jun 2027 18:58:40.019            57.558                Novosib          7194.750
        89   02 Jun 2027 19:00:46.364   02 Jun 2027 19:01:31.651            45.287                Novosib          5660.875
        90   02 Jun 2027 19:04:39.422   02 Jun 2027 19:06:38.404           118.982                  Delhi         14872.750
        91   02 Jun 2027 20:30:14.768   02 Jun 2027 20:31:39.613            84.845              Murmansk1         10605.625
        92   02 Jun 2027 22:08:01.132   02 Jun 2027 22:09:52.348           111.216                 Moscow         10109.626
        93   03 Jun 2027 04:27:52.033   03 Jun 2027 04:27:54.531             2.498                Irkutsk           312.250
        94   03 Jun 2027 04:28:15.764   03 Jun 2027 04:37:11.133           535.369              Murmansk1         66921.125
        95   03 Jun 2027 05:39:45.011   03 Jun 2027 05:41:13.487            88.476                Sumatra         11059.500
        96   03 Jun 2027 05:45:25.233   03 Jun 2027 05:47:01.837            96.604                Sumatra         12075.500
        97   03 Jun 2027 06:04:07.375   03 Jun 2027 06:05:25.696            78.321                Norilsk          9790.125
        98   03 Jun 2027 06:05:52.689   03 Jun 2027 06:07:01.221            68.532              Murmansk2          8566.500
        99   03 Jun 2027 06:07:01.221   03 Jun 2027 06:08:59.179           117.958              Murmansk1         14744.750
       100   03 Jun 2027 06:10:35.342   03 Jun 2027 06:12:02.396            87.054              Murmansk2         10881.750
       101   03 Jun 2027 06:45:49.388   03 Jun 2027 06:51:22.926           333.538            RioGallegos         41692.250
       102   03 Jun 2027 07:19:43.380   03 Jun 2027 07:26:03.392           380.012                Sumatra         47501.500
       103   03 Jun 2027 07:30:15.328   03 Jun 2027 07:35:04.522           289.194                Novosib         36149.250
       104   03 Jun 2027 07:39:46.988   03 Jun 2027 07:41:41.998           115.010                Novosib         14376.250
       105   03 Jun 2027 07:41:47.405   03 Jun 2027 07:45:09.740           202.335                Norilsk         25291.875
       106   03 Jun 2027 07:46:27.429   03 Jun 2027 07:47:08.649            41.220              Murmansk1          5152.500
       107   03 Jun 2027 09:03:39.162   03 Jun 2027 09:10:02.917           383.755                  Delhi         47969.375
       108   03 Jun 2027 09:10:15.233   03 Jun 2027 09:11:03.158            47.925                Novosib          5990.625
       109   03 Jun 2027 09:15:35.649   03 Jun 2027 09:16:53.799            78.150                Novosib          9768.750
       110   03 Jun 2027 09:16:55.214   03 Jun 2027 09:21:06.925           251.711                Norilsk         31463.875
       111   03 Jun 2027 09:21:17.808   03 Jun 2027 09:22:48.676            90.868              Murmansk1         11358.500
       112   03 Jun 2027 10:45:38.240   03 Jun 2027 10:47:32.629           114.389                 Moscow         14298.625
       113   03 Jun 2027 10:50:26.317   03 Jun 2027 10:55:12.722           286.405                 Moscow         35800.625
       114   03 Jun 2027 10:55:16.754   03 Jun 2027 10:56:23.344            66.590                Norilsk          8323.750
       115   03 Jun 2027 10:56:26.878   03 Jun 2027 10:58:44.463           137.585              Murmansk2         17198.125
       116   03 Jun 2027 11:03:26.973   03 Jun 2027 11:04:40.166            73.193                Anadyr1          9149.125
       117   03 Jun 2027 12:05:12.144   03 Jun 2027 12:08:14.116           181.972               CapeTown         22746.500
       118   03 Jun 2027 12:20:50.928   03 Jun 2027 12:30:04.697           553.769                 Moscow         69221.125
       119   03 Jun 2027 12:44:48.508   03 Jun 2027 12:45:11.946            23.438                Anadyr2          2929.750
       120   03 Jun 2027 14:15:19.370   03 Jun 2027 14:19:25.378           246.008               Magadan1         30751.000
       121   03 Jun 2027 14:21:11.218   03 Jun 2027 14:22:17.178            65.960               Magadan1          8245.000
       122   03 Jun 2027 16:43:52.089   03 Jun 2027 16:47:14.004           201.915            RioGallegos         25239.375
       123   03 Jun 2027 17:33:22.175   03 Jun 2027 17:39:12.591           350.416                Irkutsk         43802.000
       124   03 Jun 2027 17:45:24.040   03 Jun 2027 17:48:32.736           188.696                Sumatra         23587.000
       125   03 Jun 2027 17:51:21.360   03 Jun 2027 17:53:06.212           104.852                Sumatra         13106.500
       126   03 Jun 2027 19:15:33.032   03 Jun 2027 19:17:42.942           129.910                  Delhi         16238.750
       127   03 Jun 2027 20:42:11.792   03 Jun 2027 20:42:36.472            24.680              Murmansk2          3085.000
       128   03 Jun 2027 20:43:53.330   03 Jun 2027 20:44:21.180            27.850              Murmansk2          3481.250
       129   03 Jun 2027 22:19:18.775   03 Jun 2027 22:20:34.519            75.744              Murmansk2          9468.000
       130   03 Jun 2027 22:22:40.587   03 Jun 2027 22:23:05.503            24.916              Murmansk1          3114.500
       131   03 Jun 2027 22:48:43.129   03 Jun 2027 22:50:36.239           113.110               CapeTown          4656.749
       132   04 Jun 2027 04:40:15.654   04 Jun 2027 04:45:24.208           308.554                Norilsk         38569.250
       133   04 Jun 2027 04:47:01.394   04 Jun 2027 04:49:27.890           146.496              Murmansk2         18312.000
       134   04 Jun 2027 05:24:33.233   04 Jun 2027 05:26:38.380           125.147            RioGallegos         15643.375
       135   04 Jun 2027 05:54:05.139   04 Jun 2027 05:54:28.293            23.154                Sumatra          2894.250
       136   04 Jun 2027 06:16:09.002   04 Jun 2027 06:17:41.484            92.482                Norilsk         11560.250
       137   04 Jun 2027 06:17:51.197   04 Jun 2027 06:18:59.386            68.189              Murmansk2          8523.625
       138   04 Jun 2027 06:18:59.386   04 Jun 2027 06:20:55.729           116.343              Murmansk1         14542.875
       139   04 Jun 2027 06:21:00.905   04 Jun 2027 06:21:12.446            11.541                Norilsk          1442.625
       140   04 Jun 2027 06:22:35.389   04 Jun 2027 06:23:55.047            79.658              Murmansk2          9957.250
       141   04 Jun 2027 06:57:33.066   04 Jun 2027 07:03:15.291           342.225            RioGallegos         42778.125
       142   04 Jun 2027 07:30:54.446   04 Jun 2027 07:37:43.162           408.716                Sumatra         51089.500
       143   04 Jun 2027 07:41:22.636   04 Jun 2027 07:47:29.038           366.402                Irkutsk         45800.250
       144   04 Jun 2027 07:51:32.286   04 Jun 2027 07:53:41.842           129.556                Novosib         16194.500
       145   04 Jun 2027 07:53:44.579   04 Jun 2027 07:57:11.619           207.040                Norilsk         25880.000
       146   04 Jun 2027 07:58:29.034   04 Jun 2027 07:59:06.531            37.497              Murmansk1          4687.125
       147   04 Jun 2027 09:14:43.611   04 Jun 2027 09:21:41.497           417.886                  Delhi         52235.750
       148   04 Jun 2027 09:22:03.962   04 Jun 2027 09:23:20.014            76.052                Novosib          9506.500
       149   04 Jun 2027 09:27:34.483   04 Jun 2027 09:28:40.331            65.848                Novosib          8231.000
       150   04 Jun 2027 09:28:44.473   04 Jun 2027 09:33:07.248           262.775                Norilsk         32846.875
       151   04 Jun 2027 09:33:08.350   04 Jun 2027 09:34:49.440           101.090              Murmansk1         12636.250
       152   04 Jun 2027 10:57:38.088   04 Jun 2027 10:59:32.473           114.385                 Moscow         14298.125
       153   04 Jun 2027 11:00:45.913   04 Jun 2027 11:10:46.131           600.218              Murmansk2         75027.250
       154   04 Jun 2027 11:15:57.816   04 Jun 2027 11:16:57.549            59.733                Anadyr1          7466.625
       155   04 Jun 2027 14:27:10.988   04 Jun 2027 14:31:00.031           229.043               Magadan1         28630.375
       156   04 Jun 2027 14:31:03.640   04 Jun 2027 14:33:33.107           149.467               Magadan1         18683.375
       157   04 Jun 2027 16:55:25.370   04 Jun 2027 16:59:04.596           219.226            RioGallegos         27403.250
       158   04 Jun 2027 17:00:37.100   04 Jun 2027 17:01:44.006            66.906            RioGallegos          8363.250
       159   04 Jun 2027 17:40:29.197   04 Jun 2027 17:41:19.448            50.251                Norilsk          6281.375
       160   04 Jun 2027 17:46:34.768   04 Jun 2027 17:46:44.715             9.947                Irkutsk          1243.375
       161   04 Jun 2027 18:01:05.531   04 Jun 2027 18:03:52.909           167.378                Sumatra         20922.250
       162   04 Jun 2027 19:26:51.092   04 Jun 2027 19:30:06.870           195.778                  Delhi         24472.250
       163   04 Jun 2027 19:32:16.012   04 Jun 2027 19:34:26.457           130.445                  Delhi         16305.625
       164   04 Jun 2027 20:52:41.615   04 Jun 2027 20:53:02.454            20.839              Murmansk1          2604.875
       165   04 Jun 2027 20:54:07.037   04 Jun 2027 20:56:28.619           141.582              Murmansk2         17697.750
       166   04 Jun 2027 23:01:45.707   04 Jun 2027 23:03:00.162            74.455               CapeTown          9306.875
       167   05 Jun 2027 04:55:39.507   05 Jun 2027 04:56:55.232            75.725              Murmansk2          9465.625
       168   05 Jun 2027 04:56:55.817   05 Jun 2027 04:57:23.499            27.682                Norilsk          3460.250
       169   05 Jun 2027 04:58:58.306   05 Jun 2027 05:01:15.956           137.650              Murmansk1         17206.250
       170   05 Jun 2027 05:34:42.701   05 Jun 2027 05:39:50.233           307.532            RioGallegos         38441.500
       171   05 Jun 2027 06:13:39.797   05 Jun 2027 06:14:10.936            31.139                Sumatra          3892.375
       172   05 Jun 2027 06:17:28.543   05 Jun 2027 06:22:48.542           319.999                Irkutsk         39999.875
       173   05 Jun 2027 06:28:10.725   05 Jun 2027 06:33:13.846           303.121                Norilsk         37890.125
       174   05 Jun 2027 06:34:35.742   05 Jun 2027 06:35:48.442            72.700              Murmansk2          9087.500
       175   05 Jun 2027 07:09:10.771   05 Jun 2027 07:15:05.095           354.324            RioGallegos         44290.500
       176   05 Jun 2027 07:41:40.766   05 Jun 2027 07:49:14.682           453.916                Sumatra         56739.500
       177   05 Jun 2027 07:53:01.638   05 Jun 2027 07:53:55.500            53.862                Novosib          6732.750
       178   05 Jun 2027 07:54:02.869   05 Jun 2027 07:55:39.545            96.676                Irkutsk         12084.500
       179   05 Jun 2027 08:04:10.480   05 Jun 2027 08:09:13.461           302.981                Norilsk         37872.625
       180   05 Jun 2027 08:10:29.829   05 Jun 2027 08:11:04.903            35.074              Murmansk2          4384.250
       181   05 Jun 2027 09:24:48.647   05 Jun 2027 09:33:11.884           503.237                  Delhi         62904.625
       182   05 Jun 2027 09:33:19.989   05 Jun 2027 09:35:49.120           149.131                Novosib         18641.375
       183   05 Jun 2027 09:40:09.680   05 Jun 2027 09:43:18.205           188.525                 Moscow         23565.625
       184   05 Jun 2027 09:43:20.274   05 Jun 2027 09:45:07.043           106.769                Norilsk         13346.125
       185   05 Jun 2027 09:45:35.810   05 Jun 2027 09:46:50.417            74.607              Murmansk1          9325.875
       186   05 Jun 2027 11:08:28.030   05 Jun 2027 11:08:42.477            14.447                 Moscow          1805.875
       187   05 Jun 2027 11:12:46.841   05 Jun 2027 11:22:47.781           600.940              Murmansk2         75117.500
       188   05 Jun 2027 11:25:48.181   05 Jun 2027 11:29:34.003           225.822                Anadyr2         28227.750
       189   05 Jun 2027 14:39:04.681   05 Jun 2027 14:41:26.063           141.382               Magadan2         17672.750
       190   05 Jun 2027 17:09:19.840   05 Jun 2027 17:13:23.453           243.613            RioGallegos         30451.625
       191   05 Jun 2027 18:14:16.383   05 Jun 2027 18:14:58.411            42.028                Sumatra          5253.500
       192   05 Jun 2027 19:41:16.465   05 Jun 2027 19:45:14.694           238.229                  Delhi         29778.625
       193   05 Jun 2027 21:05:40.158   05 Jun 2027 21:10:09.001           268.843              Murmansk1         33605.375
       194   05 Jun 2027 21:10:15.204   05 Jun 2027 21:13:00.955           165.751                 Moscow         20718.875
       195   05 Jun 2027 23:14:24.032   05 Jun 2027 23:14:31.676             7.644               CapeTown           955.500
       196   06 Jun 2027 05:05:01.417   06 Jun 2027 05:05:22.073            20.656                Novosib          2582.000
       197   06 Jun 2027 05:07:29.706   06 Jun 2027 05:09:23.434           113.728              Murmansk2         14216.000
       198   06 Jun 2027 05:10:55.787   06 Jun 2027 05:13:04.520           128.733              Murmansk1         16091.625
       199   06 Jun 2027 05:46:40.643   06 Jun 2027 05:51:51.031           310.388            RioGallegos         38798.500
       200   06 Jun 2027 06:25:17.586   06 Jun 2027 06:26:27.033            69.447                Sumatra          8680.875
       201   06 Jun 2027 06:28:51.648   06 Jun 2027 06:34:08.683           317.035                Irkutsk         39629.375
       202   06 Jun 2027 06:40:12.532   06 Jun 2027 06:45:15.385           302.853                Norilsk         37856.625
       203   06 Jun 2027 06:46:36.368   06 Jun 2027 06:47:42.566            66.198              Murmansk2          8274.750
       204   06 Jun 2027 07:20:38.601   06 Jun 2027 07:26:51.551           372.950            RioGallegos         46618.750
       205   06 Jun 2027 07:51:33.220   06 Jun 2027 08:00:35.355           542.135                Sumatra         67766.875
       206   06 Jun 2027 08:05:12.702   06 Jun 2027 08:05:50.872            38.170                Novosib          4771.250
       207   06 Jun 2027 08:06:07.533   06 Jun 2027 08:10:52.729           285.196                  Delhi         35649.500
       208   06 Jun 2027 08:11:13.616   06 Jun 2027 08:11:59.764            46.148                Irkutsk          5768.500
       209   06 Jun 2027 08:15:41.489   06 Jun 2027 08:17:39.030           117.541                Novosib         14692.625
       210   06 Jun 2027 08:17:39.928   06 Jun 2027 08:21:14.233           214.305              Murmansk2         26788.125
       211   06 Jun 2027 08:22:30.662   06 Jun 2027 08:23:03.726            33.064              Murmansk2          4133.000
       212   06 Jun 2027 09:36:36.352   06 Jun 2027 09:44:29.696           473.344                  Delhi         59168.000
       213   06 Jun 2027 09:45:09.492   06 Jun 2027 09:47:14.633           125.141                Novosib         15642.625
       214   06 Jun 2027 09:51:31.789   06 Jun 2027 09:51:43.379            11.590                Novosib          1448.750
       215   06 Jun 2027 09:52:46.468   06 Jun 2027 09:57:06.148           259.680                Norilsk         32460.000
       216   06 Jun 2027 09:57:15.047   06 Jun 2027 09:58:51.574            96.527              Murmansk1         12065.875
       217   06 Jun 2027 11:21:35.286   06 Jun 2027 11:22:08.566            33.280                 Moscow          4160.000
       218   06 Jun 2027 11:25:13.570   06 Jun 2027 11:26:05.215            51.645              Murmansk1          6455.625
       219   06 Jun 2027 11:26:34.464   06 Jun 2027 11:31:07.582           273.118                 Moscow         34139.750
       220   06 Jun 2027 11:31:24.755   06 Jun 2027 11:34:49.384           204.629              Murmansk2         25578.625
       221   06 Jun 2027 11:41:17.699   06 Jun 2027 11:44:34.558           196.859                Anadyr1         24607.375
       222   06 Jun 2027 12:39:24.568   06 Jun 2027 12:43:57.794           273.226               CapeTown         34153.250
       223   06 Jun 2027 13:18:08.252   06 Jun 2027 13:19:58.785           110.533               Magadan2         13816.625
       224   06 Jun 2027 14:50:59.975   06 Jun 2027 14:52:33.221            93.246               Magadan2         11655.750
       225   06 Jun 2027 17:22:37.493   06 Jun 2027 17:24:51.253           133.760            RioGallegos         16720.000
       226   06 Jun 2027 18:03:58.060   06 Jun 2027 18:06:12.584           134.524                Norilsk         16815.500
       227   06 Jun 2027 18:08:32.142   06 Jun 2027 18:13:22.485           290.343                Novosib         36292.875
       228   06 Jun 2027 19:54:49.263   06 Jun 2027 19:56:23.528            94.265                  Delhi         11783.125
       229   06 Jun 2027 21:17:47.972   06 Jun 2027 21:18:43.581            55.609              Murmansk1          6951.125
       230   06 Jun 2027 21:19:07.922   06 Jun 2027 21:23:23.400           255.478              Murmansk2         31934.750
       231   06 Jun 2027 21:23:57.108   06 Jun 2027 21:24:48.337            51.229                 Moscow          6403.625
       232   06 Jun 2027 21:27:02.786   06 Jun 2027 21:27:53.959            51.173                 Moscow          6396.625
       233   07 Jun 2027 05:16:21.293   07 Jun 2027 05:17:07.321            46.028                Novosib          5753.500
       234   07 Jun 2027 05:18:18.643   07 Jun 2027 05:19:09.317            50.674              Murmansk1          6334.250
       235   07 Jun 2027 05:19:20.614   07 Jun 2027 05:21:11.009           110.395              Murmansk2         13799.375
       236   07 Jun 2027 05:22:53.797   07 Jun 2027 05:24:53.647           119.850              Murmansk1         14981.250
       237   07 Jun 2027 05:58:37.242   07 Jun 2027 06:03:50.832           313.590            RioGallegos         39198.750
       238   07 Jun 2027 06:33:27.153   07 Jun 2027 06:38:36.671           309.518                Sumatra         38689.750
       239   07 Jun 2027 06:40:58.615   07 Jun 2027 06:46:16.636           318.021                Irkutsk         39752.625
       240   07 Jun 2027 06:52:14.392   07 Jun 2027 06:57:17.040           302.648                Norilsk         37831.000
       241   07 Jun 2027 06:58:37.222   07 Jun 2027 06:59:37.410            60.188              Murmansk1          7523.500
       242   07 Jun 2027 07:31:44.810   07 Jun 2027 07:38:33.379           408.569            RioGallegos         51071.125
       243   07 Jun 2027 08:04:00.744   07 Jun 2027 08:11:39.585           458.841                Sumatra         57355.125
       244   07 Jun 2027 08:17:27.191   07 Jun 2027 08:17:48.158            20.967                Novosib          2620.875
       245   07 Jun 2027 08:18:19.250   07 Jun 2027 08:22:53.062           273.812                  Delhi         34226.500
       246   07 Jun 2027 08:22:53.725   07 Jun 2027 08:24:08.424            74.699                Irkutsk          9337.375
       247   07 Jun 2027 08:27:47.027   07 Jun 2027 08:29:36.096           109.069                Novosib         13633.625
       248   07 Jun 2027 08:29:39.196   07 Jun 2027 08:33:16.900           217.704                Norilsk         27213.000
       249   07 Jun 2027 08:34:31.708   07 Jun 2027 08:35:02.960            31.252              Murmansk2          3906.500
       250   07 Jun 2027 09:49:56.067   07 Jun 2027 09:55:22.716           326.649                  Delhi         40831.125
       251   07 Jun 2027 10:03:15.296   07 Jun 2027 10:03:15.332             0.036                Novosib             4.500
       252   07 Jun 2027 10:05:25.629   07 Jun 2027 10:09:04.350           218.721                Norilsk         27340.125
       253   07 Jun 2027 10:09:21.626   07 Jun 2027 10:10:52.880            91.254              Murmansk1         11406.750
       254   07 Jun 2027 11:33:32.355   07 Jun 2027 11:34:24.702            52.347                 Moscow          6543.375
       255   07 Jun 2027 11:37:15.159   07 Jun 2027 11:38:06.728            51.569              Murmansk1          6446.125
       256   07 Jun 2027 11:38:27.811   07 Jun 2027 11:43:03.655           275.844                 Moscow         34480.500
       257   07 Jun 2027 11:43:22.337   07 Jun 2027 11:46:50.903           208.566              Murmansk1         26070.750
       258   07 Jun 2027 11:53:50.867   07 Jun 2027 11:57:20.955           210.088                Anadyr2         26261.000
       259   07 Jun 2027 12:51:10.856   07 Jun 2027 12:56:43.546           332.690               CapeTown         41586.250
       260   07 Jun 2027 13:13:19.316   07 Jun 2027 13:22:39.103           559.787              Murmansk1         69973.375
       261   07 Jun 2027 13:24:36.096   07 Jun 2027 13:31:20.470           404.374                Anadyr1         50546.750
       262   07 Jun 2027 16:45:37.754   07 Jun 2027 16:48:39.281           181.527                Irkutsk         22690.875
       263   07 Jun 2027 18:19:51.012   07 Jun 2027 18:26:36.557           405.545                Novosib         50693.125
       264   07 Jun 2027 21:29:27.950   07 Jun 2027 21:31:14.867           106.917              Murmansk2         13364.625
       265   07 Jun 2027 21:31:22.220   07 Jun 2027 21:33:52.781           150.561              Murmansk2         18820.125
       266   07 Jun 2027 21:34:27.597   07 Jun 2027 21:40:52.720           385.123                 Moscow         48140.375
       267   08 Jun 2027 03:50:45.273   08 Jun 2027 03:52:09.860            84.587                Novosib         10573.375
       268   08 Jun 2027 03:52:10.915   08 Jun 2027 03:56:47.641           276.726                Norilsk         34590.750
       269   08 Jun 2027 05:29:28.526   08 Jun 2027 05:29:35.726             7.200                Novosib           900.000
       270   08 Jun 2027 05:30:14.988   08 Jun 2027 05:31:03.114            48.126              Murmansk1          6015.750
       271   08 Jun 2027 05:31:12.256   08 Jun 2027 05:32:58.954           106.698              Murmansk2         13337.250
       272   08 Jun 2027 05:33:01.627   08 Jun 2027 05:33:23.434            21.807                Norilsk          2725.875
       273   08 Jun 2027 05:34:52.294   08 Jun 2027 05:36:43.407           111.113              Murmansk1         13889.125
       274   08 Jun 2027 06:10:32.252   08 Jun 2027 06:15:49.549           317.297            RioGallegos         39662.125
       275   08 Jun 2027 06:45:15.896   08 Jun 2027 06:50:40.484           324.588                Sumatra         40573.500
       276   08 Jun 2027 06:53:24.755   08 Jun 2027 06:57:45.507           260.752                Irkutsk         32594.000
       277   08 Jun 2027 06:57:47.866   08 Jun 2027 06:58:24.560            36.694                Novosib          4586.750
       278   08 Jun 2027 07:04:29.541   08 Jun 2027 07:09:18.793           289.252                Norilsk         36156.500
       279   08 Jun 2027 07:10:38.292   08 Jun 2027 07:11:32.932            54.640              Murmansk2          6830.000
       280   08 Jun 2027 07:42:30.280   08 Jun 2027 07:50:08.191           457.911            RioGallegos         57238.875
       281   08 Jun 2027 08:17:24.002   08 Jun 2027 08:22:09.587           285.585                Sumatra         35698.125
       282   08 Jun 2027 08:29:15.997   08 Jun 2027 08:34:50.046           334.049                  Delhi         41756.125
       283   08 Jun 2027 08:35:12.606   08 Jun 2027 08:36:15.963            63.357                Irkutsk          7919.625
       284   08 Jun 2027 08:39:52.023   08 Jun 2027 08:41:31.890            99.867                Novosib         12483.375
       285   08 Jun 2027 08:41:38.319   08 Jun 2027 08:45:18.422           220.103                Norilsk         27512.875
       286   08 Jun 2027 08:46:32.923   08 Jun 2027 08:47:02.574            29.651              Murmansk2          3706.375
       287   08 Jun 2027 10:09:15.685   08 Jun 2027 10:09:43.416            27.731                 Moscow          3466.375
       288   08 Jun 2027 10:16:23.144   08 Jun 2027 10:21:01.333           278.189                Norilsk         34773.625
       289   08 Jun 2027 10:21:25.848   08 Jun 2027 10:22:54.318            88.470              Murmansk2         11058.750
       290   08 Jun 2027 11:45:28.159   08 Jun 2027 11:46:38.675            70.516                 Moscow          8814.500
       291   08 Jun 2027 11:48:02.689   08 Jun 2027 11:58:52.308           649.619              Murmansk1         81202.375
       292   08 Jun 2027 12:01:09.980   08 Jun 2027 12:10:01.508           531.528                Anadyr1         66441.000
       293   08 Jun 2027 13:02:51.740   08 Jun 2027 13:08:38.134           346.394               CapeTown         43299.250
       294   08 Jun 2027 13:25:53.257   08 Jun 2027 13:34:36.830           523.573              Murmansk1         65446.625
       295   08 Jun 2027 13:36:36.151   08 Jun 2027 13:38:08.107            91.956                Anadyr2         11494.500
       296   08 Jun 2027 13:40:21.508   08 Jun 2027 13:41:44.204            82.696               Magadan1         10337.000
       297   08 Jun 2027 13:41:44.204   08 Jun 2027 13:43:12.930            88.726               Magadan2         11090.750
       298   08 Jun 2027 13:43:56.049   08 Jun 2027 13:46:08.487           132.438               Magadan2         16554.750
       299   08 Jun 2027 16:56:28.646   08 Jun 2027 17:02:21.052           352.406                Irkutsk         44050.750
       300   08 Jun 2027 17:13:46.581   08 Jun 2027 17:15:57.018           130.437                Sumatra         16304.625
       301   08 Jun 2027 18:31:25.010   08 Jun 2027 18:34:26.127           181.117                Novosib         22639.625
       302   08 Jun 2027 18:35:06.388   08 Jun 2027 18:36:09.239            62.851                Novosib          7856.375
       303   08 Jun 2027 18:39:18.155   08 Jun 2027 18:39:23.192             5.037                Novosib           629.625
       304   08 Jun 2027 20:07:37.832   08 Jun 2027 20:07:58.763            20.931              Murmansk1          2616.375
       305   08 Jun 2027 21:40:37.396   08 Jun 2027 21:41:56.765            79.369              Murmansk2          9921.125
       306   08 Jun 2027 21:44:04.744   08 Jun 2027 21:46:21.149           136.405              Murmansk1         17050.625
       307   08 Jun 2027 21:46:23.480   08 Jun 2027 21:48:31.644           128.164                 Moscow         16020.500
       308   08 Jun 2027 22:12:31.875   08 Jun 2027 22:13:48.006            76.131               CapeTown          6569.250
       309   09 Jun 2027 04:03:11.885   09 Jun 2027 04:03:52.932            41.047                Anadyr1          5130.875
       310   09 Jun 2027 04:04:12.595   09 Jun 2027 04:04:37.753            25.158                Novosib          3144.750
       311   09 Jun 2027 04:04:48.200   09 Jun 2027 04:11:23.833           395.633              Murmansk2         49454.125
       312   09 Jun 2027 05:18:20.688   09 Jun 2027 05:18:32.269            11.581                Sumatra          1447.625
       313   09 Jun 2027 05:19:33.992   09 Jun 2027 05:20:44.019            70.027                Sumatra          8753.375
       314   09 Jun 2027 05:40:44.407   09 Jun 2027 05:41:42.147            57.740                Norilsk          7217.500
       315   09 Jun 2027 05:42:11.931   09 Jun 2027 05:42:55.828            43.897              Murmansk1          5487.125
       316   09 Jun 2027 05:43:04.650   09 Jun 2027 05:45:13.770           129.120              Murmansk2         16140.000
       317   09 Jun 2027 05:46:51.235   09 Jun 2027 05:48:33.854           102.619              Murmansk1         12827.375
       318   09 Jun 2027 06:22:25.371   09 Jun 2027 06:27:47.030           321.659            RioGallegos         40207.375
       319   09 Jun 2027 06:56:58.131   09 Jun 2027 07:02:38.713           340.582                Sumatra         42572.750
       320   09 Jun 2027 07:05:02.829   09 Jun 2027 07:09:56.554           293.725                Novosib         36715.625
       321   09 Jun 2027 07:15:39.891   09 Jun 2027 07:16:20.864            40.973                Novosib          5121.625
       322   09 Jun 2027 07:16:44.880   09 Jun 2027 07:21:20.617           275.737                Norilsk         34467.125
       323   09 Jun 2027 07:22:39.536   09 Jun 2027 07:23:29.103            49.567              Murmansk1          6195.875
       324   09 Jun 2027 07:55:36.705   09 Jun 2027 08:01:30.568           353.863            RioGallegos         44232.875
       325   09 Jun 2027 08:40:56.829   09 Jun 2027 08:46:43.438           346.609                  Delhi         43326.125
       326   09 Jun 2027 08:47:44.166   09 Jun 2027 08:48:19.851            35.685                Norilsk          4460.625
       327   09 Jun 2027 08:52:08.243   09 Jun 2027 08:52:22.490            14.247              Murmansk2          1780.875
       328   09 Jun 2027 08:52:54.467   09 Jun 2027 08:57:19.740           265.273                Norilsk         33159.125
       329   09 Jun 2027 08:57:53.568   09 Jun 2027 08:59:02.524            68.956              Murmansk1          8619.500
       330   09 Jun 2027 10:27:19.044   09 Jun 2027 10:32:56.592           337.548                Norilsk         42193.500
       331   09 Jun 2027 10:33:08.995   09 Jun 2027 10:34:55.846           106.851              Murmansk1         13356.375
       332   09 Jun 2027 12:00:46.522   09 Jun 2027 12:10:53.540           607.018              Murmansk2         75877.250
       333   09 Jun 2027 12:13:03.678   09 Jun 2027 12:22:37.340           573.662                Anadyr1         71707.750
       334   09 Jun 2027 13:11:01.908   09 Jun 2027 13:20:27.733           565.825               CapeTown         70728.125
       335   09 Jun 2027 13:38:30.500   09 Jun 2027 13:44:55.668           385.168              Murmansk2         48146.000
       336   09 Jun 2027 13:52:00.125   09 Jun 2027 13:55:49.592           229.467               Magadan1         28683.375
       337   09 Jun 2027 13:56:30.708   09 Jun 2027 13:58:19.072           108.364               Magadan2         13545.500
       338   09 Jun 2027 16:22:13.214   09 Jun 2027 16:23:57.604           104.390            RioGallegos         13048.750
       339   09 Jun 2027 17:07:52.180   09 Jun 2027 17:13:48.538           356.358                Irkutsk         44544.750
       340   09 Jun 2027 17:15:26.333   09 Jun 2027 17:15:27.016             0.683                Irkutsk            85.375
       341   09 Jun 2027 17:23:30.922   09 Jun 2027 17:25:20.897           109.975                Sumatra         13746.875
       342   09 Jun 2027 17:26:58.651   09 Jun 2027 17:29:12.018           133.367                Sumatra         16670.875
       343   09 Jun 2027 18:44:35.248   09 Jun 2027 18:46:59.622           144.374                Novosib         18046.750
       344   09 Jun 2027 20:19:01.065   09 Jun 2027 20:20:39.948            98.883              Murmansk2         12360.375
       345   09 Jun 2027 21:53:24.563   09 Jun 2027 21:54:32.360            67.797              Murmansk2          8474.625
       346   09 Jun 2027 21:56:26.423   09 Jun 2027 21:58:14.434           108.011                 Moscow         13501.375
       347   09 Jun 2027 21:59:14.188   09 Jun 2027 21:59:58.428            44.240                 Moscow          5530.000
       348   09 Jun 2027 22:00:26.292   09 Jun 2027 22:02:27.514           121.222                 Moscow           895.625
       349   10 Jun 2027 04:15:19.474   10 Jun 2027 04:15:29.432             9.958                Irkutsk          1244.750
       350   10 Jun 2027 04:16:27.467   10 Jun 2027 04:16:55.103            27.636                Novosib          3454.500
       351   10 Jun 2027 04:17:28.034   10 Jun 2027 04:24:45.453           437.419              Murmansk1         54677.375
       352   10 Jun 2027 05:28:53.712   10 Jun 2027 05:30:48.977           115.265                Sumatra         14408.125
       353   10 Jun 2027 05:53:23.564   10 Jun 2027 05:53:46.764            23.200                Novosib          2900.000
       354   10 Jun 2027 05:54:09.443   10 Jun 2027 05:54:57.793            48.350              Murmansk2          6043.750
       355   10 Jun 2027 05:54:57.793   10 Jun 2027 05:57:22.950           145.157              Murmansk1         18144.625
       356   10 Jun 2027 05:58:50.592   10 Jun 2027 06:00:25.020            94.428              Murmansk2         11803.500
       357   10 Jun 2027 06:34:16.130   10 Jun 2027 06:39:43.083           326.953            RioGallegos         40869.125
       358   10 Jun 2027 07:08:32.699   10 Jun 2027 07:14:31.280           358.581                Sumatra         44822.625
       359   10 Jun 2027 07:16:36.962   10 Jun 2027 07:17:58.815            81.853                Irkutsk         10231.625
       360   10 Jun 2027 07:18:17.825   10 Jun 2027 07:19:26.655            68.830                Novosib          8603.750
       361   10 Jun 2027 07:19:40.868   10 Jun 2027 07:22:23.677           162.809                Novosib         20351.125
       362   10 Jun 2027 07:28:20.039   10 Jun 2027 07:33:22.486           302.447                Norilsk         37805.875
       363   10 Jun 2027 07:34:40.925   10 Jun 2027 07:35:25.885            44.960              Murmansk1          5620.000
       364   10 Jun 2027 08:09:20.614   10 Jun 2027 08:12:18.631           178.017            RioGallegos         22252.125
       365   10 Jun 2027 08:52:30.371   10 Jun 2027 08:58:32.776           362.405                  Delhi         45300.625
       366   10 Jun 2027 08:58:50.389   10 Jun 2027 08:59:15.535            25.146                Novosib          3143.250
       367   10 Jun 2027 09:04:00.521   10 Jun 2027 09:05:18.448            77.927                Novosib          9740.875
       368   10 Jun 2027 09:05:37.741   10 Jun 2027 09:09:20.803           223.062                Norilsk         27882.750
       369   10 Jun 2027 09:10:35.760   10 Jun 2027 09:11:02.774            27.014              Murmansk1          3376.750
       370   10 Jun 2027 10:39:02.585   10 Jun 2027 10:43:27.342           264.757                 Moscow         33094.625
       371   10 Jun 2027 10:43:30.087   10 Jun 2027 10:44:49.297            79.210                Norilsk          9901.250
       372   10 Jun 2027 10:45:22.006   10 Jun 2027 10:46:57.451            95.445              Murmansk1         11930.625
       373   10 Jun 2027 12:09:14.739   10 Jun 2027 12:18:41.396           566.657                 Moscow         70832.125
       374   10 Jun 2027 12:19:18.139   10 Jun 2027 12:22:54.566           216.427              Murmansk2         27053.375
       375   10 Jun 2027 12:25:09.508   10 Jun 2027 12:35:09.137           599.629                Anadyr2         74953.625
       376   10 Jun 2027 13:22:50.485   10 Jun 2027 13:32:12.148           561.663               CapeTown         70207.875
       377   10 Jun 2027 13:51:11.546   10 Jun 2027 13:52:49.826            98.280              Murmansk1         12285.000
       378   10 Jun 2027 14:03:45.006   10 Jun 2027 14:10:26.888           401.882               Magadan1         50235.250
       379   10 Jun 2027 16:32:46.845   10 Jun 2027 16:35:40.964           174.119            RioGallegos         21764.875
       380   10 Jun 2027 17:19:27.736   10 Jun 2027 17:23:10.538           222.802                Irkutsk         27850.250
       381   10 Jun 2027 17:24:44.502   10 Jun 2027 17:25:51.679            67.177                Irkutsk          8397.125
       382   10 Jun 2027 17:34:23.851   10 Jun 2027 17:37:00.152           156.301                Sumatra         19537.625
       383   10 Jun 2027 17:40:35.797   10 Jun 2027 17:41:13.696            37.899                Sumatra          4737.375
       384   10 Jun 2027 18:57:57.954   10 Jun 2027 18:58:54.604            56.650                Novosib          7081.250
       385   10 Jun 2027 19:04:52.980   10 Jun 2027 19:06:52.776           119.796                  Delhi         14974.500
       386   10 Jun 2027 19:07:54.474   10 Jun 2027 19:08:54.800            60.326                  Delhi          7540.750
       387   10 Jun 2027 20:30:32.413   10 Jun 2027 20:32:01.280            88.867              Murmansk2         11108.375
       388   10 Jun 2027 22:06:37.387   10 Jun 2027 22:08:47.722           130.335              Murmansk1         13893.500
       389   11 Jun 2027 04:28:06.778   11 Jun 2027 04:28:09.245             2.467                Irkutsk           308.375
       390   11 Jun 2027 04:28:30.228   11 Jun 2027 04:29:26.239            56.011              Murmansk2          7001.375
       391   11 Jun 2027 04:29:26.239   11 Jun 2027 04:37:54.694           508.455              Murmansk1         63556.875
       392   11 Jun 2027 05:03:23.055   11 Jun 2027 05:09:01.685           338.630            RioGallegos         42328.750
       393   11 Jun 2027 05:39:59.084   11 Jun 2027 05:41:31.413            92.329                Sumatra         11541.125
       394   11 Jun 2027 06:04:22.034   11 Jun 2027 06:05:41.177            79.143                Norilsk          9892.875
       395   11 Jun 2027 06:06:07.478   11 Jun 2027 06:09:13.717           186.239              Murmansk1         23279.875
       396   11 Jun 2027 06:10:50.316   11 Jun 2027 06:12:16.924            86.608              Murmansk2         10826.000
       397   11 Jun 2027 06:46:03.852   11 Jun 2027 06:51:37.462           333.610            RioGallegos         41701.250
       398   11 Jun 2027 07:19:57.505   11 Jun 2027 07:26:17.804           380.299                Sumatra         47537.375
       399   11 Jun 2027 07:29:03.676   11 Jun 2027 07:35:20.397           376.721                Novosib         47090.125
       400   11 Jun 2027 07:40:01.362   11 Jun 2027 07:41:56.617           115.255                Novosib         14406.875
       401   11 Jun 2027 07:42:03.263   11 Jun 2027 07:45:24.378           201.115                Norilsk         25139.375
       402   11 Jun 2027 07:46:42.442   11 Jun 2027 07:47:23.240            40.798              Murmansk2          5099.750
       403   11 Jun 2027 09:03:53.248   11 Jun 2027 09:10:17.313           384.065                  Delhi         48008.125
       404   11 Jun 2027 09:10:30.285   11 Jun 2027 09:11:18.066            47.781                Novosib          5972.625
       405   11 Jun 2027 09:15:50.563   11 Jun 2027 09:17:08.271            77.708                Novosib          9713.500
       406   11 Jun 2027 09:17:10.292   11 Jun 2027 09:21:21.544           251.252                Norilsk         31406.500
       407   11 Jun 2027 09:21:32.377   11 Jun 2027 09:23:03.302            90.925              Murmansk2         11365.625
       408   11 Jun 2027 10:45:52.859   11 Jun 2027 10:47:47.252           114.393                 Moscow         14299.125
       409   11 Jun 2027 10:50:40.563   11 Jun 2027 10:55:27.333           286.770                 Moscow         35846.250
       410   11 Jun 2027 10:55:31.991   11 Jun 2027 10:56:37.771            65.780                Norilsk          8222.500
       411   11 Jun 2027 10:56:41.864   11 Jun 2027 10:58:59.099           137.235              Murmansk2         17154.375
       412   11 Jun 2027 11:03:39.479   11 Jun 2027 11:04:57.413            77.934                Anadyr2          9741.750
       413   11 Jun 2027 12:03:11.433   11 Jun 2027 12:08:28.958           317.525               CapeTown         39690.625
       414   11 Jun 2027 12:21:06.024   11 Jun 2027 12:27:19.748           373.724                 Moscow         46715.500
       415   11 Jun 2027 12:45:03.997   11 Jun 2027 12:45:25.404            21.407                Anadyr1          2675.875
       416   11 Jun 2027 14:15:33.877   11 Jun 2027 14:21:26.155           352.278               Magadan2         44034.750
       417   11 Jun 2027 16:44:06.331   11 Jun 2027 16:47:28.507           202.176            RioGallegos         25272.000
       418   11 Jun 2027 17:33:37.900   11 Jun 2027 17:37:21.900           224.000                Irkutsk         28000.000
       419   11 Jun 2027 17:45:38.193   11 Jun 2027 17:50:24.539           286.346                Sumatra         35793.250
       420   11 Jun 2027 17:51:36.147   11 Jun 2027 17:53:21.068           104.921                Sumatra         13115.125
       421   11 Jun 2027 19:15:47.046   11 Jun 2027 19:17:57.922           130.876                  Delhi         16359.500
       422   11 Jun 2027 20:42:29.289   11 Jun 2027 20:42:51.737            22.448              Murmansk1          2806.000
       423   11 Jun 2027 20:44:08.432   11 Jun 2027 20:44:51.583            43.151              Murmansk1          5393.875
       424   11 Jun 2027 22:19:34.484   11 Jun 2027 22:20:49.370            74.886              Murmansk1          9360.750
       425   11 Jun 2027 22:22:57.379   11 Jun 2027 22:23:20.350            22.971              Murmansk2          2871.375
       426   11 Jun 2027 22:50:50.915   11 Jun 2027 22:51:06.165            15.250               CapeTown           474.500
       427   12 Jun 2027 04:40:23.215   12 Jun 2027 04:45:38.816           315.601                Norilsk         39450.125
       428   12 Jun 2027 04:47:16.296   12 Jun 2027 04:49:42.365           146.069              Murmansk1         18258.625
       429   12 Jun 2027 05:15:16.352   12 Jun 2027 05:18:26.631           190.279            RioGallegos         23784.875
       430   12 Jun 2027 05:54:21.823   12 Jun 2027 05:54:42.839            21.016                Sumatra          2627.000
       431   12 Jun 2027 06:16:23.663   12 Jun 2027 06:17:58.221            94.558                Norilsk         11819.750
       432   12 Jun 2027 06:18:05.995   12 Jun 2027 06:20:01.012           115.017              Murmansk1         14377.125
       433   12 Jun 2027 06:20:01.012   12 Jun 2027 06:21:11.656            70.644              Murmansk2          8830.500
       434   12 Jun 2027 06:21:17.429   12 Jun 2027 06:21:27.078             9.649                Norilsk          1206.125
       435   12 Jun 2027 06:22:50.372   12 Jun 2027 06:24:09.584            79.212              Murmansk1          9901.500
       436   12 Jun 2027 06:57:47.468   12 Jun 2027 07:03:29.797           342.329            RioGallegos         42791.125
       437   12 Jun 2027 07:31:08.352   12 Jun 2027 07:37:57.488           409.136                Sumatra         51142.000
       438   12 Jun 2027 07:41:08.483   12 Jun 2027 07:42:03.485            55.002                Novosib          6875.250
       439   12 Jun 2027 07:43:29.432   12 Jun 2027 07:47:31.393           241.961                Novosib         30245.125
       440   12 Jun 2027 07:51:46.895   12 Jun 2027 07:53:56.451           129.556                Novosib         16194.500
       441   12 Jun 2027 07:53:56.795   12 Jun 2027 07:56:52.641           175.846              Murmansk2         21980.750
       442   12 Jun 2027 07:57:02.189   12 Jun 2027 07:57:26.255            24.066                Norilsk          3008.250
       443   12 Jun 2027 07:58:43.934   12 Jun 2027 07:59:21.127            37.193              Murmansk2          4649.125
       444   12 Jun 2027 09:14:57.360   12 Jun 2027 09:21:55.809           418.449                  Delhi         52306.125
       445   12 Jun 2027 09:22:18.584   12 Jun 2027 09:23:34.998            76.414                Novosib          9551.750
       446   12 Jun 2027 09:27:49.486   12 Jun 2027 09:28:54.754            65.268                Novosib          8158.500
       447   12 Jun 2027 09:28:59.124   12 Jun 2027 09:33:21.859           262.735                Norilsk         32841.875
       448   12 Jun 2027 09:33:22.931   12 Jun 2027 09:35:04.067           101.136              Murmansk2         12642.000
       449   12 Jun 2027 10:57:52.697   12 Jun 2027 10:59:47.132           114.435                 Moscow         14304.375
       450   12 Jun 2027 11:01:00.641   12 Jun 2027 11:02:17.280            76.639              Murmansk1          9579.875
       451   12 Jun 2027 11:02:17.280   12 Jun 2027 11:11:00.766           523.486              Murmansk2         65435.750
       452   12 Jun 2027 11:16:13.023   12 Jun 2027 11:18:48.202           155.179                Anadyr1         19397.375
       453   12 Jun 2027 12:15:51.462   12 Jun 2027 12:17:38.119           106.657               CapeTown         13332.125
       454   12 Jun 2027 14:27:25.523   12 Jun 2027 14:31:14.878           229.355               Magadan1         28669.375
       455   12 Jun 2027 14:31:18.921   12 Jun 2027 14:33:05.931           107.010               Magadan1         13376.250
       456   12 Jun 2027 16:55:39.727   12 Jun 2027 17:00:52.086           312.359            RioGallegos         39044.875
       457   12 Jun 2027 17:40:46.213   12 Jun 2027 17:41:46.929            60.716                Norilsk          7589.500
       458   12 Jun 2027 17:46:50.176   12 Jun 2027 17:46:59.305             9.129                Irkutsk          1141.125
       459   12 Jun 2027 18:01:21.365   12 Jun 2027 18:04:06.724           165.359                Sumatra         20669.875
       460   12 Jun 2027 19:27:05.298   12 Jun 2027 19:30:21.379           196.081                  Delhi         24510.125
       461   12 Jun 2027 19:34:41.199   12 Jun 2027 19:35:01.284            20.085                  Delhi          2510.625
       462   12 Jun 2027 20:52:56.165   12 Jun 2027 20:53:25.974            29.809              Murmansk1          3726.125
       463   12 Jun 2027 20:54:24.321   12 Jun 2027 20:56:43.679           139.358              Murmansk2         17419.750
       464   12 Jun 2027 23:02:00.952   12 Jun 2027 23:03:59.128           118.176               CapeTown         14772.000
       465   13 Jun 2027 04:52:28.657   13 Jun 2027 04:52:44.859            16.202                Novosib          2025.250
       466   13 Jun 2027 04:55:54.019   13 Jun 2027 04:57:09.975            75.956              Murmansk2          9494.500
       467   13 Jun 2027 04:57:10.847   13 Jun 2027 04:57:38.111            27.264                Norilsk          3408.000
       468   13 Jun 2027 04:59:13.221   13 Jun 2027 05:01:30.437           137.216              Murmansk1         17152.000
       469   13 Jun 2027 05:34:57.321   13 Jun 2027 05:40:04.865           307.544            RioGallegos         38443.000
       470   13 Jun 2027 06:13:54.239   13 Jun 2027 06:14:25.789            31.550                Sumatra          3943.750
       471   13 Jun 2027 06:17:42.686   13 Jun 2027 06:23:03.040           320.354                Irkutsk         40044.250
       472   13 Jun 2027 06:28:25.386   13 Jun 2027 06:33:28.480           303.094                Norilsk         37886.750
       473   13 Jun 2027 06:34:50.732   13 Jun 2027 06:36:02.988            72.256              Murmansk2          9032.000
       474   13 Jun 2027 07:09:25.079   13 Jun 2027 07:15:19.565           354.486            RioGallegos         44310.750
       475   13 Jun 2027 07:41:54.210   13 Jun 2027 07:49:28.898           454.688                Sumatra         56836.000
       476   13 Jun 2027 07:53:58.673   13 Jun 2027 07:56:37.600           158.927                  Delhi         19865.875
       477   13 Jun 2027 08:04:25.138   13 Jun 2027 08:09:28.096           302.958                Norilsk         37869.750
       478   13 Jun 2027 08:10:44.548   13 Jun 2027 08:11:19.505            34.957              Murmansk2          4369.625
       479   13 Jun 2027 09:25:00.268   13 Jun 2027 09:33:26.076           505.808                  Delhi         63226.000
       480   13 Jun 2027 09:33:33.248   13 Jun 2027 09:36:04.170           150.922                Novosib         18865.250
       481   13 Jun 2027 09:40:23.940   13 Jun 2027 09:43:32.861           188.921                 Moscow         23615.125
       482   13 Jun 2027 09:43:35.518   13 Jun 2027 09:45:21.644           106.126                Norilsk         13265.750
