uniorb/output/strategy_4/Drop/Drop_KinoSat_110609.txt

KinoSat_110609
-------------------------
    Access    *     Start Time (UTCG)     *     Stop Time (UTCG)  *   Duration (s)        *       Station  *  Data (Mbytes)
         1   01 Jun 2027 03:03:51.803   01 Jun 2027 03:04:13.851            22.048                Anadyr1           689.000
         2   01 Jun 2027 03:04:17.469   01 Jun 2027 03:04:28.931            11.462               Magadan2           358.188
         3   01 Jun 2027 03:04:35.882   01 Jun 2027 03:05:15.437            39.555                Anadyr2          1236.094
         4   01 Jun 2027 03:05:37.230   01 Jun 2027 03:06:10.503            33.273               Magadan2          1039.781
         5   01 Jun 2027 03:06:10.503   01 Jun 2027 03:06:38.440            27.937               Magadan1           873.031
         6   01 Jun 2027 03:06:51.088   01 Jun 2027 03:07:42.902            51.814               Magadan1          1619.187
         7   01 Jun 2027 03:07:42.902   01 Jun 2027 03:07:58.223            15.321               Magadan2           478.781
         8   01 Jun 2027 03:08:01.172   01 Jun 2027 03:10:21.471           140.299                Anadyr2          4384.344
         9   01 Jun 2027 03:10:21.471   01 Jun 2027 03:10:29.692             8.221                Anadyr1           256.906
        10   01 Jun 2027 03:10:44.954   01 Jun 2027 03:11:07.687            22.733               Magadan2           710.406
        11   01 Jun 2027 04:40:05.360   01 Jun 2027 04:40:32.174            26.814                Irkutsk           837.938
        12   01 Jun 2027 04:40:40.623   01 Jun 2027 04:42:44.381           123.758               Magadan2          3867.438
        13   01 Jun 2027 04:42:44.381   01 Jun 2027 04:43:12.972            28.591               Magadan1           893.469
        14   01 Jun 2027 04:43:24.691   01 Jun 2027 04:47:06.286           221.595                Anadyr1          6924.844
        15   01 Jun 2027 04:47:18.040   01 Jun 2027 04:47:46.184            28.144               Magadan2           879.500
        16   01 Jun 2027 05:22:54.240   01 Jun 2027 05:25:01.642           127.402            RioGallegos          3981.312
        17   01 Jun 2027 05:25:35.617   01 Jun 2027 05:26:09.111            33.494            RioGallegos          1046.688
        18   01 Jun 2027 06:00:32.594   01 Jun 2027 06:02:30.957           118.363                Sumatra          3698.844
        19   01 Jun 2027 06:04:10.569   01 Jun 2027 06:06:16.404           125.835                Sumatra          3932.344
        20   01 Jun 2027 06:18:23.186   01 Jun 2027 06:19:00.836            37.650                Novosib          1176.563
        21   01 Jun 2027 06:19:15.096   01 Jun 2027 06:23:22.079           246.983                Novosib          7718.219
        22   01 Jun 2027 06:23:26.879   01 Jun 2027 06:24:17.861            50.982                Novosib          1593.188
        23   01 Jun 2027 06:24:26.627   01 Jun 2027 06:24:53.446            26.819              Murmansk1           838.094
        24   01 Jun 2027 06:58:44.462   01 Jun 2027 06:59:11.359            26.897            RioGallegos           840.531
        25   01 Jun 2027 07:00:47.052   01 Jun 2027 07:00:55.698             8.646            RioGallegos           270.187
        26   01 Jun 2027 07:01:30.563   01 Jun 2027 07:02:02.390            31.827            RioGallegos           994.594
        27   01 Jun 2027 07:33:16.538   01 Jun 2027 07:35:24.886           128.348                Sumatra          4010.875
        28   01 Jun 2027 07:38:28.863   01 Jun 2027 07:38:40.345            11.482                Sumatra           358.812
        29   01 Jun 2027 07:42:56.365   01 Jun 2027 07:43:29.730            33.365                  Delhi          1042.656
        30   01 Jun 2027 07:44:03.932   01 Jun 2027 07:46:09.397           125.465                  Delhi          3920.781
        31   01 Jun 2027 07:53:36.780   01 Jun 2027 07:53:43.972             7.192                  Delhi           224.750
        32   01 Jun 2027 07:55:55.622   01 Jun 2027 07:57:52.237           116.615              Murmansk2          3644.219
        33   01 Jun 2027 07:57:56.141   01 Jun 2027 07:58:16.201            20.060                 Moscow           626.875
        34   01 Jun 2027 07:58:31.130   01 Jun 2027 08:01:20.359           169.229                 Moscow          5288.406
        35   01 Jun 2027 09:17:43.575   01 Jun 2027 09:18:55.317            71.742                  Delhi          2241.937
        36   01 Jun 2027 09:22:15.693   01 Jun 2027 09:22:44.950            29.257                  Delhi           914.281
        37   01 Jun 2027 09:33:27.159   01 Jun 2027 09:35:48.118           140.959                Novosib          4404.969
        38   01 Jun 2027 09:37:35.512   01 Jun 2027 09:37:50.373            14.861              Murmansk1           464.406
        39   01 Jun 2027 09:39:08.323   01 Jun 2027 09:39:37.681            29.358                Norilsk           917.437
        40   01 Jun 2027 11:08:21.973   01 Jun 2027 11:10:34.992           133.019              Murmansk1          4156.844
        41   01 Jun 2027 11:12:32.316   01 Jun 2027 11:12:50.280            17.964                Norilsk           561.375
        42   01 Jun 2027 11:13:45.646   01 Jun 2027 11:14:11.379            25.733                 Moscow           804.156
        43   01 Jun 2027 12:16:09.020   01 Jun 2027 12:19:43.901           214.881               CapeTown          6715.031
        44   01 Jun 2027 12:20:41.498   01 Jun 2027 12:22:34.269           112.771               CapeTown          3524.094
        45   01 Jun 2027 12:42:36.975   01 Jun 2027 12:44:25.846           108.871              Murmansk1          3402.219
        46   01 Jun 2027 12:47:12.527   01 Jun 2027 12:47:55.762            43.235              Murmansk2          1351.094
        47   01 Jun 2027 12:49:54.442   01 Jun 2027 12:50:13.227            18.785              Murmansk1           587.031
        48   01 Jun 2027 12:51:02.461   01 Jun 2027 12:52:15.366            72.905              Murmansk1          2278.281
        49   01 Jun 2027 12:56:18.040   01 Jun 2027 12:59:57.382           219.342                Anadyr1          6854.438
        50   01 Jun 2027 13:00:06.549   01 Jun 2027 13:01:53.548           106.999                Anadyr1          3343.719
        51   01 Jun 2027 13:03:34.778   01 Jun 2027 13:05:49.559           134.781                Anadyr2          4211.906
        52   01 Jun 2027 14:31:54.759   01 Jun 2027 14:33:29.042            94.283                Anadyr1          2946.344
        53   01 Jun 2027 14:35:06.760   01 Jun 2027 14:41:18.490           371.730               Magadan1         11616.563
        54   01 Jun 2027 14:41:18.646   01 Jun 2027 14:43:43.263           144.617               Magadan2          4519.281
        55   01 Jun 2027 16:10:09.622   01 Jun 2027 16:11:18.732            69.110               Magadan2          2159.688
        56   01 Jun 2027 16:12:19.174   01 Jun 2027 16:12:43.009            23.835               Magadan2           744.844
        57   01 Jun 2027 16:14:07.702   01 Jun 2027 16:14:30.410            22.708               Magadan2           709.625
        58   01 Jun 2027 17:04:21.825   01 Jun 2027 17:09:11.914           290.089            RioGallegos          9065.281
        59   01 Jun 2027 17:45:51.726   01 Jun 2027 17:52:09.891           378.165                Norilsk         11817.656
        60   01 Jun 2027 17:53:30.506   01 Jun 2027 17:57:42.357           251.851                Irkutsk          7870.344
        61   01 Jun 2027 18:05:58.723   01 Jun 2027 18:14:08.708           489.985                Sumatra         15312.031
        62   01 Jun 2027 19:24:03.367   01 Jun 2027 19:25:37.653            94.286                Norilsk          2946.438
        63   01 Jun 2027 19:29:12.807   01 Jun 2027 19:32:43.414           210.607                Novosib          6581.469
        64   01 Jun 2027 19:36:40.841   01 Jun 2027 19:41:08.321           267.480                  Delhi          8358.750
        65   01 Jun 2027 21:00:38.807   01 Jun 2027 21:05:32.472           293.665              Murmansk2          9177.031
        66   01 Jun 2027 22:35:45.867   01 Jun 2027 22:36:27.936            42.069              Murmansk1          1314.656
        67   01 Jun 2027 22:38:23.969   01 Jun 2027 22:42:04.896           220.927              Murmansk1          6903.969
        68   01 Jun 2027 22:43:34.054   01 Jun 2027 22:45:00.697            86.643                 Moscow          2707.594
        69   01 Jun 2027 22:45:49.382   01 Jun 2027 22:47:46.016           116.634                 Moscow          3644.813
        70   01 Jun 2027 23:05:52.895   01 Jun 2027 23:14:16.503           503.608               CapeTown         15737.750
        71   02 Jun 2027 03:18:06.177   02 Jun 2027 03:18:40.664            34.487               Magadan1          1077.719
        72   02 Jun 2027 03:18:40.664   02 Jun 2027 03:18:59.795            19.131               Magadan2           597.844
        73   02 Jun 2027 03:19:00.919   02 Jun 2027 03:20:41.743           100.824               Magadan1          3150.750
        74   02 Jun 2027 03:20:52.138   02 Jun 2027 03:20:59.045             6.907               Magadan1           215.844
        75   02 Jun 2027 03:21:19.933   02 Jun 2027 03:24:12.468           172.535                Anadyr1          5391.719
        76   02 Jun 2027 04:53:41.781   02 Jun 2027 04:56:43.684           181.903               Magadan2          5684.469
        77   02 Jun 2027 04:56:55.826   02 Jun 2027 04:59:39.976           164.150               Magadan1          5129.688
        78   02 Jun 2027 04:59:39.976   02 Jun 2027 04:59:42.757             2.781               Magadan2            86.906
        79   02 Jun 2027 06:32:21.287   02 Jun 2027 06:34:02.195           100.908                Irkutsk          3153.375
        80   02 Jun 2027 06:34:49.586   02 Jun 2027 06:35:46.313            56.727                Irkutsk          1772.719
        81   02 Jun 2027 06:36:27.398   02 Jun 2027 06:36:55.536            28.138                Norilsk           879.312
        82   02 Jun 2027 08:08:43.283   02 Jun 2027 08:09:39.950            56.667                Irkutsk          1770.844
        83   02 Jun 2027 08:10:12.562   02 Jun 2027 08:11:06.361            53.799                Irkutsk          1681.219
        84   02 Jun 2027 08:11:25.422   02 Jun 2027 08:13:14.290           108.868                Novosib          3402.125
        85   02 Jun 2027 08:13:22.787   02 Jun 2027 08:14:38.814            76.027              Murmansk2          2375.844
        86   02 Jun 2027 09:35:23.000   02 Jun 2027 09:36:28.661            65.661                  Delhi          2051.906
        87   02 Jun 2027 09:47:21.486   02 Jun 2027 09:47:50.451            28.965                Novosib           905.156
        88   02 Jun 2027 11:27:57.893   02 Jun 2027 11:27:59.648             1.755                Norilsk            54.844
        89   02 Jun 2027 12:52:12.228   02 Jun 2027 12:52:27.197            14.969                 Moscow           467.781
        90   02 Jun 2027 12:53:08.591   02 Jun 2027 12:54:08.037            59.446                 Moscow          1857.687
        91   02 Jun 2027 12:54:52.915   02 Jun 2027 12:55:19.475            26.560                 Moscow           830.000
        92   02 Jun 2027 12:55:19.480   02 Jun 2027 12:56:37.715            78.235              Murmansk2          2444.844
        93   02 Jun 2027 12:57:00.867   02 Jun 2027 12:57:01.846             0.979              Murmansk2            30.594
        94   02 Jun 2027 12:57:19.350   02 Jun 2027 12:57:44.153            24.803              Murmansk1           775.094
        95   02 Jun 2027 12:59:14.050   02 Jun 2027 12:59:30.873            16.823              Murmansk1           525.719
        96   02 Jun 2027 13:00:35.101   02 Jun 2027 13:00:40.865             5.764              Murmansk1           180.125
        97   02 Jun 2027 13:01:55.918   02 Jun 2027 13:02:49.803            53.885              Murmansk1          1683.906
        98   02 Jun 2027 13:08:14.383   02 Jun 2027 13:10:11.128           116.745                Anadyr2          3648.281
        99   02 Jun 2027 13:10:27.995   02 Jun 2027 13:14:31.617           243.622                Anadyr1          7613.188
       100   02 Jun 2027 13:16:35.719   02 Jun 2027 13:16:49.565            13.846                Anadyr1           432.688
       101   02 Jun 2027 14:35:12.301   02 Jun 2027 14:35:40.451            28.150              Murmansk1           879.688
       102   02 Jun 2027 14:37:25.270   02 Jun 2027 14:37:42.164            16.894              Murmansk2           527.937
       103   02 Jun 2027 14:43:55.605   02 Jun 2027 14:46:17.709           142.104                Anadyr1          4440.750
       104   02 Jun 2027 14:46:54.601   02 Jun 2027 14:56:23.329           568.728               Magadan1         17772.750
       105   02 Jun 2027 16:22:09.198   02 Jun 2027 16:23:01.223            52.025               Magadan1          1625.781
       106   02 Jun 2027 17:15:34.205   02 Jun 2027 17:22:29.762           415.557            RioGallegos         12986.156
       107   02 Jun 2027 17:59:38.349   02 Jun 2027 18:00:26.998            48.649                Norilsk          1520.281
       108   02 Jun 2027 18:02:32.558   02 Jun 2027 18:10:21.842           469.284                Irkutsk         14665.125
       109   02 Jun 2027 18:17:08.011   02 Jun 2027 18:25:14.575           486.564                Sumatra         15205.125
       110   02 Jun 2027 19:47:20.951   02 Jun 2027 19:54:41.497           440.546                  Delhi         13767.062
       111   02 Jun 2027 21:12:24.906   02 Jun 2027 21:12:25.272             0.366              Murmansk1            11.438
       112   02 Jun 2027 21:13:29.981   02 Jun 2027 21:18:27.052           297.071              Murmansk2          9283.469
       113   02 Jun 2027 22:51:19.507   02 Jun 2027 22:51:37.929            18.422              Murmansk2           575.688
       114   02 Jun 2027 22:55:03.359   02 Jun 2027 22:57:21.138           137.779              Murmansk2          4305.594
       115   02 Jun 2027 23:19:05.805   02 Jun 2027 23:19:53.185            47.380               CapeTown          1480.625
       116   02 Jun 2027 23:20:10.112   02 Jun 2027 23:24:37.904           267.792               CapeTown          8368.500
       117   03 Jun 2027 01:49:54.018   03 Jun 2027 01:50:27.653            33.635               Magadan2          1051.094
       118   03 Jun 2027 01:57:42.928   03 Jun 2027 01:57:44.691             1.763               Magadan2            55.094
       119   03 Jun 2027 01:59:38.092   03 Jun 2027 02:01:11.094            93.002              Murmansk2          2906.313
       120   03 Jun 2027 02:02:32.234   03 Jun 2027 02:02:51.475            19.241              Murmansk1           601.281
       121   03 Jun 2027 02:03:05.755   03 Jun 2027 02:04:06.214            60.459                 Moscow          1889.344
       122   03 Jun 2027 02:10:15.983   03 Jun 2027 02:10:42.560            26.577                 Moscow           830.531
       123   03 Jun 2027 02:32:24.979   03 Jun 2027 02:33:18.722            53.743               CapeTown          1679.469
       124   03 Jun 2027 02:33:46.198   03 Jun 2027 02:33:55.782             9.584               CapeTown           299.500
       125   03 Jun 2027 03:26:37.563   03 Jun 2027 03:27:29.626            52.063                Anadyr1          1626.969
       126   03 Jun 2027 03:29:52.740   03 Jun 2027 03:31:52.571           119.831                Anadyr2          3744.719
       127   03 Jun 2027 03:31:52.571   03 Jun 2027 03:33:20.548            87.977                Anadyr1          2749.281
       128   03 Jun 2027 04:18:21.025   03 Jun 2027 04:19:09.619            48.594            RioGallegos          1518.563
       129   03 Jun 2027 04:19:48.001   03 Jun 2027 04:19:55.507             7.506            RioGallegos           234.562
       130   03 Jun 2027 05:03:43.594   03 Jun 2027 05:03:48.082             4.488                Irkutsk           140.250
       131   03 Jun 2027 05:04:52.331   03 Jun 2027 05:05:07.606            15.275                Irkutsk           477.344
       132   03 Jun 2027 05:05:33.032   03 Jun 2027 05:06:14.158            41.126                Irkutsk          1285.188
       133   03 Jun 2027 05:06:19.816   03 Jun 2027 05:08:24.259           124.443                Irkutsk          3888.844
       134   03 Jun 2027 05:10:21.600   03 Jun 2027 05:10:29.334             7.734               Magadan2           241.687
       135   03 Jun 2027 05:10:36.584   03 Jun 2027 05:10:43.170             6.586               Magadan2           205.812
       136   03 Jun 2027 05:10:43.170   03 Jun 2027 05:11:38.063            54.893               Magadan1          1715.406
       137   03 Jun 2027 06:47:38.042   03 Jun 2027 06:48:14.095            36.053                Norilsk          1126.656
       138   03 Jun 2027 08:19:47.644   03 Jun 2027 08:19:56.698             9.054                Novosib           282.938
       139   03 Jun 2027 08:20:13.208   03 Jun 2027 08:20:29.275            16.067              Murmansk2           502.094
       140   03 Jun 2027 08:20:32.534   03 Jun 2027 08:20:52.729            20.195              Murmansk2           631.094
       141   03 Jun 2027 08:20:56.455   03 Jun 2027 08:21:51.063            54.608                Irkutsk          1706.500
       142   03 Jun 2027 08:23:08.066   03 Jun 2027 08:23:17.586             9.520                Novosib           297.500
       143   03 Jun 2027 08:26:04.874   03 Jun 2027 08:26:12.657             7.783                 Moscow           243.219
       144   03 Jun 2027 09:46:37.412   03 Jun 2027 09:48:29.020           111.608                  Delhi          3487.750
       145   03 Jun 2027 09:56:06.306   03 Jun 2027 09:56:09.230             2.924              Murmansk2            91.375
       146   03 Jun 2027 09:56:36.593   03 Jun 2027 09:56:45.076             8.483                Novosib           265.094
       147   03 Jun 2027 09:56:46.464   03 Jun 2027 09:57:34.664            48.200              Murmansk2          1506.250
       148   03 Jun 2027 09:59:32.865   03 Jun 2027 09:59:36.760             3.895                Novosib           121.719
       149   03 Jun 2027 13:04:53.482   03 Jun 2027 13:06:05.802            72.320                 Moscow          2260.000
       150   03 Jun 2027 13:06:41.695   03 Jun 2027 13:07:27.154            45.459                 Moscow          1420.594
       151   03 Jun 2027 13:07:44.722   03 Jun 2027 13:08:51.471            66.749              Murmansk1          2085.906
       152   03 Jun 2027 13:08:51.471   03 Jun 2027 13:09:19.897            28.426              Murmansk2           888.313
       153   03 Jun 2027 13:10:09.955   03 Jun 2027 13:11:15.677            65.722              Murmansk2          2053.813
       154   03 Jun 2027 13:23:59.739   03 Jun 2027 13:24:28.787            29.048                Anadyr2           907.750
       155   03 Jun 2027 14:15:49.229   03 Jun 2027 14:16:27.540            38.311               CapeTown          1197.219
       156   03 Jun 2027 14:17:36.552   03 Jun 2027 14:18:45.635            69.083               CapeTown          2158.844
       157   03 Jun 2027 14:20:00.208   03 Jun 2027 14:20:44.344            44.136               CapeTown          1379.250
       158   03 Jun 2027 14:47:50.446   03 Jun 2027 14:50:25.916           155.470              Murmansk2          4858.438
       159   03 Jun 2027 14:55:56.639   03 Jun 2027 14:57:07.661            71.022                Anadyr2          2219.438
       160   03 Jun 2027 14:58:27.625   03 Jun 2027 14:58:54.305            26.680                Anadyr1           833.750
       161   03 Jun 2027 14:58:56.133   03 Jun 2027 15:04:49.298           353.165               Magadan1         11036.406
       162   03 Jun 2027 15:05:28.798   03 Jun 2027 15:08:57.695           208.897               Magadan1          6528.031
       163   03 Jun 2027 16:34:09.307   03 Jun 2027 16:34:51.335            42.028               Magadan1          1313.375
       164   03 Jun 2027 16:43:03.080   03 Jun 2027 16:43:59.502            56.422               Magadan2          1763.188
       165   03 Jun 2027 17:27:04.435   03 Jun 2027 17:34:06.432           421.997            RioGallegos         13187.406
       166   03 Jun 2027 18:11:57.292   03 Jun 2027 18:15:13.856           196.564                Norilsk          6142.625
       167   03 Jun 2027 18:15:34.012   03 Jun 2027 18:17:33.007           118.995                Irkutsk          3718.594
       168   03 Jun 2027 18:18:06.022   03 Jun 2027 18:20:20.431           134.409                Irkutsk          4200.281
       169   03 Jun 2027 18:31:53.525   03 Jun 2027 18:35:40.500           226.975                Sumatra          7092.969
       170   03 Jun 2027 19:49:55.123   03 Jun 2027 19:52:02.607           127.484                Novosib          3983.875
       171   03 Jun 2027 19:58:33.913   03 Jun 2027 20:06:49.236           495.323                  Delhi         15478.844
       172   03 Jun 2027 21:24:15.936   03 Jun 2027 21:31:14.621           418.685              Murmansk2         13083.906
       173   03 Jun 2027 23:05:37.832   03 Jun 2027 23:07:00.518            82.686                 Moscow          2583.937
       174   03 Jun 2027 23:11:53.895   03 Jun 2027 23:12:51.239            57.344                 Moscow          1792.000
       175   03 Jun 2027 23:29:13.973   03 Jun 2027 23:31:22.965           128.992               CapeTown          4031.000
       176   03 Jun 2027 23:33:18.664   03 Jun 2027 23:35:31.332           132.668               CapeTown          4145.875
       177   04 Jun 2027 01:03:17.789   04 Jun 2027 01:04:24.846            67.057               CapeTown          2095.531
       178   04 Jun 2027 02:00:07.353   04 Jun 2027 02:01:24.765            77.412               Magadan2          2419.125
       179   04 Jun 2027 02:01:24.765   04 Jun 2027 02:01:36.255            11.490               Magadan1           359.063
       180   04 Jun 2027 02:01:55.643   04 Jun 2027 02:02:30.246            34.603               Magadan2          1081.344
       181   04 Jun 2027 02:08:00.368   04 Jun 2027 02:08:28.023            27.655                Norilsk           864.219
       182   04 Jun 2027 02:11:38.710   04 Jun 2027 02:12:19.515            40.805              Murmansk1          1275.156
       183   04 Jun 2027 02:12:52.787   04 Jun 2027 02:13:12.882            20.095              Murmansk2           627.969
       184   04 Jun 2027 02:13:22.987   04 Jun 2027 02:13:36.568            13.581              Murmansk2           424.406
       185   04 Jun 2027 02:15:11.268   04 Jun 2027 02:16:20.167            68.899                 Moscow          2153.094
       186   04 Jun 2027 02:18:58.074   04 Jun 2027 02:19:10.707            12.633                 Moscow           394.781
       187   04 Jun 2027 02:21:56.810   04 Jun 2027 02:22:17.001            20.191                 Moscow           630.969
       188   04 Jun 2027 03:38:55.453   04 Jun 2027 03:39:12.198            16.745               Magadan1           523.281
       189   04 Jun 2027 03:39:35.826   04 Jun 2027 03:41:00.087            84.261               Magadan1          2633.156
       190   04 Jun 2027 03:42:13.413   04 Jun 2027 03:48:07.158           353.745                Anadyr1         11054.531
       191   04 Jun 2027 04:29:18.128   04 Jun 2027 04:29:51.064            32.936            RioGallegos          1029.250
       192   04 Jun 2027 05:19:04.832   04 Jun 2027 05:19:55.693            50.861                Irkutsk          1589.406
       193   04 Jun 2027 05:20:51.204   04 Jun 2027 05:21:32.744            41.540                Irkutsk          1298.125
       194   04 Jun 2027 05:22:40.322   04 Jun 2027 05:23:38.721            58.399                Irkutsk          1824.969
       195   04 Jun 2027 06:55:45.063   04 Jun 2027 06:56:00.489            15.426                Novosib           482.063
       196   04 Jun 2027 06:58:16.253   04 Jun 2027 06:58:34.729            18.476                Novosib           577.375
       197   04 Jun 2027 06:59:35.531   04 Jun 2027 07:00:09.823            34.292                Norilsk          1071.625
       198   04 Jun 2027 08:13:43.933   04 Jun 2027 08:14:08.162            24.229                Sumatra           757.156
       199   04 Jun 2027 08:16:34.237   04 Jun 2027 08:17:15.985            41.748                Sumatra          1304.625
       200   04 Jun 2027 08:32:13.418   04 Jun 2027 08:32:19.075             5.657              Murmansk1           176.781
       201   04 Jun 2027 08:32:32.924   04 Jun 2027 08:32:42.094             9.170              Murmansk1           286.563
       202   04 Jun 2027 08:32:55.780   04 Jun 2027 08:32:59.656             3.876                Novosib           121.125
       203   04 Jun 2027 08:33:03.285   04 Jun 2027 08:33:04.532             1.247              Murmansk1            38.969
       204   04 Jun 2027 08:35:39.263   04 Jun 2027 08:35:42.127             2.864                Norilsk            89.500
       205   04 Jun 2027 09:57:21.693   04 Jun 2027 09:59:16.391           114.698                  Delhi          3584.313
       206   04 Jun 2027 10:00:17.762   04 Jun 2027 10:01:41.961            84.199                  Delhi          2631.219
       207   04 Jun 2027 10:08:47.213   04 Jun 2027 10:09:22.433            35.220              Murmansk1          1100.625
       208   04 Jun 2027 10:11:56.808   04 Jun 2027 10:12:00.325             3.517                Novosib           109.906
       209   04 Jun 2027 11:59:47.436   04 Jun 2027 12:01:02.713            75.277                Anadyr1          2352.406
       210   04 Jun 2027 13:18:33.164   04 Jun 2027 13:19:06.174            33.010                 Moscow          1031.562
       211   04 Jun 2027 13:19:44.893   04 Jun 2027 13:19:50.720             5.827              Murmansk1           182.094
       212   04 Jun 2027 13:20:07.689   04 Jun 2027 13:21:20.706            73.017              Murmansk1          2281.781
       213   04 Jun 2027 13:32:10.077   04 Jun 2027 13:33:43.301            93.224                Anadyr2          2913.250
       214   04 Jun 2027 13:33:43.301   04 Jun 2027 13:34:23.571            40.270                Anadyr1          1258.438
       215   04 Jun 2027 13:36:01.057   04 Jun 2027 13:36:28.841            27.784                Anadyr2           868.250
       216   04 Jun 2027 13:38:00.525   04 Jun 2027 13:39:06.464            65.939                Anadyr1          2060.594
       217   04 Jun 2027 13:39:21.889   04 Jun 2027 13:40:46.257            84.368                Anadyr1          2636.500
       218   04 Jun 2027 15:00:48.389   04 Jun 2027 15:03:11.797           143.408              Murmansk2          4481.500
       219   04 Jun 2027 15:07:57.803   04 Jun 2027 15:10:17.801           139.998                Anadyr1          4374.937
       220   04 Jun 2027 15:10:38.681   04 Jun 2027 15:13:09.902           151.221               Magadan2          4725.656
       221   04 Jun 2027 15:14:12.774   04 Jun 2027 15:17:09.249           176.475               Magadan1          5514.844
       222   04 Jun 2027 15:18:53.562   04 Jun 2027 15:21:27.278           153.716               Magadan2          4803.625
       223   04 Jun 2027 16:46:09.878   04 Jun 2027 16:48:25.431           135.553               Magadan2          4236.031
       224   04 Jun 2027 17:38:43.504   04 Jun 2027 17:45:07.556           384.052            RioGallegos         12001.625
       225   04 Jun 2027 18:22:59.203   04 Jun 2027 18:25:43.763           164.560                Norilsk          5142.500
       226   04 Jun 2027 18:26:07.454   04 Jun 2027 18:28:10.329           122.875                Irkutsk          3839.844
       227   04 Jun 2027 18:34:01.572   04 Jun 2027 18:36:43.078           161.506                Irkutsk          5047.063
       228   04 Jun 2027 18:40:05.630   04 Jun 2027 18:41:38.121            92.491                Sumatra          2890.344
       229   04 Jun 2027 18:43:49.224   04 Jun 2027 18:46:43.289           174.065                Sumatra          5439.531
       230   04 Jun 2027 20:01:48.844   04 Jun 2027 20:03:11.820            82.976                Novosib          2593.000
       231   04 Jun 2027 20:10:01.483   04 Jun 2027 20:17:02.036           420.553                  Delhi         13142.281
       232   04 Jun 2027 21:36:09.920   04 Jun 2027 21:41:49.479           339.559              Murmansk1         10611.219
       233   04 Jun 2027 21:42:08.961   04 Jun 2027 21:43:57.173           108.212              Murmansk2          3381.625
       234   04 Jun 2027 23:15:15.835   04 Jun 2027 23:16:30.454            74.619                 Moscow          2331.844
       235   04 Jun 2027 23:21:43.128   04 Jun 2027 23:22:01.624            18.496                 Moscow           578.000
       236   04 Jun 2027 23:40:00.919   04 Jun 2027 23:43:27.348           206.429               CapeTown          6450.906
       237   04 Jun 2027 23:45:34.299   04 Jun 2027 23:46:12.828            38.529               CapeTown          1204.031
       238   05 Jun 2027 00:50:57.916   05 Jun 2027 00:52:07.946            70.030                 Moscow          2188.438
       239   05 Jun 2027 00:55:09.074   05 Jun 2027 00:55:14.422             5.348                 Moscow           167.125
       240   05 Jun 2027 00:59:33.746   05 Jun 2027 00:59:49.089            15.343                 Moscow           479.469
       241   05 Jun 2027 01:15:11.635   05 Jun 2027 01:16:11.570            59.935               CapeTown          1872.969
       242   05 Jun 2027 01:19:04.384   05 Jun 2027 01:19:24.332            19.948               CapeTown           623.375
       243   05 Jun 2027 01:23:51.079   05 Jun 2027 01:24:16.381            25.302               CapeTown           790.688
       244   05 Jun 2027 02:11:52.779   05 Jun 2027 02:12:50.107            57.328                Anadyr2          1791.500
       245   05 Jun 2027 02:12:52.340   05 Jun 2027 02:14:29.844            97.504               Magadan2          3047.000
       246   05 Jun 2027 02:18:00.542   05 Jun 2027 02:18:07.218             6.676               Magadan2           208.625
       247   05 Jun 2027 02:19:34.022   05 Jun 2027 02:19:47.724            13.702               Magadan2           428.188
       248   05 Jun 2027 02:19:48.964   05 Jun 2027 02:19:56.969             8.005                Norilsk           250.156
       249   05 Jun 2027 02:21:14.784   05 Jun 2027 02:22:01.310            46.526               Magadan1          1453.937
       250   05 Jun 2027 02:23:39.064   05 Jun 2027 02:24:48.402            69.338              Murmansk1          2166.812
       251   05 Jun 2027 02:27:17.383   05 Jun 2027 02:27:53.171            35.788                 Moscow          1118.375
       252   05 Jun 2027 02:28:46.018   05 Jun 2027 02:29:31.228            45.210                 Moscow          1412.812
       253   05 Jun 2027 03:52:17.393   05 Jun 2027 03:52:30.312            12.919               Magadan2           403.719
       254   05 Jun 2027 03:54:21.226   05 Jun 2027 03:59:10.134           288.908                Anadyr1          9028.375
       255   05 Jun 2027 03:59:10.134   05 Jun 2027 03:59:31.775            21.641                Anadyr2           676.281
       256   05 Jun 2027 04:39:15.325   05 Jun 2027 04:40:53.178            97.853            RioGallegos          3057.906
       257   05 Jun 2027 04:42:06.946   05 Jun 2027 04:42:18.657            11.711            RioGallegos           365.969
       258   05 Jun 2027 05:31:57.359   05 Jun 2027 05:35:14.732           197.373                Irkutsk          6167.906
       259   05 Jun 2027 07:07:28.454   05 Jun 2027 07:07:32.557             4.103                Irkutsk           128.219
       260   05 Jun 2027 07:08:41.652   05 Jun 2027 07:09:48.536            66.884                Irkutsk          2090.125
       261   05 Jun 2027 07:09:55.363   05 Jun 2027 07:10:22.986            27.623                Irkutsk           863.219
       262   05 Jun 2027 07:11:57.439   05 Jun 2027 07:12:06.162             8.723                Norilsk           272.594
       263   05 Jun 2027 07:13:50.285   05 Jun 2027 07:14:09.150            18.865              Murmansk2           589.531
       264   05 Jun 2027 07:52:31.655   05 Jun 2027 07:53:03.646            31.991            RioGallegos           999.719
       265   05 Jun 2027 08:24:10.389   05 Jun 2027 08:25:25.421            75.032                Sumatra          2344.750
       266   05 Jun 2027 08:43:42.257   05 Jun 2027 08:43:49.048             6.791                Novosib           212.219
       267   05 Jun 2027 08:44:32.951   05 Jun 2027 08:44:43.371            10.420              Murmansk1           325.625
       268   05 Jun 2027 08:45:00.659   05 Jun 2027 08:45:11.244            10.585                Novosib           330.781
       269   05 Jun 2027 08:46:17.122   05 Jun 2027 08:46:20.131             3.009                Novosib            94.031
       270   05 Jun 2027 08:46:21.001   05 Jun 2027 08:46:26.610             5.609                Novosib           175.281
       271   05 Jun 2027 08:47:45.382   05 Jun 2027 08:49:12.061            86.679                Novosib          2708.719
       272   05 Jun 2027 10:07:51.641   05 Jun 2027 10:09:48.662           117.021                  Delhi          3656.906
       273   05 Jun 2027 10:20:48.175   05 Jun 2027 10:21:09.891            21.716              Murmansk1           678.625
       274   05 Jun 2027 10:24:40.156   05 Jun 2027 10:25:35.246            55.090                Norilsk          1721.562
       275   05 Jun 2027 12:10:20.424   05 Jun 2027 12:12:09.708           109.284                Anadyr1          3415.125
       276   05 Jun 2027 12:12:27.004   05 Jun 2027 12:12:56.399            29.395                Anadyr2           918.594
       277   05 Jun 2027 13:32:38.935   05 Jun 2027 13:33:21.756            42.821              Murmansk2          1338.156
       278   05 Jun 2027 13:34:03.753   05 Jun 2027 13:35:14.607            70.854              Murmansk2          2214.188
       279   05 Jun 2027 13:37:59.277   05 Jun 2027 13:38:11.754            12.477              Murmansk1           389.906
       280   05 Jun 2027 13:39:12.708   05 Jun 2027 13:39:19.290             6.582              Murmansk1           205.687
       281   05 Jun 2027 13:40:58.649   05 Jun 2027 13:41:23.874            25.225              Murmansk1           788.281
       282   05 Jun 2027 13:44:09.030   05 Jun 2027 13:45:38.458            89.428                Anadyr2          2794.625
       283   05 Jun 2027 13:46:37.796   05 Jun 2027 13:48:01.843            84.047                Anadyr1          2626.469
       284   05 Jun 2027 13:51:20.137   05 Jun 2027 13:51:29.795             9.658                Anadyr1           301.812
       285   05 Jun 2027 13:52:19.352   05 Jun 2027 13:52:59.503            40.151                Anadyr2          1254.719
       286   05 Jun 2027 13:54:48.688   05 Jun 2027 13:55:48.230            59.542                Anadyr1          1860.688
       287   05 Jun 2027 15:14:03.546   05 Jun 2027 15:16:06.563           123.017              Murmansk2          3844.281
       288   05 Jun 2027 15:19:59.072   05 Jun 2027 15:21:07.782            68.710                Anadyr1          2147.187
       289   05 Jun 2027 15:21:51.378   05 Jun 2027 15:22:48.304            56.926                Anadyr2          1778.938
       290   05 Jun 2027 15:23:58.174   05 Jun 2027 15:28:20.984           262.810               Magadan1          8212.813
       291   05 Jun 2027 15:29:25.889   05 Jun 2027 15:31:02.129            96.240               Magadan1          3007.500
       292   05 Jun 2027 15:33:50.463   05 Jun 2027 15:33:52.674             2.211               Magadan1            69.094
       293   05 Jun 2027 16:56:43.303   05 Jun 2027 16:57:01.859            18.556                Anadyr2           579.875
       294   05 Jun 2027 16:57:48.791   05 Jun 2027 16:58:21.745            32.954                Anadyr1          1029.812
       295   05 Jun 2027 16:59:21.821   05 Jun 2027 17:01:47.761           145.940                Norilsk          4560.625
       296   05 Jun 2027 17:07:12.506   05 Jun 2027 17:07:23.273            10.767               Magadan2           336.469
       297   05 Jun 2027 17:50:28.081   05 Jun 2027 17:56:33.637           365.556            RioGallegos         11423.625
       298   05 Jun 2027 18:35:08.170   05 Jun 2027 18:37:45.669           157.499                Norilsk          4921.844
       299   05 Jun 2027 18:37:59.336   05 Jun 2027 18:40:14.728           135.392                Irkutsk          4231.000
       300   05 Jun 2027 18:40:22.116   05 Jun 2027 18:44:27.277           245.161                Novosib          7661.281
       301   05 Jun 2027 18:51:47.251   05 Jun 2027 18:53:22.439            95.188                Sumatra          2974.625
       302   05 Jun 2027 18:55:41.616   05 Jun 2027 18:57:02.615            80.999                Sumatra          2531.219
       303   05 Jun 2027 20:21:38.123   05 Jun 2027 20:25:20.663           222.540                  Delhi          6954.375
       304   05 Jun 2027 20:26:19.348   05 Jun 2027 20:28:07.868           108.520                  Delhi          3391.250
       305   05 Jun 2027 21:48:05.865   05 Jun 2027 21:53:39.262           333.397              Murmansk2         10418.656
       306   05 Jun 2027 21:54:24.898   05 Jun 2027 21:56:35.690           130.792              Murmansk1          4087.250
       307   05 Jun 2027 21:58:06.994   05 Jun 2027 21:59:06.415            59.421                 Moscow          1856.906
       308   05 Jun 2027 23:27:12.287   05 Jun 2027 23:28:12.798            60.511                 Moscow          1890.969
       309   05 Jun 2027 23:31:24.408   05 Jun 2027 23:31:28.259             3.851                 Moscow           120.344
       310   05 Jun 2027 23:31:35.601   05 Jun 2027 23:31:56.341            20.740                 Moscow           648.125
       311   05 Jun 2027 23:35:59.353   05 Jun 2027 23:36:44.838            45.485                 Moscow          1421.406
       312   05 Jun 2027 23:39:13.333   05 Jun 2027 23:39:30.414            17.081                 Moscow           533.781
       313   05 Jun 2027 23:51:38.212   05 Jun 2027 23:53:48.261           130.049               CapeTown          4064.031
       314   05 Jun 2027 23:54:29.536   05 Jun 2027 23:55:22.008            52.472               CapeTown          1639.750
       315   05 Jun 2027 23:56:18.734   05 Jun 2027 23:56:28.028             9.294               CapeTown           290.438
       316   06 Jun 2027 00:57:46.759   06 Jun 2027 00:59:15.847            89.088               Magadan2          2784.000
       317   06 Jun 2027 00:59:46.799   06 Jun 2027 01:00:51.937            65.138              Murmansk2          2035.562
       318   06 Jun 2027 01:03:49.074   06 Jun 2027 01:04:07.206            18.132                 Moscow           566.625
       319   06 Jun 2027 01:07:16.532   06 Jun 2027 01:07:32.496            15.964                 Moscow           498.875
       320   06 Jun 2027 01:11:34.526   06 Jun 2027 01:12:17.735            43.209                 Moscow          1350.281
       321   06 Jun 2027 01:27:31.723   06 Jun 2027 01:28:03.384            31.661               CapeTown           989.406
       322   06 Jun 2027 01:31:07.210   06 Jun 2027 01:31:50.401            43.191               CapeTown          1349.719
       323   06 Jun 2027 01:36:28.702   06 Jun 2027 01:36:41.150            12.448               CapeTown           389.000
       324   06 Jun 2027 02:23:44.068   06 Jun 2027 02:26:15.670           151.602               Magadan1          4737.562
       325   06 Jun 2027 02:27:24.042   06 Jun 2027 02:27:35.253            11.211               Magadan1           350.344
       326   06 Jun 2027 02:28:33.852   06 Jun 2027 02:29:00.635            26.783               Magadan1           836.969
       327   06 Jun 2027 02:31:35.147   06 Jun 2027 02:31:54.876            19.729                Norilsk           616.531
       328   06 Jun 2027 02:34:14.972   06 Jun 2027 02:34:32.223            17.251                Norilsk           539.094
       329   06 Jun 2027 02:35:39.130   06 Jun 2027 02:36:49.697            70.567              Murmansk1          2205.219
       330   06 Jun 2027 02:38:05.718   06 Jun 2027 02:38:20.449            14.731              Murmansk1           460.344
       331   06 Jun 2027 02:39:24.192   06 Jun 2027 02:40:12.189            47.997                 Moscow          1499.906
       332   06 Jun 2027 02:43:48.158   06 Jun 2027 02:44:13.988            25.830                 Moscow           807.187
       333   06 Jun 2027 03:17:42.528   06 Jun 2027 03:19:00.971            78.443            RioGallegos          2451.344
       334   06 Jun 2027 03:20:14.326   06 Jun 2027 03:21:15.253            60.927            RioGallegos          1903.969
       335   06 Jun 2027 04:05:57.451   06 Jun 2027 04:06:45.996            48.545               Magadan1          1517.031
       336   06 Jun 2027 04:06:47.895   06 Jun 2027 04:08:48.730           120.835               Magadan1          3776.094
       337   06 Jun 2027 04:09:09.213   06 Jun 2027 04:10:33.815            84.602               Magadan2          2643.813
       338   06 Jun 2027 04:11:11.551   06 Jun 2027 04:11:32.234            20.683                Anadyr1           646.344
       339   06 Jun 2027 04:48:00.265   06 Jun 2027 04:48:05.176             4.911            RioGallegos           153.469
       340   06 Jun 2027 04:49:35.491   06 Jun 2027 04:52:04.874           149.383            RioGallegos          4668.219
       341   06 Jun 2027 05:43:25.165   06 Jun 2027 05:47:12.301           227.136               Magadan1          7098.000
       342   06 Jun 2027 05:47:14.857   06 Jun 2027 05:47:49.235            34.378                Irkutsk          1074.313
       343   06 Jun 2027 07:19:33.641   06 Jun 2027 07:20:56.010            82.369                Irkutsk          2574.031
       344   06 Jun 2027 07:21:20.258   06 Jun 2027 07:21:44.321            24.063                Irkutsk           751.969
       345   06 Jun 2027 07:22:05.096   06 Jun 2027 07:22:07.687             2.591                Irkutsk            80.969
       346   06 Jun 2027 07:24:41.200   06 Jun 2027 07:24:41.691             0.491                Novosib            15.344
       347   06 Jun 2027 07:25:15.689   06 Jun 2027 07:25:40.024            24.335              Murmansk1           760.469
       348   06 Jun 2027 08:03:38.860   06 Jun 2027 08:04:23.042            44.182            RioGallegos          1380.687
       349   06 Jun 2027 08:35:16.657   06 Jun 2027 08:36:54.584            97.927                Sumatra          3060.219
       350   06 Jun 2027 08:56:19.015   06 Jun 2027 08:56:30.811            11.796              Murmansk1           368.625
       351   06 Jun 2027 08:56:32.587   06 Jun 2027 08:56:37.783             5.196              Murmansk1           162.375
       352   06 Jun 2027 08:56:59.529   06 Jun 2027 08:57:31.295            31.766              Murmansk1           992.687
       353   06 Jun 2027 08:58:00.181   06 Jun 2027 08:58:15.561            15.380                Novosib           480.625
       354   06 Jun 2027 08:58:20.189   06 Jun 2027 08:58:42.951            22.762                Novosib           711.312
       355   06 Jun 2027 08:59:29.023   06 Jun 2027 08:59:50.648            21.625                Novosib           675.781
       356   06 Jun 2027 10:21:01.278   06 Jun 2027 10:23:05.949           124.671                  Delhi          3895.969
       357   06 Jun 2027 10:23:48.958   06 Jun 2027 10:24:11.323            22.365                  Delhi           698.906
       358   06 Jun 2027 10:37:50.425   06 Jun 2027 10:38:07.906            17.481              Murmansk1           546.281
       359   06 Jun 2027 12:06:03.352   06 Jun 2027 12:06:49.626            46.274              Murmansk1          1446.063
       360   06 Jun 2027 12:07:10.740   06 Jun 2027 12:07:27.807            17.067              Murmansk1           533.344
       361   06 Jun 2027 12:08:06.407   06 Jun 2027 12:08:23.308            16.901              Murmansk1           528.156
       362   06 Jun 2027 12:08:47.112   06 Jun 2027 12:09:36.474            49.362              Murmansk1          1542.562
       363   06 Jun 2027 12:13:11.915   06 Jun 2027 12:13:59.360            47.445              Murmansk2          1482.656
       364   06 Jun 2027 12:20:54.022   06 Jun 2027 12:24:09.877           195.855                Anadyr2          6120.469
       365   06 Jun 2027 13:44:42.536   06 Jun 2027 13:45:23.010            40.474              Murmansk2          1264.812
       366   06 Jun 2027 13:46:01.550   06 Jun 2027 13:47:11.150            69.600              Murmansk2          2175.000
       367   06 Jun 2027 13:56:08.539   06 Jun 2027 13:57:32.988            84.449                Anadyr2          2639.031
       368   06 Jun 2027 13:58:12.276   06 Jun 2027 14:00:03.757           111.481                Anadyr1          3483.781
       369   06 Jun 2027 14:00:40.762   06 Jun 2027 14:04:58.739           257.977               Magadan2          8061.781
       370   06 Jun 2027 15:32:00.394   06 Jun 2027 15:32:16.050            15.656                Anadyr1           489.250
       371   06 Jun 2027 15:32:16.050   06 Jun 2027 15:34:06.221           110.171                Anadyr2          3442.844
       372   06 Jun 2027 15:34:29.783   06 Jun 2027 15:36:22.785           113.002               Magadan1          3531.313
       373   06 Jun 2027 15:36:54.216   06 Jun 2027 15:37:46.877            52.661               Magadan1          1645.656
       374   06 Jun 2027 15:38:15.989   06 Jun 2027 15:38:44.374            28.385               Magadan2           887.031
       375   06 Jun 2027 15:41:29.498   06 Jun 2027 15:43:04.589            95.091               Magadan2          2971.594
       376   06 Jun 2027 17:10:12.128   06 Jun 2027 17:12:02.814           110.686               Magadan1          3458.938
       377   06 Jun 2027 17:13:48.707   06 Jun 2027 17:15:12.276            83.569                Norilsk          2611.531
       378   06 Jun 2027 17:17:59.550   06 Jun 2027 17:19:12.301            72.751                Irkutsk          2273.469
       379   06 Jun 2027 18:02:16.506   06 Jun 2027 18:04:17.941           121.435            RioGallegos          3794.844
       380   06 Jun 2027 18:05:43.220   06 Jun 2027 18:05:55.887            12.667            RioGallegos           395.844
       381   06 Jun 2027 18:11:43.882   06 Jun 2027 18:12:45.798            61.916            RioGallegos          1934.875
       382   06 Jun 2027 18:45:46.186   06 Jun 2027 18:47:34.045           107.859                Norilsk          3370.594
       383   06 Jun 2027 18:48:12.668   06 Jun 2027 18:50:22.775           130.107                Norilsk          4065.844
       384   06 Jun 2027 18:50:45.980   06 Jun 2027 18:52:12.276            86.296                Irkutsk          2696.750
       385   06 Jun 2027 18:53:39.273   06 Jun 2027 18:57:50.210           250.937                Novosib          7841.781
       386   06 Jun 2027 19:06:13.996   06 Jun 2027 19:06:29.621            15.625                Sumatra           488.281
       387   06 Jun 2027 19:15:05.904   06 Jun 2027 19:16:10.353            64.449                Sumatra          2014.031
       388   06 Jun 2027 20:25:40.927   06 Jun 2027 20:26:38.045            57.118                Novosib          1784.938
       389   06 Jun 2027 20:30:40.756   06 Jun 2027 20:32:18.649            97.893                Novosib          3059.156
       390   06 Jun 2027 20:33:21.247   06 Jun 2027 20:37:17.726           236.479                  Delhi          7389.969
       391   06 Jun 2027 22:00:03.201   06 Jun 2027 22:01:57.548           114.347              Murmansk2          3573.344
       392   06 Jun 2027 22:02:14.946   06 Jun 2027 22:05:32.464           197.518              Murmansk1          6172.437
       393   06 Jun 2027 22:05:35.306   06 Jun 2027 22:12:07.241           391.935                 Moscow         12247.969
       394   06 Jun 2027 23:43:28.661   06 Jun 2027 23:43:43.771            15.110                 Moscow           472.187
       395   07 Jun 2027 00:03:21.196   07 Jun 2027 00:05:59.374           158.178               CapeTown          4943.063
       396   07 Jun 2027 00:07:21.606   07 Jun 2027 00:07:22.211             0.605               CapeTown            18.906
       397   07 Jun 2027 00:12:45.933   07 Jun 2027 00:14:45.109           119.176               CapeTown          3724.250
       398   07 Jun 2027 01:11:48.272   07 Jun 2027 01:12:37.868            49.596              Murmansk2          1549.875
       399   07 Jun 2027 01:15:03.503   07 Jun 2027 01:16:07.243            63.740                 Moscow          1991.875
       400   07 Jun 2027 01:21:23.439   07 Jun 2027 01:21:23.909             0.470              Murmansk1            14.688
       401   07 Jun 2027 01:21:41.413   07 Jun 2027 01:23:32.476           111.063                 Moscow          3470.719
       402   07 Jun 2027 01:49:14.525   07 Jun 2027 01:49:18.537             4.012               CapeTown           125.375
       403   07 Jun 2027 02:35:35.627   07 Jun 2027 02:37:53.563           137.936               Magadan1          4310.500
       404   07 Jun 2027 02:37:58.638   07 Jun 2027 02:38:31.944            33.306               Magadan2          1040.813
       405   07 Jun 2027 02:41:03.052   07 Jun 2027 02:41:21.644            18.592               Magadan2           581.000
       406   07 Jun 2027 02:43:24.787   07 Jun 2027 02:43:52.266            27.479                Norilsk           858.719
       407   07 Jun 2027 02:45:27.261   07 Jun 2027 02:45:53.967            26.706                Norilsk           834.563
       408   07 Jun 2027 02:47:38.868   07 Jun 2027 02:48:23.323            44.455              Murmansk2          1389.219
       409   07 Jun 2027 02:48:38.348   07 Jun 2027 02:49:30.027            51.679              Murmansk1          1614.969
       410   07 Jun 2027 02:51:31.834   07 Jun 2027 02:52:23.502            51.668                 Moscow          1614.625
       411   07 Jun 2027 02:59:46.237   07 Jun 2027 02:59:55.124             8.887                 Moscow           277.719
       412   07 Jun 2027 03:28:32.994   07 Jun 2027 03:30:24.232           111.238            RioGallegos          3476.187
       413   07 Jun 2027 03:31:11.599   07 Jun 2027 03:31:48.596            36.997            RioGallegos          1156.156
       414   07 Jun 2027 03:33:08.241   07 Jun 2027 03:33:52.189            43.948            RioGallegos          1373.375
       415   07 Jun 2027 04:16:06.118   07 Jun 2027 04:17:31.019            84.901                Anadyr2          2653.156
       416   07 Jun 2027 04:17:52.575   07 Jun 2027 04:19:22.614            90.039                Anadyr2          2813.719
       417   07 Jun 2027 04:19:33.726   07 Jun 2027 04:19:49.581            15.855                Anadyr1           495.469
       418   07 Jun 2027 04:19:52.006   07 Jun 2027 04:22:48.432           176.426               Magadan2          5513.313
       419   07 Jun 2027 04:59:39.823   07 Jun 2027 05:01:38.736           118.913            RioGallegos          3716.031
       420   07 Jun 2027 05:55:24.391   07 Jun 2027 05:57:28.225           123.834                Irkutsk          3869.812
       421   07 Jun 2027 05:57:30.500   07 Jun 2027 05:58:48.243            77.743                Novosib          2429.469
       422   07 Jun 2027 05:59:40.239   07 Jun 2027 05:59:53.313            13.074                Irkutsk           408.562
       423   07 Jun 2027 06:00:35.809   07 Jun 2027 06:00:46.838            11.029                Novosib           344.656
       424   07 Jun 2027 07:31:33.832   07 Jun 2027 07:32:50.913            77.081                Irkutsk          2408.781
       425   07 Jun 2027 07:33:12.071   07 Jun 2027 07:33:42.133            30.062                Irkutsk           939.437
       426   07 Jun 2027 07:33:46.879   07 Jun 2027 07:34:13.495            26.616                Irkutsk           831.750
       427   07 Jun 2027 07:35:08.554   07 Jun 2027 07:35:32.234            23.680                Irkutsk           740.000
       428   07 Jun 2027 07:36:00.553   07 Jun 2027 07:36:32.080            31.527                Norilsk           985.219
       429   07 Jun 2027 07:39:09.797   07 Jun 2027 07:39:42.944            33.147              Murmansk1          1035.844
       430   07 Jun 2027 08:16:24.954   07 Jun 2027 08:16:29.149             4.195            RioGallegos           131.094
       431   07 Jun 2027 08:20:20.784   07 Jun 2027 08:21:04.276            43.492            RioGallegos          1359.125
       432   07 Jun 2027 08:48:26.532   07 Jun 2027 08:48:32.522             5.990                Sumatra           187.187
       433   07 Jun 2027 08:49:31.896   07 Jun 2027 08:50:43.915            72.019                Sumatra          2250.594
       434   07 Jun 2027 09:09:34.041   07 Jun 2027 09:09:42.890             8.849                Novosib           276.531
       435   07 Jun 2027 09:11:10.613   07 Jun 2027 09:11:55.484            44.871                Novosib          1402.219
       436   07 Jun 2027 10:35:24.349   07 Jun 2027 10:36:16.133            51.784                  Delhi          1618.250
       437   07 Jun 2027 10:36:19.291   07 Jun 2027 10:36:55.461            36.170                  Delhi          1130.313
       438   07 Jun 2027 10:49:15.924   07 Jun 2027 10:49:38.241            22.317              Murmansk2           697.406
       439   07 Jun 2027 12:18:17.507   07 Jun 2027 12:18:37.461            19.954              Murmansk2           623.563
       440   07 Jun 2027 12:19:18.947   07 Jun 2027 12:19:32.056            13.109              Murmansk2           409.656
       441   07 Jun 2027 12:20:06.397   07 Jun 2027 12:20:48.644            42.247              Murmansk2          1320.219
       442   07 Jun 2027 12:26:05.961   07 Jun 2027 12:27:29.612            83.651              Murmansk2          2614.094
       443   07 Jun 2027 12:27:43.655   07 Jun 2027 12:28:01.370            17.715              Murmansk2           553.594
       444   07 Jun 2027 12:36:10.329   07 Jun 2027 12:41:22.829           312.500                Anadyr1          9765.625
       445   07 Jun 2027 13:57:15.600   07 Jun 2027 13:57:52.457            36.857              Murmansk1          1151.781
       446   07 Jun 2027 13:57:59.896   07 Jun 2027 13:58:27.970            28.074              Murmansk2           877.312
       447   07 Jun 2027 13:59:22.656   07 Jun 2027 13:59:31.583             8.927              Murmansk2           278.969
       448   07 Jun 2027 14:00:44.926   07 Jun 2027 14:01:00.889            15.963              Murmansk1           498.844
       449   07 Jun 2027 14:01:12.132   07 Jun 2027 14:01:24.233            12.101              Murmansk2           378.156
       450   07 Jun 2027 14:03:14.874   07 Jun 2027 14:03:22.441             7.567              Murmansk2           236.469
       451   07 Jun 2027 14:03:50.059   07 Jun 2027 14:04:12.580            22.521              Murmansk2           703.781
       452   07 Jun 2027 14:08:08.487   07 Jun 2027 14:09:29.018            80.531                Anadyr1          2516.594
       453   07 Jun 2027 14:09:54.678   07 Jun 2027 14:11:28.617            93.939                Anadyr2          2935.594
       454   07 Jun 2027 14:12:01.757   07 Jun 2027 14:18:13.999           372.242               Magadan2         11632.563
       455   07 Jun 2027 15:46:27.098   07 Jun 2027 15:47:19.152            52.054               Magadan2          1626.687
       456   07 Jun 2027 15:47:19.152   07 Jun 2027 15:48:43.713            84.561               Magadan1          2642.531
       457   07 Jun 2027 15:50:17.959   07 Jun 2027 15:51:44.350            86.391               Magadan1          2699.719
       458   07 Jun 2027 15:53:10.460   07 Jun 2027 15:55:07.151           116.691               Magadan2          3646.594
       459   07 Jun 2027 17:22:13.719   07 Jun 2027 17:23:23.082            69.363               Magadan2          2167.594
       460   07 Jun 2027 17:25:49.945   07 Jun 2027 17:27:18.916            88.971                Norilsk          2780.344
       461   07 Jun 2027 17:28:15.416   07 Jun 2027 17:33:30.042           314.626                Irkutsk          9832.063
       462   07 Jun 2027 19:01:49.427   07 Jun 2027 19:02:55.548            66.121                Norilsk          2066.281
       463   07 Jun 2027 19:03:03.852   07 Jun 2027 19:10:09.731           425.879                Novosib         13308.719
       464   07 Jun 2027 19:17:43.397   07 Jun 2027 19:18:34.436            51.039                Sumatra          1594.969
       465   07 Jun 2027 19:25:28.075   07 Jun 2027 19:26:32.125            64.050                Sumatra          2001.562
       466   07 Jun 2027 20:40:06.317   07 Jun 2027 20:40:30.721            24.404                Novosib           762.625
       467   07 Jun 2027 20:41:58.044   07 Jun 2027 20:42:14.847            16.803                Novosib           525.094
       468   07 Jun 2027 20:45:09.432   07 Jun 2027 20:48:52.308           222.876                  Delhi          6964.875
       469   07 Jun 2027 20:54:37.584   07 Jun 2027 20:55:34.198            56.614                  Delhi          1769.187
       470   07 Jun 2027 22:12:01.581   07 Jun 2027 22:17:27.875           326.294              Murmansk2         10196.688
       471   07 Jun 2027 22:17:33.716   07 Jun 2027 22:22:46.497           312.781                 Moscow          9774.406
       472   07 Jun 2027 22:44:33.926   07 Jun 2027 22:48:51.019           257.093               CapeTown          8034.156
       473   08 Jun 2027 00:24:53.069   08 Jun 2027 00:26:03.103            70.034               CapeTown          2188.563
       474   08 Jun 2027 01:23:49.635   08 Jun 2027 01:24:35.935            46.300              Murmansk1          1446.875
       475   08 Jun 2027 01:26:03.163   08 Jun 2027 01:27:02.664            59.501              Murmansk1          1859.406
       476   08 Jun 2027 01:27:07.015   08 Jun 2027 01:27:31.213            24.198                 Moscow           756.188
       477   08 Jun 2027 01:28:07.968   08 Jun 2027 01:29:04.753            56.785                 Moscow          1774.531
       478   08 Jun 2027 01:37:26.878   08 Jun 2027 01:37:43.512            16.634                 Moscow           519.812
       479   08 Jun 2027 01:52:35.351   08 Jun 2027 01:53:06.348            30.997               CapeTown           968.656
       480   08 Jun 2027 01:55:13.922   08 Jun 2027 01:56:25.073            71.151               CapeTown          2223.469
       481   08 Jun 2027 02:47:29.390   08 Jun 2027 02:49:58.825           149.435               Magadan1          4669.844
       482   08 Jun 2027 02:51:29.070   08 Jun 2027 02:51:40.694            11.624               Magadan2           363.250
