uniorb/output/strategy_4/Drop/Drop_KinoSat_111101.txt

KinoSat_111101
-------------------------
    Access    *     Start Time (UTCG)     *     Stop Time (UTCG)  *   Duration (s)        *       Station  *  Data (Mbytes)
         1   01 Jun 2027 04:02:58.843   01 Jun 2027 04:03:28.971            30.128               Magadan1           941.500
         2   01 Jun 2027 04:03:46.191   01 Jun 2027 04:04:47.319            61.128                Anadyr1          1910.250
         3   01 Jun 2027 05:40:07.460   01 Jun 2027 05:40:23.503            16.043               Magadan2           501.344
         4   01 Jun 2027 05:40:23.503   01 Jun 2027 05:43:00.149           156.646               Magadan1          4895.188
         5   01 Jun 2027 05:43:00.149   01 Jun 2027 05:44:15.401            75.252               Magadan2          2351.625
         6   01 Jun 2027 07:13:30.260   01 Jun 2027 07:13:58.880            28.620               Magadan1           894.375
         7   01 Jun 2027 07:14:02.138   01 Jun 2027 07:15:37.272            95.134                Anadyr2          2972.937
         8   01 Jun 2027 07:15:53.140   01 Jun 2027 07:16:03.513            10.373                Norilsk           324.156
         9   01 Jun 2027 07:16:06.375   01 Jun 2027 07:17:01.543            55.168                Novosib          1724.000
        10   01 Jun 2027 07:17:03.685   01 Jun 2027 07:17:54.797            51.112                Norilsk          1597.250
        11   01 Jun 2027 07:17:58.497   01 Jun 2027 07:18:36.567            38.070                Norilsk          1189.687
        12   01 Jun 2027 07:18:36.706   01 Jun 2027 07:18:52.902            16.196                Irkutsk           506.125
        13   01 Jun 2027 07:18:58.029   01 Jun 2027 07:19:16.411            18.382                Anadyr2           574.438
        14   01 Jun 2027 07:19:22.045   01 Jun 2027 07:20:22.385            60.340                Novosib          1885.625
        15   01 Jun 2027 07:21:50.716   01 Jun 2027 07:21:57.645             6.929                Norilsk           216.531
        16   01 Jun 2027 07:22:24.522   01 Jun 2027 07:22:43.464            18.942              Murmansk2           591.938
        17   01 Jun 2027 07:55:04.575   01 Jun 2027 07:57:18.586           134.011            RioGallegos          4187.844
        18   01 Jun 2027 08:51:14.257   01 Jun 2027 08:53:54.050           159.793               Magadan1          4993.531
        19   01 Jun 2027 08:53:58.342   01 Jun 2027 08:55:09.159            70.817                Norilsk          2213.031
        20   01 Jun 2027 08:55:19.046   01 Jun 2027 08:55:57.553            38.507                Irkutsk          1203.344
        21   01 Jun 2027 08:56:45.710   01 Jun 2027 08:57:00.901            15.191              Murmansk1           474.719
        22   01 Jun 2027 09:31:00.041   01 Jun 2027 09:32:31.035            90.994            RioGallegos          2843.563
        23   01 Jun 2027 09:33:42.828   01 Jun 2027 09:35:03.667            80.839            RioGallegos          2526.219
        24   01 Jun 2027 10:05:30.411   01 Jun 2027 10:07:54.531           144.120                Sumatra          4503.750
        25   01 Jun 2027 10:16:09.511   01 Jun 2027 10:16:17.709             8.198                  Delhi           256.188
        26   01 Jun 2027 10:27:35.537   01 Jun 2027 10:29:02.162            86.625                Novosib          2707.031
        27   01 Jun 2027 10:29:24.192   01 Jun 2027 10:29:26.869             2.677              Murmansk2            83.656
        28   01 Jun 2027 10:29:28.749   01 Jun 2027 10:32:45.566           196.817                 Moscow          6150.531
        29   01 Jun 2027 11:49:59.437   01 Jun 2027 11:50:59.899            60.462                  Delhi          1889.437
        30   01 Jun 2027 11:51:43.074   01 Jun 2027 11:52:38.612            55.538                  Delhi          1735.562
        31   01 Jun 2027 11:54:47.803   01 Jun 2027 11:54:58.514            10.711                  Delhi           334.719
        32   01 Jun 2027 13:44:47.939   01 Jun 2027 13:46:42.014           114.075                Norilsk          3564.844
        33   01 Jun 2027 14:51:39.116   01 Jun 2027 14:52:58.642            79.526               CapeTown          2485.188
        34   01 Jun 2027 14:58:41.886   01 Jun 2027 14:59:35.118            53.232               CapeTown          1663.500
        35   01 Jun 2027 15:18:47.012   01 Jun 2027 15:18:59.991            12.979              Murmansk1           405.594
        36   01 Jun 2027 15:19:07.835   01 Jun 2027 15:19:42.660            34.825              Murmansk1          1088.281
        37   01 Jun 2027 15:22:48.001   01 Jun 2027 15:23:19.971            31.970              Murmansk1           999.062
        38   01 Jun 2027 15:24:36.494   01 Jun 2027 15:24:37.857             1.363              Murmansk2            42.594
        39   01 Jun 2027 15:28:29.164   01 Jun 2027 15:30:35.299           126.135                Anadyr1          3941.719
        40   01 Jun 2027 15:33:51.943   01 Jun 2027 15:34:24.867            32.924                Anadyr1          1028.875
        41   01 Jun 2027 16:29:36.032   01 Jun 2027 16:31:29.405           113.373               CapeTown          3542.906
        42   01 Jun 2027 16:54:36.805   01 Jun 2027 16:56:00.796            83.991              Murmansk2          2624.719
        43   01 Jun 2027 16:57:29.023   01 Jun 2027 16:58:22.674            53.651              Murmansk1          1676.594
        44   01 Jun 2027 17:04:07.397   01 Jun 2027 17:05:21.168            73.771                Anadyr1          2305.344
        45   01 Jun 2027 17:07:15.741   01 Jun 2027 17:09:32.766           137.025               Magadan1          4282.031
        46   01 Jun 2027 18:40:02.758   01 Jun 2027 18:44:05.994           243.236                Anadyr2          7601.125
        47   01 Jun 2027 18:44:17.009   01 Jun 2027 18:45:21.670            64.661               Magadan2          2020.656
        48   01 Jun 2027 18:45:34.220   01 Jun 2027 18:45:54.869            20.649               Magadan2           645.281
        49   01 Jun 2027 18:47:49.767   01 Jun 2027 18:48:48.328            58.561               Magadan2          1830.031
        50   01 Jun 2027 18:51:29.468   01 Jun 2027 18:51:32.013             2.545               Magadan1            79.531
        51   01 Jun 2027 18:52:46.322   01 Jun 2027 18:53:30.634            44.312               Magadan2          1384.750
        52   01 Jun 2027 19:36:20.706   01 Jun 2027 19:38:49.700           148.994            RioGallegos          4656.062
        53   01 Jun 2027 20:15:51.784   01 Jun 2027 20:17:28.540            96.756                Anadyr2          3023.625
        54   01 Jun 2027 20:17:40.931   01 Jun 2027 20:17:55.108            14.177                Anadyr2           443.031
        55   01 Jun 2027 20:18:16.243   01 Jun 2027 20:18:54.260            38.017               Magadan1          1188.031
        56   01 Jun 2027 20:19:46.618   01 Jun 2027 20:20:45.778            59.160               Magadan1          1848.750
        57   01 Jun 2027 20:21:09.481   01 Jun 2027 20:21:49.387            39.906                Norilsk          1247.063
        58   01 Jun 2027 20:22:59.255   01 Jun 2027 20:24:11.389            72.134                Irkutsk          2254.188
        59   01 Jun 2027 20:25:15.639   01 Jun 2027 20:26:09.377            53.738                Irkutsk          1679.312
        60   01 Jun 2027 20:27:10.365   01 Jun 2027 20:28:00.018            49.653                Irkutsk          1551.656
        61   01 Jun 2027 20:37:59.353   01 Jun 2027 20:40:14.384           135.031                Sumatra          4219.719
        62   01 Jun 2027 21:53:47.200   01 Jun 2027 21:54:10.151            22.951                Norilsk           717.219
        63   01 Jun 2027 21:54:43.473   01 Jun 2027 21:54:55.645            12.172               Magadan2           380.375
        64   01 Jun 2027 21:54:55.818   01 Jun 2027 21:55:45.591            49.773                Norilsk          1555.406
        65   01 Jun 2027 21:57:42.161   01 Jun 2027 21:59:07.946            85.785                Irkutsk          2680.781
        66   01 Jun 2027 21:59:13.425   01 Jun 2027 21:59:45.531            32.106                Novosib          1003.313
        67   01 Jun 2027 22:02:01.013   01 Jun 2027 22:02:12.839            11.826                Novosib           369.563
        68   01 Jun 2027 22:03:28.940   01 Jun 2027 22:04:52.450            83.510                Novosib          2609.688
        69   01 Jun 2027 22:08:31.027   01 Jun 2027 22:10:08.311            97.284                  Delhi          3040.125
        70   01 Jun 2027 22:12:22.313   01 Jun 2027 22:13:14.628            52.315                  Delhi          1634.844
        71   01 Jun 2027 23:27:28.164   01 Jun 2027 23:27:48.777            20.613                Anadyr2           644.156
        72   01 Jun 2027 23:29:47.259   01 Jun 2027 23:30:12.477            25.218                Norilsk           788.062
        73   01 Jun 2027 23:30:20.988   01 Jun 2027 23:31:43.198            82.210               Magadan1          2569.062
        74   01 Jun 2027 23:32:02.160   01 Jun 2027 23:32:53.746            51.586               Magadan1          1612.062
        75   01 Jun 2027 23:33:17.141   01 Jun 2027 23:37:13.854           236.713              Murmansk2          7397.281
        76   01 Jun 2027 23:44:22.127   01 Jun 2027 23:44:39.581            17.454                  Delhi           545.438
        77   01 Jun 2027 23:49:37.773   01 Jun 2027 23:49:45.452             7.679                  Delhi           239.969
        78   02 Jun 2027 00:22:47.348   02 Jun 2027 00:23:32.287            44.939            RioGallegos          1404.344
        79   02 Jun 2027 00:25:12.648   02 Jun 2027 00:25:45.722            33.074            RioGallegos          1033.563
        80   02 Jun 2027 00:58:34.506   02 Jun 2027 00:58:56.665            22.159                Anadyr1           692.469
        81   02 Jun 2027 00:58:59.216   02 Jun 2027 00:59:48.391            49.175                Anadyr2          1536.719
        82   02 Jun 2027 01:00:28.388   02 Jun 2027 01:01:15.583            47.195                Anadyr2          1474.844
        83   02 Jun 2027 01:04:37.353   02 Jun 2027 01:06:32.475           115.122               Magadan2          3597.562
        84   02 Jun 2027 01:06:48.113   02 Jun 2027 01:08:22.171            94.058               Magadan2          2939.312
        85   02 Jun 2027 01:08:33.700   02 Jun 2027 01:09:15.190            41.490              Murmansk1          1296.562
        86   02 Jun 2027 01:09:40.377   02 Jun 2027 01:09:53.694            13.317                Novosib           416.156
        87   02 Jun 2027 01:11:05.974   02 Jun 2027 01:11:51.354            45.380                Irkutsk          1418.125
        88   02 Jun 2027 01:12:10.373   02 Jun 2027 01:12:19.160             8.787                 Moscow           274.594
        89   02 Jun 2027 01:15:09.172   02 Jun 2027 01:15:40.865            31.693                Irkutsk           990.406
        90   02 Jun 2027 01:17:22.996   02 Jun 2027 01:17:43.897            20.901                 Moscow           653.156
        91   02 Jun 2027 01:24:41.671   02 Jun 2027 01:25:10.618            28.947                  Delhi           904.594
        92   02 Jun 2027 01:37:55.604   02 Jun 2027 01:38:56.461            60.857               CapeTown          1901.781
        93   02 Jun 2027 01:46:03.036   02 Jun 2027 01:46:34.842            31.806               CapeTown           993.938
        94   02 Jun 2027 02:32:24.067   02 Jun 2027 02:34:59.273           155.206                Anadyr1          4850.187
        95   02 Jun 2027 02:36:16.709   02 Jun 2027 02:36:32.975            16.266               Magadan2           508.313
        96   02 Jun 2027 02:36:51.324   02 Jun 2027 02:37:04.499            13.175               Magadan2           411.719
        97   02 Jun 2027 02:37:35.198   02 Jun 2027 02:38:29.373            54.175               Magadan2          1692.969
        98   02 Jun 2027 02:43:53.138   02 Jun 2027 02:45:34.091           100.953              Murmansk1          3154.781
        99   02 Jun 2027 02:47:01.621   02 Jun 2027 02:47:45.799            44.178                Novosib          1380.562
       100   02 Jun 2027 02:49:39.332   02 Jun 2027 02:49:39.848             0.516                Novosib            16.125
       101   02 Jun 2027 02:53:51.078   02 Jun 2027 02:54:02.257            11.179                 Moscow           349.344
       102   02 Jun 2027 02:59:56.614   02 Jun 2027 03:00:00.625             4.011                 Moscow           125.344
       103   02 Jun 2027 03:10:59.242   02 Jun 2027 03:11:25.420            26.178               CapeTown           818.062
       104   02 Jun 2027 03:11:56.333   02 Jun 2027 03:13:37.438           101.105               CapeTown          3159.531
       105   02 Jun 2027 04:14:19.653   02 Jun 2027 04:15:26.660            67.007               Magadan1          2093.969
       106   02 Jun 2027 04:15:26.660   02 Jun 2027 04:15:32.087             5.427               Magadan2           169.594
       107   02 Jun 2027 04:15:37.772   02 Jun 2027 04:16:48.853            71.081                Anadyr1          2221.281
       108   02 Jun 2027 04:16:48.853   02 Jun 2027 04:16:54.313             5.460                Anadyr2           170.625
       109   02 Jun 2027 04:17:19.052   02 Jun 2027 04:18:05.064            46.012               Magadan1          1437.875
       110   02 Jun 2027 04:18:37.951   02 Jun 2027 04:18:58.213            20.262               Magadan1           633.187
       111   02 Jun 2027 05:52:34.651   02 Jun 2027 05:53:46.084            71.433               Magadan2          2232.281
       112   02 Jun 2027 05:53:46.084   02 Jun 2027 05:54:24.176            38.092               Magadan1          1190.375
       113   02 Jun 2027 05:54:47.085   02 Jun 2027 05:55:03.531            16.446                Anadyr2           513.937
       114   02 Jun 2027 07:26:51.768   02 Jun 2027 07:27:40.859            49.091                Anadyr1          1534.094
       115   02 Jun 2027 07:27:52.360   02 Jun 2027 07:28:04.276            11.916                Novosib           372.375
       116   02 Jun 2027 07:28:15.013   02 Jun 2027 07:28:45.463            30.450               Magadan2           951.562
       117   02 Jun 2027 07:29:01.037   02 Jun 2027 07:30:27.327            86.290                Irkutsk          2696.562
       118   02 Jun 2027 07:30:28.144   02 Jun 2027 07:30:48.365            20.221                Anadyr2           631.906
       119   02 Jun 2027 07:30:54.822   02 Jun 2027 07:32:36.471           101.649                Novosib          3176.531
       120   02 Jun 2027 08:06:54.450   02 Jun 2027 08:09:04.144           129.694            RioGallegos          4052.937
       121   02 Jun 2027 08:43:33.727   02 Jun 2027 08:44:00.896            27.169                Sumatra           849.031
       122   02 Jun 2027 09:04:41.092   02 Jun 2027 09:05:37.013            55.921                Irkutsk          1747.531
       123   02 Jun 2027 09:06:07.585   02 Jun 2027 09:07:59.338           111.753                Irkutsk          3492.281
       124   02 Jun 2027 09:08:36.941   02 Jun 2027 09:09:21.194            44.253                Novosib          1382.906
       125   02 Jun 2027 09:43:17.750   02 Jun 2027 09:43:54.858            37.108            RioGallegos          1159.625
       126   02 Jun 2027 09:46:53.588   02 Jun 2027 09:47:50.077            56.489            RioGallegos          1765.281
       127   02 Jun 2027 09:48:05.325   02 Jun 2027 09:48:16.415            11.090            RioGallegos           346.562
       128   02 Jun 2027 10:17:39.973   02 Jun 2027 10:18:24.558            44.585                Sumatra          1393.281
       129   02 Jun 2027 10:19:40.368   02 Jun 2027 10:20:26.200            45.832                Sumatra          1432.250
       130   02 Jun 2027 10:22:26.023   02 Jun 2027 10:22:28.230             2.207                Sumatra            68.969
       131   02 Jun 2027 10:26:36.492   02 Jun 2027 10:28:29.024           112.532                  Delhi          3516.625
       132   02 Jun 2027 10:39:43.146   02 Jun 2027 10:39:49.224             6.078                Irkutsk           189.937
       133   02 Jun 2027 10:40:18.601   02 Jun 2027 10:41:05.110            46.509                Irkutsk          1453.406
       134   02 Jun 2027 10:41:20.048   02 Jun 2027 10:41:21.087             1.039                Novosib            32.469
       135   02 Jun 2027 10:41:36.497   02 Jun 2027 10:41:37.155             0.658                Novosib            20.563
       136   02 Jun 2027 10:41:43.549   02 Jun 2027 10:41:44.534             0.985                Norilsk            30.781
       137   02 Jun 2027 10:41:51.803   02 Jun 2027 10:42:06.790            14.987                Norilsk           468.344
       138   02 Jun 2027 10:42:11.773   02 Jun 2027 10:42:41.971            30.198                Novosib           943.688
       139   02 Jun 2027 10:43:32.312   02 Jun 2027 10:43:33.301             0.989                Novosib            30.906
       140   02 Jun 2027 10:43:40.534   02 Jun 2027 10:44:16.981            36.447                Novosib          1138.969
       141   02 Jun 2027 12:02:19.576   02 Jun 2027 12:04:27.634           128.058                  Delhi          4001.813
       142   02 Jun 2027 12:06:51.686   02 Jun 2027 12:07:24.047            32.361                  Delhi          1011.281
       143   02 Jun 2027 12:10:32.776   02 Jun 2027 12:10:57.477            24.701                Novosib           771.906
       144   02 Jun 2027 12:13:59.114   02 Jun 2027 12:14:30.666            31.552                Novosib           986.000
       145   02 Jun 2027 12:17:32.210   02 Jun 2027 12:17:51.422            19.212                Norilsk           600.375
       146   02 Jun 2027 12:21:02.975   02 Jun 2027 12:21:21.013            18.038                Norilsk           563.688
       147   02 Jun 2027 13:46:08.004   02 Jun 2027 13:49:21.639           193.635                 Moscow          6051.094
       148   02 Jun 2027 13:49:39.222   02 Jun 2027 13:51:43.882           124.660              Murmansk2          3895.625
       149   02 Jun 2027 13:51:43.882   02 Jun 2027 13:52:35.438            51.556              Murmansk1          1611.125
       150   02 Jun 2027 13:55:11.574   02 Jun 2027 13:56:14.637            63.063                Norilsk          1970.719
       151   02 Jun 2027 14:07:19.734   02 Jun 2027 14:07:33.146            13.412                Anadyr1           419.125
       152   02 Jun 2027 14:07:33.146   02 Jun 2027 14:08:13.872            40.726                Anadyr2          1272.687
       153   02 Jun 2027 15:00:02.836   02 Jun 2027 15:02:05.849           123.013               CapeTown          3844.156
       154   02 Jun 2027 15:03:34.197   02 Jun 2027 15:03:53.298            19.101               CapeTown           596.906
       155   02 Jun 2027 15:10:39.543   02 Jun 2027 15:11:27.756            48.213               CapeTown          1506.656
       156   02 Jun 2027 15:27:14.189   02 Jun 2027 15:27:54.535            40.346              Murmansk1          1260.812
       157   02 Jun 2027 15:31:35.842   02 Jun 2027 15:32:09.650            33.808              Murmansk2          1056.500
       158   02 Jun 2027 15:36:36.283   02 Jun 2027 15:36:54.169            17.886              Murmansk1           558.937
       159   02 Jun 2027 15:40:25.935   02 Jun 2027 15:42:52.086           146.151                Anadyr2          4567.219
       160   02 Jun 2027 15:44:48.087   02 Jun 2027 15:44:57.232             9.145                Anadyr1           285.781
       161   02 Jun 2027 15:45:00.386   02 Jun 2027 15:45:03.069             2.683                Anadyr1            83.844
       162   02 Jun 2027 15:45:22.378   02 Jun 2027 15:45:39.633            17.255                Anadyr1           539.219
       163   02 Jun 2027 15:46:05.034   02 Jun 2027 15:46:46.523            41.489                Anadyr1          1296.531
       164   02 Jun 2027 17:07:21.954   02 Jun 2027 17:09:34.856           132.902              Murmansk1          4153.187
       165   02 Jun 2027 17:10:20.218   02 Jun 2027 17:10:55.787            35.569              Murmansk1          1111.531
       166   02 Jun 2027 17:16:08.434   02 Jun 2027 17:17:46.083            97.649                Anadyr1          3051.531
       167   02 Jun 2027 17:19:04.528   02 Jun 2027 17:20:50.242           105.714               Magadan1          3303.562
       168   02 Jun 2027 17:23:56.376   02 Jun 2027 17:24:07.505            11.129               Magadan2           347.781
       169   02 Jun 2027 17:24:07.505   02 Jun 2027 17:24:45.841            38.336               Magadan1          1198.000
       170   02 Jun 2027 18:52:04.073   02 Jun 2027 18:55:45.000           220.927                Anadyr2          6903.969
       171   02 Jun 2027 18:55:55.818   02 Jun 2027 18:57:16.149            80.331               Magadan1          2510.344
       172   02 Jun 2027 18:57:27.241   02 Jun 2027 18:58:26.666            59.425               Magadan1          1857.031
       173   02 Jun 2027 19:47:38.710   02 Jun 2027 19:50:34.506           175.796            RioGallegos          5493.625
       174   02 Jun 2027 19:52:38.471   02 Jun 2027 19:54:03.984            85.513            RioGallegos          2672.281
       175   02 Jun 2027 20:30:00.033   02 Jun 2027 20:31:12.090            72.057                Norilsk          2251.781
       176   02 Jun 2027 20:31:47.992   02 Jun 2027 20:32:13.802            25.810               Magadan2           806.563
       177   02 Jun 2027 20:32:16.272   02 Jun 2027 20:33:42.025            85.753                Norilsk          2679.781
       178   02 Jun 2027 20:34:55.581   02 Jun 2027 20:35:05.521             9.940                Irkutsk           310.625
       179   02 Jun 2027 20:35:25.346   02 Jun 2027 20:36:10.299            44.953                Irkutsk          1404.781
       180   02 Jun 2027 20:37:52.718   02 Jun 2027 20:38:04.482            11.764                Irkutsk           367.625
       181   02 Jun 2027 20:49:12.191   02 Jun 2027 20:51:54.480           162.289                Sumatra          5071.531
       182   02 Jun 2027 20:54:16.303   02 Jun 2027 20:55:19.112            62.809                Sumatra          1962.781
       183   02 Jun 2027 22:05:48.917   02 Jun 2027 22:07:07.309            78.392                Norilsk          2449.750
       184   02 Jun 2027 22:07:30.386   02 Jun 2027 22:07:46.276            15.890                Norilsk           496.563
       185   02 Jun 2027 22:09:41.907   02 Jun 2027 22:10:52.264            70.357                Irkutsk          2198.656
       186   02 Jun 2027 22:10:55.715   02 Jun 2027 22:11:21.462            25.747                Novosib           804.594
       187   02 Jun 2027 22:11:30.991   02 Jun 2027 22:13:28.179           117.188                Novosib          3662.125
       188   02 Jun 2027 22:19:21.631   02 Jun 2027 22:20:21.197            59.566                  Delhi          1861.438
       189   02 Jun 2027 23:36:59.504   02 Jun 2027 23:37:12.643            13.139                Anadyr1           410.594
       190   02 Jun 2027 23:37:12.643   02 Jun 2027 23:37:55.068            42.425                Anadyr2          1325.781
       191   02 Jun 2027 23:38:12.917   02 Jun 2027 23:39:13.055            60.138                Anadyr1          1879.312
       192   02 Jun 2027 23:41:49.139   02 Jun 2027 23:42:22.842            33.703                Norilsk          1053.219
       193   02 Jun 2027 23:42:30.722   02 Jun 2027 23:43:36.523            65.801               Magadan2          2056.281
       194   02 Jun 2027 23:44:33.976   02 Jun 2027 23:46:26.766           112.790              Murmansk2          3524.688
       195   02 Jun 2027 23:47:22.520   02 Jun 2027 23:48:09.775            47.255              Murmansk1          1476.719
       196   02 Jun 2027 23:49:13.201   02 Jun 2027 23:50:36.327            83.126              Murmansk2          2597.688
       197   03 Jun 2027 00:04:45.734   03 Jun 2027 00:05:40.394            54.660                  Delhi          1708.125
       198   03 Jun 2027 00:40:07.275   03 Jun 2027 00:40:19.169            11.894            RioGallegos           371.688
       199   03 Jun 2027 01:10:16.715   03 Jun 2027 01:10:49.326            32.611                Anadyr2          1019.094
       200   03 Jun 2027 01:11:23.256   03 Jun 2027 01:11:49.129            25.873                Anadyr1           808.531
       201   03 Jun 2027 01:12:29.730   03 Jun 2027 01:13:35.919            66.189                Anadyr2          2068.406
       202   03 Jun 2027 01:16:08.022   03 Jun 2027 01:16:19.041            11.019                Anadyr1           344.344
       203   03 Jun 2027 01:16:22.729   03 Jun 2027 01:18:08.570           105.841               Magadan1          3307.531
       204   03 Jun 2027 01:18:08.570   03 Jun 2027 01:18:15.728             7.158               Magadan2           223.688
       205   03 Jun 2027 01:19:55.251   03 Jun 2027 01:20:21.766            26.515               Magadan1           828.594
       206   03 Jun 2027 01:20:33.844   03 Jun 2027 01:21:16.578            42.734              Murmansk1          1335.437
       207   03 Jun 2027 01:21:45.227   03 Jun 2027 01:23:01.271            76.044                Novosib          2376.375
       208   03 Jun 2027 01:23:37.182   03 Jun 2027 01:23:49.051            11.869                Irkutsk           370.906
       209   03 Jun 2027 01:23:55.939   03 Jun 2027 01:24:16.984            21.045                 Moscow           657.656
       210   03 Jun 2027 01:27:14.856   03 Jun 2027 01:27:23.451             8.595                 Moscow           268.594
       211   03 Jun 2027 01:29:22.958   03 Jun 2027 01:29:40.660            17.702                 Moscow           553.187
       212   03 Jun 2027 01:32:12.724   03 Jun 2027 01:32:25.546            12.822                  Delhi           400.688
       213   03 Jun 2027 01:35:40.332   03 Jun 2027 01:36:00.093            19.761                  Delhi           617.531
       214   03 Jun 2027 01:49:11.453   03 Jun 2027 01:49:54.157            42.704               CapeTown          1334.500
       215   03 Jun 2027 01:52:41.162   03 Jun 2027 01:52:44.338             3.176               CapeTown            99.250
       216   03 Jun 2027 01:53:48.509   03 Jun 2027 01:54:08.424            19.915               CapeTown           622.344
       217   03 Jun 2027 02:44:15.246   03 Jun 2027 02:46:14.858           119.612                Anadyr1          3737.875
       218   03 Jun 2027 02:46:48.425   03 Jun 2027 02:47:03.751            15.326                Anadyr2           478.938
       219   03 Jun 2027 02:47:47.261   03 Jun 2027 02:49:02.664            75.403               Magadan2          2356.344
       220   03 Jun 2027 02:51:56.005   03 Jun 2027 02:51:57.435             1.430               Magadan1            44.688
       221   03 Jun 2027 02:53:16.597   03 Jun 2027 02:53:35.320            18.723                Norilsk           585.094
       222   03 Jun 2027 02:54:09.333   03 Jun 2027 02:54:43.279            33.946                Norilsk          1060.812
       223   03 Jun 2027 02:55:54.947   03 Jun 2027 02:57:35.840           100.893              Murmansk1          3152.906
       224   03 Jun 2027 03:00:00.849   03 Jun 2027 03:00:14.111            13.262                 Moscow           414.437
       225   03 Jun 2027 03:02:07.225   03 Jun 2027 03:03:34.949            87.724              Murmansk1          2741.375
       226   03 Jun 2027 03:03:40.814   03 Jun 2027 03:04:23.617            42.803              Murmansk1          1337.594
       227   03 Jun 2027 03:04:51.182   03 Jun 2027 03:07:06.422           135.240                 Moscow          4226.250
       228   03 Jun 2027 03:07:10.662   03 Jun 2027 03:07:26.786            16.124              Murmansk2           503.875
       229   03 Jun 2027 03:07:26.786   03 Jun 2027 03:08:00.145            33.359              Murmansk1          1042.469
       230   03 Jun 2027 03:23:03.519   03 Jun 2027 03:25:21.030           137.511               CapeTown          4297.219
       231   03 Jun 2027 04:26:32.210   03 Jun 2027 04:27:47.494            75.284               Magadan1          2352.625
       232   03 Jun 2027 04:28:09.158   03 Jun 2027 04:30:19.746           130.588               Magadan1          4080.875
       233   03 Jun 2027 04:30:19.746   03 Jun 2027 04:30:39.992            20.246               Magadan2           632.688
       234   03 Jun 2027 06:04:12.004   03 Jun 2027 06:04:40.345            28.341                Anadyr2           885.656
       235   03 Jun 2027 06:05:09.150   03 Jun 2027 06:06:48.176            99.026                Anadyr2          3094.563
       236   03 Jun 2027 07:37:23.999   03 Jun 2027 07:37:41.365            17.366               Magadan2           542.688
       237   03 Jun 2027 07:37:53.510   03 Jun 2027 07:38:05.205            11.695               Magadan1           365.469
       238   03 Jun 2027 07:38:13.886   03 Jun 2027 07:38:35.967            22.081               Magadan1           690.031
       239   03 Jun 2027 07:38:41.862   03 Jun 2027 07:39:16.288            34.426               Magadan1          1075.813
       240   03 Jun 2027 07:40:13.076   03 Jun 2027 07:40:29.149            16.073               Magadan1           502.281
       241   03 Jun 2027 07:40:44.977   03 Jun 2027 07:41:09.423            24.446               Magadan2           763.937
       242   03 Jun 2027 07:41:14.419   03 Jun 2027 07:42:25.055            70.636               Magadan1          2207.375
       243   03 Jun 2027 07:42:35.674   03 Jun 2027 07:42:55.255            19.581               Magadan1           611.906
       244   03 Jun 2027 07:43:26.567   03 Jun 2027 07:43:44.864            18.297               Magadan1           571.781
       245   03 Jun 2027 07:47:09.326   03 Jun 2027 07:47:31.596            22.270              Murmansk2           695.937
       246   03 Jun 2027 08:18:47.510   03 Jun 2027 08:19:38.608            51.098            RioGallegos          1596.813
       247   03 Jun 2027 08:25:52.696   03 Jun 2027 08:26:02.377             9.681            RioGallegos           302.531
       248   03 Jun 2027 08:54:53.920   03 Jun 2027 08:56:12.190            78.270                Sumatra          2445.938
       249   03 Jun 2027 09:15:01.793   03 Jun 2027 09:15:35.649            33.856                Novosib          1058.000
       250   03 Jun 2027 09:16:53.799   03 Jun 2027 09:16:54.896             1.097                Novosib            34.281
       251   03 Jun 2027 09:18:01.226   03 Jun 2027 09:18:03.377             2.151                Irkutsk            67.219
       252   03 Jun 2027 09:18:56.460   03 Jun 2027 09:19:20.613            24.153                Irkutsk           754.781
       253   03 Jun 2027 09:19:43.186   03 Jun 2027 09:20:00.290            17.104                Irkutsk           534.500
       254   03 Jun 2027 09:55:39.986   03 Jun 2027 09:56:06.457            26.471            RioGallegos           827.219
       255   03 Jun 2027 09:56:20.587   03 Jun 2027 09:56:39.473            18.886            RioGallegos           590.188
       256   03 Jun 2027 10:03:53.729   03 Jun 2027 10:04:51.878            58.149            RioGallegos          1817.156
       257   03 Jun 2027 10:29:55.995   03 Jun 2027 10:30:20.249            24.254                Sumatra           757.937
       258   03 Jun 2027 10:40:43.500   03 Jun 2027 10:40:55.294            11.794                  Delhi           368.563
       259   03 Jun 2027 10:51:43.397   03 Jun 2027 10:52:23.637            40.240                Irkutsk          1257.500
       260   03 Jun 2027 10:52:45.811   03 Jun 2027 10:52:59.338            13.527                Novosib           422.719
       261   03 Jun 2027 10:53:00.447   03 Jun 2027 10:54:00.194            59.747                Irkutsk          1867.094
       262   03 Jun 2027 10:54:06.000   03 Jun 2027 10:55:05.340            59.340                Irkutsk          1854.375
       263   03 Jun 2027 10:55:16.754   03 Jun 2027 10:55:21.119             4.365                Norilsk           136.406
       264   03 Jun 2027 12:14:47.484   03 Jun 2027 12:18:15.865           208.381                  Delhi          6511.906
       265   03 Jun 2027 12:23:10.006   03 Jun 2027 12:23:15.123             5.117                Novosib           159.906
       266   03 Jun 2027 12:24:08.106   03 Jun 2027 12:24:37.598            29.492                Novosib           921.625
       267   03 Jun 2027 12:26:31.587   03 Jun 2027 12:26:46.731            15.144                Novosib           473.250
       268   03 Jun 2027 12:26:53.061   03 Jun 2027 12:27:18.391            25.330                Norilsk           791.562
       269   03 Jun 2027 12:31:20.461   03 Jun 2027 12:31:57.699            37.238                Norilsk          1163.687
       270   03 Jun 2027 13:58:15.044   03 Jun 2027 14:00:08.516           113.472                 Moscow          3546.000
       271   03 Jun 2027 14:01:23.533   03 Jun 2027 14:01:27.672             4.139                 Moscow           129.344
       272   03 Jun 2027 14:01:46.537   03 Jun 2027 14:05:49.370           242.833              Murmansk2          7588.531
       273   03 Jun 2027 14:06:02.709   03 Jun 2027 14:06:04.345             1.636              Murmansk1            51.125
       274   03 Jun 2027 14:06:52.062   03 Jun 2027 14:07:11.259            19.197              Murmansk2           599.906
       275   03 Jun 2027 14:07:19.245   03 Jun 2027 14:07:24.510             5.265              Murmansk2           164.531
       276   03 Jun 2027 14:08:12.884   03 Jun 2027 14:09:24.097            71.213                Norilsk          2225.406
       277   03 Jun 2027 14:10:59.913   03 Jun 2027 14:11:17.886            17.973                Norilsk           561.656
       278   03 Jun 2027 14:18:02.140   03 Jun 2027 14:18:53.800            51.660                Anadyr2          1614.375
       279   03 Jun 2027 14:19:23.897   03 Jun 2027 14:20:15.540            51.643                Anadyr1          1613.844
       280   03 Jun 2027 14:20:20.697   03 Jun 2027 14:20:59.622            38.925                Anadyr1          1216.406
       281   03 Jun 2027 15:37:15.341   03 Jun 2027 15:37:40.144            24.803                 Moscow           775.094
       282   03 Jun 2027 15:39:37.380   03 Jun 2027 15:40:04.461            27.081              Murmansk2           846.281
       283   03 Jun 2027 15:40:52.039   03 Jun 2027 15:42:49.809           117.770              Murmansk1          3680.312
       284   03 Jun 2027 15:52:23.721   03 Jun 2027 15:54:43.362           139.641                Anadyr2          4363.781
       285   03 Jun 2027 16:49:04.088   03 Jun 2027 16:49:31.346            27.258               CapeTown           851.813
       286   03 Jun 2027 16:54:26.418   03 Jun 2027 16:55:10.893            44.475               CapeTown          1389.844
       287   03 Jun 2027 17:20:12.936   03 Jun 2027 17:22:16.353           123.417              Murmansk1          3856.781
       288   03 Jun 2027 17:22:57.773   03 Jun 2027 17:24:33.698            95.925              Murmansk1          2997.656
       289   03 Jun 2027 17:28:09.648   03 Jun 2027 17:28:23.259            13.611                Anadyr2           425.344
       290   03 Jun 2027 17:28:45.134   03 Jun 2027 17:28:46.919             1.785                Anadyr1            55.781
       291   03 Jun 2027 17:28:51.113   03 Jun 2027 17:28:58.449             7.336                Anadyr2           229.250
       292   03 Jun 2027 17:30:56.159   03 Jun 2027 17:32:50.137           113.978               Magadan1          3561.813
       293   03 Jun 2027 17:35:52.721   03 Jun 2027 17:35:57.372             4.651               Magadan1           145.344
       294   03 Jun 2027 19:04:05.256   03 Jun 2027 19:06:03.280           118.024                Anadyr1          3688.250
       295   03 Jun 2027 19:06:18.133   03 Jun 2027 19:07:58.119            99.986                Anadyr2          3124.562
       296   03 Jun 2027 19:08:18.208   03 Jun 2027 19:10:17.365           119.157               Magadan2          3723.656
       297   03 Jun 2027 19:10:17.365   03 Jun 2027 19:10:47.400            30.035               Magadan1           938.594
       298   03 Jun 2027 19:15:07.645   03 Jun 2027 19:16:06.212            58.567               Magadan2          1830.219
       299   03 Jun 2027 19:59:11.497   03 Jun 2027 20:02:15.177           183.680            RioGallegos          5740.000
       300   03 Jun 2027 20:39:49.221   03 Jun 2027 20:40:20.397            31.176                Anadyr1           974.250
       301   03 Jun 2027 20:41:58.671   03 Jun 2027 20:42:18.313            19.642                Norilsk           613.813
       302   03 Jun 2027 20:42:21.222   03 Jun 2027 20:44:52.483           151.261               Magadan1          4726.906
       303   03 Jun 2027 20:45:09.882   03 Jun 2027 20:45:49.555            39.673                Norilsk          1239.781
       304   03 Jun 2027 20:46:28.024   03 Jun 2027 20:47:05.742            37.718                Irkutsk          1178.688
       305   03 Jun 2027 20:48:10.217   03 Jun 2027 20:49:50.872           100.655                Irkutsk          3145.469
       306   03 Jun 2027 21:00:38.370   03 Jun 2027 21:02:20.283           101.913                Sumatra          3184.781
       307   03 Jun 2027 21:04:43.536   03 Jun 2027 21:06:18.151            94.615                Sumatra          2956.719
       308   03 Jun 2027 22:19:17.074   03 Jun 2027 22:19:34.913            17.839                Norilsk           557.469
       309   03 Jun 2027 22:20:52.527   03 Jun 2027 22:21:02.712            10.185               Magadan2           318.281
       310   03 Jun 2027 22:21:31.211   03 Jun 2027 22:22:24.089            52.878               Magadan2          1652.437
       311   03 Jun 2027 22:22:38.708   03 Jun 2027 22:23:26.928            48.220                Novosib          1506.875
       312   03 Jun 2027 22:23:57.315   03 Jun 2027 22:25:27.821            90.506                Novosib          2828.312
       313   03 Jun 2027 22:30:38.550   03 Jun 2027 22:31:50.046            71.496                  Delhi          2234.250
       314   03 Jun 2027 22:32:53.135   03 Jun 2027 22:33:28.184            35.049                  Delhi          1095.281
       315   03 Jun 2027 22:35:21.657   03 Jun 2027 22:35:55.162            33.505                  Delhi          1047.031
       316   03 Jun 2027 23:50:59.130   03 Jun 2027 23:51:10.982            11.852                Anadyr1           370.375
       317   03 Jun 2027 23:51:29.615   03 Jun 2027 23:51:30.115             0.500                Anadyr1            15.625
       318   03 Jun 2027 23:51:44.147   03 Jun 2027 23:51:53.365             9.218                Anadyr1           288.062
       319   03 Jun 2027 23:51:59.142   03 Jun 2027 23:52:29.743            30.601                Anadyr2           956.281
       320   03 Jun 2027 23:52:59.960   03 Jun 2027 23:53:57.540            57.580                Anadyr2          1799.375
       321   03 Jun 2027 23:54:16.879   03 Jun 2027 23:55:20.158            63.279               Magadan1          1977.469
       322   03 Jun 2027 23:56:26.081   03 Jun 2027 23:58:27.266           121.185              Murmansk1          3787.031
       323   03 Jun 2027 23:59:05.113   04 Jun 2027 00:00:07.007            61.894              Murmansk2          1934.187
       324   04 Jun 2027 00:01:17.717   04 Jun 2027 00:01:45.896            28.179              Murmansk1           880.594
       325   04 Jun 2027 00:09:15.550   04 Jun 2027 00:09:22.677             7.127                  Delhi           222.719
       326   04 Jun 2027 00:10:27.856   04 Jun 2027 00:10:36.758             8.902                  Delhi           278.187
       327   04 Jun 2027 00:13:54.933   04 Jun 2027 00:14:12.445            17.512                  Delhi           547.250
       328   04 Jun 2027 00:16:38.010   04 Jun 2027 00:17:32.808            54.798                  Delhi          1712.438
       329   04 Jun 2027 00:50:32.511   04 Jun 2027 00:51:17.203            44.692            RioGallegos          1396.625
       330   04 Jun 2027 01:21:59.639   04 Jun 2027 01:22:35.166            35.527                Anadyr2          1110.219
       331   04 Jun 2027 01:23:19.573   04 Jun 2027 01:23:49.602            30.029                Anadyr2           938.406
       332   04 Jun 2027 01:24:31.071   04 Jun 2027 01:25:23.506            52.435                Anadyr2          1638.594
       333   04 Jun 2027 01:27:40.167   04 Jun 2027 01:28:32.623            52.456               Magadan2          1639.250
       334   04 Jun 2027 01:28:32.623   04 Jun 2027 01:28:55.272            22.649               Magadan1           707.781
       335   04 Jun 2027 01:29:18.374   04 Jun 2027 01:29:43.682            25.308               Magadan1           790.875
       336   04 Jun 2027 01:30:33.814   04 Jun 2027 01:31:26.878            53.064               Magadan1          1658.250
       337   04 Jun 2027 01:31:59.368   04 Jun 2027 01:33:05.364            65.996              Murmansk1          2062.375
       338   04 Jun 2027 01:33:17.827   04 Jun 2027 01:33:48.863            31.036              Murmansk2           969.875
       339   04 Jun 2027 01:35:14.922   04 Jun 2027 01:37:05.431           110.509                Novosib          3453.406
       340   04 Jun 2027 02:02:13.033   04 Jun 2027 02:02:39.809            26.776               CapeTown           836.750
       341   04 Jun 2027 02:07:00.985   04 Jun 2027 02:07:27.805            26.820               CapeTown           838.125
       342   04 Jun 2027 02:56:07.974   04 Jun 2027 02:58:38.916           150.942                Anadyr1          4716.938
       343   04 Jun 2027 02:59:19.054   04 Jun 2027 02:59:27.037             7.983               Magadan1           249.469
       344   04 Jun 2027 03:00:08.152   04 Jun 2027 03:00:30.035            21.883               Magadan1           683.844
       345   04 Jun 2027 03:17:11.529   04 Jun 2027 03:18:27.757            76.228                 Moscow          2382.125
       346   04 Jun 2027 03:35:13.072   04 Jun 2027 03:36:35.009            81.937               CapeTown          2560.531
       347   04 Jun 2027 03:36:41.838   04 Jun 2027 03:37:09.902            28.064               CapeTown           877.000
       348   04 Jun 2027 04:31:58.173   04 Jun 2027 04:35:25.561           207.388                Anadyr1          6480.875
       349   04 Jun 2027 04:35:29.900   04 Jun 2027 04:35:43.635            13.735                Anadyr1           429.219
       350   04 Jun 2027 04:36:35.017   04 Jun 2027 04:36:46.186            11.169               Magadan1           349.031
       351   04 Jun 2027 04:38:20.296   04 Jun 2027 04:39:19.191            58.895               Magadan2          1840.469
       352   04 Jun 2027 04:40:04.044   04 Jun 2027 04:43:23.381           199.337               Magadan1          6229.281
       353   04 Jun 2027 06:15:32.603   04 Jun 2027 06:16:39.343            66.740                Anadyr2          2085.625
       354   04 Jun 2027 06:17:06.273   04 Jun 2027 06:17:27.539            21.266               Magadan1           664.562
       355   04 Jun 2027 06:17:39.790   04 Jun 2027 06:17:52.610            12.820                Anadyr2           400.625
       356   04 Jun 2027 06:18:27.033   04 Jun 2027 06:18:29.598             2.565               Magadan2            80.156
       357   04 Jun 2027 06:18:49.013   04 Jun 2027 06:19:06.613            17.600                Anadyr1           550.000
       358   04 Jun 2027 06:19:41.468   04 Jun 2027 06:20:19.997            38.529                Anadyr1          1204.031
       359   04 Jun 2027 07:49:42.572   04 Jun 2027 07:50:27.808            45.236               Magadan1          1413.625
       360   04 Jun 2027 07:50:39.379   04 Jun 2027 07:50:43.149             3.770               Magadan1           117.813
       361   04 Jun 2027 07:50:57.238   04 Jun 2027 07:51:26.401            29.163               Magadan2           911.344
       362   04 Jun 2027 07:52:10.161   04 Jun 2027 07:52:14.892             4.731               Magadan1           147.844
       363   04 Jun 2027 07:52:14.892   04 Jun 2027 07:52:41.334            26.442               Magadan2           826.312
       364   04 Jun 2027 07:52:47.483   04 Jun 2027 07:53:14.549            27.066               Magadan1           845.812
       365   04 Jun 2027 07:54:25.252   04 Jun 2027 07:54:38.888            13.636               Magadan1           426.125
       366   04 Jun 2027 07:55:28.252   04 Jun 2027 07:55:35.888             7.636               Magadan1           238.625
       367   04 Jun 2027 07:55:43.709   04 Jun 2027 07:55:43.839             0.130               Magadan1             4.063
       368   04 Jun 2027 07:56:33.510   04 Jun 2027 07:56:47.463            13.953                Norilsk           436.031
       369   04 Jun 2027 08:30:43.767   04 Jun 2027 08:31:47.786            64.019            RioGallegos          2000.594
       370   04 Jun 2027 09:06:25.162   04 Jun 2027 09:07:03.182            38.020                Sumatra          1188.125
       371   04 Jun 2027 09:10:34.632   04 Jun 2027 09:12:17.548           102.916                Sumatra          3216.125
       372   04 Jun 2027 09:27:13.335   04 Jun 2027 09:27:34.483            21.148                Novosib           660.875
       373   04 Jun 2027 09:28:49.641   04 Jun 2027 09:29:57.476            67.835                Irkutsk          2119.844
       374   04 Jun 2027 09:30:06.653   04 Jun 2027 09:30:30.503            23.850                Irkutsk           745.313
       375   04 Jun 2027 09:30:45.403   04 Jun 2027 09:31:13.321            27.918                Novosib           872.437
       376   04 Jun 2027 09:31:52.704   04 Jun 2027 09:32:00.319             7.615                Irkutsk           237.969
       377   04 Jun 2027 10:08:07.322   04 Jun 2027 10:08:49.014            41.692            RioGallegos          1302.875
       378   04 Jun 2027 10:09:25.480   04 Jun 2027 10:10:06.635            41.155            RioGallegos          1286.094
       379   04 Jun 2027 10:42:19.698   04 Jun 2027 10:43:30.148            70.450                Sumatra          2201.563
       380   04 Jun 2027 10:52:53.858   04 Jun 2027 10:53:25.763            31.905                  Delhi           997.031
       381   04 Jun 2027 11:03:39.188   04 Jun 2027 11:03:50.903            11.715                Novosib           366.094
       382   04 Jun 2027 11:04:37.397   04 Jun 2027 11:04:43.402             6.005                Novosib           187.656
       383   04 Jun 2027 11:05:16.163   04 Jun 2027 11:05:18.352             2.189                Norilsk            68.406
       384   04 Jun 2027 11:05:40.875   04 Jun 2027 11:06:11.656            30.781                Novosib           961.906
       385   04 Jun 2027 11:06:41.107   04 Jun 2027 11:07:08.827            27.720                Novosib           866.250
       386   04 Jun 2027 11:07:21.251   04 Jun 2027 11:07:37.110            15.859                Novosib           495.594
       387   04 Jun 2027 12:27:25.246   04 Jun 2027 12:29:49.620           144.374                  Delhi          4511.688
       388   04 Jun 2027 12:35:54.644   04 Jun 2027 12:36:45.428            50.784                Novosib          1587.000
       389   04 Jun 2027 12:37:31.776   04 Jun 2027 12:38:07.565            35.789                Novosib          1118.406
       390   04 Jun 2027 12:39:18.306   04 Jun 2027 12:41:00.279           101.973              Murmansk1          3186.656
       391   04 Jun 2027 14:10:25.271   04 Jun 2027 14:12:06.540           101.269                 Moscow          3164.656
       392   04 Jun 2027 14:13:22.815   04 Jun 2027 14:14:41.165            78.350                 Moscow          2448.437
       393   04 Jun 2027 14:15:08.089   04 Jun 2027 14:16:33.679            85.590              Murmansk1          2674.687
       394   04 Jun 2027 14:16:33.679   04 Jun 2027 14:18:13.185            99.506              Murmansk2          3109.563
       395   04 Jun 2027 14:21:41.353   04 Jun 2027 14:22:19.754            38.401                Norilsk          1200.031
       396   04 Jun 2027 14:29:33.465   04 Jun 2027 14:29:36.480             3.015                Anadyr2            94.219
       397   04 Jun 2027 14:31:10.192   04 Jun 2027 14:32:33.152            82.960                Anadyr2          2592.500
       398   04 Jun 2027 14:34:00.059   04 Jun 2027 14:34:56.594            56.535                Anadyr2          1766.719
       399   04 Jun 2027 15:23:45.716   04 Jun 2027 15:24:30.221            44.505               CapeTown          1390.781
       400   04 Jun 2027 15:50:07.682   04 Jun 2027 15:50:24.512            16.830                 Moscow           525.938
       401   04 Jun 2027 15:52:02.968   04 Jun 2027 15:52:52.554            49.586              Murmansk1          1549.563
       402   04 Jun 2027 15:53:11.381   04 Jun 2027 15:54:40.706            89.325              Murmansk1          2791.406
       403   04 Jun 2027 16:04:22.316   04 Jun 2027 16:06:37.081           134.765                Anadyr1          4211.406
       404   04 Jun 2027 17:00:24.697   04 Jun 2027 17:01:16.229            51.532               CapeTown          1610.375
       405   04 Jun 2027 17:03:16.064   04 Jun 2027 17:03:44.770            28.706               CapeTown           897.063
       406   04 Jun 2027 17:33:12.866   04 Jun 2027 17:36:52.689           219.823              Murmansk2          6869.469
       407   04 Jun 2027 17:40:10.982   04 Jun 2027 17:41:18.008            67.026                Anadyr2          2094.562
       408   04 Jun 2027 17:41:41.085   04 Jun 2027 17:42:08.481            27.396                Anadyr2           856.125
       409   04 Jun 2027 17:42:49.900   04 Jun 2027 17:44:28.177            98.277               Magadan1          3071.156
       410   04 Jun 2027 17:48:39.692   04 Jun 2027 17:48:48.843             9.151               Magadan2           285.969
       411   04 Jun 2027 19:16:06.272   04 Jun 2027 19:18:04.849           118.577                Anadyr2          3705.531
       412   04 Jun 2027 19:18:16.288   04 Jun 2027 19:20:10.227           113.939                Anadyr1          3560.594
       413   04 Jun 2027 19:20:27.189   04 Jun 2027 19:21:26.633            59.444                Norilsk          1857.625
       414   04 Jun 2027 19:21:40.992   04 Jun 2027 19:22:12.471            31.479               Magadan2           983.719
       415   04 Jun 2027 19:22:12.471   04 Jun 2027 19:22:48.350            35.879               Magadan1          1121.219
       416   04 Jun 2027 19:25:34.482   04 Jun 2027 19:26:13.904            39.422               Magadan1          1231.938
       417   04 Jun 2027 19:29:26.584   04 Jun 2027 19:29:50.345            23.761               Magadan2           742.531
       418   04 Jun 2027 20:10:52.139   04 Jun 2027 20:13:39.102           166.963            RioGallegos          5217.594
       419   04 Jun 2027 20:15:28.670   04 Jun 2027 20:16:22.687            54.017            RioGallegos          1688.031
       420   04 Jun 2027 20:51:47.040   04 Jun 2027 20:53:16.292            89.252                Anadyr2          2789.125
       421   04 Jun 2027 20:53:48.461   04 Jun 2027 20:53:55.735             7.274                Anadyr2           227.312
       422   04 Jun 2027 20:53:58.150   04 Jun 2027 20:56:19.683           141.533                Norilsk          4422.906
       423   04 Jun 2027 20:58:18.043   04 Jun 2027 20:59:12.462            54.419                Irkutsk          1700.594
       424   04 Jun 2027 21:04:21.003   04 Jun 2027 21:04:23.908             2.905                Irkutsk            90.781
       425   04 Jun 2027 21:12:14.030   04 Jun 2027 21:13:01.385            47.355                Sumatra          1479.844
       426   04 Jun 2027 21:14:13.723   04 Jun 2027 21:15:34.358            80.635                Sumatra          2519.844
       427   04 Jun 2027 21:16:23.906   04 Jun 2027 21:17:20.071            56.165                Sumatra          1755.156
       428   04 Jun 2027 22:30:16.147   04 Jun 2027 22:30:21.424             5.277                Norilsk           164.906
       429   04 Jun 2027 22:30:30.312   04 Jun 2027 22:30:51.809            21.497               Magadan1           671.781
       430   04 Jun 2027 22:30:51.809   04 Jun 2027 22:31:59.088            67.279               Magadan2          2102.469
       431   04 Jun 2027 22:33:15.131   04 Jun 2027 22:33:33.804            18.673                Norilsk           583.531
       432   04 Jun 2027 22:33:44.136   04 Jun 2027 22:34:19.758            35.622                Irkutsk          1113.187
       433   04 Jun 2027 22:34:25.125   04 Jun 2027 22:34:55.250            30.125                Novosib           941.406
       434   04 Jun 2027 22:35:34.272   04 Jun 2027 22:35:53.124            18.852                Novosib           589.125
       435   04 Jun 2027 22:36:46.644   04 Jun 2027 22:37:27.876            41.232                Novosib          1288.500
       436   04 Jun 2027 22:39:23.771   04 Jun 2027 22:39:44.343            20.572                Novosib           642.875
       437   04 Jun 2027 22:42:08.478   04 Jun 2027 22:45:15.468           186.990                  Delhi          5843.437
       438   05 Jun 2027 00:01:51.692   05 Jun 2027 00:02:46.461            54.769                Anadyr1          1711.531
       439   05 Jun 2027 00:05:52.570   05 Jun 2027 00:06:05.600            13.030                Norilsk           407.187
       440   05 Jun 2027 00:06:11.848   05 Jun 2027 00:06:56.476            44.628               Magadan1          1394.625
       441   05 Jun 2027 00:06:56.476   05 Jun 2027 00:07:09.631            13.155               Magadan2           411.094
       442   05 Jun 2027 00:07:16.502   05 Jun 2027 00:07:50.527            34.025               Magadan2          1063.281
       443   05 Jun 2027 00:08:20.815   05 Jun 2027 00:11:10.290           169.475              Murmansk2          5296.094
       444   05 Jun 2027 00:14:03.297   05 Jun 2027 00:15:51.592           108.295                 Moscow          3384.219
       445   05 Jun 2027 01:00:32.137   05 Jun 2027 01:01:46.120            73.983            RioGallegos          2311.969
       446   05 Jun 2027 01:33:43.409   05 Jun 2027 01:33:44.178             0.769                Anadyr2            24.031
       447   05 Jun 2027 01:34:00.754   05 Jun 2027 01:34:00.872             0.118                Anadyr1             3.688
       448   05 Jun 2027 01:34:20.853   05 Jun 2027 01:34:34.090            13.237                Anadyr2           413.656
       449   05 Jun 2027 01:35:14.480   05 Jun 2027 01:35:49.752            35.272                Anadyr1          1102.250
       450   05 Jun 2027 01:35:58.814   05 Jun 2027 01:36:28.589            29.775                Anadyr2           930.469
       451   05 Jun 2027 01:36:57.206   05 Jun 2027 01:36:58.212             1.006                Anadyr1            31.438
       452   05 Jun 2027 01:39:08.963   05 Jun 2027 01:41:12.576           123.613               Magadan1          3862.906
       453   05 Jun 2027 01:41:56.244   05 Jun 2027 01:42:03.157             6.913               Magadan1           216.031
       454   05 Jun 2027 01:42:06.310   05 Jun 2027 01:42:06.432             0.122                Norilsk             3.813
       455   05 Jun 2027 01:42:35.372   05 Jun 2027 01:42:57.218            21.846               Magadan1           682.688
       456   05 Jun 2027 01:43:44.873   05 Jun 2027 01:44:09.460            24.587               Magadan2           768.344
       457   05 Jun 2027 01:44:22.620   05 Jun 2027 01:45:42.486            79.866              Murmansk1          2495.813
       458   05 Jun 2027 01:46:52.226   05 Jun 2027 01:49:11.136           138.910                Novosib          4340.938
       459   05 Jun 2027 02:13:37.878   05 Jun 2027 02:13:45.072             7.194               CapeTown           224.812
       460   05 Jun 2027 02:15:43.281   05 Jun 2027 02:16:34.627            51.346               CapeTown          1604.562
       461   05 Jun 2027 03:12:27.288   05 Jun 2027 03:12:56.692            29.404               Magadan2           918.875
       462   05 Jun 2027 03:13:21.569   05 Jun 2027 03:13:43.270            21.701               Magadan2           678.156
       463   05 Jun 2027 03:29:50.446   05 Jun 2027 03:30:17.995            27.549              Murmansk1           860.906
       464   05 Jun 2027 03:30:17.995   05 Jun 2027 03:30:31.620            13.625              Murmansk2           425.781
       465   05 Jun 2027 03:48:20.489   05 Jun 2027 03:48:32.360            11.871               CapeTown           370.969
       466   05 Jun 2027 04:44:05.445   05 Jun 2027 04:45:07.472            62.027               Magadan1          1938.344
       467   05 Jun 2027 04:45:07.637   05 Jun 2027 04:45:53.133            45.496               Magadan2          1421.750
       468   05 Jun 2027 04:50:32.882   05 Jun 2027 04:55:36.631           303.749               Magadan1          9492.156
       469   05 Jun 2027 04:56:28.556   05 Jun 2027 04:56:42.403            13.847                Anadyr2           432.719
       470   05 Jun 2027 06:27:38.424   05 Jun 2027 06:27:59.351            20.927                Anadyr1           653.969
       471   05 Jun 2027 06:27:59.351   05 Jun 2027 06:28:37.615            38.264                Anadyr2          1195.750
       472   05 Jun 2027 06:28:44.345   05 Jun 2027 06:29:14.804            30.459               Magadan2           951.844
       473   05 Jun 2027 06:29:30.810   05 Jun 2027 06:30:49.540            78.730                Anadyr1          2460.313
       474   05 Jun 2027 08:01:27.695   05 Jun 2027 08:01:32.913             5.218               Magadan1           163.063
       475   05 Jun 2027 08:02:42.757   05 Jun 2027 08:02:54.272            11.515               Magadan2           359.844
       476   05 Jun 2027 08:03:48.936   05 Jun 2027 08:03:50.394             1.458               Magadan1            45.562
       477   05 Jun 2027 08:04:02.744   05 Jun 2027 08:04:49.759            47.015               Magadan2          1469.219
       478   05 Jun 2027 08:05:17.167   05 Jun 2027 08:06:24.875            67.708               Magadan2          2115.875
       479   05 Jun 2027 08:06:42.002   05 Jun 2027 08:07:29.147            47.145               Magadan2          1473.281
       480   05 Jun 2027 08:11:52.610   05 Jun 2027 08:12:21.574            28.964              Murmansk2           905.125
       481   05 Jun 2027 08:42:43.272   05 Jun 2027 08:42:43.628             0.356            RioGallegos            11.125
       482   05 Jun 2027 08:43:50.688   05 Jun 2027 08:45:09.155            78.467            RioGallegos          2452.094
