uniorb/output/strategy_4/Drop/Drop_KinoSat_110404.txt

KinoSat_110404
-------------------------
    Access    *     Start Time (UTCG)     *     Stop Time (UTCG)  *   Duration (s)        *       Station  *  Data (Mbytes)
         1   01 Jun 2027 04:03:28.971   01 Jun 2027 04:03:47.717            18.746               Magadan1          2343.250
         2   01 Jun 2027 04:04:15.603   01 Jun 2027 04:06:14.357           118.754               Magadan2         14844.250
         3   01 Jun 2027 04:06:34.719   01 Jun 2027 04:07:12.318            37.599               Magadan1          4699.875
         4   01 Jun 2027 04:07:18.878   01 Jun 2027 04:07:54.083            35.205               Magadan2          4400.625
         5   01 Jun 2027 04:08:11.720   01 Jun 2027 04:08:28.362            16.642               Magadan1          2080.250
         6   01 Jun 2027 04:08:49.483   01 Jun 2027 04:09:08.102            18.619                Norilsk          2327.375
         7   01 Jun 2027 04:13:37.812   01 Jun 2027 04:13:50.926            13.114                Norilsk          1639.250
         8   01 Jun 2027 04:43:26.907   01 Jun 2027 04:43:55.913            29.006            RioGallegos          3625.750
         9   01 Jun 2027 04:51:19.614   01 Jun 2027 04:51:38.197            18.583            RioGallegos          2322.875
        10   01 Jun 2027 05:19:19.709   01 Jun 2027 05:20:28.976            69.267                Sumatra          8658.375
        11   01 Jun 2027 05:24:02.302   01 Jun 2027 05:25:03.687            61.385                Sumatra          7673.125
        12   01 Jun 2027 05:40:57.331   01 Jun 2027 05:41:42.375            45.044                Irkutsk          5630.500
        13   01 Jun 2027 05:42:10.189   01 Jun 2027 05:42:40.421            30.232              Murmansk1          3779.000
        14   01 Jun 2027 05:42:48.371   01 Jun 2027 05:44:28.535           100.164                Novosib         12520.500
        15   01 Jun 2027 05:45:41.945   01 Jun 2027 05:46:03.162            21.217                Novosib          2652.125
        16   01 Jun 2027 06:25:14.404   01 Jun 2027 06:25:21.413             7.009            RioGallegos           876.125
        17   01 Jun 2027 06:54:48.924   01 Jun 2027 06:55:10.372            21.448                Sumatra          2681.000
        18   01 Jun 2027 06:56:43.757   01 Jun 2027 06:57:48.090            64.333                Sumatra          8041.625
        19   01 Jun 2027 07:05:02.027   01 Jun 2027 07:05:31.346            29.319                  Delhi          3664.875
        20   01 Jun 2027 07:07:09.651   01 Jun 2027 07:07:16.422             6.771                  Delhi           846.375
        21   01 Jun 2027 07:18:24.426   01 Jun 2027 07:19:05.634            41.208                Novosib          5151.000
        22   01 Jun 2027 07:19:16.664   01 Jun 2027 07:19:41.213            24.549              Murmansk1          3068.625
        23   01 Jun 2027 07:19:48.350   01 Jun 2027 07:20:32.732            44.382                 Moscow          5547.750
        24   01 Jun 2027 07:20:39.857   01 Jun 2027 07:21:06.025            26.168                 Moscow          3271.000
        25   01 Jun 2027 07:21:14.896   01 Jun 2027 07:22:08.622            53.726                Novosib          6715.750
        26   01 Jun 2027 08:54:47.162   01 Jun 2027 08:55:46.572            59.410                Novosib          7426.250
        27   01 Jun 2027 08:56:06.465   01 Jun 2027 08:57:00.060            53.595                Novosib          6699.375
        28   01 Jun 2027 08:57:00.901   01 Jun 2027 09:03:16.931           376.030              Murmansk2         47003.750
        29   01 Jun 2027 10:42:28.932   01 Jun 2027 10:45:43.287           194.355                Anadyr2         24294.375
        30   01 Jun 2027 10:45:43.287   01 Jun 2027 10:47:32.031           108.744                Anadyr1         13593.000
        31   01 Jun 2027 12:18:23.094   01 Jun 2027 12:18:23.616             0.522                Anadyr2            65.250
        32   01 Jun 2027 12:18:31.478   01 Jun 2027 12:19:54.500            83.022                Anadyr1         10377.750
        33   01 Jun 2027 13:55:35.035   01 Jun 2027 13:59:54.841           259.806               Magadan2         32475.750
        34   01 Jun 2027 14:02:05.950   01 Jun 2027 14:03:06.262            60.312               Magadan1          7539.000
        35   01 Jun 2027 16:23:43.209   01 Jun 2027 16:30:18.709           395.500            RioGallegos         49437.500
        36   01 Jun 2027 17:11:59.383   01 Jun 2027 17:13:33.629            94.246                Irkutsk         11780.750
        37   01 Jun 2027 17:15:11.274   01 Jun 2027 17:15:16.331             5.057                Irkutsk           632.125
        38   01 Jun 2027 17:25:06.560   01 Jun 2027 17:28:57.325           230.765                Sumatra         28845.625
        39   01 Jun 2027 17:31:37.405   01 Jun 2027 17:31:55.781            18.376                Sumatra          2297.000
        40   01 Jun 2027 18:46:45.057   01 Jun 2027 18:48:22.619            97.562                Novosib         12195.250
        41   01 Jun 2027 18:55:03.894   01 Jun 2027 18:56:44.024           100.130                  Delhi          5944.000
        42   02 Jun 2027 04:20:10.026   02 Jun 2027 04:20:33.088            23.062                Irkutsk          2882.750
        43   02 Jun 2027 04:20:36.197   02 Jun 2027 04:20:37.633             1.436                Irkutsk           179.500
        44   02 Jun 2027 05:30:55.466   02 Jun 2027 05:32:46.183           110.717                Sumatra         13839.625
        45   02 Jun 2027 05:44:40.110   02 Jun 2027 05:45:18.691            38.581                  Delhi          4822.625
        46   02 Jun 2027 05:46:25.748   02 Jun 2027 05:47:38.572            72.824                  Delhi          9103.000
        47   02 Jun 2027 05:54:25.114   02 Jun 2027 05:56:41.486           136.372                Irkutsk         17046.500
        48   02 Jun 2027 05:56:45.592   02 Jun 2027 06:01:32.900           287.308                Norilsk         35913.500
        49   02 Jun 2027 06:01:54.212   02 Jun 2027 06:02:48.450            54.238              Murmansk1          6779.750
        50   02 Jun 2027 06:36:18.835   02 Jun 2027 06:37:04.990            46.155            RioGallegos          5769.375
        51   02 Jun 2027 06:39:39.327   02 Jun 2027 06:40:35.268            55.941            RioGallegos          6992.625
        52   02 Jun 2027 07:07:17.207   02 Jun 2027 07:08:18.431            61.224                Sumatra          7653.000
        53   02 Jun 2027 07:08:59.512   02 Jun 2027 07:09:59.542            60.030                Sumatra          7503.750
        54   02 Jun 2027 07:32:25.138   02 Jun 2027 07:35:21.698           176.560                 Moscow         22070.000
        55   02 Jun 2027 07:35:49.537   02 Jun 2027 07:36:58.046            68.509                Norilsk          8563.625
        56   02 Jun 2027 07:36:58.313   02 Jun 2027 07:39:31.402           153.089              Murmansk1         19136.125
        57   02 Jun 2027 08:52:31.749   02 Jun 2027 08:56:06.233           214.484                  Delhi         26810.500
        58   02 Jun 2027 09:01:03.956   02 Jun 2027 09:04:15.418           191.462                Novosib         23932.750
        59   02 Jun 2027 09:08:57.886   02 Jun 2027 09:13:33.863           275.977                Norilsk         34497.125
        60   02 Jun 2027 09:14:23.822   02 Jun 2027 09:15:17.998            54.176              Murmansk2          6772.000
        61   02 Jun 2027 10:38:42.830   02 Jun 2027 10:38:56.049            13.219              Murmansk1          1652.375
        62   02 Jun 2027 10:38:56.049   02 Jun 2027 10:43:27.940           271.891              Murmansk2         33986.375
        63   02 Jun 2027 10:44:18.516   02 Jun 2027 10:45:06.829            48.313              Murmansk1          6039.125
        64   02 Jun 2027 10:46:42.814   02 Jun 2027 10:48:31.861           109.047              Murmansk1         13630.875
        65   02 Jun 2027 10:54:06.560   02 Jun 2027 10:58:04.195           237.635                Anadyr1         29704.375
        66   02 Jun 2027 10:59:48.614   02 Jun 2027 11:00:32.643            44.029                Anadyr1          5503.625
        67   02 Jun 2027 12:15:22.698   02 Jun 2027 12:18:17.640           174.942                 Moscow         21867.750
        68   02 Jun 2027 12:19:02.176   02 Jun 2027 12:20:51.762           109.586              Murmansk2         13698.250
        69   02 Jun 2027 12:29:03.947   02 Jun 2027 12:30:54.552           110.605                Anadyr2         13825.625
        70   02 Jun 2027 12:33:37.045   02 Jun 2027 12:34:16.297            39.252                Anadyr2          4906.500
        71   02 Jun 2027 14:07:29.488   02 Jun 2027 14:09:35.358           125.870               Magadan1         15733.750
        72   02 Jun 2027 14:10:11.952   02 Jun 2027 14:11:49.125            97.173               Magadan2         12146.625
        73   02 Jun 2027 14:16:33.265   02 Jun 2027 14:17:00.642            27.377               Magadan1          3422.125
        74   02 Jun 2027 16:35:26.509   02 Jun 2027 16:41:33.356           366.847            RioGallegos         45855.875
        75   02 Jun 2027 17:22:55.994   02 Jun 2027 17:25:36.828           160.834                Irkutsk         20104.250
        76   02 Jun 2027 17:25:38.697   02 Jun 2027 17:27:13.349            94.652                Novosib         11831.500
        77   02 Jun 2027 17:36:46.224   02 Jun 2027 17:38:36.204           109.980                Sumatra         13747.500
        78   02 Jun 2027 17:40:22.790   02 Jun 2027 17:40:58.923            36.133                Sumatra          4516.625
        79   02 Jun 2027 18:58:40.019   02 Jun 2027 19:00:46.364           126.345                Novosib         15793.125
        80   02 Jun 2027 19:06:38.404   02 Jun 2027 19:07:39.377            60.973                  Delhi          7621.625
        81   02 Jun 2027 19:08:40.088   02 Jun 2027 19:10:09.010            88.922                  Delhi         11115.250
        82   02 Jun 2027 20:37:03.555   02 Jun 2027 20:37:26.921            23.366              Murmansk2          2920.750
        83   02 Jun 2027 20:38:17.977   02 Jun 2027 20:40:43.274           145.297                 Moscow         13793.000
        84   03 Jun 2027 04:33:02.960   03 Jun 2027 04:33:16.257            13.297                Norilsk          1662.125
        85   03 Jun 2027 04:33:19.886   03 Jun 2027 04:33:49.597            29.711              Murmansk2          3713.875
        86   03 Jun 2027 04:33:49.597   03 Jun 2027 04:36:00.165           130.568              Murmansk1         16321.000
        87   03 Jun 2027 05:42:38.685   03 Jun 2027 05:44:24.298           105.613                Sumatra         13201.625
        88   03 Jun 2027 05:45:14.650   03 Jun 2027 05:47:01.837           107.187                Sumatra         13398.375
        89   03 Jun 2027 05:54:48.855   03 Jun 2027 05:55:23.278            34.423                  Delhi          4302.875
        90   03 Jun 2027 06:08:36.744   03 Jun 2027 06:09:29.214            52.470                 Moscow          6558.750
        91   03 Jun 2027 06:09:29.404   03 Jun 2027 06:10:16.447            47.043                Novosib          5880.375
        92   03 Jun 2027 06:10:26.203   03 Jun 2027 06:16:07.270           341.067              Murmansk2         42633.375
        93   03 Jun 2027 06:45:42.516   03 Jun 2027 06:47:15.122            92.606            RioGallegos         11575.750
        94   03 Jun 2027 06:48:22.814   03 Jun 2027 06:48:44.309            21.495            RioGallegos          2686.875
        95   03 Jun 2027 06:49:18.754   03 Jun 2027 06:49:26.548             7.794            RioGallegos           974.250
        96   03 Jun 2027 07:19:57.548   03 Jun 2027 07:23:42.854           225.306                Sumatra         28163.250
        97   03 Jun 2027 07:26:33.875   03 Jun 2027 07:28:05.497            91.622                  Delhi         11452.750
        98   03 Jun 2027 07:33:45.785   03 Jun 2027 07:36:35.807           170.022                Novosib         21252.750
        99   03 Jun 2027 07:36:52.303   03 Jun 2027 07:39:38.028           165.725                Irkutsk         20715.625
       100   03 Jun 2027 07:39:54.121   03 Jun 2027 07:40:26.787            32.666                Norilsk          4083.250
       101   03 Jun 2027 07:44:14.800   03 Jun 2027 07:47:28.716           193.916                 Moscow         24239.500
       102   03 Jun 2027 07:47:31.596   03 Jun 2027 07:49:04.554            92.958              Murmansk1         11619.750
       103   03 Jun 2027 07:49:04.554   03 Jun 2027 07:49:42.597            38.043              Murmansk2          4755.375
       104   03 Jun 2027 07:51:11.616   03 Jun 2027 07:51:30.417            18.801              Murmansk2          2350.125
       105   03 Jun 2027 09:05:34.044   03 Jun 2027 09:08:32.968           178.924                  Delhi         22365.500
       106   03 Jun 2027 09:15:35.649   03 Jun 2027 09:15:48.756            13.107                Novosib          1638.375
       107   03 Jun 2027 09:19:51.411   03 Jun 2027 09:20:07.879            16.468                Novosib          2058.500
       108   03 Jun 2027 09:20:08.746   03 Jun 2027 09:20:38.855            30.109                 Moscow          3763.625
       109   03 Jun 2027 09:21:17.808   03 Jun 2027 09:27:19.225           361.417              Murmansk1         45177.125
       110   03 Jun 2027 10:27:09.110   03 Jun 2027 10:29:45.971           156.861               CapeTown         19607.625
       111   03 Jun 2027 10:31:12.102   03 Jun 2027 10:32:09.967            57.865               CapeTown          7233.125
       112   03 Jun 2027 10:33:52.751   03 Jun 2027 10:33:54.063             1.312               CapeTown           164.000
       113   03 Jun 2027 10:47:29.021   03 Jun 2027 10:50:26.317           177.296                 Moscow         22162.000
       114   03 Jun 2027 10:50:54.557   03 Jun 2027 10:53:41.385           166.828              Murmansk1         20853.500
       115   03 Jun 2027 10:53:41.385   03 Jun 2027 10:55:35.632           114.247              Murmansk2         14280.875
       116   03 Jun 2027 10:57:05.614   03 Jun 2027 10:57:14.475             8.861              Murmansk2          1107.625
       117   03 Jun 2027 10:57:36.877   03 Jun 2027 10:58:03.777            26.900              Murmansk2          3362.500
       118   03 Jun 2027 10:58:44.463   03 Jun 2027 10:59:10.509            26.046              Murmansk2          3255.750
       119   03 Jun 2027 10:59:34.692   03 Jun 2027 11:00:34.837            60.145              Murmansk1          7518.125
       120   03 Jun 2027 11:00:55.034   03 Jun 2027 11:01:35.908            40.874              Murmansk1          5109.250
       121   03 Jun 2027 11:01:49.449   03 Jun 2027 11:03:17.172            87.723              Murmansk2         10965.375
       122   03 Jun 2027 11:05:51.843   03 Jun 2027 11:11:59.082           367.239                Anadyr2         45904.875
       123   03 Jun 2027 12:05:12.144   03 Jun 2027 12:05:43.044            30.900               CapeTown          3862.500
       124   03 Jun 2027 12:07:50.682   03 Jun 2027 12:08:14.116            23.434               CapeTown          2929.250
       125   03 Jun 2027 12:09:19.577   03 Jun 2027 12:09:57.923            38.346               CapeTown          4793.250
       126   03 Jun 2027 12:28:43.449   03 Jun 2027 12:30:04.697            81.248                 Moscow         10156.000
       127   03 Jun 2027 12:44:48.508   03 Jun 2027 12:45:11.946            23.438                Anadyr2          2929.750
       128   03 Jun 2027 12:45:51.691   03 Jun 2027 12:48:45.154           173.463               Magadan1         21682.875
       129   03 Jun 2027 14:19:25.378   03 Jun 2027 14:22:17.178           171.800               Magadan1         21475.000
       130   03 Jun 2027 16:47:14.004   03 Jun 2027 16:53:04.545           350.541            RioGallegos         43817.625
       131   03 Jun 2027 17:36:38.119   03 Jun 2027 17:39:53.393           195.274                Novosib         24409.250
       132   03 Jun 2027 17:42:19.209   03 Jun 2027 17:42:25.673             6.464                Novosib           808.000
       133   03 Jun 2027 17:48:32.736   03 Jun 2027 17:50:10.229            97.493                Sumatra         12186.625
       134   03 Jun 2027 17:51:21.360   03 Jun 2027 17:53:06.212           104.852                Sumatra         13106.500
       135   03 Jun 2027 19:18:19.949   03 Jun 2027 19:20:10.934           110.985                  Delhi         13873.125
       136   03 Jun 2027 19:20:30.825   03 Jun 2027 19:22:25.854           115.029                  Delhi         14378.625
       137   03 Jun 2027 20:46:34.039   03 Jun 2027 20:46:52.243            18.204              Murmansk1          2275.500
       138   03 Jun 2027 20:49:41.728   03 Jun 2027 20:52:42.972           181.244                 Moscow         22655.500
       139   04 Jun 2027 04:44:51.405   04 Jun 2027 04:49:50.324           298.919                Norilsk         37364.875
       140   04 Jun 2027 04:49:59.025   04 Jun 2027 04:53:16.096           197.071              Murmansk1         24633.875
       141   04 Jun 2027 05:19:30.428   04 Jun 2027 05:26:38.380           427.952            RioGallegos         53494.000
       142   04 Jun 2027 05:54:28.293   04 Jun 2027 05:55:32.913            64.620                Sumatra          8077.500
       143   04 Jun 2027 05:57:26.493   04 Jun 2027 05:58:30.007            63.514                Sumatra          7939.250
       144   04 Jun 2027 06:05:41.847   04 Jun 2027 06:07:36.906           115.059                  Delhi         14382.375
       145   04 Jun 2027 06:08:15.211   04 Jun 2027 06:11:49.294           214.083                Irkutsk         26760.375
       146   04 Jun 2027 06:12:36.428   04 Jun 2027 06:12:58.835            22.407                Irkutsk          2800.875
       147   04 Jun 2027 06:13:04.956   04 Jun 2027 06:14:04.732            59.776                Novosib          7472.000
       148   04 Jun 2027 06:20:31.730   04 Jun 2027 06:25:10.649           278.919                Norilsk         34864.875
       149   04 Jun 2027 06:25:20.927   04 Jun 2027 06:27:52.810           151.883              Murmansk1         18985.375
       150   04 Jun 2027 06:58:27.563   04 Jun 2027 07:01:53.105           205.542            RioGallegos         25692.750
       151   04 Jun 2027 07:32:58.399   04 Jun 2027 07:36:05.307           186.908                Sumatra         23363.500
       152   04 Jun 2027 07:37:53.865   04 Jun 2027 07:39:17.482            83.617                Sumatra         10452.125
       153   04 Jun 2027 07:39:50.638   04 Jun 2027 07:41:29.778            99.140                  Delhi         12392.500
       154   04 Jun 2027 07:46:01.867   04 Jun 2027 07:50:34.344           272.477                Novosib         34059.625
       155   04 Jun 2027 07:50:52.205   04 Jun 2027 07:51:28.656            36.451                Irkutsk          4556.375
       156   04 Jun 2027 07:51:29.094   04 Jun 2027 07:51:58.936            29.842              Murmansk2          3730.250
       157   04 Jun 2027 07:56:17.082   04 Jun 2027 07:58:01.508           104.426                Novosib         13053.250
       158   04 Jun 2027 07:58:02.034   04 Jun 2027 08:01:22.150           200.116                Norilsk         25014.500
       159   04 Jun 2027 08:03:12.813   04 Jun 2027 08:03:29.832            17.019              Murmansk2          2127.375
       160   04 Jun 2027 09:19:19.544   04 Jun 2027 09:21:09.201           109.657                  Delhi         13707.125
       161   04 Jun 2027 09:21:41.497   04 Jun 2027 09:22:56.343            74.846                  Delhi          9355.750
       162   04 Jun 2027 09:31:54.761   04 Jun 2027 09:32:11.933            17.172                Norilsk          2146.500
       163   04 Jun 2027 09:33:07.248   04 Jun 2027 09:37:30.321           263.073                Norilsk         32884.125
       164   04 Jun 2027 09:38:05.124   04 Jun 2027 09:39:20.602            75.478              Murmansk1          9434.750
       165   04 Jun 2027 10:38:20.210   04 Jun 2027 10:46:58.245           518.035               CapeTown         64754.375
       166   04 Jun 2027 10:59:48.105   04 Jun 2027 11:09:40.805           592.700                 Moscow         74087.500
       167   04 Jun 2027 11:09:57.278   04 Jun 2027 11:15:18.650           321.372              Murmansk1         40171.500
       168   04 Jun 2027 11:17:41.500   04 Jun 2027 11:23:27.247           345.747                Anadyr1         43218.375
       169   04 Jun 2027 11:24:45.638   04 Jun 2027 11:26:06.706            81.068                Anadyr2         10133.500
       170   04 Jun 2027 12:12:23.736   04 Jun 2027 12:17:23.226           299.490               CapeTown         37436.250
       171   04 Jun 2027 12:42:01.059   04 Jun 2027 12:44:54.333           173.274              Murmansk2         21659.250
       172   04 Jun 2027 12:57:04.887   04 Jun 2027 12:59:59.103           174.216               Magadan1         21777.000
       173   04 Jun 2027 14:31:22.425   04 Jun 2027 14:33:33.107           130.682               Magadan1         16335.250
       174   04 Jun 2027 14:33:39.786   04 Jun 2027 14:34:19.852            40.066               Magadan1          5008.250
       175   04 Jun 2027 16:13:26.517   04 Jun 2027 16:17:59.581           273.064                Irkutsk         34133.000
       176   04 Jun 2027 17:00:37.100   04 Jun 2027 17:01:44.006            66.906            RioGallegos          8363.250
       177   04 Jun 2027 17:46:44.715   04 Jun 2027 17:48:38.328           113.613                Irkutsk         14201.625
       178   04 Jun 2027 17:48:52.364   04 Jun 2027 17:51:12.252           139.888                Novosib         17486.000
       179   04 Jun 2027 19:30:06.870   04 Jun 2027 19:32:34.026           147.156                  Delhi         18394.500
       180   04 Jun 2027 19:34:26.457   04 Jun 2027 19:34:48.526            22.069                  Delhi          2758.625
       181   04 Jun 2027 20:56:56.617   04 Jun 2027 20:57:07.268            10.651              Murmansk2          1331.375
       182   04 Jun 2027 20:57:28.562   04 Jun 2027 20:58:24.294            55.732              Murmansk1          6966.500
       183   04 Jun 2027 21:01:17.948   04 Jun 2027 21:04:43.401           205.453                 Moscow         25681.625
       184   04 Jun 2027 23:03:00.162   04 Jun 2027 23:03:45.186            45.024               CapeTown          5628.000
       185   05 Jun 2027 03:19:34.477   05 Jun 2027 03:20:03.334            28.857                Norilsk          3607.125
       186   05 Jun 2027 03:20:30.560   05 Jun 2027 03:20:35.334             4.774                Anadyr1           596.750
       187   05 Jun 2027 03:20:44.092   05 Jun 2027 03:20:58.405            14.313               Magadan1          1789.125
       188   05 Jun 2027 03:21:05.937   05 Jun 2027 03:26:11.888           305.951                Norilsk         38243.875
       189   05 Jun 2027 03:26:33.261   05 Jun 2027 03:27:11.212            37.951              Murmansk2          4743.875
       190   05 Jun 2027 03:27:44.169   05 Jun 2027 03:27:52.128             7.959              Murmansk2           994.875
       191   05 Jun 2027 03:28:14.095   05 Jun 2027 03:28:53.887            39.792              Murmansk2          4974.000
       192   05 Jun 2027 04:36:32.904   05 Jun 2027 04:37:04.278            31.374                Sumatra          3921.750
       193   05 Jun 2027 04:38:02.901   05 Jun 2027 04:38:05.305             2.404                Sumatra           300.500
       194   05 Jun 2027 04:56:52.503   05 Jun 2027 05:01:38.347           285.844                Norilsk         35730.500
       195   05 Jun 2027 05:01:39.030   05 Jun 2027 05:05:06.159           207.129              Murmansk1         25891.125
       196   05 Jun 2027 05:31:38.447   05 Jun 2027 05:34:42.701           184.254            RioGallegos         23031.750
       197   05 Jun 2027 05:35:18.239   05 Jun 2027 05:35:59.552            41.313            RioGallegos          5164.125
       198   05 Jun 2027 05:36:20.193   05 Jun 2027 05:36:32.258            12.065            RioGallegos          1508.125
       199   05 Jun 2027 05:38:19.502   05 Jun 2027 05:39:02.182            42.680            RioGallegos          5335.000
       200   05 Jun 2027 05:40:30.083   05 Jun 2027 05:41:09.185            39.102            RioGallegos          4887.750
       201   05 Jun 2027 06:06:23.713   05 Jun 2027 06:08:23.473           119.760                Sumatra         14970.000
       202   05 Jun 2027 06:14:10.936   05 Jun 2027 06:15:58.604           107.668                Sumatra         13458.500
       203   05 Jun 2027 06:16:52.368   05 Jun 2027 06:17:39.790            47.422                  Delhi          5927.750
       204   05 Jun 2027 06:20:30.995   05 Jun 2027 06:24:18.558           227.563                Irkutsk         28445.375
       205   05 Jun 2027 06:24:25.255   05 Jun 2027 06:26:09.694           104.439                Novosib         13054.875
       206   05 Jun 2027 06:32:26.506   05 Jun 2027 06:34:40.185           133.679                 Moscow         16709.875
       207   05 Jun 2027 06:34:48.983   05 Jun 2027 06:39:58.234           309.251              Murmansk2         38656.375
       208   05 Jun 2027 07:11:24.345   05 Jun 2027 07:14:25.471           181.126            RioGallegos         22640.750
       209   05 Jun 2027 07:47:06.360   05 Jun 2027 07:48:37.338            90.978                Sumatra         11372.250
       210   05 Jun 2027 07:50:38.529   05 Jun 2027 07:53:44.081           185.552                  Delhi         23194.000
       211   05 Jun 2027 07:58:35.900   05 Jun 2027 07:59:44.806            68.906                Novosib          8613.250
       212   05 Jun 2027 08:00:26.117   05 Jun 2027 08:03:49.811           203.694                Novosib         25461.750
       213   05 Jun 2027 08:03:55.521   05 Jun 2027 08:04:14.198            18.677                Irkutsk          2334.625
       214   05 Jun 2027 08:08:27.811   05 Jun 2027 08:13:46.153           318.342                Norilsk         39792.750
       215   05 Jun 2027 08:15:14.159   05 Jun 2027 08:15:29.602            15.443              Murmansk1          1930.375
       216   05 Jun 2027 09:35:00.217   05 Jun 2027 09:35:33.700            33.483                 Moscow          4185.375
       217   05 Jun 2027 09:44:00.537   05 Jun 2027 09:49:26.631           326.094                Norilsk         40761.750
       218   05 Jun 2027 09:49:40.812   05 Jun 2027 09:51:22.084           101.272              Murmansk2         12659.000
       219   05 Jun 2027 10:49:47.133   05 Jun 2027 10:59:02.096           554.963               CapeTown         69370.375
       220   05 Jun 2027 11:12:11.279   05 Jun 2027 11:22:07.593           596.314                 Moscow         74539.250
       221   05 Jun 2027 11:22:21.888   05 Jun 2027 11:26:48.968           267.080              Murmansk1         33385.000
       222   05 Jun 2027 11:26:48.968   05 Jun 2027 11:27:19.994            31.026              Murmansk2          3878.250
       223   05 Jun 2027 11:29:34.003   05 Jun 2027 11:33:54.200           260.197                Anadyr1         32524.625
       224   05 Jun 2027 11:35:10.326   05 Jun 2027 11:36:54.898           104.572                Anadyr1         13071.500
       225   05 Jun 2027 12:24:27.083   05 Jun 2027 12:29:31.640           304.557               CapeTown         38069.625
       226   05 Jun 2027 12:54:36.414   05 Jun 2027 12:56:55.835           139.421              Murmansk2         17427.625
       227   05 Jun 2027 13:08:38.068   05 Jun 2027 13:11:58.873           200.805               Magadan2         25100.625
       228   05 Jun 2027 13:15:04.383   05 Jun 2027 13:15:51.707            47.324               Magadan2          5915.500
       229   05 Jun 2027 16:24:37.425   05 Jun 2027 16:30:34.257           356.832                Irkutsk         44604.000
       230   05 Jun 2027 16:40:54.700   05 Jun 2027 16:42:04.851            70.151                Sumatra          8768.875
       231   05 Jun 2027 16:43:21.085   05 Jun 2027 16:45:39.713           138.628                Sumatra         17328.500
       232   05 Jun 2027 17:59:43.206   05 Jun 2027 18:03:12.823           209.617                Novosib         26202.125
       233   05 Jun 2027 21:08:57.994   05 Jun 2027 21:09:59.282            61.288              Murmansk2          7661.000
       234   05 Jun 2027 21:13:00.955   05 Jun 2027 21:16:44.483           223.528                 Moscow         27941.000
       235   05 Jun 2027 21:40:21.301   05 Jun 2027 21:42:02.278           100.977               CapeTown         12622.125
       236   05 Jun 2027 21:43:48.992   05 Jun 2027 21:45:31.885           102.893               CapeTown         12861.625
       237   06 Jun 2027 03:31:37.139   06 Jun 2027 03:32:06.610            29.471                Norilsk          3683.875
       238   06 Jun 2027 03:32:59.011   06 Jun 2027 03:38:09.611           310.600                Norilsk         38825.000
       239   06 Jun 2027 03:38:15.503   06 Jun 2027 03:42:32.120           256.617              Murmansk2         32077.125
       240   06 Jun 2027 03:42:32.120   06 Jun 2027 03:42:41.530             9.410              Murmansk1          1176.250
       241   06 Jun 2027 04:08:06.878   06 Jun 2027 04:09:09.011            62.133            RioGallegos          7766.625
       242   06 Jun 2027 04:46:02.833   06 Jun 2027 04:47:33.289            90.456                Sumatra         11307.000
       243   06 Jun 2027 05:08:53.793   06 Jun 2027 05:13:51.428           297.635                Norilsk         37204.375
       244   06 Jun 2027 05:14:03.232   06 Jun 2027 05:16:56.922           173.690              Murmansk2         21711.250
       245   06 Jun 2027 05:43:50.155   06 Jun 2027 05:46:52.689           182.534            RioGallegos         22816.750
       246   06 Jun 2027 05:47:24.749   06 Jun 2027 05:48:08.657            43.908            RioGallegos          5488.500
       247   06 Jun 2027 05:53:35.954   06 Jun 2027 05:53:36.873             0.919            RioGallegos           114.875
       248   06 Jun 2027 05:56:09.269   06 Jun 2027 05:56:12.582             3.313            RioGallegos           414.125
       249   06 Jun 2027 06:18:24.720   06 Jun 2027 06:21:32.539           187.819                Sumatra         23477.375
       250   06 Jun 2027 06:28:14.109   06 Jun 2027 06:28:55.680            41.571                  Delhi          5196.375
       251   06 Jun 2027 06:29:39.433   06 Jun 2027 06:31:31.533           112.100                  Delhi         14012.500
       252   06 Jun 2027 06:32:50.969   06 Jun 2027 06:37:14.535           263.566                Irkutsk         32945.750
       253   06 Jun 2027 06:43:43.723   06 Jun 2027 06:44:10.249            26.526              Murmansk2          3315.750
       254   06 Jun 2027 06:44:52.773   06 Jun 2027 06:46:56.365           123.592                 Moscow         15449.000
       255   06 Jun 2027 06:47:04.841   06 Jun 2027 06:49:48.551           163.710                Norilsk         20463.750
       256   06 Jun 2027 06:49:57.520   06 Jun 2027 06:51:12.730            75.210              Murmansk1          9401.250
       257   06 Jun 2027 06:51:23.776   06 Jun 2027 06:51:32.337             8.561              Murmansk2          1070.125
       258   06 Jun 2027 06:51:47.307   06 Jun 2027 06:51:54.687             7.380              Murmansk2           922.500
       259   06 Jun 2027 07:24:41.931   06 Jun 2027 07:27:04.902           142.971            RioGallegos         17871.375
       260   06 Jun 2027 08:02:49.197   06 Jun 2027 08:09:01.653           372.456                  Delhi         46557.000
       261   06 Jun 2027 08:10:45.840   06 Jun 2027 08:15:41.489           295.649                Novosib         36956.125
       262   06 Jun 2027 08:15:50.838   06 Jun 2027 08:16:11.868            21.030                Norilsk          2628.750
       263   06 Jun 2027 08:20:24.647   06 Jun 2027 08:21:14.233            49.586              Murmansk2          6198.250
       264   06 Jun 2027 08:21:14.233   06 Jun 2027 08:27:29.696           375.463              Murmansk1         46932.875
       265   06 Jun 2027 09:51:47.240   06 Jun 2027 09:52:04.258            17.018              Murmansk2          2127.250
       266   06 Jun 2027 09:55:36.825   06 Jun 2027 10:01:20.907           344.082                Norilsk         43010.250
       267   06 Jun 2027 10:01:29.953   06 Jun 2027 10:03:23.656           113.703              Murmansk2         14212.875
       268   06 Jun 2027 11:01:23.361   06 Jun 2027 11:07:56.652           393.291               CapeTown         49161.375
       269   06 Jun 2027 11:24:39.046   06 Jun 2027 11:28:42.808           243.762                 Moscow         30470.250
       270   06 Jun 2027 11:29:14.343   06 Jun 2027 11:38:48.309           573.966              Murmansk2         71745.750
       271   06 Jun 2027 11:41:28.529   06 Jun 2027 11:47:04.901           336.372                Anadyr1         42046.500
       272   06 Jun 2027 12:36:33.213   06 Jun 2027 12:38:56.820           143.607               CapeTown         17950.875
       273   06 Jun 2027 12:39:24.568   06 Jun 2027 12:39:48.355            23.787               CapeTown          2973.375
       274   06 Jun 2027 13:07:15.270   06 Jun 2027 13:08:57.443           102.173              Murmansk2         12771.625
       275   06 Jun 2027 13:20:19.879   06 Jun 2027 13:24:19.814           239.935               Magadan1         29991.875
       276   06 Jun 2027 15:49:49.688   06 Jun 2027 15:52:20.698           151.010            RioGallegos         18876.250
       277   06 Jun 2027 16:36:07.327   06 Jun 2027 16:39:47.460           220.133                Irkutsk         27516.625
       278   06 Jun 2027 16:42:37.729   06 Jun 2027 16:43:41.352            63.623                Irkutsk          7952.875
       279   06 Jun 2027 16:51:24.567   06 Jun 2027 16:53:41.568           137.001                Sumatra         17125.125
       280   06 Jun 2027 18:13:22.485   06 Jun 2027 18:15:14.035           111.550                Novosib         13943.750
       281   06 Jun 2027 18:17:26.273   06 Jun 2027 18:17:32.193             5.920                Novosib           740.000
       282   06 Jun 2027 18:22:26.091   06 Jun 2027 18:23:35.601            69.510                  Delhi          8688.750
       283   06 Jun 2027 21:21:27.710   06 Jun 2027 21:21:59.276            31.566              Murmansk1          3945.750
       284   06 Jun 2027 21:24:48.337   06 Jun 2027 21:27:02.786           134.449                 Moscow         16806.125
       285   06 Jun 2027 21:27:53.959   06 Jun 2027 21:31:14.149           200.190                 Moscow         25023.750
       286   06 Jun 2027 21:51:16.136   06 Jun 2027 21:52:50.240            94.104               CapeTown         11763.000
       287   07 Jun 2027 03:44:55.053   07 Jun 2027 03:50:07.815           312.762                Norilsk         39095.250
       288   07 Jun 2027 03:50:07.895   07 Jun 2027 03:54:28.771           260.876              Murmansk2         32609.500
       289   07 Jun 2027 04:56:54.018   07 Jun 2027 04:59:32.744           158.726                Sumatra         19840.750
       290   07 Jun 2027 05:20:53.805   07 Jun 2027 05:20:55.270             1.465                Irkutsk           183.125
       291   07 Jun 2027 05:20:59.723   07 Jun 2027 05:25:52.353           292.630                Norilsk         36578.750
       292   07 Jun 2027 05:25:56.974   07 Jun 2027 05:27:23.056            86.082              Murmansk2         10760.250
       293   07 Jun 2027 05:27:40.867   07 Jun 2027 05:28:48.415            67.548              Murmansk2          8443.500
       294   07 Jun 2027 05:56:05.823   07 Jun 2027 05:58:30.567           144.744            RioGallegos         18093.000
       295   07 Jun 2027 05:59:27.582   07 Jun 2027 05:59:59.563            31.981            RioGallegos          3997.625
       296   07 Jun 2027 06:30:31.385   07 Jun 2027 06:33:18.511           167.126                Sumatra         20890.750
       297   07 Jun 2027 06:45:03.055   07 Jun 2027 06:46:30.152            87.097                  Delhi         10887.125
       298   07 Jun 2027 06:46:50.412   07 Jun 2027 06:49:27.806           157.394                Irkutsk         19674.250
       299   07 Jun 2027 06:55:20.461   07 Jun 2027 06:55:51.844            31.383                Novosib          3922.875
       300   07 Jun 2027 06:56:39.514   07 Jun 2027 06:58:23.503           103.989                Novosib         12998.625
       301   07 Jun 2027 06:58:25.103   07 Jun 2027 07:01:31.463           186.360                Norilsk         23295.000
       302   07 Jun 2027 07:01:34.556   07 Jun 2027 07:01:45.487            10.931              Murmansk2          1366.375
       303   07 Jun 2027 07:01:45.487   07 Jun 2027 07:03:51.728           126.241              Murmansk1         15780.125
       304   07 Jun 2027 08:15:06.056   07 Jun 2027 08:21:55.777           409.721                  Delhi         51215.125
       305   07 Jun 2027 08:23:06.107   07 Jun 2027 08:24:59.111           113.004                  Delhi         14125.500
       306   07 Jun 2027 08:25:06.476   07 Jun 2027 08:27:15.927           129.451                Novosib         16181.375
       307   07 Jun 2027 08:27:22.538   07 Jun 2027 08:27:47.027            24.489                Novosib          3061.125
       308   07 Jun 2027 08:32:29.445   07 Jun 2027 08:33:41.412            71.967                Novosib          8995.875
       309   07 Jun 2027 08:33:41.830   07 Jun 2027 08:37:43.023           241.193              Murmansk2         30149.125
       310   07 Jun 2027 08:37:43.023   07 Jun 2027 08:37:54.888            11.865              Murmansk1          1483.125
       311   07 Jun 2027 08:39:17.205   07 Jun 2027 08:39:30.074            12.869              Murmansk2          1608.625
       312   07 Jun 2027 09:59:02.430   07 Jun 2027 10:00:20.916            78.486                 Moscow          9810.750
       313   07 Jun 2027 10:02:33.102   07 Jun 2027 10:03:14.040            40.938              Murmansk1          5117.250
       314   07 Jun 2027 10:03:14.040   07 Jun 2027 10:04:32.230            78.190              Murmansk2          9773.750
       315   07 Jun 2027 10:07:23.494   07 Jun 2027 10:11:54.535           271.041                 Moscow         33880.125
       316   07 Jun 2027 10:11:55.521   07 Jun 2027 10:13:12.044            76.523                Norilsk          9565.375
       317   07 Jun 2027 10:13:17.324   07 Jun 2027 10:15:25.289           127.965              Murmansk2         15995.625
       318   07 Jun 2027 11:18:01.728   07 Jun 2027 11:19:14.581            72.853               CapeTown          9106.625
       319   07 Jun 2027 11:37:12.087   07 Jun 2027 11:41:03.297           231.210                 Moscow         28901.250
       320   07 Jun 2027 11:41:11.784   07 Jun 2027 11:49:53.140           521.356              Murmansk1         65169.500
       321   07 Jun 2027 11:50:37.304   07 Jun 2027 11:50:58.469            21.165              Murmansk2          2645.625
       322   07 Jun 2027 11:53:24.547   07 Jun 2027 11:57:47.909           263.362                Anadyr1         32920.250
       323   07 Jun 2027 12:00:24.213   07 Jun 2027 12:01:06.994            42.781                Anadyr1          5347.625
       324   07 Jun 2027 12:02:32.876   07 Jun 2027 12:03:49.210            76.334                Anadyr1          9541.750
       325   07 Jun 2027 12:48:42.317   07 Jun 2027 12:51:10.856           148.539               CapeTown         18567.375
       326   07 Jun 2027 13:32:06.729   07 Jun 2027 13:35:59.889           233.160               Magadan1         29145.000
       327   07 Jun 2027 16:00:53.431   07 Jun 2027 16:04:06.767           193.336            RioGallegos         24167.000
       328   07 Jun 2027 16:06:41.875   07 Jun 2027 16:07:21.734            39.859            RioGallegos          4982.375
       329   07 Jun 2027 16:48:39.281   07 Jun 2027 16:51:40.144           180.863                Irkutsk         22607.875
       330   07 Jun 2027 16:53:33.909   07 Jun 2027 16:54:13.038            39.129                Irkutsk          4891.125
       331   07 Jun 2027 17:02:28.749   07 Jun 2027 17:05:25.592           176.843                Sumatra         22105.375
       332   07 Jun 2027 17:07:13.655   07 Jun 2027 17:08:04.827            51.172                Sumatra          6396.500
       333   07 Jun 2027 18:26:36.557   07 Jun 2027 18:27:26.050            49.493                Novosib          6186.625
       334   07 Jun 2027 18:32:46.237   07 Jun 2027 18:35:14.724           148.487                  Delhi         18560.875
       335   07 Jun 2027 18:36:48.450   07 Jun 2027 18:37:32.787            44.337                  Delhi          5542.125
       336   07 Jun 2027 21:34:41.730   07 Jun 2027 21:36:23.914           102.184              Murmansk1         12773.000
       337   07 Jun 2027 21:37:33.525   07 Jun 2027 21:39:10.631            97.106                 Moscow         12138.250
       338   07 Jun 2027 21:40:48.381   07 Jun 2027 21:42:49.389           121.008                 Moscow         15126.000
       339   07 Jun 2027 22:02:26.870   07 Jun 2027 22:05:05.543           158.673               CapeTown         13525.375
       340   08 Jun 2027 03:56:51.696   08 Jun 2027 04:01:48.362           296.666              Murmansk1         37083.250
       341   08 Jun 2027 05:08:07.468   08 Jun 2027 05:11:20.010           192.542                Sumatra         24067.750
       342   08 Jun 2027 05:32:43.259   08 Jun 2027 05:34:20.503            97.244                Novosib         12155.500
       343   08 Jun 2027 05:34:24.308   08 Jun 2027 05:37:53.478           209.170                Norilsk         26146.250
       344   08 Jun 2027 05:37:54.678   08 Jun 2027 05:40:40.657           165.979              Murmansk1         20747.375
       345   08 Jun 2027 06:10:11.813   08 Jun 2027 06:11:42.200            90.387            RioGallegos         11298.375
       346   08 Jun 2027 06:12:23.195   08 Jun 2027 06:12:49.610            26.415            RioGallegos          3301.875
       347   08 Jun 2027 06:42:44.130   08 Jun 2027 06:45:15.896           151.766                Sumatra         18970.750
       348   08 Jun 2027 06:51:21.591   08 Jun 2027 06:53:28.251           126.660                  Delhi         15832.500
       349   08 Jun 2027 06:57:32.543   08 Jun 2027 06:58:56.084            83.541                Novosib         10442.625
       350   08 Jun 2027 06:59:54.667   08 Jun 2027 07:01:45.034           110.367                Irkutsk         13795.875
       351   08 Jun 2027 07:02:10.894   08 Jun 2027 07:02:43.737            32.843                Novosib          4105.375
       352   08 Jun 2027 07:07:59.518   08 Jun 2027 07:11:19.544           200.026                 Moscow         25003.250
       353   08 Jun 2027 07:11:32.932   08 Jun 2027 07:14:03.073           150.141              Murmansk2         18767.625
       354   08 Jun 2027 08:27:30.036   08 Jun 2027 08:34:50.046           440.010                  Delhi         55001.250
       355   08 Jun 2027 08:35:48.878   08 Jun 2027 08:39:37.261           228.383                Novosib         28547.875
       356   08 Jun 2027 08:44:50.820   08 Jun 2027 08:45:29.895            39.075                Novosib          4884.375
       357   08 Jun 2027 08:45:40.968   08 Jun 2027 08:51:30.719           349.751              Murmansk2         43718.875
       358   08 Jun 2027 10:14:19.994   08 Jun 2027 10:16:28.797           128.803                 Moscow         16100.375
       359   08 Jun 2027 10:16:44.393   08 Jun 2027 10:18:29.831           105.438              Murmansk2         13179.750
       360   08 Jun 2027 10:19:14.081   08 Jun 2027 10:21:25.848           131.767              Murmansk2         16470.875
       361   08 Jun 2027 10:21:25.848   08 Jun 2027 10:25:44.640           258.792              Murmansk1         32349.000
       362   08 Jun 2027 10:31:23.921   08 Jun 2027 10:34:26.078           182.157                Anadyr1         22769.625
       363   08 Jun 2027 11:52:23.217   08 Jun 2027 11:53:31.764            68.547              Murmansk2          8568.375
       364   08 Jun 2027 11:53:31.764   08 Jun 2027 12:02:17.006           525.242              Murmansk1         65655.250
       365   08 Jun 2027 12:02:26.738   08 Jun 2027 12:02:48.092            21.354              Murmansk2          2669.250
       366   08 Jun 2027 12:02:49.606   08 Jun 2027 12:03:22.660            33.054              Murmansk2          4131.750
       367   08 Jun 2027 12:13:23.862   08 Jun 2027 12:13:36.462            12.600                Anadyr1          1575.000
       368   08 Jun 2027 13:43:56.951   08 Jun 2027 13:50:13.661           376.710               Magadan1         47088.750
       369   08 Jun 2027 16:12:20.382   08 Jun 2027 16:15:56.290           215.908            RioGallegos         26988.500
       370   08 Jun 2027 16:18:44.978   08 Jun 2027 16:20:16.724            91.746            RioGallegos         11468.250
       371   08 Jun 2027 17:02:21.052   08 Jun 2027 17:03:34.769            73.717                Irkutsk          9214.625
       372   08 Jun 2027 17:15:57.018   08 Jun 2027 17:18:38.610           161.592                Sumatra         20199.000
       373   08 Jun 2027 17:20:15.947   08 Jun 2027 17:21:23.468            67.521                Sumatra          8440.125
       374   08 Jun 2027 18:36:09.239   08 Jun 2027 18:37:41.102            91.863                Novosib         11482.875
       375   08 Jun 2027 18:43:53.610   08 Jun 2027 18:44:57.557            63.947                  Delhi          7993.375
       376   08 Jun 2027 18:46:53.898   08 Jun 2027 18:49:14.563           140.665                  Delhi         17583.125
       377   08 Jun 2027 21:47:39.265   08 Jun 2027 21:48:18.959            39.694              Murmansk1          4961.750
       378   08 Jun 2027 21:48:31.644   08 Jun 2027 21:50:02.911            91.267                 Moscow         11408.375
       379   08 Jun 2027 21:51:15.406   08 Jun 2027 21:52:51.114            95.708                 Moscow         11963.500
       380   08 Jun 2027 22:13:48.006   08 Jun 2027 22:14:17.360            29.354               CapeTown          3669.250
       381   08 Jun 2027 22:15:03.793   08 Jun 2027 22:16:59.693           115.900               CapeTown          2394.500
       382   09 Jun 2027 04:08:54.573   09 Jun 2027 04:09:50.731            56.158                Novosib          7019.750
       383   09 Jun 2027 05:19:33.992   09 Jun 2027 05:20:44.019            70.027                Sumatra          8753.375
       384   09 Jun 2027 05:26:19.245   09 Jun 2027 05:26:42.155            22.910                Sumatra          2863.750
       385   09 Jun 2027 05:44:58.541   09 Jun 2027 05:49:54.789           296.248                Norilsk         37031.000
       386   09 Jun 2027 05:50:09.540   09 Jun 2027 05:52:33.649           144.109              Murmansk2         18013.625
       387   09 Jun 2027 06:20:50.569   09 Jun 2027 06:21:56.309            65.740            RioGallegos          8217.500
       388   09 Jun 2027 06:22:25.371   09 Jun 2027 06:22:57.302            31.931            RioGallegos          3991.375
       389   09 Jun 2027 06:24:28.926   09 Jun 2027 06:25:02.690            33.764            RioGallegos          4220.500
       390   09 Jun 2027 06:31:20.746   09 Jun 2027 06:31:52.744            31.998            RioGallegos          3999.750
       391   09 Jun 2027 06:55:03.860   09 Jun 2027 06:56:58.131           114.271                Sumatra         14283.875
       392   09 Jun 2027 06:58:02.924   09 Jun 2027 06:59:01.730            58.806                Sumatra          7350.750
       393   09 Jun 2027 07:01:35.090   09 Jun 2027 07:02:28.935            53.845                Sumatra          6730.625
       394   09 Jun 2027 07:03:04.999   09 Jun 2027 07:03:13.285             8.286                  Delhi          1035.750
       395   09 Jun 2027 07:05:16.621   09 Jun 2027 07:07:24.436           127.815                  Delhi         15976.875
       396   09 Jun 2027 07:09:38.704   09 Jun 2027 07:10:31.488            52.784                Novosib          6598.000
       397   09 Jun 2027 07:11:00.379   09 Jun 2027 07:14:38.618           218.239                Irkutsk         27279.875
       398   09 Jun 2027 07:14:40.513   09 Jun 2027 07:15:20.067            39.554                Norilsk          4944.250
       399   09 Jun 2027 07:20:33.007   09 Jun 2027 07:25:54.203           321.196                Norilsk         40149.500
       400   09 Jun 2027 07:26:38.339   09 Jun 2027 07:27:12.254            33.915              Murmansk2          4239.375
       401   09 Jun 2027 07:27:24.631   09 Jun 2027 07:27:47.443            22.812              Murmansk2          2851.500
       402   09 Jun 2027 08:40:02.719   09 Jun 2027 08:42:08.173           125.454                  Delhi         15681.750
       403   09 Jun 2027 08:42:37.191   09 Jun 2027 08:44:01.869            84.678                  Delhi         10584.750
       404   09 Jun 2027 08:48:29.751   09 Jun 2027 08:52:02.936           213.185                Novosib         26648.125
       405   09 Jun 2027 08:56:21.335   09 Jun 2027 08:57:14.480            53.145                Novosib          6643.125
       406   09 Jun 2027 08:57:16.945   09 Jun 2027 09:03:31.583           374.638              Murmansk1         46829.750
       407   09 Jun 2027 10:26:47.683   09 Jun 2027 10:32:36.108           348.425              Murmansk1         43553.125
       408   09 Jun 2027 10:32:36.108   09 Jun 2027 10:33:08.995            32.887              Murmansk2          4110.875
       409   09 Jun 2027 10:33:53.467   09 Jun 2027 10:36:29.758           156.291                Norilsk         19536.375
       410   09 Jun 2027 10:36:33.573   09 Jun 2027 10:36:45.066            11.493              Murmansk2          1436.625
       411   09 Jun 2027 10:42:43.209   09 Jun 2027 10:47:47.526           304.317                Anadyr2         38039.625
       412   09 Jun 2027 12:04:47.564   09 Jun 2027 12:06:06.857            79.293              Murmansk1          9911.625
       413   09 Jun 2027 12:06:06.857   09 Jun 2027 12:07:06.917            60.060              Murmansk2          7507.500
       414   09 Jun 2027 12:24:30.376   09 Jun 2027 12:24:44.403            14.027                Anadyr2          1753.375
       415   09 Jun 2027 12:26:13.717   09 Jun 2027 12:26:34.867            21.150                Anadyr1          2643.750
       416   09 Jun 2027 13:55:49.592   09 Jun 2027 14:00:09.519           259.927               Magadan1         32490.875
       417   09 Jun 2027 14:02:21.857   09 Jun 2027 14:02:33.390            11.533               Magadan2          1441.625
       418   09 Jun 2027 14:03:21.224   09 Jun 2027 14:04:47.445            86.221               Magadan2         10777.625
       419   09 Jun 2027 16:23:57.604   09 Jun 2027 16:29:41.722           344.118            RioGallegos         43014.750
       420   09 Jun 2027 17:13:48.538   09 Jun 2027 17:15:26.333            97.795                Irkutsk         12224.375
       421   09 Jun 2027 17:15:27.016   09 Jun 2027 17:15:30.989             3.973                Irkutsk           496.625
       422   09 Jun 2027 17:25:20.897   09 Jun 2027 17:26:58.651            97.754                Sumatra         12219.250
       423   09 Jun 2027 17:29:12.018   09 Jun 2027 17:31:54.018           162.000                Sumatra         20250.000
       424   09 Jun 2027 18:46:59.622   09 Jun 2027 18:48:37.585            97.963                Novosib         12245.375
       425   09 Jun 2027 18:55:18.157   09 Jun 2027 18:58:49.491           211.334                  Delhi         26416.750
       426   09 Jun 2027 20:27:46.334   09 Jun 2027 20:28:47.206            60.872                 Moscow          7609.000
       427   09 Jun 2027 21:56:56.763   09 Jun 2027 21:58:43.076           106.313              Murmansk2         13289.125
       428   09 Jun 2027 22:02:27.514   09 Jun 2027 22:03:17.217            49.703                 Moscow           762.751
       429   10 Jun 2027 05:31:09.852   10 Jun 2027 05:33:00.701           110.849                Sumatra         13856.125
       430   10 Jun 2027 05:44:52.577   10 Jun 2027 05:45:33.799            41.222                  Delhi          5152.750
       431   10 Jun 2027 05:56:21.866   10 Jun 2027 06:00:50.959           269.093              Murmansk2         33636.625
       432   10 Jun 2027 06:00:50.959   10 Jun 2027 06:04:27.384           216.425              Murmansk1         27053.125
       433   10 Jun 2027 06:36:33.755   10 Jun 2027 06:37:19.839            46.084            RioGallegos          5760.500
       434   10 Jun 2027 06:40:50.013   10 Jun 2027 06:41:14.773            24.760            RioGallegos          3095.000
       435   10 Jun 2027 06:41:56.570   10 Jun 2027 06:43:04.344            67.774            RioGallegos          8471.750
       436   10 Jun 2027 07:08:32.699   10 Jun 2027 07:10:14.292           101.593                Sumatra         12699.125
       437   10 Jun 2027 07:10:53.063   10 Jun 2027 07:11:42.608            49.545                Sumatra          6193.125
       438   10 Jun 2027 07:14:31.280   10 Jun 2027 07:14:58.400            27.120                Sumatra          3390.000
       439   10 Jun 2027 07:15:42.102   10 Jun 2027 07:16:34.060            51.958                  Delhi          6494.750
       440   10 Jun 2027 07:16:45.675   10 Jun 2027 07:17:37.923            52.248                Sumatra          6531.000
       441   10 Jun 2027 07:18:24.789   10 Jun 2027 07:18:56.900            32.111                  Delhi          4013.875
       442   10 Jun 2027 07:21:47.996   10 Jun 2027 07:24:05.886           137.890                Novosib         17236.250
       443   10 Jun 2027 07:24:12.146   10 Jun 2027 07:26:33.009           140.863                Irkutsk         17607.875
       444   10 Jun 2027 07:26:33.089   10 Jun 2027 07:27:56.724            83.635                 Moscow         10454.375
       445   10 Jun 2027 07:32:42.205   10 Jun 2027 07:35:36.428           174.223                 Moscow         21777.875
       446   10 Jun 2027 07:35:49.802   10 Jun 2027 07:38:25.478           155.676              Murmansk2         19459.500
       447   10 Jun 2027 07:38:25.478   10 Jun 2027 07:39:01.666            36.188              Murmansk1          4523.500
       448   10 Jun 2027 07:39:25.438   10 Jun 2027 07:39:46.026            20.588              Murmansk1          2573.500
       449   10 Jun 2027 08:52:47.038   10 Jun 2027 08:54:33.015           105.977                  Delhi         13247.125
       450   10 Jun 2027 08:59:36.752   10 Jun 2027 09:00:22.992            46.240                  Delhi          5780.000
       451   10 Jun 2027 09:00:59.288   10 Jun 2027 09:01:36.379            37.091                  Delhi          4636.375
       452   10 Jun 2027 09:01:49.700   10 Jun 2027 09:04:30.212           160.512                Novosib         20064.000
       453   10 Jun 2027 09:09:13.872   10 Jun 2027 09:13:48.496           274.624                Norilsk         34328.000
       454   10 Jun 2027 09:14:40.947   10 Jun 2027 09:14:54.098            13.151              Murmansk1          1643.875
       455   10 Jun 2027 09:14:54.098   10 Jun 2027 09:15:32.652            38.554              Murmansk2          4819.250
       456   10 Jun 2027 10:38:04.297   10 Jun 2027 10:38:12.059             7.762                 Moscow           970.250
       457   10 Jun 2027 10:38:18.155   10 Jun 2027 10:39:02.585            44.430                 Moscow          5553.750
       458   10 Jun 2027 10:39:10.705   10 Jun 2027 10:43:42.635           271.930              Murmansk1         33991.250
       459   10 Jun 2027 10:44:33.200   10 Jun 2027 10:45:22.006            48.806              Murmansk2          6100.750
       460   10 Jun 2027 10:46:33.750   10 Jun 2027 10:48:41.377           127.627              Murmansk2         15953.375
       461   10 Jun 2027 10:54:20.974   10 Jun 2027 10:58:18.816           237.842                Anadyr2         29730.250
       462   10 Jun 2027 10:59:59.327   10 Jun 2027 11:00:47.970            48.643                Anadyr1          6080.375
       463   10 Jun 2027 12:16:06.056   10 Jun 2027 12:18:32.719           146.663                 Moscow         18332.875
       464   10 Jun 2027 12:19:18.139   10 Jun 2027 12:22:17.230           179.091              Murmansk2         22386.375
       465   10 Jun 2027 12:29:18.574   10 Jun 2027 12:30:28.028            69.454                Anadyr1          8681.750
       466   10 Jun 2027 12:32:02.828   10 Jun 2027 12:33:52.055           109.227                Anadyr2         13653.375
       467   10 Jun 2027 14:07:44.066   10 Jun 2027 14:09:49.616           125.550               Magadan2         15693.750
       468   10 Jun 2027 14:10:26.888   10 Jun 2027 14:12:04.149            97.261               Magadan1         12157.625
       469   10 Jun 2027 16:35:40.964   10 Jun 2027 16:41:47.563           366.599            RioGallegos         45824.875
       470   10 Jun 2027 17:23:10.538   10 Jun 2027 17:24:44.502            93.964                Irkutsk         11745.500
       471   10 Jun 2027 17:25:51.679   10 Jun 2027 17:26:08.800            17.121                Irkutsk          2140.125
       472   10 Jun 2027 17:27:26.427   10 Jun 2027 17:28:21.182            54.755                Novosib          6844.375
       473   10 Jun 2027 17:37:00.654   10 Jun 2027 17:39:21.123           140.469                Sumatra         17558.625
       474   10 Jun 2027 17:41:13.696   10 Jun 2027 17:43:06.342           112.646                Sumatra         14080.750
       475   10 Jun 2027 19:06:52.776   10 Jun 2027 19:10:24.858           212.082                  Delhi         26510.250
       476   10 Jun 2027 20:37:18.418   10 Jun 2027 20:37:41.941            23.523              Murmansk1          2940.375
       477   10 Jun 2027 20:38:32.030   10 Jun 2027 20:40:58.238           146.208                 Moscow         18276.000
       478   10 Jun 2027 22:36:52.828   10 Jun 2027 22:38:54.161           121.333               CapeTown          3447.125
       479   11 Jun 2027 04:33:05.231   11 Jun 2027 04:36:51.197           225.966                Norilsk         28245.750
       480   11 Jun 2027 05:42:53.156   11 Jun 2027 05:44:38.683           105.527                Sumatra         13190.875
       481   11 Jun 2027 05:55:02.492   11 Jun 2027 05:55:38.484            35.992                  Delhi          4499.000
       482   11 Jun 2027 06:08:55.709   11 Jun 2027 06:09:45.049            49.340                 Moscow          6167.500
