uniorb/output/strategy_4/Drop/Drop_KinoSat_111404.txt

KinoSat_111404
-------------------------
    Access    *     Start Time (UTCG)     *     Stop Time (UTCG)  *   Duration (s)        *       Station  *  Data (Mbytes)
         1   01 Jun 2027 03:35:27.622   01 Jun 2027 03:36:40.428            72.806                 Moscow          2275.188
         2   01 Jun 2027 03:36:41.932   01 Jun 2027 03:39:55.263           193.331              Murmansk2          6041.594
         3   01 Jun 2027 03:56:49.956   01 Jun 2027 03:57:11.363            21.407               CapeTown           668.969
         4   01 Jun 2027 03:58:28.974   01 Jun 2027 03:58:39.453            10.479               CapeTown           327.469
         5   01 Jun 2027 03:59:01.106   01 Jun 2027 03:59:20.300            19.194               CapeTown           599.812
         6   01 Jun 2027 04:01:17.298   01 Jun 2027 04:01:42.654            25.356               CapeTown           792.375
         7   01 Jun 2027 04:02:23.461   01 Jun 2027 04:02:28.493             5.032               CapeTown           157.250
         8   01 Jun 2027 04:03:26.008   01 Jun 2027 04:04:26.948            60.940               CapeTown          1904.375
         9   01 Jun 2027 04:58:06.697   01 Jun 2027 04:58:17.098            10.401               Magadan2           325.031
        10   01 Jun 2027 04:58:41.223   01 Jun 2027 04:58:57.034            15.811                Anadyr2           494.094
        11   01 Jun 2027 04:59:13.177   01 Jun 2027 05:00:26.117            72.940                Anadyr2          2279.375
        12   01 Jun 2027 05:00:53.479   01 Jun 2027 05:01:02.720             9.241                Anadyr2           288.781
        13   01 Jun 2027 05:03:12.797   01 Jun 2027 05:03:29.125            16.328                Anadyr1           510.250
        14   01 Jun 2027 05:10:34.074   01 Jun 2027 05:11:44.526            70.452              Murmansk2          2201.625
        15   01 Jun 2027 05:11:44.526   01 Jun 2027 05:14:53.571           189.045              Murmansk1          5907.656
        16   01 Jun 2027 05:14:53.571   01 Jun 2027 05:15:11.946            18.375              Murmansk2           574.219
        17   01 Jun 2027 05:15:33.982   01 Jun 2027 05:16:17.794            43.812              Murmansk1          1369.125
        18   01 Jun 2027 06:33:42.349   01 Jun 2027 06:34:22.763            40.414                Anadyr1          1262.938
        19   01 Jun 2027 06:34:41.608   01 Jun 2027 06:37:58.030           196.422               Magadan2          6138.188
        20   01 Jun 2027 06:37:59.755   01 Jun 2027 06:39:18.686            78.931                Anadyr2          2466.594
        21   01 Jun 2027 08:09:05.572   01 Jun 2027 08:09:54.802            49.230               Magadan2          1538.437
        22   01 Jun 2027 08:10:00.757   01 Jun 2027 08:12:10.465           129.708               Magadan1          4053.375
        23   01 Jun 2027 08:12:35.055   01 Jun 2027 08:15:31.178           176.123                Anadyr1          5503.844
        24   01 Jun 2027 09:46:20.433   01 Jun 2027 09:50:00.886           220.453               Magadan1          6889.156
        25   01 Jun 2027 09:50:00.886   01 Jun 2027 09:50:01.406             0.520               Magadan2            16.250
        26   01 Jun 2027 09:50:34.944   01 Jun 2027 09:51:08.388            33.444                Irkutsk          1045.125
        27   01 Jun 2027 09:51:32.816   01 Jun 2027 09:52:42.450            69.634                Norilsk          2176.062
        28   01 Jun 2027 09:52:48.355   01 Jun 2027 09:53:07.610            19.255              Murmansk1           601.719
        29   01 Jun 2027 09:54:20.872   01 Jun 2027 09:54:59.541            38.669              Murmansk1          1208.406
        30   01 Jun 2027 10:26:27.404   01 Jun 2027 10:27:10.970            43.566            RioGallegos          1361.437
        31   01 Jun 2027 10:27:50.403   01 Jun 2027 10:28:22.194            31.791            RioGallegos           993.469
        32   01 Jun 2027 10:28:29.694   01 Jun 2027 10:29:23.556            53.862            RioGallegos          1683.187
        33   01 Jun 2027 11:01:15.130   01 Jun 2027 11:02:22.190            67.060                Sumatra          2095.625
        34   01 Jun 2027 11:04:05.910   01 Jun 2027 11:04:23.838            17.928                Sumatra           560.250
        35   01 Jun 2027 11:15:10.345   01 Jun 2027 11:15:23.407            13.062                  Delhi           408.187
        36   01 Jun 2027 11:23:35.894   01 Jun 2027 11:27:25.219           229.325                Irkutsk          7166.406
        37   01 Jun 2027 11:27:34.432   01 Jun 2027 11:27:50.574            16.142              Murmansk1           504.438
        38   01 Jun 2027 12:06:01.153   01 Jun 2027 12:07:15.080            73.927            RioGallegos          2310.219
        39   01 Jun 2027 12:08:17.419   01 Jun 2027 12:09:37.770            80.351            RioGallegos          2510.969
        40   01 Jun 2027 12:10:31.336   01 Jun 2027 12:10:36.289             4.953            RioGallegos           154.781
        41   01 Jun 2027 12:41:16.724   01 Jun 2027 12:44:16.727           180.003                Sumatra          5625.094
        42   01 Jun 2027 12:53:52.599   01 Jun 2027 12:54:25.582            32.983                Novosib          1030.719
        43   01 Jun 2027 12:55:18.773   01 Jun 2027 12:56:26.612            67.839                Novosib          2119.969
        44   01 Jun 2027 12:57:11.850   01 Jun 2027 12:58:36.601            84.751                Norilsk          2648.469
        45   01 Jun 2027 12:59:49.616   01 Jun 2027 13:00:44.960            55.344                Norilsk          1729.500
        46   01 Jun 2027 14:29:51.742   01 Jun 2027 14:32:18.727           146.985                 Moscow          4593.281
        47   01 Jun 2027 14:33:15.689   01 Jun 2027 14:35:42.985           147.296              Murmansk1          4603.000
        48   01 Jun 2027 14:36:52.414   01 Jun 2027 14:38:13.467            81.053                Norilsk          2532.906
        49   01 Jun 2027 14:40:45.224   01 Jun 2027 14:41:46.521            61.297                Norilsk          1915.531
        50   01 Jun 2027 15:44:42.716   01 Jun 2027 15:47:36.624           173.908               CapeTown          5434.625
        51   01 Jun 2027 16:06:56.817   01 Jun 2027 16:07:09.620            12.803                 Moscow           400.094
        52   01 Jun 2027 16:07:24.459   01 Jun 2027 16:08:03.224            38.765                 Moscow          1211.406
        53   01 Jun 2027 16:10:11.033   01 Jun 2027 16:11:34.318            83.285              Murmansk2          2602.656
        54   01 Jun 2027 16:13:19.367   01 Jun 2027 16:14:19.035            59.668              Murmansk1          1864.625
        55   01 Jun 2027 16:24:24.493   01 Jun 2027 16:25:46.319            81.826                Anadyr2          2557.063
        56   01 Jun 2027 16:27:14.004   01 Jun 2027 16:27:27.678            13.674                Anadyr1           427.312
        57   01 Jun 2027 17:19:17.409   01 Jun 2027 17:21:32.861           135.452               CapeTown          4232.875
        58   01 Jun 2027 17:49:18.510   01 Jun 2027 17:50:09.105            50.595              Murmansk2          1581.094
        59   01 Jun 2027 17:50:16.195   01 Jun 2027 17:54:19.054           242.859              Murmansk1          7589.344
        60   01 Jun 2027 17:59:53.787   01 Jun 2027 17:59:58.419             4.632                Anadyr1           144.750
        61   01 Jun 2027 18:03:30.894   01 Jun 2027 18:05:35.178           124.284               Magadan1          3883.875
        62   01 Jun 2027 19:01:21.019   01 Jun 2027 19:02:29.385            68.366               CapeTown          2136.437
        63   01 Jun 2027 19:35:48.369   01 Jun 2027 19:39:33.884           225.515                Anadyr1          7047.344
        64   01 Jun 2027 19:39:39.379   01 Jun 2027 19:41:38.053           118.674               Magadan1          3708.562
        65   01 Jun 2027 19:41:38.053   01 Jun 2027 19:42:48.851            70.798               Magadan2          2212.437
        66   01 Jun 2027 21:11:40.768   01 Jun 2027 21:15:07.308           206.540                Anadyr1          6454.375
        67   01 Jun 2027 21:15:11.753   01 Jun 2027 21:15:21.131             9.378                Anadyr1           293.062
        68   01 Jun 2027 21:15:40.747   01 Jun 2027 21:15:54.071            13.324                Norilsk           416.375
        69   01 Jun 2027 21:16:04.976   01 Jun 2027 21:17:48.142           103.166               Magadan1          3223.937
        70   01 Jun 2027 21:17:50.135   01 Jun 2027 21:19:19.001            88.866                Norilsk          2777.063
        71   01 Jun 2027 21:19:33.318   01 Jun 2027 21:20:52.578            79.260                Irkutsk          2476.875
        72   01 Jun 2027 21:25:25.516   01 Jun 2027 21:25:31.178             5.662                Irkutsk           176.937
        73   01 Jun 2027 21:36:13.824   01 Jun 2027 21:37:14.397            60.573                Sumatra          1892.906
        74   01 Jun 2027 21:39:26.132   01 Jun 2027 21:40:02.954            36.822                Sumatra          1150.688
        75   01 Jun 2027 22:11:15.386   01 Jun 2027 22:11:54.088            38.702            RioGallegos          1209.437
        76   01 Jun 2027 22:47:07.556   01 Jun 2027 22:49:33.668           146.112                Anadyr2          4566.000
        77   01 Jun 2027 22:49:43.781   01 Jun 2027 22:51:23.044            99.263                Norilsk          3101.969
        78   01 Jun 2027 22:51:42.766   01 Jun 2027 22:52:07.227            24.461               Magadan2           764.406
        79   01 Jun 2027 22:52:44.374   01 Jun 2027 22:53:30.529            46.155               Magadan1          1442.344
        80   01 Jun 2027 22:53:32.592   01 Jun 2027 22:54:40.940            68.348                Irkutsk          2135.875
        81   01 Jun 2027 22:57:55.892   01 Jun 2027 22:58:15.568            19.676                Novosib           614.875
        82   01 Jun 2027 23:00:45.087   01 Jun 2027 23:01:08.474            23.387                Novosib           730.844
        83   01 Jun 2027 23:07:14.522   01 Jun 2027 23:07:55.726            41.204                Sumatra          1287.625
        84   01 Jun 2027 23:09:52.927   01 Jun 2027 23:10:10.448            17.521                Sumatra           547.531
        85   01 Jun 2027 23:10:24.095   01 Jun 2027 23:11:12.759            48.664                Sumatra          1520.750
        86   01 Jun 2027 23:15:52.816   01 Jun 2027 23:15:57.755             4.939                Sumatra           154.344
        87   01 Jun 2027 23:45:20.225   01 Jun 2027 23:45:51.181            30.956            RioGallegos           967.375
        88   01 Jun 2027 23:48:35.584   01 Jun 2027 23:48:48.545            12.961            RioGallegos           405.031
        89   01 Jun 2027 23:49:26.977   01 Jun 2027 23:50:33.968            66.991            RioGallegos          2093.469
        90   02 Jun 2027 00:22:06.345   02 Jun 2027 00:23:04.538            58.193                Anadyr2          1818.531
        91   02 Jun 2027 00:23:17.530   02 Jun 2027 00:23:34.280            16.750                Anadyr2           523.437
        92   02 Jun 2027 00:25:31.700   02 Jun 2027 00:25:53.171            21.471                Norilsk           670.969
        93   02 Jun 2027 00:26:10.014   02 Jun 2027 00:27:36.671            86.657               Magadan1          2708.031
        94   02 Jun 2027 00:28:17.390   02 Jun 2027 00:28:22.032             4.642               Magadan1           145.062
        95   02 Jun 2027 00:28:26.881   02 Jun 2027 00:28:44.109            17.228               Magadan1           538.375
        96   02 Jun 2027 00:29:01.368   02 Jun 2027 00:29:51.585            50.217               Magadan1          1569.281
        97   02 Jun 2027 00:29:54.215   02 Jun 2027 00:30:13.333            19.118              Murmansk2           597.437
        98   02 Jun 2027 00:30:13.333   02 Jun 2027 00:31:54.486           101.153              Murmansk1          3161.031
        99   02 Jun 2027 00:36:50.366   02 Jun 2027 00:37:42.472            52.106                  Delhi          1628.313
       100   02 Jun 2027 00:39:38.594   02 Jun 2027 00:39:51.290            12.696                  Delhi           396.750
       101   02 Jun 2027 00:40:53.432   02 Jun 2027 00:42:59.468           126.036                  Delhi          3938.625
       102   02 Jun 2027 01:24:37.862   02 Jun 2027 01:25:27.732            49.870            RioGallegos          1558.438
       103   02 Jun 2027 01:54:53.646   02 Jun 2027 01:54:56.539             2.893                Anadyr1            90.406
       104   02 Jun 2027 01:55:53.080   02 Jun 2027 01:56:27.249            34.169                Anadyr1          1067.781
       105   02 Jun 2027 01:57:51.684   02 Jun 2027 01:57:52.428             0.744                Anadyr2            23.250
       106   02 Jun 2027 01:58:01.672   02 Jun 2027 01:58:21.184            19.512                Anadyr1           609.750
       107   02 Jun 2027 01:59:45.541   02 Jun 2027 01:59:59.338            13.797                Anadyr1           431.156
       108   02 Jun 2027 02:00:38.138   02 Jun 2027 02:00:56.119            17.981                Anadyr1           561.906
       109   02 Jun 2027 02:01:06.050   02 Jun 2027 02:02:08.167            62.117               Magadan1          1941.156
       110   02 Jun 2027 02:02:51.250   02 Jun 2027 02:03:13.907            22.657                Norilsk           708.031
       111   02 Jun 2027 02:03:28.220   02 Jun 2027 02:03:58.429            30.209               Magadan2           944.031
       112   02 Jun 2027 02:04:29.512   02 Jun 2027 02:05:51.809            82.297              Murmansk2          2571.781
       113   02 Jun 2027 02:05:58.432   02 Jun 2027 02:06:05.406             6.974              Murmansk2           217.938
       114   02 Jun 2027 02:06:21.611   02 Jun 2027 02:06:34.543            12.932                Novosib           404.125
       115   02 Jun 2027 02:07:53.323   02 Jun 2027 02:08:19.881            26.558                 Moscow           829.938
       116   02 Jun 2027 02:09:49.044   02 Jun 2027 02:10:55.492            66.448                Irkutsk          2076.500
       117   02 Jun 2027 02:15:01.210   02 Jun 2027 02:16:12.444            71.234                  Delhi          2226.062
       118   02 Jun 2027 03:35:16.060   02 Jun 2027 03:35:21.302             5.242                Anadyr1           163.812
       119   02 Jun 2027 03:36:10.296   02 Jun 2027 03:36:35.953            25.657                Anadyr1           801.781
       120   02 Jun 2027 03:47:54.595   02 Jun 2027 03:51:58.620           244.025              Murmansk1          7625.781
       121   02 Jun 2027 03:51:58.620   02 Jun 2027 03:52:07.904             9.284              Murmansk2           290.125
       122   02 Jun 2027 03:52:09.001   02 Jun 2027 03:52:25.034            16.033                 Moscow           501.031
       123   02 Jun 2027 04:13:00.301   02 Jun 2027 04:13:42.817            42.516               CapeTown          1328.625
       124   02 Jun 2027 04:15:23.921   02 Jun 2027 04:15:37.683            13.762               CapeTown           430.063
       125   02 Jun 2027 04:16:21.997   02 Jun 2027 04:16:52.733            30.736               CapeTown           960.500
       126   02 Jun 2027 04:17:14.862   02 Jun 2027 04:19:21.910           127.048               CapeTown          3970.250
       127   02 Jun 2027 05:10:18.397   02 Jun 2027 05:12:08.944           110.547               Magadan2          3454.594
       128   02 Jun 2027 05:12:13.283   02 Jun 2027 05:12:30.294            17.011               Magadan1           531.594
       129   02 Jun 2027 05:14:21.666   02 Jun 2027 05:14:40.851            19.185                Anadyr2           599.531
       130   02 Jun 2027 05:14:43.039   02 Jun 2027 05:15:56.835            73.796               Magadan1          2306.125
       131   02 Jun 2027 05:16:16.170   02 Jun 2027 05:16:25.035             8.865                Anadyr2           277.031
       132   02 Jun 2027 06:46:53.089   02 Jun 2027 06:47:22.577            29.488                Anadyr2           921.500
       133   02 Jun 2027 06:47:58.210   02 Jun 2027 06:48:05.290             7.080               Magadan1           221.250
       134   02 Jun 2027 06:48:05.290   02 Jun 2027 06:49:03.415            58.125               Magadan2          1816.406
       135   02 Jun 2027 06:49:19.293   02 Jun 2027 06:51:21.628           122.335                Anadyr2          3822.969
       136   02 Jun 2027 06:51:21.856   02 Jun 2027 06:51:32.984            11.128               Magadan2           347.750
       137   02 Jun 2027 06:51:42.515   02 Jun 2027 06:52:02.160            19.645               Magadan1           613.906
       138   02 Jun 2027 08:21:30.238   02 Jun 2027 08:24:02.113           151.875                Anadyr2          4746.094
       139   02 Jun 2027 08:24:02.113   02 Jun 2027 08:25:14.426            72.313                Anadyr1          2259.781
       140   02 Jun 2027 08:25:21.443   02 Jun 2027 08:27:28.820           127.377               Magadan2          3980.531
       141   02 Jun 2027 09:56:58.593   02 Jun 2027 09:58:19.534            80.941               Magadan2          2529.406
       142   02 Jun 2027 09:58:19.534   02 Jun 2027 09:59:16.463            56.929               Magadan1          1779.031
       143   02 Jun 2027 09:59:37.096   02 Jun 2027 09:59:53.936            16.840                Irkutsk           526.250
       144   02 Jun 2027 10:00:15.071   02 Jun 2027 10:00:30.262            15.191               Magadan1           474.719
       145   02 Jun 2027 10:00:40.939   02 Jun 2027 10:01:13.451            32.512               Magadan2          1016.000
       146   02 Jun 2027 10:01:18.254   02 Jun 2027 10:01:46.340            28.086                Norilsk           877.688
       147   02 Jun 2027 10:01:54.791   02 Jun 2027 10:02:01.058             6.267                Norilsk           195.844
       148   02 Jun 2027 10:02:14.087   02 Jun 2027 10:02:51.730            37.643                Norilsk          1176.344
       149   02 Jun 2027 10:02:55.081   02 Jun 2027 10:03:16.065            20.984                Irkutsk           655.750
       150   02 Jun 2027 10:03:23.186   02 Jun 2027 10:03:43.810            20.624                Irkutsk           644.500
       151   02 Jun 2027 10:38:38.559   02 Jun 2027 10:39:47.104            68.545            RioGallegos          2142.031
       152   02 Jun 2027 11:13:15.315   02 Jun 2027 11:13:30.895            15.580                Sumatra           486.875
       153   02 Jun 2027 11:17:56.580   02 Jun 2027 11:18:06.666            10.086                Sumatra           315.188
       154   02 Jun 2027 11:19:47.245   02 Jun 2027 11:21:02.594            75.349                Sumatra          2354.656
       155   02 Jun 2027 11:33:16.138   02 Jun 2027 11:33:34.612            18.474                  Delhi           577.313
       156   02 Jun 2027 11:33:54.692   02 Jun 2027 11:34:07.717            13.025                Irkutsk           407.031
       157   02 Jun 2027 11:35:24.493   02 Jun 2027 11:35:45.937            21.444                Novosib           670.125
       158   02 Jun 2027 11:35:48.929   02 Jun 2027 11:36:22.920            33.991                Irkutsk          1062.219
       159   02 Jun 2027 11:36:29.834   02 Jun 2027 11:36:55.027            25.193                Norilsk           787.281
       160   02 Jun 2027 11:37:06.284   02 Jun 2027 11:37:30.493            24.209                Irkutsk           756.531
       161   02 Jun 2027 11:37:35.932   02 Jun 2027 11:38:17.503            41.571                Norilsk          1299.094
       162   02 Jun 2027 11:38:37.639   02 Jun 2027 11:39:19.849            42.210                Irkutsk          1319.062
       163   02 Jun 2027 11:39:22.557   02 Jun 2027 11:40:17.033            54.476                Novosib          1702.375
       164   02 Jun 2027 12:19:12.777   02 Jun 2027 12:20:14.430            61.653            RioGallegos          1926.656
       165   02 Jun 2027 12:59:09.251   02 Jun 2027 12:59:42.815            33.564                  Delhi          1048.875
       166   02 Jun 2027 13:00:31.672   02 Jun 2027 13:01:24.524            52.852                  Delhi          1651.625
       167   02 Jun 2027 13:05:31.457   02 Jun 2027 13:06:34.857            63.400                Novosib          1981.250
       168   02 Jun 2027 13:09:33.294   02 Jun 2027 13:11:03.910            90.616                Norilsk          2831.750
       169   02 Jun 2027 13:17:32.691   02 Jun 2027 13:18:33.204            60.513                Norilsk          1891.031
       170   02 Jun 2027 14:41:50.990   02 Jun 2027 14:44:55.756           184.766                 Moscow          5773.937
       171   02 Jun 2027 14:45:09.824   02 Jun 2027 14:45:22.786            12.962                 Moscow           405.062
       172   02 Jun 2027 14:46:37.734   02 Jun 2027 14:47:38.326            60.592              Murmansk1          1893.500
       173   02 Jun 2027 14:49:35.558   02 Jun 2027 14:51:08.444            92.886                Norilsk          2902.687
       174   02 Jun 2027 14:52:44.058   02 Jun 2027 14:54:24.153           100.095                Norilsk          3127.969
       175   02 Jun 2027 15:56:17.725   02 Jun 2027 15:57:09.696            51.971               CapeTown          1624.094
       176   02 Jun 2027 15:57:31.543   02 Jun 2027 15:59:25.108           113.565               CapeTown          3548.906
       177   02 Jun 2027 16:19:23.838   02 Jun 2027 16:19:32.574             8.736                 Moscow           273.000
       178   02 Jun 2027 16:22:28.485   02 Jun 2027 16:22:56.007            27.522              Murmansk2           860.063
       179   02 Jun 2027 16:24:07.359   02 Jun 2027 16:24:37.544            30.185              Murmansk2           943.281
       180   02 Jun 2027 16:26:35.856   02 Jun 2027 16:26:42.964             7.108              Murmansk2           222.125
       181   02 Jun 2027 16:26:42.964   02 Jun 2027 16:27:00.020            17.056              Murmansk1           533.000
       182   02 Jun 2027 16:32:07.051   02 Jun 2027 16:32:18.233            11.182              Murmansk1           349.437
       183   02 Jun 2027 16:36:19.105   02 Jun 2027 16:37:48.171            89.066                Anadyr1          2783.313
       184   02 Jun 2027 16:37:57.580   02 Jun 2027 16:38:49.826            52.246                Anadyr2          1632.688
       185   02 Jun 2027 16:43:29.284   02 Jun 2027 16:43:35.571             6.287                Anadyr2           196.469
       186   02 Jun 2027 16:45:34.296   02 Jun 2027 16:45:37.035             2.739                Anadyr2            85.594
       187   02 Jun 2027 16:45:39.682   02 Jun 2027 16:45:50.315            10.633                Anadyr2           332.281
       188   02 Jun 2027 17:31:23.373   02 Jun 2027 17:32:10.055            46.682               CapeTown          1458.813
       189   02 Jun 2027 17:32:39.003   02 Jun 2027 17:33:27.896            48.893               CapeTown          1527.906
       190   02 Jun 2027 17:42:49.590   02 Jun 2027 17:43:00.463            10.873               CapeTown           339.781
       191   02 Jun 2027 18:01:56.742   02 Jun 2027 18:06:18.278           261.536              Murmansk2          8173.000
       192   02 Jun 2027 18:12:49.143   02 Jun 2027 18:13:06.756            17.613                Anadyr2           550.406
       193   02 Jun 2027 18:15:12.041   02 Jun 2027 18:16:27.236            75.195               Magadan2          2349.844
       194   02 Jun 2027 18:17:31.227   02 Jun 2027 18:18:23.892            52.665               Magadan2          1645.781
       195   02 Jun 2027 18:21:28.702   02 Jun 2027 18:21:37.049             8.347               Magadan2           260.844
       196   02 Jun 2027 19:47:49.975   02 Jun 2027 19:49:34.568           104.593                Anadyr2          3268.531
       197   02 Jun 2027 19:49:43.252   02 Jun 2027 19:51:35.207           111.955                Anadyr1          3498.594
       198   02 Jun 2027 19:51:48.619   02 Jun 2027 19:53:47.373           118.754               Magadan1          3711.062
       199   02 Jun 2027 19:54:17.993   02 Jun 2027 19:55:08.031            50.038               Magadan2          1563.687
       200   02 Jun 2027 19:57:50.208   02 Jun 2027 19:58:14.775            24.567               Magadan1           767.719
       201   02 Jun 2027 19:58:39.401   02 Jun 2027 19:58:46.686             7.285               Magadan1           227.656
       202   02 Jun 2027 20:44:53.187   02 Jun 2027 20:46:48.096           114.909            RioGallegos          3590.906
       203   02 Jun 2027 21:23:40.671   02 Jun 2027 21:25:18.462            97.791                Anadyr2          3055.969
       204   02 Jun 2027 21:25:26.373   02 Jun 2027 21:26:10.364            43.991                Anadyr2          1374.719
       205   02 Jun 2027 21:26:19.691   02 Jun 2027 21:28:29.304           129.613               Magadan1          4050.406
       206   02 Jun 2027 21:29:09.045   02 Jun 2027 21:29:24.640            15.595               Magadan1           487.344
       207   02 Jun 2027 21:29:35.300   02 Jun 2027 21:30:25.432            50.132               Magadan1          1566.625
       208   02 Jun 2027 21:31:01.442   02 Jun 2027 21:31:28.744            27.302                Irkutsk           853.187
       209   02 Jun 2027 21:32:55.241   02 Jun 2027 21:33:44.745            49.504                Irkutsk          1547.000
       210   02 Jun 2027 21:46:29.219   02 Jun 2027 21:48:17.420           108.201                Sumatra          3381.281
       211   02 Jun 2027 21:49:05.991   02 Jun 2027 21:50:17.390            71.399                Sumatra          2231.219
       212   02 Jun 2027 22:59:01.793   02 Jun 2027 22:59:38.279            36.486                Anadyr2          1140.188
       213   02 Jun 2027 23:00:21.155   02 Jun 2027 23:01:31.429            70.274                Anadyr2          2196.062
       214   02 Jun 2027 23:01:33.645   02 Jun 2027 23:01:45.452            11.807                Norilsk           368.969
       215   02 Jun 2027 23:02:09.340   02 Jun 2027 23:02:22.522            13.182               Magadan2           411.938
       216   02 Jun 2027 23:02:58.066   02 Jun 2027 23:03:28.527            30.461               Magadan2           951.906
       217   02 Jun 2027 23:04:45.652   02 Jun 2027 23:04:58.651            12.999               Magadan2           406.219
       218   02 Jun 2027 23:05:30.710   02 Jun 2027 23:06:40.333            69.623                Irkutsk          2175.719
       219   02 Jun 2027 23:06:46.239   02 Jun 2027 23:07:18.563            32.324                Novosib          1010.125
       220   02 Jun 2027 23:08:48.435   02 Jun 2027 23:09:37.926            49.491                Novosib          1546.594
       221   02 Jun 2027 23:15:08.191   02 Jun 2027 23:15:31.202            23.011                Novosib           719.094
       222   02 Jun 2027 23:17:56.254   02 Jun 2027 23:18:19.491            23.237                  Delhi           726.156
       223   02 Jun 2027 23:19:14.791   02 Jun 2027 23:19:46.166            31.375                  Delhi           980.469
       224   02 Jun 2027 23:25:38.755   02 Jun 2027 23:26:22.864            44.109                Sumatra          1378.406
       225   03 Jun 2027 00:02:51.265   03 Jun 2027 00:03:09.881            18.616            RioGallegos           581.750
       226   03 Jun 2027 00:33:16.339   03 Jun 2027 00:35:11.762           115.423                Anadyr1          3606.969
       227   03 Jun 2027 00:37:33.849   03 Jun 2027 00:38:43.446            69.597                Norilsk          2174.906
       228   03 Jun 2027 00:38:50.980   03 Jun 2027 00:39:57.956            66.976               Magadan1          2093.000
       229   03 Jun 2027 00:40:43.428   03 Jun 2027 00:42:53.652           130.224              Murmansk2          4069.500
       230   03 Jun 2027 00:42:53.652   03 Jun 2027 00:43:57.290            63.638              Murmansk1          1988.688
       231   03 Jun 2027 00:48:45.104   03 Jun 2027 00:49:17.085            31.981                  Delhi           999.406
       232   03 Jun 2027 00:54:34.378   03 Jun 2027 00:54:48.009            13.631                  Delhi           425.969
       233   03 Jun 2027 00:55:36.539   03 Jun 2027 00:56:29.743            53.204                  Delhi          1662.625
       234   03 Jun 2027 01:30:25.414   03 Jun 2027 01:31:08.808            43.394            RioGallegos          1356.062
       235   03 Jun 2027 01:31:53.589   03 Jun 2027 01:32:31.896            38.307            RioGallegos          1197.094
       236   03 Jun 2027 02:06:35.033   03 Jun 2027 02:06:47.386            12.353                Anadyr1           386.031
       237   03 Jun 2027 02:07:16.195   03 Jun 2027 02:07:49.019            32.824                Anadyr1          1025.750
       238   03 Jun 2027 02:08:14.649   03 Jun 2027 02:08:49.111            34.462                Anadyr1          1076.938
       239   03 Jun 2027 02:11:10.021   03 Jun 2027 02:11:38.020            27.999                Anadyr1           874.969
       240   03 Jun 2027 02:12:44.364   03 Jun 2027 02:13:04.020            19.656               Magadan2           614.250
       241   03 Jun 2027 02:13:12.794   03 Jun 2027 02:13:41.668            28.874               Magadan1           902.312
       242   03 Jun 2027 02:14:44.769   03 Jun 2027 02:15:37.712            52.943                Norilsk          1654.469
       243   03 Jun 2027 02:15:45.211   03 Jun 2027 02:17:10.904            85.693              Murmansk1          2677.906
       244   03 Jun 2027 02:17:25.859   03 Jun 2027 02:18:40.217            74.358                Novosib          2323.687
       245   03 Jun 2027 02:26:57.247   03 Jun 2027 02:27:29.313            32.066                  Delhi          1002.063
       246   03 Jun 2027 02:31:33.683   03 Jun 2027 02:31:54.678            20.995                  Delhi           656.094
       247   03 Jun 2027 02:46:19.560   03 Jun 2027 02:47:47.212            87.652               CapeTown          2739.125
       248   03 Jun 2027 03:58:41.221   03 Jun 2027 03:59:13.044            31.823                Norilsk           994.469
       249   03 Jun 2027 04:00:10.905   03 Jun 2027 04:00:36.411            25.506                Novosib           797.062
       250   03 Jun 2027 04:02:11.744   03 Jun 2027 04:03:56.006           104.262              Murmansk1          3258.187
       251   03 Jun 2027 04:04:21.728   03 Jun 2027 04:05:50.983            89.255                 Moscow          2789.219
       252   03 Jun 2027 04:19:09.460   03 Jun 2027 04:19:38.518            29.058               CapeTown           908.063
       253   03 Jun 2027 04:22:39.788   03 Jun 2027 04:23:40.311            60.523               CapeTown          1891.344
       254   03 Jun 2027 04:24:48.659   03 Jun 2027 04:25:40.116            51.457               CapeTown          1608.031
       255   03 Jun 2027 04:27:06.798   03 Jun 2027 04:27:46.126            39.328               CapeTown          1229.000
       256   03 Jun 2027 04:28:22.038   03 Jun 2027 04:29:01.770            39.732               CapeTown          1241.625
       257   03 Jun 2027 05:17:08.020   03 Jun 2027 05:17:48.257            40.237               Magadan1          1257.406
       258   03 Jun 2027 05:18:50.991   03 Jun 2027 05:19:09.463            18.472                Anadyr1           577.250
       259   03 Jun 2027 05:21:58.377   03 Jun 2027 05:28:00.298           361.921               Magadan1         11310.031
       260   03 Jun 2027 05:28:03.357   03 Jun 2027 05:28:26.599            23.242                Anadyr1           726.313
       261   03 Jun 2027 06:58:54.907   03 Jun 2027 06:58:59.853             4.946                Anadyr1           154.563
       262   03 Jun 2027 06:58:59.853   03 Jun 2027 06:59:33.436            33.583                Anadyr2          1049.469
       263   03 Jun 2027 06:59:55.131   03 Jun 2027 07:00:08.482            13.351               Magadan2           417.219
       264   03 Jun 2027 07:00:18.313   03 Jun 2027 07:00:19.631             1.318               Magadan2            41.187
       265   03 Jun 2027 07:00:20.590   03 Jun 2027 07:01:58.911            98.321               Magadan1          3072.531
       266   03 Jun 2027 08:32:29.378   03 Jun 2027 08:32:47.793            18.415               Magadan1           575.469
       267   03 Jun 2027 08:33:31.375   03 Jun 2027 08:33:35.146             3.771               Magadan1           117.844
       268   03 Jun 2027 08:33:37.037   03 Jun 2027 08:33:46.980             9.943               Magadan2           310.719
       269   03 Jun 2027 08:33:46.980   03 Jun 2027 08:34:32.018            45.038               Magadan1          1407.438
       270   03 Jun 2027 08:34:45.475   03 Jun 2027 08:35:53.946            68.471                Anadyr1          2139.719
       271   03 Jun 2027 08:36:09.874   03 Jun 2027 08:36:16.853             6.979               Magadan1           218.094
       272   03 Jun 2027 08:36:16.853   03 Jun 2027 08:37:06.041            49.188               Magadan2          1537.125
       273   03 Jun 2027 08:37:12.038   03 Jun 2027 08:37:58.295            46.257               Magadan2          1445.531
       274   03 Jun 2027 08:38:20.253   03 Jun 2027 08:39:03.865            43.612               Magadan2          1362.875
       275   03 Jun 2027 08:39:57.328   03 Jun 2027 08:40:12.551            15.223              Murmansk2           475.719
       276   03 Jun 2027 09:14:48.886   03 Jun 2027 09:16:09.800            80.914            RioGallegos          2528.563
       277   03 Jun 2027 09:51:56.004   03 Jun 2027 09:53:30.496            94.492                Sumatra          2952.875
       278   03 Jun 2027 10:09:36.969   03 Jun 2027 10:10:17.813            40.844               Magadan2          1276.375
       279   03 Jun 2027 10:10:30.131   03 Jun 2027 10:11:20.052            49.921                Irkutsk          1560.031
       280   03 Jun 2027 10:12:05.683   03 Jun 2027 10:12:29.227            23.544                Irkutsk           735.750
       281   03 Jun 2027 10:12:56.704   03 Jun 2027 10:13:04.789             8.085                Norilsk           252.656
       282   03 Jun 2027 10:13:18.125   03 Jun 2027 10:13:30.359            12.234                Norilsk           382.312
       283   03 Jun 2027 10:13:38.664   03 Jun 2027 10:13:47.655             8.991                Irkutsk           280.969
       284   03 Jun 2027 10:13:56.183   03 Jun 2027 10:14:37.178            40.995                Irkutsk          1281.094
       285   03 Jun 2027 10:14:48.444   03 Jun 2027 10:14:52.813             4.369                Novosib           136.531
       286   03 Jun 2027 10:14:53.154   03 Jun 2027 10:15:21.367            28.213                Norilsk           881.656
       287   03 Jun 2027 10:15:23.399   03 Jun 2027 10:15:28.738             5.339                Norilsk           166.844
       288   03 Jun 2027 10:15:30.128   03 Jun 2027 10:15:48.993            18.865                Novosib           589.531
       289   03 Jun 2027 10:50:53.644   03 Jun 2027 10:51:58.902            65.258            RioGallegos          2039.313
       290   03 Jun 2027 11:25:21.189   03 Jun 2027 11:25:58.003            36.814                Sumatra          1150.438
       291   03 Jun 2027 11:28:20.174   03 Jun 2027 11:29:42.004            81.830                Sumatra          2557.188
       292   03 Jun 2027 11:47:50.499   03 Jun 2027 11:47:57.919             7.420                Irkutsk           231.875
       293   03 Jun 2027 11:48:09.459   03 Jun 2027 11:48:52.404            42.945                Norilsk          1342.031
       294   03 Jun 2027 11:48:56.723   03 Jun 2027 11:49:10.337            13.614                Norilsk           425.437
       295   03 Jun 2027 11:49:17.428   03 Jun 2027 11:49:41.974            24.546                Norilsk           767.063
       296   03 Jun 2027 11:49:56.876   03 Jun 2027 11:51:04.095            67.219                Novosib          2100.594
       297   03 Jun 2027 11:51:10.153   03 Jun 2027 11:51:11.817             1.664                Norilsk            52.000
       298   03 Jun 2027 11:51:27.350   03 Jun 2027 11:51:57.719            30.369                Novosib           949.031
       299   03 Jun 2027 12:33:20.464   03 Jun 2027 12:35:05.506           105.042            RioGallegos          3282.563
       300   03 Jun 2027 13:09:53.710   03 Jun 2027 13:10:16.664            22.954                  Delhi           717.313
       301   03 Jun 2027 13:14:16.012   03 Jun 2027 13:14:42.878            26.866                  Delhi           839.562
       302   03 Jun 2027 13:17:40.576   03 Jun 2027 13:18:27.813            47.237                  Delhi          1476.156
       303   03 Jun 2027 13:18:47.466   03 Jun 2027 13:19:50.258            62.792                Novosib          1962.250
       304   03 Jun 2027 13:21:36.136   03 Jun 2027 13:23:10.172            94.036                Novosib          2938.625
       305   03 Jun 2027 13:28:34.281   03 Jun 2027 13:28:35.981             1.700                Novosib            53.125
       306   03 Jun 2027 13:31:51.607   03 Jun 2027 13:32:40.879            49.272                Norilsk          1539.750
       307   03 Jun 2027 14:53:53.131   03 Jun 2027 14:55:23.619            90.488                 Moscow          2827.750
       308   03 Jun 2027 14:55:54.087   03 Jun 2027 14:56:16.328            22.241                 Moscow           695.031
       309   03 Jun 2027 14:57:03.124   03 Jun 2027 14:57:52.002            48.878                 Moscow          1527.438
       310   03 Jun 2027 14:59:10.378   03 Jun 2027 15:00:04.527            54.149              Murmansk1          1692.156
       311   03 Jun 2027 15:02:23.356   03 Jun 2027 15:05:42.995           199.639                Norilsk          6238.719
       312   03 Jun 2027 15:06:50.540   03 Jun 2027 15:07:05.236            14.696                Norilsk           459.250
       313   03 Jun 2027 16:09:13.962   03 Jun 2027 16:09:36.260            22.298               CapeTown           696.813
       314   03 Jun 2027 16:13:29.269   03 Jun 2027 16:14:08.419            39.150               CapeTown          1223.437
       315   03 Jun 2027 16:18:06.802   03 Jun 2027 16:18:19.656            12.854               CapeTown           401.688
       316   03 Jun 2027 16:18:53.349   03 Jun 2027 16:19:18.169            24.820               CapeTown           775.625
       317   03 Jun 2027 16:31:55.996   03 Jun 2027 16:32:30.486            34.490                 Moscow          1077.812
       318   03 Jun 2027 16:34:48.063   03 Jun 2027 16:35:01.484            13.421              Murmansk2           419.406
       319   03 Jun 2027 16:35:43.139   03 Jun 2027 16:37:02.282            79.143                 Moscow          2473.219
       320   03 Jun 2027 16:44:06.539   03 Jun 2027 16:44:19.308            12.769              Murmansk2           399.031
       321   03 Jun 2027 16:48:15.269   03 Jun 2027 16:49:48.647            93.378                Anadyr2          2918.063
       322   03 Jun 2027 16:49:52.819   03 Jun 2027 16:50:52.074            59.255                Anadyr1          1851.719
       323   03 Jun 2027 16:55:23.408   03 Jun 2027 16:56:21.206            57.798                Anadyr1          1806.187
       324   03 Jun 2027 17:44:12.603   03 Jun 2027 17:44:30.964            18.361               CapeTown           573.781
       325   03 Jun 2027 17:47:03.250   03 Jun 2027 17:47:49.034            45.784               CapeTown          1430.750
       326   03 Jun 2027 17:54:19.913   03 Jun 2027 17:54:28.874             8.961               CapeTown           280.031
       327   03 Jun 2027 18:14:38.885   03 Jun 2027 18:16:51.850           132.965              Murmansk2          4155.156
       328   03 Jun 2027 18:18:03.283   03 Jun 2027 18:20:08.764           125.481              Murmansk1          3921.281
       329   03 Jun 2027 18:26:58.604   03 Jun 2027 18:28:37.830            99.226               Magadan1          3100.813
       330   03 Jun 2027 18:30:41.541   03 Jun 2027 18:31:10.561            29.020               Magadan1           906.875
       331   03 Jun 2027 18:35:57.608   03 Jun 2027 18:36:08.185            10.577               Magadan2           330.531
       332   03 Jun 2027 19:59:51.509   03 Jun 2027 20:01:57.653           126.144                Anadyr2          3942.000
       333   03 Jun 2027 20:02:09.726   03 Jun 2027 20:06:10.927           241.201               Magadan2          7537.531
       334   03 Jun 2027 20:06:10.927   03 Jun 2027 20:06:27.073            16.146               Magadan1           504.562
       335   03 Jun 2027 20:07:47.167   03 Jun 2027 20:07:52.520             5.353               Magadan2           167.281
       336   03 Jun 2027 20:10:25.688   03 Jun 2027 20:10:37.218            11.530               Magadan1           360.312
       337   03 Jun 2027 20:10:41.968   03 Jun 2027 20:10:47.405             5.437               Magadan1           169.906
       338   03 Jun 2027 20:13:49.672   03 Jun 2027 20:13:57.006             7.334               Magadan1           229.188
       339   03 Jun 2027 20:55:50.069   03 Jun 2027 20:58:26.950           156.881            RioGallegos          4902.531
       340   03 Jun 2027 21:00:59.151   03 Jun 2027 21:01:40.234            41.083            RioGallegos          1283.844
       341   03 Jun 2027 21:35:40.137   03 Jun 2027 21:37:52.558           132.421                Anadyr1          4138.156
       342   03 Jun 2027 21:38:05.399   03 Jun 2027 21:39:38.313            92.914               Magadan2          2903.563
       343   03 Jun 2027 21:40:45.708   03 Jun 2027 21:41:27.843            42.135                Norilsk          1316.719
       344   03 Jun 2027 21:42:39.570   03 Jun 2027 21:43:26.009            46.439                Irkutsk          1451.219
       345   03 Jun 2027 21:45:43.402   03 Jun 2027 21:45:50.563             7.161                Irkutsk           223.781
       346   03 Jun 2027 21:46:54.304   03 Jun 2027 21:47:15.055            20.751                Irkutsk           648.469
       347   03 Jun 2027 21:48:37.523   03 Jun 2027 21:49:09.555            32.032                Irkutsk          1001.000
       348   03 Jun 2027 21:57:28.894   03 Jun 2027 21:57:55.296            26.402                Sumatra           825.062
       349   03 Jun 2027 21:59:01.647   03 Jun 2027 21:59:50.553            48.906                Sumatra          1528.312
       350   03 Jun 2027 22:03:00.335   03 Jun 2027 22:03:47.086            46.751                Sumatra          1460.969
       351   03 Jun 2027 23:10:54.929   03 Jun 2027 23:11:57.633            62.704                Anadyr1          1959.500
       352   03 Jun 2027 23:13:35.420   03 Jun 2027 23:15:27.101           111.681                Norilsk          3490.031
       353   03 Jun 2027 23:15:40.315   03 Jun 2027 23:16:13.344            33.029               Magadan2          1032.156
       354   03 Jun 2027 23:17:16.432   03 Jun 2027 23:17:27.956            11.524               Magadan1           360.125
       355   03 Jun 2027 23:17:29.956   03 Jun 2027 23:18:36.583            66.627                Irkutsk          2082.094
       356   03 Jun 2027 23:20:47.727   03 Jun 2027 23:21:39.046            51.319                Novosib          1603.719
       357   03 Jun 2027 23:25:39.873   03 Jun 2027 23:26:28.079            48.206                Novosib          1506.438
       358   03 Jun 2027 23:27:49.048   03 Jun 2027 23:29:38.857           109.809                  Delhi          3431.531
       359   04 Jun 2027 00:12:50.529   04 Jun 2027 00:13:25.753            35.224            RioGallegos          1100.750
       360   04 Jun 2027 00:15:15.325   04 Jun 2027 00:15:36.480            21.155            RioGallegos           661.094
       361   04 Jun 2027 00:44:59.777   04 Jun 2027 00:46:08.687            68.910                Anadyr1          2153.437
       362   04 Jun 2027 00:47:36.704   04 Jun 2027 00:47:42.950             6.246                Anadyr2           195.187
       363   04 Jun 2027 00:49:35.940   04 Jun 2027 00:50:49.195            73.255                Norilsk          2289.219
       364   04 Jun 2027 00:50:52.787   04 Jun 2027 00:51:41.741            48.954               Magadan1          1529.812
       365   04 Jun 2027 00:52:01.718   04 Jun 2027 00:52:13.981            12.263               Magadan1           383.219
       366   04 Jun 2027 00:52:15.448   04 Jun 2027 00:53:08.635            53.187               Magadan2          1662.094
       367   04 Jun 2027 00:53:23.366   04 Jun 2027 00:54:28.441            65.075                Novosib          2033.594
       368   04 Jun 2027 00:55:43.276   04 Jun 2027 00:55:58.636            15.360                Irkutsk           480.000
       369   04 Jun 2027 00:57:25.920   04 Jun 2027 00:58:07.940            42.020              Murmansk2          1313.125
       370   04 Jun 2027 01:00:43.395   04 Jun 2027 01:01:16.164            32.769                  Delhi          1024.031
       371   04 Jun 2027 01:03:38.532   04 Jun 2027 01:03:55.265            16.733                  Delhi           522.906
       372   04 Jun 2027 01:07:29.517   04 Jun 2027 01:07:41.738            12.221                  Delhi           381.906
       373   04 Jun 2027 01:10:09.483   04 Jun 2027 01:10:18.797             9.314                  Delhi           291.062
       374   04 Jun 2027 01:12:56.941   04 Jun 2027 01:13:30.602            33.661                  Delhi          1051.906
       375   04 Jun 2027 01:42:43.434   04 Jun 2027 01:44:02.762            79.328            RioGallegos          2479.000
       376   04 Jun 2027 01:45:41.421   04 Jun 2027 01:46:28.957            47.536            RioGallegos          1485.500
       377   04 Jun 2027 02:18:16.873   04 Jun 2027 02:18:18.617             1.744                Anadyr1            54.500
       378   04 Jun 2027 02:18:36.907   04 Jun 2027 02:18:43.613             6.706                Anadyr2           209.562
       379   04 Jun 2027 02:19:06.460   04 Jun 2027 02:19:13.831             7.371                Anadyr2           230.344
       380   04 Jun 2027 02:20:15.214   04 Jun 2027 02:20:49.651            34.437                Anadyr2          1076.156
       381   04 Jun 2027 02:23:11.400   04 Jun 2027 02:24:15.862            64.462                Anadyr2          2014.438
       382   04 Jun 2027 02:24:18.759   04 Jun 2027 02:25:04.002            45.243               Magadan1          1413.844
       383   04 Jun 2027 02:27:45.621   04 Jun 2027 02:28:56.537            70.916              Murmansk1          2216.125
       384   04 Jun 2027 02:29:04.515   04 Jun 2027 02:29:33.186            28.671              Murmansk2           895.969
       385   04 Jun 2027 02:30:57.855   04 Jun 2027 02:31:22.529            24.674                Novosib           771.062
       386   04 Jun 2027 02:32:23.217   04 Jun 2027 02:32:32.019             8.802                Irkutsk           275.063
       387   04 Jun 2027 02:33:14.219   04 Jun 2027 02:34:15.573            61.354                Irkutsk          1917.312
       388   04 Jun 2027 02:40:47.135   04 Jun 2027 02:41:18.032            30.897                  Delhi           965.531
       389   04 Jun 2027 02:57:27.444   04 Jun 2027 02:57:52.890            25.446               CapeTown           795.188
       390   04 Jun 2027 03:04:47.315   04 Jun 2027 03:05:20.081            32.766               CapeTown          1023.937
       391   04 Jun 2027 03:57:26.243   04 Jun 2027 03:57:38.311            12.068                Anadyr2           377.125
       392   04 Jun 2027 03:57:43.658   04 Jun 2027 03:57:59.160            15.502               Magadan2           484.437
       393   04 Jun 2027 03:58:48.212   04 Jun 2027 03:58:49.607             1.395               Magadan1            43.594
       394   04 Jun 2027 03:59:03.248   04 Jun 2027 03:59:10.306             7.058                Anadyr1           220.563
       395   04 Jun 2027 03:59:16.433   04 Jun 2027 04:00:38.520            82.087                Anadyr2          2565.219
       396   04 Jun 2027 04:12:17.481   04 Jun 2027 04:12:36.335            18.854                Novosib           589.187
       397   04 Jun 2027 04:13:31.806   04 Jun 2027 04:15:06.452            94.646              Murmansk1          2957.688
       398   04 Jun 2027 04:15:59.187   04 Jun 2027 04:16:30.331            31.144                 Moscow           973.250
       399   04 Jun 2027 05:34:15.314   04 Jun 2027 05:38:32.965           257.651               Magadan1          8051.594
       400   04 Jun 2027 05:38:32.965   04 Jun 2027 05:40:03.283            90.318               Magadan2          2822.437
       401   04 Jun 2027 05:40:07.555   04 Jun 2027 05:40:28.058            20.503                Anadyr1           640.719
       402   04 Jun 2027 07:10:55.461   04 Jun 2027 07:11:43.137            47.676                Anadyr1          1489.875
       403   04 Jun 2027 07:11:50.847   04 Jun 2027 07:11:55.482             4.635               Magadan2           144.844
       404   04 Jun 2027 07:12:11.787   04 Jun 2027 07:12:20.552             8.765               Magadan1           273.906
       405   04 Jun 2027 07:12:24.556   04 Jun 2027 07:13:58.560            94.004               Magadan1          2937.625
       406   04 Jun 2027 08:45:20.385   04 Jun 2027 08:45:25.575             5.190               Magadan1           162.187
       407   04 Jun 2027 08:45:40.799   04 Jun 2027 08:46:33.988            53.189               Magadan1          1662.156
       408   04 Jun 2027 08:46:45.386   04 Jun 2027 08:47:09.033            23.647               Magadan1           738.969
       409   04 Jun 2027 08:47:42.423   04 Jun 2027 08:50:14.682           152.259                Anadyr2          4758.094
       410   04 Jun 2027 08:50:24.118   04 Jun 2027 08:50:46.653            22.535               Magadan1           704.219
       411   04 Jun 2027 08:51:16.699   04 Jun 2027 08:51:42.359            25.660               Magadan2           801.875
       412   04 Jun 2027 08:51:51.895   04 Jun 2027 08:52:11.164            19.269              Murmansk2           602.156
       413   04 Jun 2027 09:26:39.921   04 Jun 2027 09:27:29.773            49.852            RioGallegos          1557.875
       414   04 Jun 2027 09:32:43.939   04 Jun 2027 09:32:48.405             4.466            RioGallegos           139.562
       415   04 Jun 2027 10:03:06.237   04 Jun 2027 10:03:11.461             5.224                Sumatra           163.250
       416   04 Jun 2027 10:03:45.098   04 Jun 2027 10:05:40.226           115.128                Sumatra          3597.750
       417   04 Jun 2027 10:23:09.344   04 Jun 2027 10:23:19.240             9.896                Norilsk           309.250
       418   04 Jun 2027 10:23:24.873   04 Jun 2027 10:23:36.978            12.105                Novosib           378.281
       419   04 Jun 2027 10:23:44.268   04 Jun 2027 10:24:50.407            66.139                Norilsk          2066.844
       420   04 Jun 2027 10:25:36.218   04 Jun 2027 10:25:54.545            18.327                Irkutsk           572.719
       421   04 Jun 2027 10:26:12.274   04 Jun 2027 10:26:57.284            45.010                Irkutsk          1406.563
       422   04 Jun 2027 10:27:19.454   04 Jun 2027 10:27:30.425            10.971                Novosib           342.844
       423   04 Jun 2027 11:03:12.995   04 Jun 2027 11:03:22.499             9.504            RioGallegos           297.000
       424   04 Jun 2027 11:05:13.944   04 Jun 2027 11:05:47.094            33.150            RioGallegos          1035.937
       425   04 Jun 2027 11:08:00.042   04 Jun 2027 11:08:38.585            38.543            RioGallegos          1204.469
       426   04 Jun 2027 11:37:33.094   04 Jun 2027 11:37:41.972             8.878                Sumatra           277.438
       427   04 Jun 2027 11:39:31.749   04 Jun 2027 11:40:10.292            38.543                Sumatra          1204.469
       428   04 Jun 2027 11:46:17.090   04 Jun 2027 11:46:44.152            27.062                  Delhi           845.687
       429   04 Jun 2027 11:58:16.385   04 Jun 2027 11:58:52.513            36.128                Irkutsk          1129.000
       430   04 Jun 2027 11:59:41.004   04 Jun 2027 11:59:56.427            15.423                Irkutsk           481.969
       431   04 Jun 2027 12:00:31.751   04 Jun 2027 12:00:45.727            13.976                Novosib           436.750
       432   04 Jun 2027 12:00:49.821   04 Jun 2027 12:02:02.772            72.951                Irkutsk          2279.719
       433   04 Jun 2027 12:03:29.949   04 Jun 2027 12:05:13.510           103.561                Novosib          3236.281
       434   04 Jun 2027 13:22:16.548   04 Jun 2027 13:23:36.614            80.066                  Delhi          2502.062
       435   04 Jun 2027 13:26:49.177   04 Jun 2027 13:27:29.908            40.731                  Delhi          1272.844
       436   04 Jun 2027 13:29:31.811   04 Jun 2027 13:30:21.889            50.078                  Delhi          1564.937
       437   04 Jun 2027 13:30:32.841   04 Jun 2027 13:31:53.123            80.282                Novosib          2508.813
       438   04 Jun 2027 13:37:30.888   04 Jun 2027 13:39:29.136           118.248                Novosib          3695.250
       439   04 Jun 2027 13:44:19.323   04 Jun 2027 13:44:26.625             7.302                Norilsk           228.187
       440   04 Jun 2027 15:05:58.264   04 Jun 2027 15:09:09.779           191.515                 Moscow          5984.844
       441   04 Jun 2027 15:14:31.930   04 Jun 2027 15:14:48.113            16.183              Murmansk2           505.719
       442   04 Jun 2027 15:15:17.635   04 Jun 2027 15:18:46.484           208.849                Norilsk          6526.531
       443   04 Jun 2027 16:26:01.723   04 Jun 2027 16:26:19.375            17.652               CapeTown           551.625
       444   04 Jun 2027 16:27:07.390   04 Jun 2027 16:29:13.661           126.271               CapeTown          3945.969
       445   04 Jun 2027 16:47:29.193   04 Jun 2027 16:48:40.259            71.066              Murmansk2          2220.812
       446   04 Jun 2027 16:54:31.882   04 Jun 2027 16:55:06.891            35.009              Murmansk2          1094.031
       447   04 Jun 2027 16:56:36.225   04 Jun 2027 16:56:53.464            17.239              Murmansk1           538.719
       448   04 Jun 2027 17:00:12.617   04 Jun 2027 17:01:18.810            66.193                Anadyr2          2068.531
       449   04 Jun 2027 17:01:46.402   04 Jun 2027 17:01:49.406             3.004                Anadyr1            93.875
       450   04 Jun 2027 17:02:11.655   04 Jun 2027 17:03:02.941            51.286                Anadyr2          1602.688
       451   04 Jun 2027 17:07:25.596   04 Jun 2027 17:08:22.249            56.653                Anadyr2          1770.406
       452   04 Jun 2027 18:02:05.062   04 Jun 2027 18:02:09.362             4.300               CapeTown           134.375
       453   04 Jun 2027 18:04:05.960   04 Jun 2027 18:05:31.360            85.400               CapeTown          2668.750
       454   04 Jun 2027 18:27:25.810   04 Jun 2027 18:30:13.767           167.957              Murmansk1          5248.656
       455   04 Jun 2027 18:30:33.787   04 Jun 2027 18:32:09.211            95.424              Murmansk1          2982.000
       456   04 Jun 2027 18:40:51.487   04 Jun 2027 18:41:23.266            31.779               Magadan1           993.094
       457   04 Jun 2027 18:43:39.798   04 Jun 2027 18:44:57.339            77.541               Magadan1          2423.156
       458   04 Jun 2027 20:11:52.934   04 Jun 2027 20:13:59.406           126.472                Anadyr1          3952.250
       459   04 Jun 2027 20:14:09.929   04 Jun 2027 20:17:28.156           198.227               Magadan2          6194.594
       460   04 Jun 2027 20:18:29.794   04 Jun 2027 20:18:33.869             4.075               Magadan1           127.344
       461   04 Jun 2027 20:18:48.358   04 Jun 2027 20:19:00.235            11.877               Magadan1           371.156
       462   04 Jun 2027 20:19:26.287   04 Jun 2027 20:20:32.679            66.392               Magadan1          2074.750
       463   04 Jun 2027 21:07:15.037   04 Jun 2027 21:09:52.768           157.731            RioGallegos          4929.094
       464   04 Jun 2027 21:12:52.273   04 Jun 2027 21:13:32.533            40.260            RioGallegos          1258.125
       465   04 Jun 2027 21:47:39.100   04 Jun 2027 21:48:06.004            26.904                Anadyr1           840.750
       466   04 Jun 2027 21:48:34.021   04 Jun 2027 21:48:49.740            15.719                Anadyr1           491.219
       467   04 Jun 2027 21:49:40.782   04 Jun 2027 21:50:10.995            30.213                Anadyr1           944.156
       468   04 Jun 2027 21:50:26.222   04 Jun 2027 21:52:31.493           125.271               Magadan2          3914.719
       469   04 Jun 2027 21:52:35.417   04 Jun 2027 21:53:08.183            32.766                Norilsk          1023.937
       470   04 Jun 2027 21:53:26.269   04 Jun 2027 21:53:27.924             1.655                Norilsk            51.719
       471   04 Jun 2027 21:54:23.689   04 Jun 2027 21:55:24.500            60.811                Irkutsk          1900.344
       472   04 Jun 2027 21:56:51.006   04 Jun 2027 21:57:14.083            23.077                Irkutsk           721.156
       473   04 Jun 2027 22:03:37.745   04 Jun 2027 22:03:48.396            10.651                Irkutsk           332.844
       474   04 Jun 2027 22:08:47.069   04 Jun 2027 22:11:31.707           164.638                Sumatra          5144.938
       475   04 Jun 2027 23:22:46.870   04 Jun 2027 23:23:35.146            48.276                Anadyr2          1508.625
       476   04 Jun 2027 23:23:58.250   04 Jun 2027 23:25:13.441            75.191                Anadyr1          2349.719
       477   04 Jun 2027 23:25:37.357   04 Jun 2027 23:25:48.375            11.018                Norilsk           344.312
       478   04 Jun 2027 23:26:15.244   04 Jun 2027 23:27:56.522           101.278               Magadan1          3164.937
       479   04 Jun 2027 23:27:56.522   04 Jun 2027 23:28:13.850            17.328               Magadan2           541.500
       480   04 Jun 2027 23:29:30.213   04 Jun 2027 23:30:15.515            45.302                Irkutsk          1415.687
       481   04 Jun 2027 23:30:55.927   04 Jun 2027 23:31:44.645            48.718                Novosib          1522.438
       482   04 Jun 2027 23:35:53.496   04 Jun 2027 23:36:15.920            22.424                Novosib           700.750
