uniorb/output/strategy_4/Drop/Drop_KinoSat_111505.txt

KinoSat_111505
-------------------------
    Access    *     Start Time (UTCG)     *     Stop Time (UTCG)  *   Duration (s)        *       Station  *  Data (Mbytes)
         1   01 Jun 2027 03:20:05.574   01 Jun 2027 03:20:10.098             4.524                Novosib           141.375
         2   01 Jun 2027 03:20:15.707   01 Jun 2027 03:20:32.304            16.597                 Moscow           518.656
         3   01 Jun 2027 03:20:50.389   01 Jun 2027 03:21:40.344            49.955                Norilsk          1561.094
         4   01 Jun 2027 03:21:43.014   01 Jun 2027 03:22:37.858            54.844                Novosib          1713.875
         5   01 Jun 2027 03:22:55.391   01 Jun 2027 03:24:25.654            90.263                Norilsk          2820.719
         6   01 Jun 2027 03:24:31.186   01 Jun 2027 03:25:08.315            37.129              Murmansk2          1160.281
         7   01 Jun 2027 03:25:08.315   01 Jun 2027 03:25:47.702            39.387              Murmansk1          1230.844
         8   01 Jun 2027 03:25:48.387   01 Jun 2027 03:26:13.193            24.806                Novosib           775.188
         9   01 Jun 2027 03:42:47.775   01 Jun 2027 03:43:06.008            18.233               CapeTown           569.781
        10   01 Jun 2027 03:49:04.012   01 Jun 2027 03:49:36.084            32.072               CapeTown          1002.250
        11   01 Jun 2027 04:58:03.210   01 Jun 2027 04:59:10.582            67.372              Murmansk1          2105.375
        12   01 Jun 2027 04:59:16.627   01 Jun 2027 05:01:05.518           108.891                 Moscow          3402.844
        13   01 Jun 2027 05:01:08.715   01 Jun 2027 05:01:31.169            22.454              Murmansk1           701.688
        14   01 Jun 2027 05:04:11.619   01 Jun 2027 05:04:29.072            17.453                 Moscow           545.406
        15   01 Jun 2027 05:04:44.164   01 Jun 2027 05:05:01.745            17.581                 Moscow           549.406
        16   01 Jun 2027 06:21:06.628   01 Jun 2027 06:24:17.249           190.621                Anadyr2          5956.906
        17   01 Jun 2027 06:24:17.249   01 Jun 2027 06:24:48.857            31.608                Anadyr1           987.750
        18   01 Jun 2027 07:58:51.927   01 Jun 2027 07:59:24.178            32.251               Magadan2          1007.844
        19   01 Jun 2027 07:59:24.178   01 Jun 2027 08:00:50.923            86.745               Magadan1          2710.781
        20   01 Jun 2027 08:01:00.266   01 Jun 2027 08:01:37.243            36.977                Norilsk          1155.531
        21   01 Jun 2027 08:02:31.093   01 Jun 2027 08:02:37.042             5.949                Anadyr2           185.906
        22   01 Jun 2027 09:32:57.604   01 Jun 2027 09:33:50.726            53.122               Magadan2          1660.062
        23   01 Jun 2027 09:34:31.888   01 Jun 2027 09:38:00.161           208.273               Magadan1          6508.531
        24   01 Jun 2027 09:38:03.363   01 Jun 2027 09:38:09.792             6.429                Irkutsk           200.906
        25   01 Jun 2027 11:11:07.685   01 Jun 2027 11:11:22.392            14.707                Irkutsk           459.594
        26   01 Jun 2027 11:11:22.635   01 Jun 2027 11:12:14.157            51.522              Murmansk2          1610.062
        27   01 Jun 2027 11:12:19.149   01 Jun 2027 11:12:23.349             4.200              Murmansk2           131.250
        28   01 Jun 2027 11:12:28.626   01 Jun 2027 11:14:17.102           108.476                Irkutsk          3389.875
        29   01 Jun 2027 11:14:31.296   01 Jun 2027 11:15:31.192            59.896                Norilsk          1871.750
        30   01 Jun 2027 11:17:07.629   01 Jun 2027 11:17:19.720            12.091              Murmansk1           377.844
        31   01 Jun 2027 11:17:33.435   01 Jun 2027 11:17:37.067             3.632              Murmansk2           113.500
        32   01 Jun 2027 11:17:46.722   01 Jun 2027 11:18:05.809            19.087              Murmansk2           596.469
        33   01 Jun 2027 11:18:59.626   01 Jun 2027 11:19:12.632            13.006                Norilsk           406.438
        34   01 Jun 2027 11:20:43.384   01 Jun 2027 11:20:56.820            13.436              Murmansk1           419.875
        35   01 Jun 2027 11:21:44.460   01 Jun 2027 11:21:48.564             4.104              Murmansk1           128.250
        36   01 Jun 2027 11:50:29.183   01 Jun 2027 11:51:26.766            57.583            RioGallegos          1799.469
        37   01 Jun 2027 11:52:57.032   01 Jun 2027 11:54:12.306            75.274            RioGallegos          2352.312
        38   01 Jun 2027 11:55:40.938   01 Jun 2027 11:55:42.868             1.930            RioGallegos            60.312
        39   01 Jun 2027 11:57:24.401   01 Jun 2027 11:57:45.861            21.460            RioGallegos           670.625
        40   01 Jun 2027 12:00:03.784   01 Jun 2027 12:01:02.657            58.873            RioGallegos          1839.781
        41   01 Jun 2027 12:24:41.996   01 Jun 2027 12:28:11.366           209.370                Sumatra          6542.813
        42   01 Jun 2027 12:29:03.415   01 Jun 2027 12:29:59.468            56.053                Sumatra          1751.656
        43   01 Jun 2027 12:40:08.438   01 Jun 2027 12:42:29.239           140.801                Irkutsk          4400.031
        44   01 Jun 2027 12:44:39.691   01 Jun 2027 12:45:01.450            21.759                Irkutsk           679.969
        45   01 Jun 2027 14:09:50.029   01 Jun 2027 14:14:46.295           296.266                  Delhi          9258.313
        46   01 Jun 2027 14:18:19.476   01 Jun 2027 14:19:45.050            85.574                Novosib          2674.187
        47   01 Jun 2027 14:22:06.654   01 Jun 2027 14:24:31.327           144.673                Novosib          4521.031
        48   01 Jun 2027 15:52:44.049   01 Jun 2027 15:53:14.727            30.678                 Moscow           958.688
        49   01 Jun 2027 15:53:58.465   01 Jun 2027 15:54:30.128            31.663                 Moscow           989.469
        50   01 Jun 2027 15:55:35.813   01 Jun 2027 15:56:36.325            60.512                 Moscow          1891.000
        51   01 Jun 2027 15:56:56.542   01 Jun 2027 15:57:29.386            32.844              Murmansk1          1026.375
        52   01 Jun 2027 15:58:59.710   01 Jun 2027 16:00:57.084           117.374              Murmansk1          3667.937
        53   01 Jun 2027 16:04:13.375   01 Jun 2027 16:05:05.744            52.369                Norilsk          1636.531
        54   01 Jun 2027 17:06:01.335   01 Jun 2027 17:08:03.553           122.218               CapeTown          3819.312
        55   01 Jun 2027 17:32:34.022   01 Jun 2027 17:36:40.168           246.146                 Moscow          7692.063
        56   01 Jun 2027 17:47:19.374   01 Jun 2027 17:47:39.973            20.599                Anadyr1           643.719
        57   01 Jun 2027 17:47:53.557   01 Jun 2027 17:48:14.244            20.687                Anadyr1           646.469
        58   01 Jun 2027 17:55:25.400   01 Jun 2027 17:55:33.466             8.066                Anadyr2           252.062
        59   01 Jun 2027 18:42:46.288   01 Jun 2027 18:44:02.304            76.016               CapeTown          2375.500
        60   01 Jun 2027 18:45:25.755   01 Jun 2027 18:45:58.076            32.321               CapeTown          1010.031
        61   01 Jun 2027 18:46:57.519   01 Jun 2027 18:47:46.536            49.017               CapeTown          1531.781
        62   01 Jun 2027 19:15:38.422   01 Jun 2027 19:19:22.943           224.521              Murmansk1          7016.281
        63   01 Jun 2027 19:25:04.831   01 Jun 2027 19:26:11.969            67.138               Magadan1          2098.062
        64   01 Jun 2027 19:26:11.969   01 Jun 2027 19:26:27.138            15.169               Magadan2           474.031
        65   01 Jun 2027 19:27:50.851   01 Jun 2027 19:28:28.468            37.617               Magadan1          1175.531
        66   01 Jun 2027 19:29:37.036   01 Jun 2027 19:30:17.511            40.475               Magadan2          1264.844
        67   01 Jun 2027 19:34:14.873   01 Jun 2027 19:34:56.254            41.381               Magadan1          1293.156
        68   01 Jun 2027 20:58:23.574   01 Jun 2027 21:00:29.198           125.624                Anadyr2          3925.750
        69   01 Jun 2027 21:00:39.815   01 Jun 2027 21:05:58.340           318.525               Magadan2          9953.906
        70   01 Jun 2027 21:53:04.845   01 Jun 2027 21:56:08.283           183.438            RioGallegos          5732.437
        71   01 Jun 2027 22:34:04.226   01 Jun 2027 22:36:20.396           136.170                Anadyr1          4255.312
        72   01 Jun 2027 22:36:40.629   01 Jun 2027 22:37:49.754            69.125                Norilsk          2160.156
        73   01 Jun 2027 22:37:50.063   01 Jun 2027 22:38:32.132            42.069               Magadan1          1314.656
        74   01 Jun 2027 22:40:32.505   01 Jun 2027 22:41:47.392            74.887                Irkutsk          2340.219
        75   01 Jun 2027 22:43:46.676   01 Jun 2027 22:43:55.078             8.402                Novosib           262.563
        76   01 Jun 2027 22:46:31.380   01 Jun 2027 22:46:40.818             9.438                Irkutsk           294.938
        77   01 Jun 2027 22:47:37.762   01 Jun 2027 22:48:42.506            64.744                Irkutsk          2023.250
        78   01 Jun 2027 22:54:26.964   01 Jun 2027 22:56:34.336           127.372                Sumatra          3980.375
        79   01 Jun 2027 23:29:59.917   01 Jun 2027 23:30:11.385            11.468            RioGallegos           358.375
        80   01 Jun 2027 23:39:20.130   01 Jun 2027 23:39:30.522            10.392            RioGallegos           324.750
        81   01 Jun 2027 23:39:56.257   01 Jun 2027 23:40:12.586            16.329            RioGallegos           510.281
        82   02 Jun 2027 00:08:57.546   02 Jun 2027 00:11:13.840           136.294                Anadyr1          4259.188
        83   02 Jun 2027 00:12:09.366   02 Jun 2027 00:12:19.213             9.847                Norilsk           307.719
        84   02 Jun 2027 00:12:48.904   02 Jun 2027 00:15:30.920           162.016               Magadan1          5063.000
        85   02 Jun 2027 00:16:01.336   02 Jun 2027 00:17:38.234            96.898                Irkutsk          3028.063
        86   02 Jun 2027 00:18:14.567   02 Jun 2027 00:19:06.380            51.813                Novosib          1619.156
        87   02 Jun 2027 00:24:20.033   02 Jun 2027 00:25:10.768            50.735                  Delhi          1585.469
        88   02 Jun 2027 00:27:15.929   02 Jun 2027 00:27:22.948             7.019                  Delhi           219.344
        89   02 Jun 2027 00:29:20.997   02 Jun 2027 00:29:50.708            29.711                  Delhi           928.469
        90   02 Jun 2027 00:31:48.862   02 Jun 2027 00:31:51.254             2.392                Sumatra            74.750
        91   02 Jun 2027 01:04:23.559   02 Jun 2027 01:05:35.211            71.652            RioGallegos          2239.125
        92   02 Jun 2027 01:06:10.998   02 Jun 2027 01:06:41.372            30.374            RioGallegos           949.187
        93   02 Jun 2027 01:42:37.508   02 Jun 2027 01:43:29.316            51.808                Anadyr2          1619.000
        94   02 Jun 2027 01:44:08.620   02 Jun 2027 01:45:28.642            80.022                Anadyr2          2500.688
        95   02 Jun 2027 01:48:09.603   02 Jun 2027 01:49:16.199            66.596                Norilsk          2081.125
        96   02 Jun 2027 01:49:38.153   02 Jun 2027 01:50:04.872            26.719               Magadan2           834.969
        97   02 Jun 2027 01:50:35.156   02 Jun 2027 01:52:51.983           136.827              Murmansk2          4275.844
        98   02 Jun 2027 01:53:04.121   02 Jun 2027 01:53:18.852            14.731                Novosib           460.344
        99   02 Jun 2027 01:58:48.479   02 Jun 2027 02:00:35.030           106.551                 Moscow          3329.719
       100   02 Jun 2027 02:43:24.690   02 Jun 2027 02:44:14.884            50.194            RioGallegos          1568.563
       101   02 Jun 2027 03:15:57.821   02 Jun 2027 03:16:16.672            18.851                Anadyr2           589.094
       102   02 Jun 2027 03:17:34.771   02 Jun 2027 03:18:07.177            32.406                Anadyr2          1012.688
       103   02 Jun 2027 03:33:48.456   02 Jun 2027 03:34:13.614            25.158              Murmansk2           786.188
       104   02 Jun 2027 03:34:26.280   02 Jun 2027 03:34:51.633            25.353                Norilsk           792.281
       105   02 Jun 2027 03:34:55.760   02 Jun 2027 03:36:56.321           120.561                 Moscow          3767.531
       106   02 Jun 2027 03:36:58.173   02 Jun 2027 03:37:32.487            34.314                Novosib          1072.312
       107   02 Jun 2027 03:37:36.983   02 Jun 2027 03:38:06.682            29.699              Murmansk2           928.094
       108   02 Jun 2027 03:38:16.322   02 Jun 2027 03:40:49.643           153.321                 Moscow          4791.281
       109   02 Jun 2027 03:41:31.133   02 Jun 2027 03:41:51.214            20.081                 Moscow           627.531
       110   02 Jun 2027 03:54:21.270   02 Jun 2027 03:55:29.232            67.962               CapeTown          2123.812
       111   02 Jun 2027 03:56:08.743   02 Jun 2027 03:56:24.409            15.666               CapeTown           489.563
       112   02 Jun 2027 03:59:02.652   02 Jun 2027 03:59:41.851            39.199               CapeTown          1224.969
       113   02 Jun 2027 06:33:17.509   02 Jun 2027 06:34:36.912            79.403               Magadan1          2481.344
       114   02 Jun 2027 06:35:10.002   02 Jun 2027 06:38:00.349           170.347                Anadyr1          5323.344
       115   02 Jun 2027 06:38:00.349   02 Jun 2027 06:38:59.706            59.357                Anadyr2          1854.906
       116   02 Jun 2027 08:11:33.343   02 Jun 2027 08:14:36.171           182.828               Magadan1          5713.375
       117   02 Jun 2027 09:44:58.651   02 Jun 2027 09:45:25.558            26.907               Magadan1           840.844
       118   02 Jun 2027 09:45:51.977   02 Jun 2027 09:46:04.807            12.830               Magadan1           400.937
       119   02 Jun 2027 09:46:11.556   02 Jun 2027 09:48:46.050           154.494               Magadan1          4827.937
       120   02 Jun 2027 09:48:46.050   02 Jun 2027 09:49:51.318            65.268               Magadan2          2039.625
       121   02 Jun 2027 09:50:11.781   02 Jun 2027 09:50:56.592            44.811                Novosib          1400.344
       122   02 Jun 2027 10:25:00.356   02 Jun 2027 10:26:03.875            63.519            RioGallegos          1984.969
       123   02 Jun 2027 11:00:18.420   02 Jun 2027 11:00:54.806            36.386                Sumatra          1137.063
       124   02 Jun 2027 11:17:27.970   02 Jun 2027 11:17:51.637            23.667                  Delhi           739.594
       125   02 Jun 2027 11:20:39.081   02 Jun 2027 11:21:36.098            57.017                Irkutsk          1781.781
       126   02 Jun 2027 11:21:42.159   02 Jun 2027 11:21:57.146            14.987                Norilsk           468.344
       127   02 Jun 2027 11:22:01.449   02 Jun 2027 11:22:24.647            23.198                Novosib           724.937
       128   02 Jun 2027 11:22:35.739   02 Jun 2027 11:23:17.896            42.157                Irkutsk          1317.406
       129   02 Jun 2027 11:23:26.388   02 Jun 2027 11:23:47.427            21.039                Irkutsk           657.469
       130   02 Jun 2027 11:23:59.856   02 Jun 2027 11:24:44.297            44.441                Novosib          1388.781
       131   02 Jun 2027 11:24:50.935   02 Jun 2027 11:25:01.330            10.395                Novosib           324.844
       132   02 Jun 2027 11:25:06.937   02 Jun 2027 11:25:27.665            20.728                Norilsk           647.750
       133   02 Jun 2027 11:25:37.239   02 Jun 2027 11:25:47.192             9.953                Norilsk           311.031
       134   02 Jun 2027 11:25:48.673   02 Jun 2027 11:26:28.886            40.213                Novosib          1256.656
       135   02 Jun 2027 12:03:03.826   02 Jun 2027 12:03:31.819            27.993            RioGallegos           874.781
       136   02 Jun 2027 12:37:18.366   02 Jun 2027 12:38:00.034            41.668                Sumatra          1302.125
       137   02 Jun 2027 12:38:57.371   02 Jun 2027 12:40:15.551            78.180                Sumatra          2443.125
       138   02 Jun 2027 12:51:00.963   02 Jun 2027 12:52:12.942            71.979                  Delhi          2249.344
       139   02 Jun 2027 12:54:24.263   02 Jun 2027 12:56:39.834           135.571                Irkutsk          4236.594
       140   02 Jun 2027 14:22:45.411   02 Jun 2027 14:25:03.684           138.273                  Delhi          4321.031
       141   02 Jun 2027 14:27:14.977   02 Jun 2027 14:27:20.555             5.578                  Delhi           174.312
       142   02 Jun 2027 14:29:41.175   02 Jun 2027 14:30:25.097            43.922                 Moscow          1372.563
       143   02 Jun 2027 14:31:16.593   02 Jun 2027 14:34:06.075           169.482                Novosib          5296.313
       144   02 Jun 2027 14:34:17.151   02 Jun 2027 14:34:45.020            27.869                Norilsk           870.906
       145   02 Jun 2027 14:36:06.168   02 Jun 2027 14:37:14.280            68.112                Norilsk          2128.500
       146   02 Jun 2027 15:45:03.906   02 Jun 2027 15:46:40.746            96.840               CapeTown          3026.250
       147   02 Jun 2027 16:04:58.443   02 Jun 2027 16:05:47.837            49.394                 Moscow          1543.563
       148   02 Jun 2027 16:08:25.299   02 Jun 2027 16:09:31.186            65.887              Murmansk2          2058.969
       149   02 Jun 2027 16:10:57.703   02 Jun 2027 16:11:55.225            57.522              Murmansk2          1797.562
       150   02 Jun 2027 16:23:28.146   02 Jun 2027 16:24:28.031            59.885                Anadyr1          1871.406
       151   02 Jun 2027 16:24:37.825   02 Jun 2027 16:25:18.076            40.251                Anadyr2          1257.844
       152   02 Jun 2027 16:25:55.178   02 Jun 2027 16:26:28.670            33.492                Anadyr1          1046.625
       153   02 Jun 2027 17:17:58.585   02 Jun 2027 17:19:41.104           102.519               CapeTown          3203.719
       154   02 Jun 2027 17:45:44.772   02 Jun 2027 17:49:34.195           229.423                 Moscow          7169.469
       155   02 Jun 2027 17:51:14.019   02 Jun 2027 17:52:02.875            48.856              Murmansk1          1526.750
       156   02 Jun 2027 18:01:37.916   02 Jun 2027 18:01:40.458             2.542                Anadyr1            79.438
       157   02 Jun 2027 18:02:19.556   02 Jun 2027 18:02:29.394             9.838                Anadyr1           307.438
       158   02 Jun 2027 18:03:45.675   02 Jun 2027 18:05:52.070           126.395               Magadan1          3949.844
       159   02 Jun 2027 18:58:45.241   02 Jun 2027 19:00:28.348           103.107               CapeTown          3222.094
       160   02 Jun 2027 19:29:04.044   02 Jun 2027 19:31:00.099           116.055              Murmansk1          3626.719
       161   02 Jun 2027 19:35:49.042   02 Jun 2027 19:36:11.271            22.229                Anadyr1           694.656
       162   02 Jun 2027 19:37:00.706   02 Jun 2027 19:38:37.771            97.065               Magadan2          3033.281
       163   02 Jun 2027 19:39:26.075   02 Jun 2027 19:39:37.467            11.392               Magadan2           356.000
       164   02 Jun 2027 19:39:48.283   02 Jun 2027 19:39:56.757             8.474               Magadan2           264.812
       165   02 Jun 2027 19:40:23.195   02 Jun 2027 19:41:43.903            80.708               Magadan2          2522.125
       166   02 Jun 2027 21:10:24.541   02 Jun 2027 21:14:09.912           225.371                Anadyr2          7042.844
       167   02 Jun 2027 21:14:52.790   02 Jun 2027 21:16:21.007            88.217                Norilsk          2756.781
       168   02 Jun 2027 21:16:39.419   02 Jun 2027 21:16:45.678             6.259               Magadan1           195.594
       169   02 Jun 2027 21:16:45.678   02 Jun 2027 21:16:57.095            11.417               Magadan2           356.781
       170   02 Jun 2027 21:17:36.042   02 Jun 2027 21:17:47.457            11.415               Magadan2           356.719
       171   02 Jun 2027 21:18:08.367   02 Jun 2027 21:18:36.142            27.775               Magadan2           867.969
       172   02 Jun 2027 21:20:05.050   02 Jun 2027 21:20:26.172            21.122               Magadan2           660.062
       173   02 Jun 2027 21:23:03.859   02 Jun 2027 21:23:04.575             0.716               Magadan1            22.375
       174   02 Jun 2027 21:23:07.239   02 Jun 2027 21:23:14.852             7.613               Magadan2           237.906
       175   02 Jun 2027 21:23:27.779   02 Jun 2027 21:23:33.262             5.483               Magadan1           171.344
       176   02 Jun 2027 21:23:33.262   02 Jun 2027 21:24:33.109            59.847               Magadan2          1870.219
       177   02 Jun 2027 22:04:51.573   02 Jun 2027 22:07:04.571           132.998            RioGallegos          4156.187
       178   02 Jun 2027 22:15:29.252   02 Jun 2027 22:15:32.153             2.901            RioGallegos            90.656
       179   02 Jun 2027 22:46:01.384   02 Jun 2027 22:46:27.574            26.190                Anadyr2           818.438
       180   02 Jun 2027 22:47:27.774   02 Jun 2027 22:47:44.673            16.899                Anadyr2           528.094
       181   02 Jun 2027 22:47:57.637   02 Jun 2027 22:48:46.281            48.644                Anadyr2          1520.125
       182   02 Jun 2027 22:49:16.558   02 Jun 2027 22:49:22.917             6.359                Anadyr2           198.719
       183   02 Jun 2027 22:49:27.719   02 Jun 2027 22:49:32.079             4.360                Anadyr2           136.250
       184   02 Jun 2027 22:49:46.824   02 Jun 2027 22:51:01.715            74.891               Magadan1          2340.344
       185   02 Jun 2027 22:51:54.750   02 Jun 2027 22:53:12.239            77.489               Magadan2          2421.531
       186   02 Jun 2027 22:53:48.580   02 Jun 2027 22:53:58.260             9.680                Irkutsk           302.500
       187   02 Jun 2027 22:54:14.293   02 Jun 2027 22:54:43.275            28.982                Irkutsk           905.687
       188   02 Jun 2027 22:55:03.977   02 Jun 2027 22:55:25.357            21.380                Novosib           668.125
       189   02 Jun 2027 22:55:46.239   02 Jun 2027 22:55:55.950             9.711                Novosib           303.469
       190   02 Jun 2027 22:57:10.100   02 Jun 2027 22:57:22.170            12.070                Novosib           377.187
       191   02 Jun 2027 22:58:21.165   02 Jun 2027 22:58:30.128             8.963                Irkutsk           280.094
       192   02 Jun 2027 22:59:01.868   02 Jun 2027 22:59:06.445             4.577                Novosib           143.031
       193   02 Jun 2027 22:59:09.535   02 Jun 2027 22:59:14.871             5.336                Novosib           166.750
       194   02 Jun 2027 23:01:25.585   02 Jun 2027 23:01:56.026            30.441                Irkutsk           951.281
       195   02 Jun 2027 23:06:11.557   02 Jun 2027 23:08:25.315           133.758                Sumatra          4179.937
       196   02 Jun 2027 23:50:17.313   02 Jun 2027 23:50:38.397            21.084            RioGallegos           658.875
       197   03 Jun 2027 00:20:45.871   03 Jun 2027 00:21:32.275            46.404                Anadyr1          1450.125
       198   03 Jun 2027 00:21:44.162   03 Jun 2027 00:22:13.838            29.676                Anadyr1           927.375
       199   03 Jun 2027 00:24:11.600   03 Jun 2027 00:24:18.149             6.549                Norilsk           204.656
       200   03 Jun 2027 00:24:51.361   03 Jun 2027 00:26:52.291           120.930               Magadan1          3779.062
       201   03 Jun 2027 00:26:55.200   03 Jun 2027 00:27:20.886            25.686                Norilsk           802.688
       202   03 Jun 2027 00:28:04.074   03 Jun 2027 00:28:53.075            49.001                Irkutsk          1531.281
       203   03 Jun 2027 00:29:11.485   03 Jun 2027 00:30:33.958            82.473                Novosib          2577.281
       204   03 Jun 2027 00:32:18.191   03 Jun 2027 00:33:00.772            42.581                Novosib          1330.656
       205   03 Jun 2027 00:35:55.058   03 Jun 2027 00:36:06.695            11.637                Novosib           363.656
       206   03 Jun 2027 00:36:19.582   03 Jun 2027 00:36:38.121            18.539                  Delhi           579.344
       207   03 Jun 2027 00:37:07.903   03 Jun 2027 00:38:07.520            59.617                  Delhi          1863.031
       208   03 Jun 2027 00:46:18.119   03 Jun 2027 00:46:43.319            25.200                  Delhi           787.500
       209   03 Jun 2027 01:16:32.297   03 Jun 2027 01:17:32.461            60.164            RioGallegos          1880.125
       210   03 Jun 2027 01:24:40.099   03 Jun 2027 01:25:02.600            22.501            RioGallegos           703.156
       211   03 Jun 2027 01:54:18.656   03 Jun 2027 01:54:34.753            16.097                Anadyr1           503.031
       212   03 Jun 2027 01:55:15.016   03 Jun 2027 01:56:09.977            54.961                Anadyr1          1717.531
       213   03 Jun 2027 01:56:09.977   03 Jun 2027 01:56:39.059            29.082                Anadyr2           908.813
       214   03 Jun 2027 02:00:22.718   03 Jun 2027 02:01:29.883            67.165               Magadan2          2098.906
       215   03 Jun 2027 02:01:33.263   03 Jun 2027 02:01:57.688            24.425               Magadan1           763.281
       216   03 Jun 2027 02:02:32.289   03 Jun 2027 02:04:05.073            92.784              Murmansk2          2899.500
       217   03 Jun 2027 02:04:06.347   03 Jun 2027 02:05:05.160            58.813              Murmansk1          1837.906
       218   03 Jun 2027 02:09:18.778   03 Jun 2027 02:09:51.403            32.625                Novosib          1019.531
       219   03 Jun 2027 02:11:42.779   03 Jun 2027 02:12:26.252            43.473                  Delhi          1358.531
       220   03 Jun 2027 02:20:09.722   03 Jun 2027 02:21:23.381            73.659                  Delhi          2301.844
       221   03 Jun 2027 03:33:20.548   03 Jun 2027 03:33:59.629            39.081                Anadyr1          1221.281
       222   03 Jun 2027 03:36:29.378   03 Jun 2027 03:36:46.868            17.490               Magadan2           546.563
       223   03 Jun 2027 03:39:01.755   03 Jun 2027 03:39:12.979            11.224                Anadyr1           350.750
       224   03 Jun 2027 03:46:59.088   03 Jun 2027 03:47:34.076            34.988              Murmansk2          1093.375
       225   03 Jun 2027 03:47:38.292   03 Jun 2027 03:49:59.560           141.268                 Moscow          4414.625
       226   03 Jun 2027 03:50:01.725   03 Jun 2027 03:51:11.283            69.558                 Moscow          2173.688
       227   03 Jun 2027 03:52:13.923   03 Jun 2027 03:54:06.320           112.397                 Moscow          3512.406
       228   03 Jun 2027 04:13:52.914   03 Jun 2027 04:15:23.138            90.224               CapeTown          2819.500
       229   03 Jun 2027 05:07:12.220   03 Jun 2027 05:08:14.304            62.084                Anadyr1          1940.125
       230   03 Jun 2027 05:08:46.733   03 Jun 2027 05:09:02.787            16.054               Magadan2           501.688
       231   03 Jun 2027 05:09:15.341   03 Jun 2027 05:10:04.012            48.671                Anadyr1          1520.969
       232   03 Jun 2027 05:10:06.087   03 Jun 2027 05:10:21.600            15.513               Magadan2           484.781
       233   03 Jun 2027 05:13:05.943   03 Jun 2027 05:13:23.793            17.850                Anadyr1           557.812
       234   03 Jun 2027 05:13:51.050   03 Jun 2027 05:14:16.769            25.719                Anadyr1           803.719
       235   03 Jun 2027 05:14:50.897   03 Jun 2027 05:15:06.209            15.312                Anadyr2           478.500
       236   03 Jun 2027 05:22:36.380   03 Jun 2027 05:22:49.367            12.987                 Moscow           405.844
       237   03 Jun 2027 05:23:20.883   03 Jun 2027 05:23:39.867            18.984                 Moscow           593.250
       238   03 Jun 2027 05:24:17.228   03 Jun 2027 05:25:15.673            58.445                 Moscow          1826.406
       239   03 Jun 2027 05:42:11.689   03 Jun 2027 05:42:47.959            36.270               CapeTown          1133.437
       240   03 Jun 2027 05:48:50.759   03 Jun 2027 05:49:18.538            27.779               CapeTown           868.094
       241   03 Jun 2027 06:43:31.895   03 Jun 2027 06:43:36.338             4.443                Anadyr2           138.844
       242   03 Jun 2027 06:43:46.409   03 Jun 2027 06:44:19.807            33.398               Magadan2          1043.687
       243   03 Jun 2027 06:44:36.871   03 Jun 2027 06:44:38.377             1.506               Magadan1            47.062
       244   03 Jun 2027 06:44:52.211   03 Jun 2027 06:44:54.446             2.235               Magadan1            69.844
       245   03 Jun 2027 06:45:07.154   03 Jun 2027 06:46:25.736            78.582                Anadyr2          2455.687
       246   03 Jun 2027 06:46:36.583   03 Jun 2027 06:47:30.857            54.274               Magadan2          1696.063
       247   03 Jun 2027 06:47:35.026   03 Jun 2027 06:47:51.470            16.444                Anadyr2           513.875
       248   03 Jun 2027 06:48:15.297   03 Jun 2027 06:48:21.985             6.688               Magadan1           209.000
       249   03 Jun 2027 06:49:19.212   03 Jun 2027 06:49:44.297            25.085                Anadyr2           783.906
       250   03 Jun 2027 08:18:35.705   03 Jun 2027 08:19:00.332            24.627                Anadyr2           769.594
       251   03 Jun 2027 08:19:09.226   03 Jun 2027 08:19:25.810            16.584               Magadan1           518.250
       252   03 Jun 2027 08:20:41.040   03 Jun 2027 08:21:02.376            21.336               Magadan2           666.750
       253   03 Jun 2027 08:21:22.973   03 Jun 2027 08:22:40.325            77.352                Anadyr2          2417.250
       254   03 Jun 2027 08:22:50.736   03 Jun 2027 08:22:54.504             3.768               Magadan1           117.750
       255   03 Jun 2027 08:22:57.419   03 Jun 2027 08:23:04.785             7.366                Anadyr2           230.187
       256   03 Jun 2027 08:23:04.785   03 Jun 2027 08:23:58.025            53.240                Anadyr1          1663.750
       257   03 Jun 2027 08:24:10.046   03 Jun 2027 08:24:16.317             6.271               Magadan1           195.969
       258   03 Jun 2027 08:24:27.013   03 Jun 2027 08:24:56.006            28.993               Magadan1           906.031
       259   03 Jun 2027 08:25:25.320   03 Jun 2027 08:26:36.069            70.749               Magadan1          2210.906
       260   03 Jun 2027 09:55:17.245   03 Jun 2027 09:56:59.217           101.972               Magadan2          3186.625
       261   03 Jun 2027 09:57:58.015   03 Jun 2027 09:58:21.723            23.708               Magadan1           740.875
       262   03 Jun 2027 09:58:55.376   03 Jun 2027 09:59:25.656            30.280               Magadan1           946.250
       263   03 Jun 2027 09:59:32.287   03 Jun 2027 09:59:59.349            27.062                Irkutsk           845.687
       264   03 Jun 2027 10:00:09.516   03 Jun 2027 10:00:20.762            11.246                Irkutsk           351.437
       265   03 Jun 2027 10:00:23.430   03 Jun 2027 10:00:40.626            17.196                Norilsk           537.375
       266   03 Jun 2027 10:00:44.991   03 Jun 2027 10:01:39.335            54.344               Magadan1          1698.250
       267   03 Jun 2027 10:01:52.281   03 Jun 2027 10:02:18.082            25.801                Irkutsk           806.281
       268   03 Jun 2027 10:02:45.384   03 Jun 2027 10:03:07.820            22.436                Novosib           701.125
       269   03 Jun 2027 10:37:03.944   03 Jun 2027 10:37:56.520            52.576            RioGallegos          1643.000
       270   03 Jun 2027 11:12:06.274   03 Jun 2027 11:12:46.330            40.056                Sumatra          1251.750
       271   03 Jun 2027 11:17:35.136   03 Jun 2027 11:18:20.771            45.635                Sumatra          1426.094
       272   03 Jun 2027 11:28:38.008   03 Jun 2027 11:28:56.349            18.341                  Delhi           573.156
       273   03 Jun 2027 11:34:03.731   03 Jun 2027 11:34:33.628            29.897                Novosib           934.281
       274   03 Jun 2027 11:34:36.200   03 Jun 2027 11:34:56.709            20.509                Irkutsk           640.906
       275   03 Jun 2027 11:35:29.403   03 Jun 2027 11:35:48.567            19.164                Norilsk           598.875
       276   03 Jun 2027 11:36:04.208   03 Jun 2027 11:36:13.734             9.526                Novosib           297.687
       277   03 Jun 2027 11:36:16.483   03 Jun 2027 11:36:37.156            20.673                Irkutsk           646.031
       278   03 Jun 2027 11:36:44.315   03 Jun 2027 11:37:48.595            64.280                Novosib          2008.750
       279   03 Jun 2027 11:38:10.981   03 Jun 2027 11:38:14.045             3.064                Irkutsk            95.750
       280   03 Jun 2027 11:38:17.765   03 Jun 2027 11:38:40.853            23.088                Novosib           721.500
       281   03 Jun 2027 12:15:46.067   03 Jun 2027 12:15:51.050             4.983            RioGallegos           155.719
       282   03 Jun 2027 12:16:20.599   03 Jun 2027 12:17:00.896            40.297            RioGallegos          1259.281
       283   03 Jun 2027 12:50:11.640   03 Jun 2027 12:52:03.428           111.788                Sumatra          3493.375
       284   03 Jun 2027 13:03:31.315   03 Jun 2027 13:04:31.475            60.160                Novosib          1880.000
       285   03 Jun 2027 13:06:04.736   03 Jun 2027 13:08:38.914           154.178                Irkutsk          4818.063
       286   03 Jun 2027 14:36:10.263   03 Jun 2027 14:39:18.309           188.046                  Delhi          5876.438
       287   03 Jun 2027 14:43:58.772   03 Jun 2027 14:45:13.309            74.537              Murmansk1          2329.281
       288   03 Jun 2027 14:46:04.535   03 Jun 2027 14:48:09.358           124.823                Novosib          3900.719
       289   03 Jun 2027 15:56:07.347   03 Jun 2027 15:56:49.008            41.661               CapeTown          1301.906
       290   03 Jun 2027 15:59:51.555   03 Jun 2027 16:01:48.849           117.294               CapeTown          3665.438
       291   03 Jun 2027 16:20:38.548   03 Jun 2027 16:21:12.906            34.358              Murmansk1          1073.687
       292   03 Jun 2027 16:23:18.662   03 Jun 2027 16:23:55.904            37.242              Murmansk2          1163.812
       293   03 Jun 2027 16:28:43.198   03 Jun 2027 16:29:09.077            25.879              Murmansk2           808.719
       294   03 Jun 2027 16:35:17.311   03 Jun 2027 16:37:30.172           132.861                Anadyr2          4151.906
       295   03 Jun 2027 16:38:18.417   03 Jun 2027 16:38:29.868            11.451                Anadyr2           357.844
       296   03 Jun 2027 16:40:22.228   03 Jun 2027 16:40:40.101            17.873                Anadyr2           558.531
       297   03 Jun 2027 17:29:58.722   03 Jun 2027 17:32:26.233           147.511               CapeTown          4609.719
       298   03 Jun 2027 17:59:24.188   03 Jun 2027 18:02:46.433           202.245              Murmansk1          6320.156
       299   03 Jun 2027 18:12:51.414   03 Jun 2027 18:13:00.000             8.586                Anadyr2           268.312
       300   03 Jun 2027 18:13:25.382   03 Jun 2027 18:13:36.563            11.181                Anadyr2           349.406
       301   03 Jun 2027 18:14:14.036   03 Jun 2027 18:14:25.175            11.139                Anadyr2           348.094
       302   03 Jun 2027 18:14:45.335   03 Jun 2027 18:15:13.024            27.689                Anadyr1           865.281
       303   03 Jun 2027 18:15:37.224   03 Jun 2027 18:15:53.008            15.784                Anadyr1           493.250
       304   03 Jun 2027 18:16:04.011   03 Jun 2027 18:18:28.702           144.691               Magadan1          4521.594
       305   03 Jun 2027 19:46:31.225   03 Jun 2027 19:50:48.975           257.750                Anadyr1          8054.688
       306   03 Jun 2027 19:51:02.548   03 Jun 2027 19:52:16.309            73.761               Magadan1          2305.031
       307   03 Jun 2027 19:53:40.634   03 Jun 2027 19:53:48.161             7.527               Magadan1           235.219
       308   03 Jun 2027 19:54:08.507   03 Jun 2027 19:54:42.679            34.172               Magadan2          1067.875
       309   03 Jun 2027 21:22:25.236   03 Jun 2027 21:26:06.225           220.989                Anadyr1          6905.906
       310   03 Jun 2027 21:26:52.406   03 Jun 2027 21:28:21.047            88.641               Magadan2          2770.031
       311   03 Jun 2027 21:28:21.047   03 Jun 2027 21:29:44.990            83.943               Magadan1          2623.219
       312   03 Jun 2027 21:31:21.318   03 Jun 2027 21:33:53.627           152.309                Irkutsk          4759.656
       313   03 Jun 2027 22:16:41.685   03 Jun 2027 22:17:54.969            73.284            RioGallegos          2290.125
       314   03 Jun 2027 22:18:04.076   03 Jun 2027 22:18:28.557            24.481            RioGallegos           765.031
       315   03 Jun 2027 22:24:45.334   03 Jun 2027 22:24:56.995            11.661            RioGallegos           364.406
       316   03 Jun 2027 22:25:08.530   03 Jun 2027 22:25:22.329            13.799            RioGallegos           431.219
       317   03 Jun 2027 22:25:47.788   03 Jun 2027 22:26:10.040            22.252            RioGallegos           695.375
       318   03 Jun 2027 22:57:57.727   03 Jun 2027 22:58:29.123            31.396                Anadyr2           981.125
       319   03 Jun 2027 22:58:41.435   03 Jun 2027 22:58:52.107            10.672                Anadyr2           333.500
       320   03 Jun 2027 22:59:11.161   03 Jun 2027 22:59:46.027            34.866                Anadyr2          1089.563
       321   03 Jun 2027 23:00:30.139   03 Jun 2027 23:00:55.077            24.938                Norilsk           779.312
       322   03 Jun 2027 23:01:03.020   03 Jun 2027 23:01:20.055            17.035                Norilsk           532.344
       323   03 Jun 2027 23:01:29.058   03 Jun 2027 23:01:34.605             5.547               Magadan1           173.344
       324   03 Jun 2027 23:01:47.702   03 Jun 2027 23:01:58.964            11.262                Norilsk           351.938
       325   03 Jun 2027 23:02:06.388   03 Jun 2027 23:02:25.568            19.180               Magadan1           599.375
       326   03 Jun 2027 23:03:19.065   03 Jun 2027 23:03:59.625            40.560                Norilsk          1267.500
       327   03 Jun 2027 23:04:41.741   03 Jun 2027 23:05:19.098            37.357               Magadan2          1167.406
       328   03 Jun 2027 23:05:46.718   03 Jun 2027 23:07:12.264            85.546                Novosib          2673.312
       329   03 Jun 2027 23:08:13.957   03 Jun 2027 23:08:31.258            17.301                Novosib           540.656
       330   03 Jun 2027 23:18:02.492   03 Jun 2027 23:18:39.804            37.312                Sumatra          1166.000
       331   03 Jun 2027 23:21:26.507   03 Jun 2027 23:21:28.050             1.543                Sumatra            48.219
       332   03 Jun 2027 23:22:54.443   03 Jun 2027 23:24:12.146            77.703                Sumatra          2428.219
       333   03 Jun 2027 23:27:33.796   03 Jun 2027 23:28:00.369            26.573                Sumatra           830.406
       334   04 Jun 2027 00:01:45.976   04 Jun 2027 00:01:53.660             7.684            RioGallegos           240.125
       335   04 Jun 2027 00:02:01.569   04 Jun 2027 00:02:40.723            39.154            RioGallegos          1223.562
       336   04 Jun 2027 00:32:32.892   04 Jun 2027 00:33:40.705            67.813                Anadyr2          2119.156
       337   04 Jun 2027 00:34:48.902   04 Jun 2027 00:35:05.292            16.390                Anadyr2           512.187
       338   04 Jun 2027 00:36:13.853   04 Jun 2027 00:36:17.974             4.121                Norilsk           128.781
       339   04 Jun 2027 00:36:53.462   04 Jun 2027 00:38:50.192           116.730               Magadan2          3647.812
       340   04 Jun 2027 00:40:07.594   04 Jun 2027 00:40:42.441            34.847                Irkutsk          1088.969
       341   04 Jun 2027 00:41:15.788   04 Jun 2027 00:42:52.986            97.198                Novosib          3037.437
       342   04 Jun 2027 00:43:24.836   04 Jun 2027 00:44:58.111            93.275                Novosib          2914.844
       343   04 Jun 2027 00:48:29.378   04 Jun 2027 00:48:53.577            24.199                  Delhi           756.219
       344   04 Jun 2027 00:56:48.177   04 Jun 2027 00:57:11.856            23.679                  Delhi           739.969
       345   04 Jun 2027 00:58:01.137   04 Jun 2027 00:59:00.942            59.805                  Delhi          1868.906
       346   04 Jun 2027 01:29:06.898   04 Jun 2027 01:29:26.462            19.564            RioGallegos           611.375
       347   04 Jun 2027 01:31:20.202   04 Jun 2027 01:31:25.267             5.065            RioGallegos           158.281
       348   04 Jun 2027 01:32:06.559   04 Jun 2027 01:32:24.737            18.178            RioGallegos           568.062
       349   04 Jun 2027 01:34:21.061   04 Jun 2027 01:35:05.826            44.765            RioGallegos          1398.906
       350   04 Jun 2027 02:05:59.681   04 Jun 2027 02:06:19.785            20.104                Anadyr1           628.250
       351   04 Jun 2027 02:07:15.312   04 Jun 2027 02:07:27.568            12.256                Anadyr1           383.000
       352   04 Jun 2027 02:08:11.293   04 Jun 2027 02:08:44.218            32.925                Anadyr2          1028.906
       353   04 Jun 2027 02:08:44.218   04 Jun 2027 02:08:56.885            12.667                Anadyr1           395.844
       354   04 Jun 2027 02:12:10.639   04 Jun 2027 02:13:03.087            52.448               Magadan2          1639.000
       355   04 Jun 2027 02:13:03.087   04 Jun 2027 02:13:06.503             3.416               Magadan1           106.750
       356   04 Jun 2027 02:13:23.825   04 Jun 2027 02:13:25.770             1.945               Magadan1            60.781
       357   04 Jun 2027 02:13:34.567   04 Jun 2027 02:13:56.664            22.097                Norilsk           690.531
       358   04 Jun 2027 02:14:30.604   04 Jun 2027 02:15:59.024            88.420              Murmansk1          2763.125
       359   04 Jun 2027 02:16:02.249   04 Jun 2027 02:16:44.815            42.566                Novosib          1330.188
       360   04 Jun 2027 02:18:44.808   04 Jun 2027 02:18:58.964            14.156                Novosib           442.375
       361   04 Jun 2027 02:19:23.802   04 Jun 2027 02:19:33.058             9.256                Irkutsk           289.250
       362   04 Jun 2027 02:19:42.631   04 Jun 2027 02:20:04.196            21.565                Irkutsk           673.906
       363   04 Jun 2027 02:23:52.732   04 Jun 2027 02:24:40.325            47.593                  Delhi          1487.281
       364   04 Jun 2027 02:33:43.559   04 Jun 2027 02:33:54.730            11.171                  Delhi           349.094
       365   04 Jun 2027 03:41:27.551   04 Jun 2027 03:41:38.718            11.167                Anadyr1           348.969
       366   04 Jun 2027 03:42:38.878   04 Jun 2027 03:42:55.523            16.645                Anadyr2           520.156
       367   04 Jun 2027 03:43:18.048   04 Jun 2027 03:43:48.061            30.013                Anadyr2           937.906
       368   04 Jun 2027 03:49:06.235   04 Jun 2027 03:49:28.790            22.555                Anadyr1           704.844
       369   04 Jun 2027 03:49:43.754   04 Jun 2027 03:51:03.071            79.317                Anadyr1          2478.656
       370   04 Jun 2027 03:58:56.115   04 Jun 2027 04:00:49.868           113.753                Novosib          3554.781
       371   04 Jun 2027 04:00:57.050   04 Jun 2027 04:01:40.479            43.429              Murmansk1          1357.156
       372   04 Jun 2027 04:02:25.850   04 Jun 2027 04:02:38.418            12.568              Murmansk1           392.750
       373   04 Jun 2027 04:03:12.766   04 Jun 2027 04:06:17.950           185.184                 Moscow          5787.000
       374   04 Jun 2027 04:20:32.850   04 Jun 2027 04:21:12.667            39.817               CapeTown          1244.281
       375   04 Jun 2027 04:22:02.018   04 Jun 2027 04:24:04.315           122.297               CapeTown          3821.781
       376   04 Jun 2027 04:29:37.832   04 Jun 2027 04:30:13.149            35.317               CapeTown          1103.656
       377   04 Jun 2027 05:17:32.218   04 Jun 2027 05:17:57.089            24.871                Anadyr1           777.219
       378   04 Jun 2027 05:19:13.159   04 Jun 2027 05:20:09.866            56.707                Anadyr1          1772.094
       379   04 Jun 2027 05:20:43.201   04 Jun 2027 05:21:05.857            22.656                Anadyr1           708.000
       380   04 Jun 2027 05:21:16.941   04 Jun 2027 05:22:45.075            88.134                Anadyr2          2754.188
       381   04 Jun 2027 05:22:45.075   04 Jun 2027 05:24:50.659           125.584                Anadyr1          3924.500
       382   04 Jun 2027 05:25:04.283   04 Jun 2027 05:26:38.137            93.854               Magadan1          2932.937
       383   04 Jun 2027 06:54:49.991   04 Jun 2027 06:55:08.400            18.409               Magadan2           575.281
       384   04 Jun 2027 06:55:19.954   04 Jun 2027 06:55:33.500            13.546                Anadyr1           423.313
       385   04 Jun 2027 06:56:01.275   04 Jun 2027 06:56:02.235             0.960               Magadan1            30.000
       386   04 Jun 2027 06:56:02.235   04 Jun 2027 06:56:09.039             6.804               Magadan2           212.625
       387   04 Jun 2027 06:56:25.495   04 Jun 2027 06:57:06.725            41.230                Anadyr2          1288.437
       388   04 Jun 2027 06:57:22.228   04 Jun 2027 06:58:35.611            73.383               Magadan1          2293.219
       389   04 Jun 2027 06:58:57.499   04 Jun 2027 06:59:11.997            14.498               Magadan1           453.063
       390   04 Jun 2027 06:59:16.078   04 Jun 2027 06:59:33.436            17.358               Magadan1           542.437
       391   04 Jun 2027 06:59:57.839   04 Jun 2027 07:00:03.288             5.449                Anadyr1           170.281
       392   04 Jun 2027 07:00:03.288   04 Jun 2027 07:00:38.203            34.915                Anadyr2          1091.094
       393   04 Jun 2027 07:00:45.502   04 Jun 2027 07:00:53.276             7.774               Magadan2           242.938
       394   04 Jun 2027 08:30:09.067   04 Jun 2027 08:30:25.710            16.643               Magadan2           520.094
       395   04 Jun 2027 08:31:18.947   04 Jun 2027 08:32:02.296            43.349                Anadyr2          1354.656
       396   04 Jun 2027 08:32:39.011   04 Jun 2027 08:33:05.163            26.152               Magadan1           817.250
       397   04 Jun 2027 08:33:13.617   04 Jun 2027 08:33:21.775             8.158               Magadan2           254.937
       398   04 Jun 2027 08:33:23.835   04 Jun 2027 08:33:34.939            11.104                Anadyr2           347.000
       399   04 Jun 2027 08:33:39.511   04 Jun 2027 08:34:55.160            75.649               Magadan2          2364.031
       400   04 Jun 2027 08:35:15.193   04 Jun 2027 08:35:26.402            11.209                Anadyr1           350.281
       401   04 Jun 2027 08:35:58.751   04 Jun 2027 08:36:58.196            59.445               Magadan1          1857.656
       402   04 Jun 2027 08:37:11.115   04 Jun 2027 08:38:17.545            66.430                Anadyr1          2075.938
       403   04 Jun 2027 10:10:13.761   04 Jun 2027 10:10:35.719            21.958               Magadan2           686.187
       404   04 Jun 2027 10:10:42.593   04 Jun 2027 10:11:33.367            50.774               Magadan2          1586.687
       405   04 Jun 2027 10:11:39.892   04 Jun 2027 10:12:10.214            30.322                Irkutsk           947.563
       406   04 Jun 2027 10:12:21.730   04 Jun 2027 10:12:48.853            27.123                Irkutsk           847.594
       407   04 Jun 2027 10:12:59.365   04 Jun 2027 10:13:47.228            47.863                Novosib          1495.719
       408   04 Jun 2027 10:14:11.990   04 Jun 2027 10:15:22.642            70.652                Norilsk          2207.875
       409   04 Jun 2027 11:24:00.161   04 Jun 2027 11:25:20.318            80.157                Sumatra          2504.906
       410   04 Jun 2027 11:45:26.301   04 Jun 2027 11:45:43.323            17.022                Novosib           531.938
       411   04 Jun 2027 11:46:38.784   04 Jun 2027 11:46:41.083             2.299                Novosib            71.844
       412   04 Jun 2027 11:47:20.562   04 Jun 2027 11:47:35.222            14.660                Novosib           458.125
       413   04 Jun 2027 11:47:50.121   04 Jun 2027 11:47:57.086             6.965                Norilsk           217.656
       414   04 Jun 2027 11:47:59.318   04 Jun 2027 11:48:40.251            40.933                Irkutsk          1279.156
       415   04 Jun 2027 11:49:09.145   04 Jun 2027 11:49:31.920            22.775                Norilsk           711.719
       416   04 Jun 2027 11:49:37.943   04 Jun 2027 11:49:46.201             8.258                Norilsk           258.062
       417   04 Jun 2027 11:49:48.053   04 Jun 2027 11:49:57.497             9.444                Norilsk           295.125
       418   04 Jun 2027 11:50:20.550   04 Jun 2027 11:50:37.834            17.284                Norilsk           540.125
       419   04 Jun 2027 12:28:38.571   04 Jun 2027 12:29:08.039            29.468            RioGallegos           920.875
       420   04 Jun 2027 12:29:59.844   04 Jun 2027 12:32:16.580           136.736            RioGallegos          4273.000
       421   04 Jun 2027 13:03:43.965   04 Jun 2027 13:03:57.394            13.429                Sumatra           419.656
       422   04 Jun 2027 13:07:03.832   04 Jun 2027 13:07:34.271            30.439                Sumatra           951.219
       423   04 Jun 2027 13:11:20.912   04 Jun 2027 13:12:23.421            62.509                  Delhi          1953.406
       424   04 Jun 2027 13:16:33.805   04 Jun 2027 13:17:08.153            34.348                Novosib          1073.375
       425   04 Jun 2027 13:18:04.043   04 Jun 2027 13:18:16.200            12.157                Novosib           379.906
       426   04 Jun 2027 13:18:24.651   04 Jun 2027 13:20:20.911           116.260                Novosib          3633.125
       427   04 Jun 2027 14:52:36.736   04 Jun 2027 14:53:44.960            68.224                 Moscow          2132.000
       428   04 Jun 2027 14:55:03.035   04 Jun 2027 14:55:18.356            15.321                 Moscow           478.781
       429   04 Jun 2027 14:55:52.281   04 Jun 2027 14:56:19.564            27.283                 Moscow           852.594
       430   04 Jun 2027 14:57:17.215   04 Jun 2027 14:57:36.922            19.707              Murmansk2           615.844
       431   04 Jun 2027 14:57:40.828   04 Jun 2027 14:58:04.417            23.589              Murmansk2           737.156
       432   04 Jun 2027 14:59:31.959   04 Jun 2027 15:00:39.874            67.915                Norilsk          2122.344
       433   04 Jun 2027 15:01:05.188   04 Jun 2027 15:01:44.656            39.468                Norilsk          1233.375
       434   04 Jun 2027 15:03:30.318   04 Jun 2027 15:04:59.516            89.198                Norilsk          2787.437
       435   04 Jun 2027 16:07:30.687   04 Jun 2027 16:08:34.016            63.329               CapeTown          1979.031
       436   04 Jun 2027 16:10:22.198   04 Jun 2027 16:10:49.388            27.190               CapeTown           849.688
       437   04 Jun 2027 16:11:40.718   04 Jun 2027 16:12:07.882            27.164               CapeTown           848.875
       438   04 Jun 2027 16:14:40.648   04 Jun 2027 16:15:57.681            77.033               CapeTown          2407.281
       439   04 Jun 2027 16:31:30.339   04 Jun 2027 16:31:49.984            19.645                 Moscow           613.906
       440   04 Jun 2027 16:32:34.094   04 Jun 2027 16:33:51.569            77.475                 Moscow          2421.094
       441   04 Jun 2027 16:40:41.008   04 Jun 2027 16:41:11.115            30.107              Murmansk1           940.844
       442   04 Jun 2027 16:47:09.609   04 Jun 2027 16:48:26.606            76.997                Anadyr1          2406.156
       443   04 Jun 2027 16:49:39.982   04 Jun 2027 16:50:14.507            34.525                Anadyr2          1078.906
       444   04 Jun 2027 16:53:52.755   04 Jun 2027 16:54:36.101            43.346                Anadyr2          1354.562
       445   04 Jun 2027 17:42:01.633   04 Jun 2027 17:44:17.361           135.728               CapeTown          4241.500
       446   04 Jun 2027 18:11:58.704   04 Jun 2027 18:12:39.161            40.457              Murmansk1          1264.281
       447   04 Jun 2027 18:13:21.320   04 Jun 2027 18:16:06.034           164.714              Murmansk2          5147.313
       448   04 Jun 2027 18:18:03.491   04 Jun 2027 18:18:44.700            41.209              Murmansk1          1287.781
       449   04 Jun 2027 18:26:02.822   04 Jun 2027 18:26:13.326            10.504                Anadyr2           328.250
       450   04 Jun 2027 18:26:17.788   04 Jun 2027 18:27:32.060            74.272               Magadan1          2321.000
       451   04 Jun 2027 18:32:02.190   04 Jun 2027 18:33:04.104            61.914               Magadan2          1934.812
       452   04 Jun 2027 19:25:22.768   04 Jun 2027 19:25:26.537             3.769               CapeTown           117.781
       453   04 Jun 2027 19:58:32.918   04 Jun 2027 20:02:48.275           255.357                Anadyr1          7979.906
       454   04 Jun 2027 20:02:52.937   04 Jun 2027 20:03:53.035            60.098               Magadan2          1878.063
       455   04 Jun 2027 20:03:54.701   04 Jun 2027 20:03:55.549             0.848                Anadyr1            26.500
       456   04 Jun 2027 20:04:16.357   04 Jun 2027 20:04:35.353            18.996               Magadan2           593.625
       457   04 Jun 2027 20:07:05.767   04 Jun 2027 20:07:36.576            30.809               Magadan1           962.781
       458   04 Jun 2027 20:10:08.585   04 Jun 2027 20:11:10.954            62.369               Magadan2          1949.031
       459   04 Jun 2027 21:34:25.615   04 Jun 2027 21:36:33.956           128.341                Anadyr2          4010.656
       460   04 Jun 2027 21:36:41.499   04 Jun 2027 21:41:20.992           279.493                Norilsk          8734.156
       461   04 Jun 2027 21:42:22.231   04 Jun 2027 21:42:50.925            28.694                Irkutsk           896.687
       462   04 Jun 2027 21:43:06.432   04 Jun 2027 21:43:20.016            13.584                Irkutsk           424.500
       463   04 Jun 2027 21:45:01.529   04 Jun 2027 21:45:01.535             0.006                Irkutsk             0.187
       464   04 Jun 2027 21:47:19.697   04 Jun 2027 21:48:03.253            43.556                Irkutsk          1361.125
       465   04 Jun 2027 21:59:19.363   04 Jun 2027 22:00:51.350            91.987                Sumatra          2874.594
       466   04 Jun 2027 22:34:21.995   04 Jun 2027 22:34:39.700            17.705            RioGallegos           553.281
       467   04 Jun 2027 22:37:53.380   04 Jun 2027 22:38:03.682            10.302            RioGallegos           321.937
       468   04 Jun 2027 23:09:53.152   04 Jun 2027 23:11:47.324           114.172                Anadyr1          3567.875
       469   04 Jun 2027 23:11:47.324   04 Jun 2027 23:12:17.771            30.447                Anadyr2           951.469
       470   04 Jun 2027 23:12:23.384   04 Jun 2027 23:13:39.378            75.994                Norilsk          2374.813
       471   04 Jun 2027 23:14:00.339   04 Jun 2027 23:14:14.524            14.185               Magadan2           443.281
       472   04 Jun 2027 23:15:30.413   04 Jun 2027 23:16:05.884            35.471               Magadan1          1108.469
       473   04 Jun 2027 23:16:17.520   04 Jun 2027 23:16:27.146             9.626                Irkutsk           300.813
       474   04 Jun 2027 23:17:22.352   04 Jun 2027 23:17:53.398            31.046                Irkutsk           970.188
       475   04 Jun 2027 23:18:25.409   04 Jun 2027 23:19:17.456            52.047                Novosib          1626.469
       476   04 Jun 2027 23:20:29.917   04 Jun 2027 23:20:52.810            22.893                Novosib           715.406
       477   04 Jun 2027 23:29:59.252   04 Jun 2027 23:30:47.782            48.530                Sumatra          1516.563
       478   04 Jun 2027 23:32:45.370   04 Jun 2027 23:32:57.520            12.150                Sumatra           379.687
       479   04 Jun 2027 23:33:48.397   04 Jun 2027 23:33:54.550             6.153                Sumatra           192.281
       480   04 Jun 2027 23:34:23.183   04 Jun 2027 23:35:59.867            96.684                Sumatra          3021.375
       481   05 Jun 2027 00:14:28.567   05 Jun 2027 00:15:02.023            33.456            RioGallegos          1045.500
       482   05 Jun 2027 00:44:18.656   05 Jun 2027 00:45:21.170            62.514                Anadyr1          1953.562
