uniorb/output/strategy_4/Drop/Drop_KinoSat_111901.txt

KinoSat_111901
-------------------------
    Access    *     Start Time (UTCG)     *     Stop Time (UTCG)  *   Duration (s)        *       Station  *  Data (Mbytes)
         1   01 Jun 2027 03:41:21.888   01 Jun 2027 03:41:23.210             1.322              Murmansk2            41.313
         2   01 Jun 2027 03:41:25.341   01 Jun 2027 03:42:05.808            40.467                Irkutsk          1264.594
         3   01 Jun 2027 03:42:12.838   01 Jun 2027 03:42:23.669            10.831              Murmansk1           338.469
         4   01 Jun 2027 03:42:23.669   01 Jun 2027 03:43:26.955            63.286              Murmansk2          1977.688
         5   01 Jun 2027 03:43:28.368   01 Jun 2027 03:44:20.138            51.770                Novosib          1617.812
         6   01 Jun 2027 03:44:28.877   01 Jun 2027 03:46:26.709           117.832                Irkutsk          3682.250
         7   01 Jun 2027 03:46:36.906   01 Jun 2027 03:49:08.230           151.324                  Delhi          4728.875
         8   01 Jun 2027 05:20:09.635   01 Jun 2027 05:21:03.729            54.094              Murmansk2          1690.437
         9   01 Jun 2027 05:21:32.171   01 Jun 2027 05:23:18.417           106.246                Norilsk          3320.188
        10   01 Jun 2027 05:23:33.957   01 Jun 2027 05:25:07.053            93.096                Novosib          2909.250
        11   01 Jun 2027 05:25:11.094   01 Jun 2027 05:29:05.790           234.696                 Moscow          7334.250
        12   01 Jun 2027 05:41:14.720   01 Jun 2027 05:43:21.981           127.261               CapeTown          3976.906
        13   01 Jun 2027 05:44:28.950   01 Jun 2027 05:44:29.407             0.457               CapeTown            14.281
        14   01 Jun 2027 05:47:05.538   01 Jun 2027 05:48:11.967            66.429               CapeTown          2075.906
        15   01 Jun 2027 06:56:21.743   01 Jun 2027 06:57:42.069            80.326              Murmansk1          2510.188
        16   01 Jun 2027 06:58:09.929   01 Jun 2027 06:59:55.964           106.035              Murmansk1          3313.594
        17   01 Jun 2027 07:00:29.869   01 Jun 2027 07:00:39.106             9.237                 Moscow           288.656
        18   01 Jun 2027 07:01:30.647   01 Jun 2027 07:02:49.238            78.591                 Moscow          2455.969
        19   01 Jun 2027 07:17:06.035   01 Jun 2027 07:22:17.527           311.492               CapeTown          9734.125
        20   01 Jun 2027 08:21:35.846   01 Jun 2027 08:23:11.501            95.655                Norilsk          2989.219
        21   01 Jun 2027 08:23:23.748   01 Jun 2027 08:26:06.026           162.278                Anadyr2          5071.187
        22   01 Jun 2027 08:27:22.248   01 Jun 2027 08:28:10.312            48.064              Murmansk1          1502.000
        23   01 Jun 2027 09:52:29.949   01 Jun 2027 09:52:55.461            25.512                Anadyr1           797.250
        24   01 Jun 2027 09:55:34.944   01 Jun 2027 09:58:33.787           178.843                Anadyr2          5588.844
        25   01 Jun 2027 09:58:33.787   01 Jun 2027 10:01:36.113           182.326                Anadyr1          5697.688
        26   01 Jun 2027 11:30:37.819   01 Jun 2027 11:32:29.763           111.944               Magadan1          3498.250
        27   01 Jun 2027 11:33:07.384   01 Jun 2027 11:36:51.858           224.474               Magadan1          7014.812
        28   01 Jun 2027 13:56:05.578   01 Jun 2027 13:56:42.327            36.749            RioGallegos          1148.406
        29   01 Jun 2027 14:24:51.523   01 Jun 2027 14:29:24.423           272.900                Sumatra          8528.125
        30   01 Jun 2027 14:30:57.448   01 Jun 2027 14:33:08.628           131.180                Sumatra          4099.375
        31   01 Jun 2027 14:40:37.976   01 Jun 2027 14:41:35.938            57.962                Irkutsk          1811.312
        32   01 Jun 2027 14:42:50.420   01 Jun 2027 14:44:46.450           116.030                Irkutsk          3625.938
        33   01 Jun 2027 16:10:32.600   01 Jun 2027 16:14:57.009           264.409                  Delhi          8262.781
        34   01 Jun 2027 16:18:59.767   01 Jun 2027 16:24:45.563           345.796                Novosib         10806.125
        35   01 Jun 2027 19:33:41.814   01 Jun 2027 19:37:32.855           231.041                 Moscow          7220.031
        36   01 Jun 2027 19:38:01.010   01 Jun 2027 19:39:59.665           118.655              Murmansk1          3707.969
        37   01 Jun 2027 20:42:39.220   01 Jun 2027 20:45:53.585           194.365               CapeTown          6073.906
        38   01 Jun 2027 20:47:30.798   01 Jun 2027 20:50:21.752           170.954               CapeTown          5342.313
        39   02 Jun 2027 02:07:45.572   02 Jun 2027 02:08:28.420            42.848                Anadyr2          1339.000
        40   02 Jun 2027 02:11:18.086   02 Jun 2027 02:12:20.555            62.469                Norilsk          1952.156
        41   02 Jun 2027 02:13:48.871   02 Jun 2027 02:13:58.500             9.629               Magadan2           300.906
        42   02 Jun 2027 02:15:11.753   02 Jun 2027 02:17:31.907           140.154                Irkutsk          4379.812
        43   02 Jun 2027 02:20:34.635   02 Jun 2027 02:20:49.417            14.782                Irkutsk           461.938
        44   02 Jun 2027 02:22:10.351   02 Jun 2027 02:22:14.017             3.666                Novosib           114.562
        45   02 Jun 2027 02:22:40.681   02 Jun 2027 02:23:10.758            30.077                Irkutsk           939.906
        46   02 Jun 2027 02:28:43.220   02 Jun 2027 02:29:12.977            29.757                  Delhi           929.906
        47   02 Jun 2027 02:29:41.519   02 Jun 2027 02:30:07.163            25.644                  Delhi           801.375
        48   02 Jun 2027 02:31:22.057   02 Jun 2027 02:35:40.014           257.957                Sumatra          8061.156
        49   02 Jun 2027 03:07:56.474   02 Jun 2027 03:08:03.549             7.075            RioGallegos           221.094
        50   02 Jun 2027 03:12:13.696   02 Jun 2027 03:12:32.931            19.235            RioGallegos           601.094
        51   02 Jun 2027 03:54:25.274   02 Jun 2027 03:56:06.548           101.274              Murmansk2          3164.812
        52   02 Jun 2027 03:56:06.548   02 Jun 2027 03:56:48.655            42.107              Murmansk1          1315.844
        53   02 Jun 2027 03:56:53.275   02 Jun 2027 03:57:53.833            60.558                Norilsk          1892.438
        54   02 Jun 2027 03:58:02.146   02 Jun 2027 03:59:39.140            96.994                Irkutsk          3031.062
        55   02 Jun 2027 03:59:59.701   02 Jun 2027 04:01:21.133            81.432                Novosib          2544.750
        56   02 Jun 2027 04:01:22.254   02 Jun 2027 04:01:46.951            24.697                 Moscow           771.781
        57   02 Jun 2027 04:02:21.028   02 Jun 2027 04:02:46.121            25.093                Novosib           784.156
        58   02 Jun 2027 04:03:20.371   02 Jun 2027 04:04:38.256            77.885                  Delhi          2433.906
        59   02 Jun 2027 04:08:45.743   02 Jun 2027 04:09:56.719            70.976                  Delhi          2218.000
        60   02 Jun 2027 05:33:56.910   02 Jun 2027 05:36:37.124           160.214                Novosib          5006.687
        61   02 Jun 2027 05:38:11.884   02 Jun 2027 05:38:54.012            42.128                 Moscow          1316.500
        62   02 Jun 2027 05:39:38.743   02 Jun 2027 05:40:08.012            29.269                 Moscow           914.656
        63   02 Jun 2027 05:40:21.990   02 Jun 2027 05:40:36.418            14.428                 Moscow           450.875
        64   02 Jun 2027 05:41:00.117   02 Jun 2027 05:41:19.046            18.929                 Moscow           591.531
        65   02 Jun 2027 05:52:57.628   02 Jun 2027 05:56:25.211           207.583               CapeTown          6486.969
        66   02 Jun 2027 05:59:15.096   02 Jun 2027 05:59:37.571            22.475               CapeTown           702.344
        67   02 Jun 2027 05:59:40.092   02 Jun 2027 06:00:20.024            39.932               CapeTown          1247.875
        68   02 Jun 2027 06:56:00.411   02 Jun 2027 06:56:51.394            50.983               Magadan2          1593.219
        69   02 Jun 2027 06:57:05.985   02 Jun 2027 06:58:52.879           106.894                Anadyr1          3340.438
        70   02 Jun 2027 06:59:33.341   02 Jun 2027 06:59:52.417            19.076               Magadan1           596.125
        71   02 Jun 2027 07:00:16.923   02 Jun 2027 07:01:13.372            56.449                Anadyr2          1764.031
        72   02 Jun 2027 07:08:43.520   02 Jun 2027 07:08:53.311             9.791                Norilsk           305.969
        73   02 Jun 2027 07:10:25.534   02 Jun 2027 07:10:29.723             4.189              Murmansk2           130.906
        74   02 Jun 2027 07:10:59.715   02 Jun 2027 07:11:54.601            54.886              Murmansk2          1715.188
        75   02 Jun 2027 07:13:27.458   02 Jun 2027 07:15:59.499           152.041                 Moscow          4751.281
        76   02 Jun 2027 07:37:07.792   02 Jun 2027 07:39:35.924           148.132               CapeTown          4629.125
        77   02 Jun 2027 08:33:44.398   02 Jun 2027 08:37:21.096           216.698               Magadan1          6771.812
        78   02 Jun 2027 08:37:21.096   02 Jun 2027 08:37:48.842            27.746               Magadan2           867.063
        79   02 Jun 2027 08:43:25.351   02 Jun 2027 08:44:28.026            62.675                 Moscow          1958.594
        80   02 Jun 2027 10:06:25.633   02 Jun 2027 10:07:28.611            62.978                Anadyr2          1968.063
        81   02 Jun 2027 10:07:52.505   02 Jun 2027 10:09:50.172           117.667               Magadan2          3677.094
        82   02 Jun 2027 10:09:52.541   02 Jun 2027 10:10:55.006            62.465                Anadyr2          1952.031
        83   02 Jun 2027 10:11:11.782   02 Jun 2027 10:13:41.757           149.975               Magadan1          4686.719
        84   02 Jun 2027 11:40:35.704   02 Jun 2027 11:40:47.056            11.352               Magadan1           354.750
        85   02 Jun 2027 11:42:11.366   02 Jun 2027 11:47:04.298           292.932               Magadan1          9154.125
        86   02 Jun 2027 11:47:26.631   02 Jun 2027 11:47:36.585             9.954                Irkutsk           311.063
        87   02 Jun 2027 11:47:45.982   02 Jun 2027 11:48:26.711            40.729                Norilsk          1272.781
        88   02 Jun 2027 11:48:38.995   02 Jun 2027 11:49:00.677            21.682                Novosib           677.562
        89   02 Jun 2027 11:49:12.205   02 Jun 2027 11:49:38.127            25.922                Norilsk           810.063
        90   02 Jun 2027 12:24:13.077   02 Jun 2027 12:24:39.741            26.664            RioGallegos           833.250
        91   02 Jun 2027 12:25:11.094   02 Jun 2027 12:27:25.132           134.038            RioGallegos          4188.687
        92   02 Jun 2027 13:05:58.637   02 Jun 2027 13:07:22.341            83.704                Sumatra          2615.750
        93   02 Jun 2027 13:12:59.460   02 Jun 2027 13:14:04.328            64.868                Irkutsk          2027.125
        94   02 Jun 2027 13:15:29.243   02 Jun 2027 13:16:09.676            40.433                Novosib          1263.531
        95   02 Jun 2027 13:16:25.895   02 Jun 2027 13:17:37.053            71.158                Irkutsk          2223.688
        96   02 Jun 2027 14:03:19.049   02 Jun 2027 14:07:27.575           248.526            RioGallegos          7766.437
        97   02 Jun 2027 14:38:01.778   02 Jun 2027 14:41:58.580           236.802                Sumatra          7400.063
        98   02 Jun 2027 14:53:56.957   02 Jun 2027 14:58:42.813           285.856                Irkutsk          8933.000
        99   02 Jun 2027 16:24:45.353   02 Jun 2027 16:27:02.782           137.429                  Delhi          4294.656
       100   02 Jun 2027 16:32:37.639   02 Jun 2027 16:35:43.973           186.334                Novosib          5822.937
       101   02 Jun 2027 16:39:38.938   02 Jun 2027 16:39:55.276            16.338                Norilsk           510.562
       102   02 Jun 2027 18:04:33.863   02 Jun 2027 18:04:45.102            11.239                 Moscow           351.219
       103   02 Jun 2027 18:06:39.547   02 Jun 2027 18:09:30.808           171.261                 Moscow          5351.906
       104   02 Jun 2027 18:22:16.859   02 Jun 2027 18:22:47.563            30.704                Anadyr1           959.500
       105   02 Jun 2027 18:26:51.773   02 Jun 2027 18:27:11.703            19.930                Anadyr2           622.813
       106   02 Jun 2027 19:17:05.768   02 Jun 2027 19:19:49.036           163.268               CapeTown          5102.125
       107   02 Jun 2027 19:46:48.010   02 Jun 2027 19:47:39.646            51.636              Murmansk2          1613.625
       108   02 Jun 2027 19:49:29.058   02 Jun 2027 19:52:11.965           162.907              Murmansk2          5090.844
       109   02 Jun 2027 19:53:24.179   02 Jun 2027 19:54:16.526            52.347              Murmansk1          1635.844
       110   02 Jun 2027 20:01:32.416   02 Jun 2027 20:02:04.531            32.115               Magadan2          1003.594
       111   02 Jun 2027 20:04:32.957   02 Jun 2027 20:04:46.513            13.556               Magadan2           423.625
       112   02 Jun 2027 20:05:25.672   02 Jun 2027 20:06:25.431            59.759               Magadan2          1867.469
       113   02 Jun 2027 20:55:27.111   02 Jun 2027 21:01:11.580           344.469               CapeTown         10764.656
       114   02 Jun 2027 21:36:01.783   02 Jun 2027 21:37:11.131            69.348               Magadan1          2167.125
       115   02 Jun 2027 21:38:20.185   02 Jun 2027 21:38:37.925            17.740               Magadan2           554.375
       116   02 Jun 2027 21:47:11.916   02 Jun 2027 21:47:53.316            41.400               Magadan1          1293.750
       117   02 Jun 2027 23:09:31.752   02 Jun 2027 23:13:41.060           249.308                Anadyr1          7790.875
       118   02 Jun 2027 23:13:43.925   02 Jun 2027 23:14:56.089            72.164                Norilsk          2255.125
       119   02 Jun 2027 23:14:56.446   02 Jun 2027 23:15:55.417            58.971               Magadan1          1842.844
       120   02 Jun 2027 23:16:10.259   02 Jun 2027 23:16:52.887            42.628               Magadan1          1332.125
       121   02 Jun 2027 23:17:45.817   02 Jun 2027 23:18:13.987            28.170                Irkutsk           880.312
       122   02 Jun 2027 23:18:47.872   02 Jun 2027 23:19:12.196            24.324                Irkutsk           760.125
       123   02 Jun 2027 23:19:38.019   02 Jun 2027 23:20:49.141            71.122                Irkutsk          2222.563
       124   03 Jun 2027 00:03:42.326   03 Jun 2027 00:05:42.225           119.899            RioGallegos          3746.844
       125   03 Jun 2027 00:07:13.816   03 Jun 2027 00:07:18.316             4.500            RioGallegos           140.625
       126   03 Jun 2027 00:08:02.259   03 Jun 2027 00:08:27.306            25.047            RioGallegos           782.719
       127   03 Jun 2027 00:10:12.710   03 Jun 2027 00:10:19.668             6.958            RioGallegos           217.438
       128   03 Jun 2027 00:11:23.904   03 Jun 2027 00:11:47.261            23.357            RioGallegos           729.906
       129   03 Jun 2027 00:14:14.108   03 Jun 2027 00:14:45.335            31.227            RioGallegos           975.844
       130   03 Jun 2027 00:45:02.019   03 Jun 2027 00:45:47.469            45.450                Anadyr2          1420.312
       131   03 Jun 2027 00:46:07.897   03 Jun 2027 00:46:32.355            24.458                Anadyr1           764.312
       132   03 Jun 2027 00:47:19.917   03 Jun 2027 00:47:39.858            19.941                Anadyr1           623.156
       133   03 Jun 2027 00:47:43.009   03 Jun 2027 00:49:13.614            90.605                Norilsk          2831.406
       134   03 Jun 2027 00:49:20.058   03 Jun 2027 00:50:49.537            89.479               Magadan2          2796.219
       135   03 Jun 2027 00:51:24.056   03 Jun 2027 00:52:00.578            36.522                Irkutsk          1141.313
       136   03 Jun 2027 00:52:36.092   03 Jun 2027 00:53:00.444            24.352                Novosib           761.000
       137   03 Jun 2027 00:54:12.951   03 Jun 2027 00:55:01.424            48.473                Novosib          1514.781
       138   03 Jun 2027 01:02:25.642   03 Jun 2027 01:02:41.072            15.430                Irkutsk           482.188
       139   03 Jun 2027 01:05:05.617   03 Jun 2027 01:08:11.382           185.765                Sumatra          5805.156
       140   03 Jun 2027 01:51:17.456   03 Jun 2027 01:51:32.902            15.446            RioGallegos           482.688
       141   03 Jun 2027 02:19:31.950   03 Jun 2027 02:20:27.339            55.389                Anadyr2          1730.906
       142   03 Jun 2027 02:20:45.638   03 Jun 2027 02:21:41.577            55.939                Anadyr2          1748.094
       143   03 Jun 2027 02:23:20.550   03 Jun 2027 02:24:24.775            64.225                Norilsk          2007.031
       144   03 Jun 2027 02:27:14.031   03 Jun 2027 02:29:12.230           118.199                Novosib          3693.719
       145   03 Jun 2027 02:30:07.044   03 Jun 2027 02:30:21.438            14.394                Novosib           449.813
       146   03 Jun 2027 02:32:39.707   03 Jun 2027 02:32:52.274            12.567                Irkutsk           392.719
       147   03 Jun 2027 02:34:44.913   03 Jun 2027 02:35:41.793            56.880                  Delhi          1777.500
       148   03 Jun 2027 02:44:13.233   03 Jun 2027 02:45:10.223            56.990                  Delhi          1780.937
       149   03 Jun 2027 02:47:54.870   03 Jun 2027 02:48:20.830            25.960                Sumatra           811.250
       150   03 Jun 2027 03:15:55.806   03 Jun 2027 03:17:00.980            65.174            RioGallegos          2036.688
       151   03 Jun 2027 03:18:11.173   03 Jun 2027 03:19:32.837            81.664            RioGallegos          2552.000
       152   03 Jun 2027 03:24:42.837   03 Jun 2027 03:25:03.033            20.196            RioGallegos           631.125
       153   03 Jun 2027 04:05:39.117   03 Jun 2027 04:05:48.815             9.698              Murmansk1           303.062
       154   03 Jun 2027 04:05:59.173   03 Jun 2027 04:06:22.809            23.636                Novosib           738.625
       155   03 Jun 2027 04:06:25.406   03 Jun 2027 04:06:33.122             7.716              Murmansk1           241.125
       156   03 Jun 2027 04:06:54.199   03 Jun 2027 04:08:06.639            72.440                Norilsk          2263.750
       157   03 Jun 2027 04:08:12.224   03 Jun 2027 04:08:47.277            35.053                Novosib          1095.406
       158   03 Jun 2027 04:09:09.947   03 Jun 2027 04:09:54.923            44.976              Murmansk2          1405.500
       159   03 Jun 2027 04:10:08.935   03 Jun 2027 04:11:55.125           106.190                Irkutsk          3318.437
       160   03 Jun 2027 04:12:09.603   03 Jun 2027 04:14:49.647           160.044                Novosib          5001.375
       161   03 Jun 2027 04:18:47.714   03 Jun 2027 04:21:13.092           145.378                  Delhi          4543.063
       162   03 Jun 2027 05:44:46.670   03 Jun 2027 05:44:55.985             9.315                Norilsk           291.094
       163   03 Jun 2027 05:45:31.454   03 Jun 2027 05:48:04.166           152.712                Novosib          4772.250
       164   03 Jun 2027 05:49:05.790   03 Jun 2027 05:50:16.188            70.398                 Moscow          2199.938
       165   03 Jun 2027 05:53:16.403   03 Jun 2027 05:53:28.927            12.524                 Moscow           391.375
       166   03 Jun 2027 06:04:45.943   03 Jun 2027 06:07:15.262           149.319               CapeTown          4666.219
       167   03 Jun 2027 06:17:13.900   03 Jun 2027 06:17:21.923             8.023               CapeTown           250.719
       168   03 Jun 2027 07:07:30.433   03 Jun 2027 07:07:51.733            21.300                Anadyr2           665.625
       169   03 Jun 2027 07:08:02.117   03 Jun 2027 07:08:30.561            28.444                Anadyr2           888.875
       170   03 Jun 2027 07:08:41.651   03 Jun 2027 07:09:20.315            38.664               Magadan1          1208.250
       171   03 Jun 2027 07:09:26.307   03 Jun 2027 07:09:34.813             8.506               Magadan1           265.812
       172   03 Jun 2027 07:10:09.446   03 Jun 2027 07:10:18.719             9.273                Anadyr1           289.781
       173   03 Jun 2027 07:10:19.950   03 Jun 2027 07:11:33.115            73.165               Magadan2          2286.406
       174   03 Jun 2027 07:20:43.593   03 Jun 2027 07:21:09.940            26.347                 Moscow           823.344
       175   03 Jun 2027 07:23:04.867   03 Jun 2027 07:23:46.198            41.331                 Moscow          1291.594
       176   03 Jun 2027 07:42:10.208   03 Jun 2027 07:46:54.857           284.649               CapeTown          8895.281
       177   03 Jun 2027 08:42:24.050   03 Jun 2027 08:43:24.762            60.712                Anadyr2          1897.250
       178   03 Jun 2027 08:44:03.732   03 Jun 2027 08:45:19.499            75.767                Anadyr2          2367.719
       179   03 Jun 2027 08:45:43.222   03 Jun 2027 08:45:53.439            10.217               Magadan1           319.281
       180   03 Jun 2027 08:46:14.520   03 Jun 2027 08:47:42.031            87.511                Anadyr1          2734.719
       181   03 Jun 2027 10:18:04.775   03 Jun 2027 10:18:09.326             4.551               Magadan2           142.219
       182   03 Jun 2027 10:18:47.533   03 Jun 2027 10:19:50.010            62.477               Magadan1          1952.406
       183   03 Jun 2027 10:20:18.441   03 Jun 2027 10:21:50.878            92.437               Magadan2          2888.656
       184   03 Jun 2027 10:22:59.820   03 Jun 2027 10:23:15.813            15.993               Magadan1           499.781
       185   03 Jun 2027 10:23:22.580   03 Jun 2027 10:24:01.414            38.834               Magadan2          1213.562
       186   03 Jun 2027 10:28:15.599   03 Jun 2027 10:28:17.018             1.419                Norilsk            44.344
       187   03 Jun 2027 11:00:59.900   03 Jun 2027 11:02:06.255            66.355            RioGallegos          2073.594
       188   03 Jun 2027 11:06:25.713   03 Jun 2027 11:07:07.094            41.381            RioGallegos          1293.156
       189   03 Jun 2027 11:40:12.027   03 Jun 2027 11:40:42.289            30.262                Sumatra           945.688
       190   03 Jun 2027 11:53:29.257   03 Jun 2027 11:53:51.563            22.306               Magadan2           697.062
       191   03 Jun 2027 11:53:51.563   03 Jun 2027 11:57:43.571           232.008               Magadan1          7250.250
       192   03 Jun 2027 11:58:25.189   03 Jun 2027 11:59:37.075            71.886                Irkutsk          2246.437
       193   03 Jun 2027 11:59:59.149   03 Jun 2027 12:00:34.763            35.614                Irkutsk          1112.937
       194   03 Jun 2027 12:01:35.528   03 Jun 2027 12:01:46.038            10.510                Novosib           328.438
       195   03 Jun 2027 12:04:35.423   03 Jun 2027 12:05:05.022            29.599                Norilsk           924.969
       196   03 Jun 2027 12:36:22.350   03 Jun 2027 12:36:25.030             2.680            RioGallegos            83.750
       197   03 Jun 2027 12:39:24.592   03 Jun 2027 12:40:17.516            52.924            RioGallegos          1653.875
       198   03 Jun 2027 12:43:04.607   03 Jun 2027 12:45:08.024           123.417            RioGallegos          3856.781
       199   03 Jun 2027 13:13:47.191   03 Jun 2027 13:14:14.513            27.322                Sumatra           853.813
       200   03 Jun 2027 13:17:49.358   03 Jun 2027 13:19:44.764           115.406                Sumatra          3606.437
       201   03 Jun 2027 13:22:32.129   03 Jun 2027 13:23:48.657            76.528                Sumatra          2391.500
       202   03 Jun 2027 13:33:30.909   03 Jun 2027 13:34:29.301            58.392                Irkutsk          1824.750
       203   03 Jun 2027 13:42:16.086   03 Jun 2027 13:42:29.396            13.310                Norilsk           415.937
       204   03 Jun 2027 14:16:19.570   03 Jun 2027 14:20:24.537           244.967            RioGallegos          7655.219
       205   03 Jun 2027 15:03:08.225   03 Jun 2027 15:05:08.174           119.949                Novosib          3748.406
       206   03 Jun 2027 15:08:39.364   03 Jun 2027 15:10:56.668           137.304                Novosib          4290.750
       207   03 Jun 2027 16:39:41.627   03 Jun 2027 16:40:59.875            78.248                 Moscow          2445.250
       208   03 Jun 2027 16:42:19.656   03 Jun 2027 16:42:59.288            39.632                 Moscow          1238.500
       209   03 Jun 2027 16:44:06.539   03 Jun 2027 16:44:34.103            27.564              Murmansk1           861.375
       210   03 Jun 2027 16:46:59.954   03 Jun 2027 16:48:52.778           112.824                Norilsk          3525.750
       211   03 Jun 2027 16:50:26.795   03 Jun 2027 16:50:57.241            30.446                Norilsk           951.438
       212   03 Jun 2027 16:51:07.687   03 Jun 2027 16:52:48.619           100.932                Norilsk          3154.125
       213   03 Jun 2027 17:54:19.913   03 Jun 2027 17:54:28.874             8.961               CapeTown           280.031
       214   03 Jun 2027 17:55:00.830   03 Jun 2027 17:55:25.735            24.905               CapeTown           778.281
       215   03 Jun 2027 17:59:38.970   03 Jun 2027 17:59:53.185            14.215               CapeTown           444.219
       216   03 Jun 2027 18:01:42.755   03 Jun 2027 18:02:58.400            75.645               CapeTown          2363.906
       217   03 Jun 2027 18:16:58.545   03 Jun 2027 18:17:36.256            37.711                 Moscow          1178.469
       218   03 Jun 2027 18:20:08.764   03 Jun 2027 18:20:22.450            13.686              Murmansk1           427.687
       219   03 Jun 2027 18:21:47.796   03 Jun 2027 18:22:27.878            40.082              Murmansk2          1252.563
       220   03 Jun 2027 18:23:41.396   03 Jun 2027 18:24:27.925            46.529              Murmansk2          1454.031
       221   03 Jun 2027 18:25:04.000   03 Jun 2027 18:26:25.181            81.181                 Moscow          2536.906
       222   03 Jun 2027 18:28:07.542   03 Jun 2027 18:29:34.984            87.442              Murmansk2          2732.562
       223   03 Jun 2027 19:29:10.517   03 Jun 2027 19:30:32.341            81.824               CapeTown          2557.000
       224   03 Jun 2027 19:35:53.446   03 Jun 2027 19:37:53.508           120.062               CapeTown          3751.937
       225   03 Jun 2027 19:59:24.462   03 Jun 2027 20:00:37.526            73.064              Murmansk2          2283.250
       226   03 Jun 2027 20:01:30.123   03 Jun 2027 20:07:47.555           377.432              Murmansk1         11794.750
       227   03 Jun 2027 21:09:08.261   03 Jun 2027 21:11:04.959           116.698               CapeTown          3646.813
       228   03 Jun 2027 21:47:18.483   03 Jun 2027 21:47:27.431             8.948                Anadyr2           279.625
       229   03 Jun 2027 21:48:00.600   03 Jun 2027 21:50:12.395           131.795               Magadan2          4118.594
       230   03 Jun 2027 21:55:47.297   03 Jun 2027 21:56:06.862            19.565               Magadan2           611.406
       231   03 Jun 2027 21:56:35.113   03 Jun 2027 21:56:53.150            18.037               Magadan1           563.656
       232   03 Jun 2027 23:21:32.132   03 Jun 2027 23:25:18.104           225.972                Anadyr2          7061.625
       233   03 Jun 2027 23:25:21.082   03 Jun 2027 23:26:10.362            49.280                Anadyr1          1540.000
       234   03 Jun 2027 23:26:12.126   03 Jun 2027 23:26:58.176            46.050                Norilsk          1439.062
       235   03 Jun 2027 23:27:02.411   03 Jun 2027 23:28:09.168            66.757               Magadan2          2086.156
       236   03 Jun 2027 23:28:51.756   03 Jun 2027 23:29:00.640             8.884               Magadan2           277.625
       237   03 Jun 2027 23:29:05.487   03 Jun 2027 23:29:22.477            16.990                Irkutsk           530.937
       238   03 Jun 2027 23:29:31.565   03 Jun 2027 23:29:34.116             2.551               Magadan1            79.719
       239   03 Jun 2027 23:30:16.948   03 Jun 2027 23:30:49.933            32.985                Irkutsk          1030.781
       240   03 Jun 2027 23:31:24.206   03 Jun 2027 23:31:59.145            34.939                Irkutsk          1091.844
       241   03 Jun 2027 23:32:58.133   03 Jun 2027 23:34:04.757            66.624                Irkutsk          2082.000
       242   03 Jun 2027 23:45:06.621   03 Jun 2027 23:46:27.314            80.693                Sumatra          2521.656
       243   03 Jun 2027 23:47:58.563   03 Jun 2027 23:49:12.438            73.875                Sumatra          2308.594
       244   04 Jun 2027 00:20:26.481   04 Jun 2027 00:20:38.496            12.015            RioGallegos           375.469
       245   04 Jun 2027 00:24:54.696   04 Jun 2027 00:25:07.397            12.701            RioGallegos           396.906
       246   04 Jun 2027 00:26:48.238   04 Jun 2027 00:27:02.107            13.869            RioGallegos           433.406
       247   04 Jun 2027 00:56:57.053   04 Jun 2027 00:58:00.369            63.316                Anadyr2          1978.625
       248   04 Jun 2027 00:58:30.957   04 Jun 2027 00:59:13.977            43.020                Anadyr2          1344.375
       249   04 Jun 2027 00:59:39.321   04 Jun 2027 01:01:15.927            96.606                Norilsk          3018.938
       250   04 Jun 2027 01:01:38.766   04 Jun 2027 01:02:41.555            62.789               Magadan1          1962.156
       251   04 Jun 2027 01:03:21.776   04 Jun 2027 01:05:02.630           100.854                Irkutsk          3151.687
       252   04 Jun 2027 01:06:17.172   04 Jun 2027 01:06:27.863            10.691                Novosib           334.094
       253   04 Jun 2027 01:07:55.984   04 Jun 2027 01:08:13.950            17.966                Novosib           561.437
       254   04 Jun 2027 01:17:05.794   04 Jun 2027 01:19:18.015           132.221                Sumatra          4131.906
       255   04 Jun 2027 01:25:50.349   04 Jun 2027 01:26:13.007            22.658                Sumatra           708.063
       256   04 Jun 2027 01:51:23.100   04 Jun 2027 01:52:36.037            72.937            RioGallegos          2279.281
       257   04 Jun 2027 02:00:39.899   04 Jun 2027 02:00:58.271            18.372            RioGallegos           574.125
       258   04 Jun 2027 02:32:26.760   04 Jun 2027 02:32:47.000            20.240                Anadyr2           632.500
       259   04 Jun 2027 02:33:42.765   04 Jun 2027 02:33:58.136            15.371                Anadyr2           480.344
       260   04 Jun 2027 02:35:22.981   04 Jun 2027 02:36:50.617            87.636                Norilsk          2738.625
       261   04 Jun 2027 02:37:05.393   04 Jun 2027 02:37:47.640            42.247               Magadan2          1320.219
       262   04 Jun 2027 02:38:42.233   04 Jun 2027 02:39:45.322            63.089              Murmansk1          1971.531
       263   04 Jun 2027 02:40:31.263   04 Jun 2027 02:41:35.345            64.082                Novosib          2002.563
       264   04 Jun 2027 02:41:49.164   04 Jun 2027 02:42:05.921            16.757                Irkutsk           523.656
       265   04 Jun 2027 02:46:37.852   04 Jun 2027 02:47:33.839            55.987                  Delhi          1749.594
       266   04 Jun 2027 02:53:34.107   04 Jun 2027 02:53:39.844             5.737                  Delhi           179.281
       267   04 Jun 2027 02:53:59.511   04 Jun 2027 02:54:47.284            47.773                  Delhi          1492.906
       268   04 Jun 2027 03:28:09.414   04 Jun 2027 03:29:08.626            59.212            RioGallegos          1850.375
       269   04 Jun 2027 03:29:31.513   04 Jun 2027 03:30:39.695            68.182            RioGallegos          2130.688
       270   04 Jun 2027 03:36:15.677   04 Jun 2027 03:36:25.993            10.316            RioGallegos           322.375
       271   04 Jun 2027 04:18:53.028   04 Jun 2027 04:21:06.946           133.918                Norilsk          4184.938
       272   04 Jun 2027 04:21:11.607   04 Jun 2027 04:22:05.568            53.961              Murmansk2          1686.281
       273   04 Jun 2027 04:22:13.141   04 Jun 2027 04:23:11.214            58.073                Irkutsk          1814.781
       274   04 Jun 2027 04:23:44.969   04 Jun 2027 04:24:52.604            67.635                Novosib          2113.594
       275   04 Jun 2027 04:25:27.394   04 Jun 2027 04:29:29.764           242.370                  Delhi          7574.062
       276   04 Jun 2027 05:58:11.620   04 Jun 2027 05:59:27.949            76.329                Novosib          2385.281
       277   04 Jun 2027 05:59:52.833   04 Jun 2027 06:00:24.844            32.011                 Moscow          1000.344
       278   04 Jun 2027 06:00:31.814   04 Jun 2027 06:02:18.898           107.084                 Moscow          3346.375
       279   04 Jun 2027 06:02:23.317   04 Jun 2027 06:03:11.126            47.809                 Moscow          1494.031
       280   04 Jun 2027 06:03:58.484   04 Jun 2027 06:04:15.768            17.284                 Moscow           540.125
       281   04 Jun 2027 06:17:39.503   04 Jun 2027 06:19:46.875           127.372               CapeTown          3980.375
       282   04 Jun 2027 07:19:47.796   04 Jun 2027 07:20:04.559            16.763                Anadyr1           523.844
       283   04 Jun 2027 07:20:04.559   04 Jun 2027 07:20:23.409            18.850                Anadyr2           589.063
       284   04 Jun 2027 07:20:32.220   04 Jun 2027 07:21:26.723            54.503                Anadyr1          1703.219
       285   04 Jun 2027 07:22:09.043   04 Jun 2027 07:22:20.655            11.612                Anadyr1           362.875
       286   04 Jun 2027 07:24:19.501   04 Jun 2027 07:25:05.533            46.032                Anadyr2          1438.500
       287   04 Jun 2027 07:54:59.089   04 Jun 2027 07:59:24.351           265.262               CapeTown          8289.438
       288   04 Jun 2027 08:54:53.793   04 Jun 2027 08:55:08.804            15.011               Magadan1           469.094
       289   04 Jun 2027 08:55:15.285   04 Jun 2027 08:55:29.053            13.768                Anadyr2           430.250
       290   04 Jun 2027 08:55:29.053   04 Jun 2027 08:55:39.424            10.371                Anadyr1           324.094
       291   04 Jun 2027 08:56:09.576   04 Jun 2027 08:56:50.226            40.650               Magadan1          1270.312
       292   04 Jun 2027 08:56:50.226   04 Jun 2027 08:57:38.395            48.169               Magadan2          1505.281
       293   04 Jun 2027 08:57:56.308   04 Jun 2027 08:58:20.266            23.958               Magadan1           748.687
       294   04 Jun 2027 08:58:35.196   04 Jun 2027 08:59:56.102            80.906               Magadan1          2528.313
       295   04 Jun 2027 10:28:06.296   04 Jun 2027 10:29:03.543            57.247               Magadan2          1788.969
       296   04 Jun 2027 10:30:31.295   04 Jun 2027 10:30:58.082            26.787               Magadan2           837.094
       297   04 Jun 2027 10:30:59.711   04 Jun 2027 10:31:46.346            46.635               Magadan2          1457.344
       298   04 Jun 2027 10:33:51.043   04 Jun 2027 10:35:14.612            83.569               Magadan1          2611.531
       299   04 Jun 2027 10:35:36.100   04 Jun 2027 10:35:37.743             1.643               Magadan1            51.344
       300   04 Jun 2027 10:35:47.187   04 Jun 2027 10:35:53.441             6.254                Norilsk           195.438
       301   04 Jun 2027 10:36:38.220   04 Jun 2027 10:37:04.690            26.470                Irkutsk           827.188
       302   04 Jun 2027 10:37:08.204   04 Jun 2027 10:37:46.675            38.471                Norilsk          1202.219
       303   04 Jun 2027 11:12:46.012   04 Jun 2027 11:13:06.074            20.062            RioGallegos           626.937
       304   04 Jun 2027 11:17:21.187   04 Jun 2027 11:18:04.260            43.073            RioGallegos          1346.031
       305   04 Jun 2027 11:50:22.697   04 Jun 2027 11:52:07.516           104.819                Sumatra          3275.594
       306   04 Jun 2027 12:06:36.555   04 Jun 2027 12:11:47.286           310.731               Magadan2          9710.344
       307   04 Jun 2027 13:31:54.402   04 Jun 2027 13:32:37.037            42.635                Sumatra          1332.344
       308   04 Jun 2027 13:41:29.236   04 Jun 2027 13:42:06.720            37.484                Novosib          1171.375
       309   04 Jun 2027 13:43:05.665   04 Jun 2027 13:44:53.466           107.801                Irkutsk          3368.781
       310   04 Jun 2027 14:29:44.688   04 Jun 2027 14:33:14.683           209.995            RioGallegos          6562.344
       311   04 Jun 2027 15:15:33.863   04 Jun 2027 15:16:18.029            44.166                Novosib          1380.187
       312   04 Jun 2027 15:19:33.780   04 Jun 2027 15:19:50.412            16.632                Norilsk           519.750
       313   04 Jun 2027 15:20:28.697   04 Jun 2027 15:21:30.791            62.094                Novosib          1940.438
       314   04 Jun 2027 15:22:54.272   04 Jun 2027 15:25:31.825           157.553                Novosib          4923.531
       315   04 Jun 2027 16:51:42.312   04 Jun 2027 16:52:58.703            76.391                 Moscow          2387.219
       316   04 Jun 2027 16:55:11.298   04 Jun 2027 16:56:05.275            53.977              Murmansk1          1686.781
       317   04 Jun 2027 16:59:45.002   04 Jun 2027 17:06:07.248           382.246                Norilsk         11945.187
       318   04 Jun 2027 18:29:27.989   04 Jun 2027 18:30:41.068            73.079                 Moscow          2283.719
       319   04 Jun 2027 18:33:29.362   04 Jun 2027 18:33:39.889            10.527              Murmansk2           328.969
       320   04 Jun 2027 18:34:22.343   04 Jun 2027 18:34:54.123            31.780                 Moscow           993.125
       321   04 Jun 2027 18:36:35.645   04 Jun 2027 18:37:39.067            63.422              Murmansk2          1981.937
       322   04 Jun 2027 18:42:05.213   04 Jun 2027 18:42:17.843            12.630              Murmansk2           394.688
       323   04 Jun 2027 18:54:30.572   04 Jun 2027 18:55:07.957            37.385                Anadyr2          1168.281
       324   04 Jun 2027 19:41:18.154   04 Jun 2027 19:43:59.313           161.159               CapeTown          5036.219
       325   04 Jun 2027 20:12:04.463   04 Jun 2027 20:18:16.733           372.270              Murmansk2         11633.437
       326   04 Jun 2027 21:57:41.682   04 Jun 2027 21:59:27.845           106.163                Anadyr1          3317.594
       327   04 Jun 2027 21:59:31.118   04 Jun 2027 22:00:47.618            76.500                Anadyr2          2390.625
       328   04 Jun 2027 22:01:13.652   04 Jun 2027 22:01:28.387            14.735                Anadyr2           460.469
       329   04 Jun 2027 22:01:40.813   04 Jun 2027 22:04:31.758           170.945               Magadan1          5342.031
       330   04 Jun 2027 22:04:41.054   04 Jun 2027 22:05:00.846            19.792               Magadan1           618.500
       331   04 Jun 2027 22:08:54.247   04 Jun 2027 22:09:01.751             7.504               Magadan1           234.500
       332   04 Jun 2027 22:54:05.438   04 Jun 2027 22:56:29.578           144.140            RioGallegos          4504.375
       333   04 Jun 2027 22:58:46.191   04 Jun 2027 22:59:09.746            23.555            RioGallegos           736.094
       334   04 Jun 2027 23:33:32.103   04 Jun 2027 23:34:55.192            83.089                Anadyr2          2596.531
       335   04 Jun 2027 23:35:09.343   04 Jun 2027 23:35:36.769            27.426                Anadyr1           857.063
       336   04 Jun 2027 23:35:38.423   04 Jun 2027 23:37:22.667           104.244                Norilsk          3257.625
       337   04 Jun 2027 23:37:37.930   04 Jun 2027 23:38:22.609            44.679               Magadan2          1396.219
       338   04 Jun 2027 23:38:56.591   04 Jun 2027 23:40:00.952            64.361               Magadan1          2011.281
       339   04 Jun 2027 23:40:11.739   04 Jun 2027 23:40:29.099            17.360               Magadan2           542.500
       340   04 Jun 2027 23:41:32.019   04 Jun 2027 23:41:44.373            12.354                Irkutsk           386.062
       341   04 Jun 2027 23:42:22.652   04 Jun 2027 23:42:52.792            30.140                Irkutsk           941.875
       342   04 Jun 2027 23:44:37.607   04 Jun 2027 23:44:47.203             9.596                Irkutsk           299.875
       343   04 Jun 2027 23:46:00.164   04 Jun 2027 23:47:17.370            77.206                Irkutsk          2412.687
       344   04 Jun 2027 23:55:48.799   04 Jun 2027 23:57:12.822            84.023                Sumatra          2625.719
       345   05 Jun 2027 00:31:22.624   05 Jun 2027 00:32:13.998            51.374            RioGallegos          1605.437
       346   05 Jun 2027 01:08:51.016   05 Jun 2027 01:08:53.247             2.231                Anadyr1            69.719
       347   05 Jun 2027 01:08:53.247   05 Jun 2027 01:09:20.148            26.901                Anadyr2           840.656
       348   05 Jun 2027 01:09:36.676   05 Jun 2027 01:09:54.446            17.770                Anadyr2           555.312
       349   05 Jun 2027 01:10:30.089   05 Jun 2027 01:11:05.815            35.726                Anadyr1          1116.438
       350   05 Jun 2027 01:11:24.325   05 Jun 2027 01:13:18.227           113.902                Norilsk          3559.437
       351   05 Jun 2027 01:13:28.454   05 Jun 2027 01:15:22.782           114.328               Magadan1          3572.750
       352   05 Jun 2027 01:16:03.027   05 Jun 2027 01:16:56.275            53.248                Novosib          1664.000
       353   05 Jun 2027 01:18:27.546   05 Jun 2027 01:19:09.536            41.990                Irkutsk          1312.187
       354   05 Jun 2027 01:25:12.052   05 Jun 2027 01:25:19.940             7.888                Novosib           246.500
       355   05 Jun 2027 01:26:26.090   05 Jun 2027 01:27:24.588            58.498                  Delhi          1828.062
       356   05 Jun 2027 01:29:11.709   05 Jun 2027 01:29:53.612            41.903                Sumatra          1309.469
       357   05 Jun 2027 01:37:42.256   05 Jun 2027 01:38:54.888            72.632                Sumatra          2269.750
       358   05 Jun 2027 02:08:41.866   05 Jun 2027 02:09:00.840            18.974            RioGallegos           592.938
       359   05 Jun 2027 02:12:10.644   05 Jun 2027 02:12:41.924            31.280            RioGallegos           977.500
       360   05 Jun 2027 02:15:04.489   05 Jun 2027 02:15:29.020            24.531            RioGallegos           766.594
       361   05 Jun 2027 02:43:05.786   05 Jun 2027 02:43:08.864             3.078                Anadyr1            96.188
       362   05 Jun 2027 02:44:48.315   05 Jun 2027 02:45:34.630            46.315                Anadyr1          1447.344
       363   05 Jun 2027 02:47:25.364   05 Jun 2027 02:48:34.472            69.108                Norilsk          2159.625
       364   05 Jun 2027 02:49:28.930   05 Jun 2027 02:50:03.137            34.207                Norilsk          1068.969
       365   05 Jun 2027 02:50:21.996   05 Jun 2027 02:51:01.943            39.947              Murmansk2          1248.344
       366   05 Jun 2027 02:51:10.349   05 Jun 2027 02:51:10.878             0.529              Murmansk1            16.531
       367   05 Jun 2027 02:51:13.661   05 Jun 2027 02:51:48.900            35.239                Novosib          1101.219
       368   05 Jun 2027 02:52:27.630   05 Jun 2027 02:52:42.514            14.884                Novosib           465.125
       369   05 Jun 2027 02:53:19.351   05 Jun 2027 02:53:41.187            21.836                Irkutsk           682.375
       370   05 Jun 2027 02:56:40.888   05 Jun 2027 02:58:42.450           121.562                Irkutsk          3798.813
       371   05 Jun 2027 03:40:25.976   05 Jun 2027 03:41:47.217            81.241            RioGallegos          2538.781
       372   05 Jun 2027 04:31:21.613   05 Jun 2027 04:32:42.021            80.408                Irkutsk          2512.750
       373   05 Jun 2027 04:32:53.213   05 Jun 2027 04:33:01.589             8.376              Murmansk2           261.750
       374   05 Jun 2027 04:33:06.617   05 Jun 2027 04:35:33.270           146.653                Norilsk          4582.906
       375   05 Jun 2027 04:36:11.653   05 Jun 2027 04:40:59.142           287.489                  Delhi          8984.031
       376   05 Jun 2027 06:11:51.519   05 Jun 2027 06:12:13.368            21.849                 Moscow           682.781
       377   05 Jun 2027 06:14:46.292   05 Jun 2027 06:15:01.158            14.866                 Moscow           464.563
       378   05 Jun 2027 06:28:37.907   05 Jun 2027 06:31:51.690           193.783               CapeTown          6055.719
       379   05 Jun 2027 07:31:42.298   05 Jun 2027 07:32:33.741            51.443                Anadyr1          1607.594
       380   05 Jun 2027 07:32:33.741   05 Jun 2027 07:32:43.056             9.315                Anadyr2           291.094
       381   05 Jun 2027 07:32:47.638   05 Jun 2027 07:33:40.600            52.962                Anadyr2          1655.062
       382   05 Jun 2027 07:33:40.600   05 Jun 2027 07:34:08.030            27.430                Anadyr1           857.188
       383   05 Jun 2027 08:08:08.019   05 Jun 2027 08:12:03.433           235.414               CapeTown          7356.687
       384   05 Jun 2027 09:08:07.354   05 Jun 2027 09:08:10.926             3.572               Magadan2           111.625
       385   05 Jun 2027 09:08:22.079   05 Jun 2027 09:08:39.492            17.413                Anadyr1           544.156
       386   05 Jun 2027 09:09:01.480   05 Jun 2027 09:09:38.152            36.672               Magadan1          1146.000
       387   05 Jun 2027 09:09:38.152   05 Jun 2027 09:09:56.498            18.346               Magadan2           573.312
       388   05 Jun 2027 09:10:16.098   05 Jun 2027 09:11:48.963            92.865                Anadyr2          2902.031
       389   05 Jun 2027 10:41:29.143   05 Jun 2027 10:42:39.225            70.082               Magadan2          2190.063
       390   05 Jun 2027 10:43:02.113   05 Jun 2027 10:43:41.216            39.103               Magadan1          1221.969
       391   05 Jun 2027 10:43:57.546   05 Jun 2027 10:45:50.561           113.015               Magadan1          3531.719
       392   05 Jun 2027 10:47:03.807   05 Jun 2027 10:48:22.123            78.316               Magadan1          2447.375
       393   05 Jun 2027 10:49:00.530   05 Jun 2027 10:49:01.612             1.082                Norilsk            33.813
       394   05 Jun 2027 10:49:40.926   05 Jun 2027 10:49:47.057             6.131                Norilsk           191.594
       395   05 Jun 2027 11:24:35.378   05 Jun 2027 11:25:34.340            58.962            RioGallegos          1842.562
       396   05 Jun 2027 11:33:04.645   05 Jun 2027 11:34:03.493            58.848            RioGallegos          1839.000
       397   05 Jun 2027 12:03:18.827   05 Jun 2027 12:03:44.748            25.921                Sumatra           810.031
       398   05 Jun 2027 12:12:46.284   05 Jun 2027 12:14:02.037            75.753                Irkutsk          2367.281
       399   05 Jun 2027 12:14:49.206   05 Jun 2027 12:15:23.055            33.849                Irkutsk          1057.781
       400   05 Jun 2027 12:20:18.939   05 Jun 2027 12:22:44.480           145.541               Magadan2          4548.156
       401   05 Jun 2027 13:03:29.486   05 Jun 2027 13:05:42.371           132.885            RioGallegos          4152.656
       402   05 Jun 2027 13:38:07.357   05 Jun 2027 13:39:55.649           108.292                Sumatra          3384.125
       403   05 Jun 2027 13:43:58.131   05 Jun 2027 13:45:02.656            64.525                Sumatra          2016.406
       404   05 Jun 2027 13:54:52.085   05 Jun 2027 13:55:04.442            12.357                Irkutsk           386.156
       405   05 Jun 2027 13:57:37.300   05 Jun 2027 14:01:00.113           202.813                Irkutsk          6337.906
       406   05 Jun 2027 15:19:54.161   05 Jun 2027 15:21:00.762            66.601                  Delhi          2081.281
       407   05 Jun 2027 15:28:04.416   05 Jun 2027 15:32:04.429           240.013                Novosib          7500.406
       408   05 Jun 2027 15:32:14.260   05 Jun 2027 15:32:56.949            42.689                Novosib          1334.031
       409   05 Jun 2027 15:37:15.309   05 Jun 2027 15:38:23.592            68.283                Novosib          2133.844
       410   05 Jun 2027 17:03:45.954   05 Jun 2027 17:03:49.049             3.095                 Moscow            96.719
       411   05 Jun 2027 17:05:27.160   05 Jun 2027 17:07:02.624            95.464                 Moscow          2983.250
       412   05 Jun 2027 17:12:35.189   05 Jun 2027 17:16:52.924           257.735                Norilsk          8054.219
       413   05 Jun 2027 18:42:02.974   05 Jun 2027 18:44:16.117           133.143                 Moscow          4160.719
       414   05 Jun 2027 18:44:48.137   05 Jun 2027 18:45:17.456            29.319              Murmansk1           916.219
       415   05 Jun 2027 18:48:59.195   05 Jun 2027 18:49:40.735            41.540              Murmansk2          1298.125
       416   05 Jun 2027 19:02:58.693   05 Jun 2027 19:03:14.467            15.774                Anadyr2           492.937
       417   05 Jun 2027 19:53:28.925   05 Jun 2027 19:55:48.341           139.416               CapeTown          4356.750
       418   05 Jun 2027 19:56:44.329   05 Jun 2027 19:57:47.047            62.718               CapeTown          1959.937
       419   05 Jun 2027 20:24:48.652   05 Jun 2027 20:31:38.119           409.467              Murmansk1         12795.844
       420   05 Jun 2027 22:09:43.436   05 Jun 2027 22:12:43.586           180.150                Anadyr1          5629.688
       421   05 Jun 2027 22:12:43.962   05 Jun 2027 22:12:45.453             1.491                Anadyr2            46.594
       422   05 Jun 2027 22:12:54.763   05 Jun 2027 22:13:13.772            19.009                Anadyr2           594.031
       423   05 Jun 2027 22:13:21.454   05 Jun 2027 22:16:03.183           161.729               Magadan2          5054.031
       424   05 Jun 2027 22:16:59.441   05 Jun 2027 22:17:07.825             8.384               Magadan2           262.000
       425   05 Jun 2027 22:17:39.924   05 Jun 2027 22:17:43.644             3.720               Magadan1           116.250
       426   05 Jun 2027 22:21:17.028   05 Jun 2027 22:21:33.480            16.452               Magadan2           514.125
       427   05 Jun 2027 23:05:20.544   05 Jun 2027 23:08:12.461           171.917            RioGallegos          5372.406
       428   05 Jun 2027 23:10:50.433   05 Jun 2027 23:11:31.681            41.248            RioGallegos          1289.000
       429   05 Jun 2027 23:45:31.601   05 Jun 2027 23:46:21.173            49.572                Anadyr2          1549.125
       430   05 Jun 2027 23:46:21.173   05 Jun 2027 23:46:35.180            14.007                Anadyr1           437.719
       431   05 Jun 2027 23:46:49.582   05 Jun 2027 23:47:21.361            31.779                Anadyr1           993.094
       432   05 Jun 2027 23:47:36.401   05 Jun 2027 23:47:51.228            14.827                Norilsk           463.344
       433   05 Jun 2027 23:47:57.953   05 Jun 2027 23:49:26.734            88.781               Magadan1          2774.406
       434   05 Jun 2027 23:50:45.359   05 Jun 2027 23:51:02.446            17.087                Norilsk           533.969
       435   05 Jun 2027 23:51:37.199   05 Jun 2027 23:52:14.199            37.000               Magadan2          1156.250
       436   05 Jun 2027 23:52:21.134   05 Jun 2027 23:52:39.761            18.627                Irkutsk           582.094
       437   05 Jun 2027 23:53:17.495   05 Jun 2027 23:54:23.658            66.163                Irkutsk          2067.594
       438   06 Jun 2027 00:06:58.312   06 Jun 2027 00:08:46.517           108.205                Sumatra          3381.406
       439   06 Jun 2027 00:11:46.618   06 Jun 2027 00:12:07.539            20.921                Sumatra           653.781
       440   06 Jun 2027 00:16:01.078   06 Jun 2027 00:16:03.296             2.218                Sumatra            69.313
       441   06 Jun 2027 00:39:29.982   06 Jun 2027 00:40:45.115            75.133            RioGallegos          2347.906
       442   06 Jun 2027 00:47:50.184   06 Jun 2027 00:47:50.712             0.528            RioGallegos            16.500
       443   06 Jun 2027 00:49:03.191   06 Jun 2027 00:49:10.250             7.059            RioGallegos           220.594
       444   06 Jun 2027 00:50:17.321   06 Jun 2027 00:50:20.373             3.052            RioGallegos            95.375
       445   06 Jun 2027 00:50:56.657   06 Jun 2027 00:52:08.493            71.836            RioGallegos          2244.875
       446   06 Jun 2027 01:20:54.165   06 Jun 2027 01:21:04.703            10.538                Anadyr1           329.313
       447   06 Jun 2027 01:22:29.672   06 Jun 2027 01:22:54.447            24.775                Anadyr1           774.219
       448   06 Jun 2027 01:23:14.960   06 Jun 2027 01:23:38.752            23.792                Anadyr2           743.500
       449   06 Jun 2027 01:23:42.840   06 Jun 2027 01:25:20.483            97.643                Norilsk          3051.344
       450   06 Jun 2027 01:25:49.846   06 Jun 2027 01:26:54.938            65.092               Magadan2          2034.125
       451   06 Jun 2027 01:27:20.737   06 Jun 2027 01:29:19.500           118.763                Irkutsk          3711.344
       452   06 Jun 2027 01:36:28.927   06 Jun 2027 01:36:55.676            26.749                Irkutsk           835.906
       453   06 Jun 2027 01:37:17.136   06 Jun 2027 01:38:46.116            88.980                  Delhi          2780.625
       454   06 Jun 2027 01:41:23.696   06 Jun 2027 01:41:46.946            23.250                Sumatra           726.563
       455   06 Jun 2027 01:44:01.873   06 Jun 2027 01:46:13.019           131.146                Sumatra          4098.313
       456   06 Jun 2027 02:26:55.054   06 Jun 2027 02:27:02.225             7.171            RioGallegos           224.094
       457   06 Jun 2027 02:56:26.858   06 Jun 2027 02:56:49.529            22.671                Anadyr2           708.469
       458   06 Jun 2027 02:56:49.529   06 Jun 2027 02:57:27.717            38.188                Anadyr1          1193.375
       459   06 Jun 2027 02:59:27.670   06 Jun 2027 02:59:53.215            25.545                Norilsk           798.281
       460   06 Jun 2027 03:03:28.968   06 Jun 2027 03:03:47.218            18.250               Magadan1           570.312
       461   06 Jun 2027 03:03:59.065   06 Jun 2027 03:05:08.048            68.983               Magadan1          2155.719
       462   06 Jun 2027 03:05:24.775   06 Jun 2027 03:06:03.747            38.972                Novosib          1217.875
       463   06 Jun 2027 03:06:23.640   06 Jun 2027 03:07:14.407            50.767              Murmansk1          1586.469
       464   06 Jun 2027 03:07:19.925   06 Jun 2027 03:08:15.235            55.310                Irkutsk          1728.437
       465   06 Jun 2027 03:08:23.712   06 Jun 2027 03:08:50.306            26.594                Irkutsk           831.062
       466   06 Jun 2027 03:09:00.831   06 Jun 2027 03:09:03.652             2.821                Norilsk            88.156
       467   06 Jun 2027 03:09:05.557   06 Jun 2027 03:10:43.064            97.507                Irkutsk          3047.094
       468   06 Jun 2027 03:11:00.760   06 Jun 2027 03:13:47.506           166.746                  Delhi          5210.813
       469   06 Jun 2027 03:52:47.067   06 Jun 2027 03:57:48.774           301.707            RioGallegos          9428.344
       470   06 Jun 2027 04:44:01.927   06 Jun 2027 04:44:52.458            50.531                Norilsk          1579.094
       471   06 Jun 2027 04:44:55.332   06 Jun 2027 04:45:01.104             5.772                Irkutsk           180.375
       472   06 Jun 2027 04:45:55.792   06 Jun 2027 04:46:02.643             6.851                 Moscow           214.094
       473   06 Jun 2027 04:46:06.217   06 Jun 2027 04:47:58.195           111.978                Novosib          3499.312
       474   06 Jun 2027 04:48:18.905   06 Jun 2027 04:48:32.779            13.874                 Moscow           433.563
       475   06 Jun 2027 04:49:04.872   06 Jun 2027 04:53:26.850           261.978                  Delhi          8186.813
       476   06 Jun 2027 06:01:56.409   06 Jun 2027 06:02:22.737            26.328                Anadyr1           822.750
       477   06 Jun 2027 06:02:51.711   06 Jun 2027 06:02:52.662             0.951                Anadyr2            29.719
       478   06 Jun 2027 06:23:20.651   06 Jun 2027 06:23:34.114            13.463              Murmansk2           420.719
       479   06 Jun 2027 06:23:47.383   06 Jun 2027 06:23:52.225             4.842                 Moscow           151.312
       480   06 Jun 2027 06:23:55.086   06 Jun 2027 06:24:32.387            37.301                 Moscow          1165.656
       481   06 Jun 2027 06:40:41.508   06 Jun 2027 06:42:22.328           100.820               CapeTown          3150.625
       482   06 Jun 2027 06:44:42.161   06 Jun 2027 06:45:00.827            18.666               CapeTown           583.313
