uniorb/output/strategy_4/Drop/Drop_KinoSat_110406.txt

KinoSat_110406
-------------------------
    Access    *     Start Time (UTCG)     *     Stop Time (UTCG)  *   Duration (s)        *       Station  *  Data (Mbytes)
         1   01 Jun 2027 03:42:08.333   01 Jun 2027 03:42:16.178             7.845               Magadan1           980.625
         2   01 Jun 2027 03:42:23.230   01 Jun 2027 03:42:48.276            25.046               Magadan1          3130.750
         3   01 Jun 2027 03:43:17.507   01 Jun 2027 03:44:04.111            46.604               Magadan2          5825.500
         4   01 Jun 2027 03:44:04.111   01 Jun 2027 03:44:27.866            23.755               Magadan1          2969.375
         5   01 Jun 2027 03:44:27.866   01 Jun 2027 03:44:46.766            18.900               Magadan2          2362.500
         6   01 Jun 2027 03:44:54.359   01 Jun 2027 03:46:06.013            71.654                Anadyr1          8956.750
         7   01 Jun 2027 03:46:37.435   01 Jun 2027 03:47:39.106            61.671                Anadyr1          7708.875
         8   01 Jun 2027 03:47:58.178   01 Jun 2027 03:48:22.821            24.643               Magadan1          3080.375
         9   01 Jun 2027 03:48:57.009   01 Jun 2027 03:49:27.846            30.837               Magadan1          3854.625
        10   01 Jun 2027 03:55:12.502   01 Jun 2027 03:55:48.646            36.144              Murmansk2          4518.000
        11   01 Jun 2027 04:30:25.803   01 Jun 2027 04:30:32.994             7.191            RioGallegos           898.875
        12   01 Jun 2027 04:31:34.232   01 Jun 2027 04:31:56.948            22.716            RioGallegos          2839.500
        13   01 Jun 2027 04:32:20.424   01 Jun 2027 04:32:25.036             4.612            RioGallegos           576.500
        14   01 Jun 2027 04:33:42.068   01 Jun 2027 04:33:56.379            14.311            RioGallegos          1788.875
        15   01 Jun 2027 05:01:10.218   01 Jun 2027 05:04:03.279           173.061                Sumatra         21632.625
        16   01 Jun 2027 05:20:47.914   01 Jun 2027 05:20:55.988             8.074                Irkutsk          1009.250
        17   01 Jun 2027 05:21:10.792   01 Jun 2027 05:21:18.347             7.555               Magadan2           944.375
        18   01 Jun 2027 05:21:21.081   01 Jun 2027 05:23:51.255           150.174                Irkutsk         18771.750
        19   01 Jun 2027 05:24:34.025   01 Jun 2027 05:25:04.813            30.788                Norilsk          3848.500
        20   01 Jun 2027 06:35:11.884   01 Jun 2027 06:36:30.859            78.975                Sumatra          9871.875
        21   01 Jun 2027 06:44:10.978   01 Jun 2027 06:46:00.999           110.021                  Delhi         13752.625
        22   01 Jun 2027 06:57:49.203   01 Jun 2027 06:58:21.032            31.829                Irkutsk          3978.625
        23   01 Jun 2027 06:58:24.838   01 Jun 2027 06:58:45.409            20.571                 Moscow          2571.375
        24   01 Jun 2027 06:59:02.130   01 Jun 2027 06:59:40.294            38.164                 Moscow          4770.500
        25   01 Jun 2027 07:00:10.264   01 Jun 2027 07:00:45.716            35.452              Murmansk1          4431.500
        26   01 Jun 2027 07:00:50.615   01 Jun 2027 07:02:20.829            90.214                Novosib         11276.750
        27   01 Jun 2027 08:19:50.781   01 Jun 2027 08:20:08.170            17.389                  Delhi          2173.625
        28   01 Jun 2027 08:34:49.884   01 Jun 2027 08:35:34.616            44.732              Murmansk1          5591.500
        29   01 Jun 2027 08:35:35.021   01 Jun 2027 08:38:42.825           187.804                 Moscow         23475.500
        30   01 Jun 2027 10:11:56.407   01 Jun 2027 10:18:52.428           416.021              Murmansk1         52002.625
        31   01 Jun 2027 11:21:47.796   01 Jun 2027 11:22:46.457            58.661               CapeTown          7332.625
        32   01 Jun 2027 11:23:04.575   01 Jun 2027 11:23:38.273            33.698               CapeTown          4212.250
        33   01 Jun 2027 11:57:59.609   01 Jun 2027 11:59:40.666           101.057                Anadyr2         12632.125
        34   01 Jun 2027 12:00:29.929   01 Jun 2027 12:02:27.970           118.041                Anadyr1         14755.125
        35   01 Jun 2027 12:05:25.274   01 Jun 2027 12:07:09.349           104.075                Anadyr2         13009.375
        36   01 Jun 2027 13:36:38.866   01 Jun 2027 13:40:36.288           237.422               Magadan1         29677.750
        37   01 Jun 2027 13:40:36.288   01 Jun 2027 13:42:36.092           119.804               Magadan2         14975.500
        38   01 Jun 2027 16:05:15.164   01 Jun 2027 16:08:38.577           203.413            RioGallegos         25426.625
        39   01 Jun 2027 16:54:03.299   01 Jun 2027 16:56:14.078           130.779                Irkutsk         16347.375
        40   01 Jun 2027 16:58:19.184   01 Jun 2027 16:58:31.184            12.000                Irkutsk          1500.000
        41   01 Jun 2027 17:06:48.142   01 Jun 2027 17:09:57.359           189.217                Sumatra         23652.125
        42   01 Jun 2027 17:12:46.122   01 Jun 2027 17:14:39.057           112.935                Sumatra         14116.875
        43   01 Jun 2027 18:31:36.264   01 Jun 2027 18:32:01.037            24.773                Novosib          3096.625
        44   01 Jun 2027 18:36:59.130   01 Jun 2027 18:39:22.945           143.815                  Delhi         17385.501
        45   02 Jun 2027 04:00:18.169   02 Jun 2027 04:00:26.161             7.992               Magadan1           999.000
        46   02 Jun 2027 04:01:01.118   02 Jun 2027 04:01:22.967            21.849               Magadan1          2731.125
        47   02 Jun 2027 04:01:44.973   02 Jun 2027 04:02:21.028            36.055                Novosib          4506.875
        48   02 Jun 2027 04:02:21.240   02 Jun 2027 04:02:33.464            12.224                Norilsk          1528.000
        49   02 Jun 2027 04:02:36.200   02 Jun 2027 04:03:09.786            33.586              Murmansk1          4198.250
        50   02 Jun 2027 04:36:20.643   02 Jun 2027 04:37:22.302            61.659            RioGallegos          7707.375
        51   02 Jun 2027 04:44:39.322   02 Jun 2027 04:45:06.067            26.745            RioGallegos          3343.125
        52   02 Jun 2027 05:12:29.411   02 Jun 2027 05:15:52.937           203.526                Sumatra         25440.750
        53   02 Jun 2027 05:34:16.205   02 Jun 2027 05:35:17.635            61.430                Irkutsk          7678.750
        54   02 Jun 2027 05:36:36.150   02 Jun 2027 05:37:32.973            56.823                Irkutsk          7102.875
        55   02 Jun 2027 05:37:33.720   02 Jun 2027 05:42:30.257           296.537                Norilsk         37067.125
        56   02 Jun 2027 05:42:42.447   02 Jun 2027 05:45:14.125           151.678              Murmansk2         18959.750
        57   02 Jun 2027 06:13:11.144   02 Jun 2027 06:16:00.306           169.162            RioGallegos         21145.250
        58   02 Jun 2027 06:47:27.211   02 Jun 2027 06:49:46.079           138.868                Sumatra         17358.500
        59   02 Jun 2027 06:50:29.039   02 Jun 2027 06:52:07.675            98.636                Sumatra         12329.500
        60   02 Jun 2027 07:12:46.289   02 Jun 2027 07:18:29.352           343.063                Norilsk         42882.875
        61   02 Jun 2027 07:20:00.393   02 Jun 2027 07:20:24.825            24.432              Murmansk2          3054.000
        62   02 Jun 2027 08:32:17.914   02 Jun 2027 08:33:45.542            87.628                  Delhi         10953.500
        63   02 Jun 2027 08:34:13.345   02 Jun 2027 08:34:53.827            40.482                  Delhi          5060.250
        64   02 Jun 2027 08:36:07.916   02 Jun 2027 08:36:29.660            21.744                  Delhi          2718.000
        65   02 Jun 2027 08:39:24.219   02 Jun 2027 08:40:05.653            41.434                  Delhi          5179.250
        66   02 Jun 2027 08:40:40.230   02 Jun 2027 08:44:23.041           222.811                Novosib         27851.375
        67   02 Jun 2027 08:49:11.285   02 Jun 2027 08:52:32.269           200.984                 Moscow         25123.000
        68   02 Jun 2027 08:52:32.896   02 Jun 2027 08:54:14.161           101.265              Murmansk1         12658.125
        69   02 Jun 2027 08:54:14.161   02 Jun 2027 08:56:07.321           113.160              Murmansk2         14145.000
        70   02 Jun 2027 10:19:18.796   02 Jun 2027 10:24:17.657           298.861              Murmansk1         37357.625
        71   02 Jun 2027 10:24:41.178   02 Jun 2027 10:25:14.749            33.571              Murmansk2          4196.375
        72   02 Jun 2027 10:25:43.167   02 Jun 2027 10:29:25.547           222.380                Norilsk         27797.500
        73   02 Jun 2027 10:35:40.439   02 Jun 2027 10:39:06.048           205.609                Anadyr1         25701.125
        74   02 Jun 2027 11:57:08.714   02 Jun 2027 11:59:55.102           166.388              Murmansk2         20798.500
        75   02 Jun 2027 11:59:55.102   02 Jun 2027 12:00:09.145            14.043              Murmansk1          1755.375
        76   02 Jun 2027 12:09:57.154   02 Jun 2027 12:11:22.486            85.332                Anadyr1         10666.500
        77   02 Jun 2027 12:18:20.525   02 Jun 2027 12:19:10.324            49.799                Anadyr1          6224.875
        78   02 Jun 2027 13:48:30.119   02 Jun 2027 13:52:16.314           226.195               Magadan1         28274.375
        79   02 Jun 2027 13:52:37.526   02 Jun 2027 13:52:47.072             9.546               Magadan2          1193.250
        80   02 Jun 2027 13:53:28.122   02 Jun 2027 13:54:07.718            39.596               Magadan1          4949.500
        81   02 Jun 2027 13:54:57.965   02 Jun 2027 13:55:57.265            59.300               Magadan2          7412.500
        82   02 Jun 2027 16:16:46.873   02 Jun 2027 16:22:02.014           315.141            RioGallegos         39392.625
        83   02 Jun 2027 17:07:25.519   02 Jun 2027 17:08:09.364            43.845                Irkutsk          5480.625
        84   02 Jun 2027 17:13:28.260   02 Jun 2027 17:14:31.386            63.126                Irkutsk          7890.750
        85   02 Jun 2027 17:18:13.456   02 Jun 2027 17:19:16.729            63.273                Sumatra          7909.125
        86   02 Jun 2027 17:21:42.408   02 Jun 2027 17:23:49.105           126.697                Sumatra         15837.125
        87   02 Jun 2027 17:24:54.871   02 Jun 2027 17:25:26.602            31.731                Sumatra          3966.375
        88   02 Jun 2027 18:39:39.806   02 Jun 2027 18:40:57.175            77.369                Novosib          9671.125
        89   02 Jun 2027 18:42:19.204   02 Jun 2027 18:42:27.806             8.602                Novosib          1075.250
        90   02 Jun 2027 18:48:14.573   02 Jun 2027 18:51:31.479           196.906                  Delhi         24613.250
        91   02 Jun 2027 21:52:35.496   02 Jun 2027 21:52:37.439             1.943              Murmansk1           242.875
        92   02 Jun 2027 21:53:05.651   02 Jun 2027 21:54:49.328           103.677                 Moscow         12959.625
        93   02 Jun 2027 21:55:52.588   02 Jun 2027 21:57:28.179            95.591                 Moscow         11036.126
        94   03 Jun 2027 05:23:59.886   03 Jun 2027 05:25:31.935            92.049                Sumatra         11506.125
        95   03 Jun 2027 05:49:35.456   03 Jun 2027 05:54:22.722           287.266                Norilsk         35908.250
        96   03 Jun 2027 05:54:44.489   03 Jun 2027 05:57:07.409           142.920              Murmansk1         17865.000
        97   03 Jun 2027 06:25:37.959   03 Jun 2027 06:26:58.366            80.407            RioGallegos         10050.875
        98   03 Jun 2027 06:28:07.059   03 Jun 2027 06:29:07.020            59.961            RioGallegos          7495.125
        99   03 Jun 2027 06:29:41.282   03 Jun 2027 06:29:45.188             3.906            RioGallegos           488.250
       100   03 Jun 2027 06:59:50.063   03 Jun 2027 07:02:44.387           174.324                Sumatra         21790.500
       101   03 Jun 2027 07:03:04.832   03 Jun 2027 07:04:11.521            66.689                Sumatra          8336.125
       102   03 Jun 2027 07:07:36.371   03 Jun 2027 07:08:33.764            57.393                  Delhi          7174.125
       103   03 Jun 2027 07:09:46.980   03 Jun 2027 07:10:26.022            39.042                  Delhi          4880.250
       104   03 Jun 2027 07:11:38.232   03 Jun 2027 07:12:03.286            25.054                  Delhi          3131.750
       105   03 Jun 2027 07:14:18.236   03 Jun 2027 07:15:04.408            46.172                Novosib          5771.500
       106   03 Jun 2027 07:15:14.134   03 Jun 2027 07:18:52.602           218.468                Irkutsk         27308.500
       107   03 Jun 2027 07:19:26.361   03 Jun 2027 07:20:43.593            77.232                 Moscow          9654.000
       108   03 Jun 2027 07:25:19.607   03 Jun 2027 07:26:59.118            99.511                Novosib         12438.875
       109   03 Jun 2027 07:26:59.560   03 Jun 2027 07:30:31.208           211.648                Norilsk         26456.000
       110   03 Jun 2027 07:32:01.061   03 Jun 2027 07:32:23.127            22.066              Murmansk2          2758.250
       111   03 Jun 2027 08:44:54.669   03 Jun 2027 08:48:44.874           230.205                  Delhi         28775.625
       112   03 Jun 2027 08:51:16.098   03 Jun 2027 08:51:45.905            29.807                  Delhi          3725.875
       113   03 Jun 2027 08:52:17.116   03 Jun 2027 08:53:29.872            72.756                  Delhi          9094.500
       114   03 Jun 2027 08:53:54.771   03 Jun 2027 08:56:33.917           159.146                Novosib         19893.250
       115   03 Jun 2027 09:01:26.428   03 Jun 2027 09:01:43.335            16.907                Novosib          2113.375
       116   03 Jun 2027 09:01:47.027   03 Jun 2027 09:06:08.270           261.243              Murmansk1         32655.375
       117   03 Jun 2027 09:06:08.270   03 Jun 2027 09:08:08.265           119.995              Murmansk2         14999.375
       118   03 Jun 2027 10:31:27.630   03 Jun 2027 10:34:13.980           166.350              Murmansk2         20793.750
       119   03 Jun 2027 10:35:54.748   03 Jun 2027 10:36:15.473            20.725              Murmansk2          2590.625
       120   03 Jun 2027 10:38:47.282   03 Jun 2027 10:39:04.035            16.753              Murmansk2          2094.125
       121   03 Jun 2027 10:39:07.319   03 Jun 2027 10:41:10.505           123.186              Murmansk2         15398.250
       122   03 Jun 2027 10:47:09.561   03 Jun 2027 10:52:48.951           339.390                Anadyr1         42423.750
       123   03 Jun 2027 12:09:34.011   03 Jun 2027 12:15:16.917           342.906              Murmansk1         42863.250
       124   03 Jun 2027 12:15:30.278   03 Jun 2027 12:16:16.260            45.982              Murmansk2          5747.750
       125   03 Jun 2027 12:16:39.451   03 Jun 2027 12:17:41.075            61.624              Murmansk2          7703.000
       126   03 Jun 2027 12:24:48.508   03 Jun 2027 12:26:27.204            98.696                Anadyr2         12337.000
       127   03 Jun 2027 14:00:23.534   03 Jun 2027 14:02:49.256           145.722               Magadan2         18215.250
       128   03 Jun 2027 14:02:58.553   03 Jun 2027 14:04:39.068           100.515               Magadan1         12564.375
       129   03 Jun 2027 16:28:26.809   03 Jun 2027 16:34:48.340           381.531            RioGallegos         47691.375
       130   03 Jun 2027 17:18:26.282   03 Jun 2027 17:19:39.623            73.341                Irkutsk          9167.625
       131   03 Jun 2027 17:29:48.410   03 Jun 2027 17:33:48.237           239.827                Sumatra         29978.375
       132   03 Jun 2027 17:35:09.003   03 Jun 2027 17:36:24.800            75.797                Sumatra          9474.625
       133   03 Jun 2027 18:53:23.633   03 Jun 2027 18:53:44.454            20.821                Novosib          2602.625
       134   03 Jun 2027 18:59:43.565   03 Jun 2027 19:03:22.847           219.282                  Delhi         27410.250
       135   03 Jun 2027 20:31:43.849   03 Jun 2027 20:33:34.837           110.988                 Moscow         13873.500
       136   03 Jun 2027 22:01:33.582   03 Jun 2027 22:03:27.307           113.725              Murmansk2         10381.625
       137   04 Jun 2027 04:21:02.206   04 Jun 2027 04:21:23.885            21.679                Irkutsk          2709.875
       138   04 Jun 2027 05:35:38.817   04 Jun 2027 05:37:29.246           110.429                Sumatra         13803.625
       139   04 Jun 2027 05:39:22.536   04 Jun 2027 05:39:49.465            26.929                Sumatra          3366.125
       140   04 Jun 2027 05:49:38.602   04 Jun 2027 05:50:20.533            41.931                  Delhi          5241.375
       141   04 Jun 2027 05:51:15.797   04 Jun 2027 05:53:01.072           105.275                  Delhi         13159.375
       142   04 Jun 2027 06:01:21.504   04 Jun 2027 06:03:05.599           104.095                Novosib         13011.875
       143   04 Jun 2027 06:03:09.530   04 Jun 2027 06:06:24.631           195.101                Norilsk         24387.625
       144   04 Jun 2027 06:06:46.442   04 Jun 2027 06:09:01.424           134.982              Murmansk1         16872.750
       145   04 Jun 2027 06:38:10.630   04 Jun 2027 06:40:06.752           116.122            RioGallegos         14515.250
       146   04 Jun 2027 06:42:03.157   04 Jun 2027 06:42:04.025             0.868            RioGallegos           108.500
       147   04 Jun 2027 06:45:33.697   04 Jun 2027 06:46:07.202            33.505            RioGallegos          4188.125
       148   04 Jun 2027 07:12:22.635   04 Jun 2027 07:16:24.007           241.372                Sumatra         30171.500
       149   04 Jun 2027 07:19:27.540   04 Jun 2027 07:19:31.126             3.586                  Delhi           448.250
       150   04 Jun 2027 07:20:31.928   04 Jun 2027 07:21:28.045            56.117                  Delhi          7014.625
       151   04 Jun 2027 07:22:43.284   04 Jun 2027 07:24:14.006            90.722                  Delhi         11340.250
       152   04 Jun 2027 07:26:28.795   04 Jun 2027 07:27:48.003            79.208                Novosib          9901.000
       153   04 Jun 2027 07:28:02.006   04 Jun 2027 07:32:11.457           249.451                Irkutsk         31181.375
       154   04 Jun 2027 07:37:12.728   04 Jun 2027 07:40:15.545           182.817                 Moscow         22852.125
       155   04 Jun 2027 07:40:23.995   04 Jun 2027 07:41:59.150            95.155              Murmansk2         11894.375
       156   04 Jun 2027 07:42:00.901   04 Jun 2027 07:42:33.001            32.100                Norilsk          4012.500
       157   04 Jun 2027 07:44:01.950   04 Jun 2027 07:44:21.887            19.937              Murmansk1          2492.125
       158   04 Jun 2027 08:57:44.951   04 Jun 2027 08:59:08.905            83.954                  Delhi         10494.250
       159   04 Jun 2027 08:59:43.322   04 Jun 2027 09:01:06.926            83.604                  Delhi         10450.500
       160   04 Jun 2027 09:06:18.005   04 Jun 2027 09:08:37.748           139.743                Novosib         17467.875
       161   04 Jun 2027 09:12:55.049   04 Jun 2027 09:13:10.676            15.627                Novosib          1953.375
       162   04 Jun 2027 09:13:57.446   04 Jun 2027 09:18:24.393           266.947                Norilsk         33368.375
       163   04 Jun 2027 09:19:11.782   04 Jun 2027 09:20:09.403            57.621              Murmansk1          7202.625
       164   04 Jun 2027 10:42:33.538   04 Jun 2027 10:43:39.425            65.887                 Moscow          8235.875
       165   04 Jun 2027 10:43:47.499   04 Jun 2027 10:48:21.485           273.986              Murmansk2         34248.250
       166   04 Jun 2027 10:48:29.678   04 Jun 2027 10:49:08.656            38.978              Murmansk1          4872.250
       167   04 Jun 2027 10:51:56.732   04 Jun 2027 10:53:23.802            87.070              Murmansk1         10883.750
       168   04 Jun 2027 10:55:43.814   04 Jun 2027 10:55:53.450             9.636              Murmansk2          1204.500
       169   04 Jun 2027 10:58:50.894   04 Jun 2027 11:05:17.143           386.249                Anadyr2         48281.125
       170   04 Jun 2027 12:20:42.385   04 Jun 2027 12:23:24.507           162.122                 Moscow         20265.250
       171   04 Jun 2027 12:23:50.659   04 Jun 2027 12:25:03.464            72.805              Murmansk2          9100.625
       172   04 Jun 2027 12:33:54.557   04 Jun 2027 12:35:53.954           119.397                Anadyr1         14924.625
       173   04 Jun 2027 12:37:04.463   04 Jun 2027 12:38:28.602            84.139                Anadyr1         10517.375
       174   04 Jun 2027 12:40:09.937   04 Jun 2027 12:40:26.948            17.011               Magadan2          2126.375
       175   04 Jun 2027 14:12:18.607   04 Jun 2027 14:15:05.336           166.729               Magadan1         20841.125
       176   04 Jun 2027 16:40:11.971   04 Jun 2027 16:46:11.348           359.377            RioGallegos         44922.125
       177   04 Jun 2027 17:27:44.050   04 Jun 2027 17:29:31.031           106.981                Irkutsk         13372.625
       178   04 Jun 2027 17:29:59.034   04 Jun 2027 17:32:03.853           124.819                Novosib         15602.375
       179   04 Jun 2027 17:32:20.384   04 Jun 2027 17:32:51.812            31.428                Novosib          3928.500
       180   04 Jun 2027 17:41:30.955   04 Jun 2027 17:43:17.724           106.769                Sumatra         13346.125
       181   04 Jun 2027 19:03:29.328   04 Jun 2027 19:05:17.513           108.185                Novosib         13523.125
       182   04 Jun 2027 19:11:21.172   04 Jun 2027 19:12:44.155            82.983                  Delhi         10372.875
       183   04 Jun 2027 20:38:41.885   04 Jun 2027 20:39:12.935            31.050              Murmansk1          3881.250
       184   04 Jun 2027 20:41:40.571   04 Jun 2027 20:42:18.586            38.015              Murmansk2          4751.875
       185   04 Jun 2027 20:42:52.126   04 Jun 2027 20:45:34.054           161.928                 Moscow         20241.000
       186   04 Jun 2027 22:14:07.387   04 Jun 2027 22:14:19.501            12.114              Murmansk2          1514.250
       187   04 Jun 2027 22:41:21.271   04 Jun 2027 22:43:32.016           130.745               CapeTown          5844.625
       188   05 Jun 2027 04:37:41.785   05 Jun 2027 04:41:24.378           222.593                Norilsk         27824.125
       189   05 Jun 2027 05:47:24.703   05 Jun 2027 05:47:37.891            13.188                Sumatra          1648.500
       190   05 Jun 2027 05:48:01.718   05 Jun 2027 05:50:11.107           129.389                Sumatra         16173.625
       191   05 Jun 2027 05:59:09.965   05 Jun 2027 06:00:19.044            69.079                  Delhi          8634.875
       192   05 Jun 2027 06:13:21.865   05 Jun 2027 06:14:46.292            84.427                 Moscow         10553.375
       193   05 Jun 2027 06:14:52.452   05 Jun 2027 06:15:08.472            16.020                Novosib          2002.500
       194   05 Jun 2027 06:15:12.091   05 Jun 2027 06:16:46.336            94.245              Murmansk1         11780.625
       195   05 Jun 2027 06:16:46.336   05 Jun 2027 06:20:16.429           210.093              Murmansk2         26261.625
       196   05 Jun 2027 06:20:16.429   05 Jun 2027 06:20:36.439            20.010              Murmansk1          2501.250
       197   05 Jun 2027 06:50:50.436   05 Jun 2027 06:54:10.754           200.318            RioGallegos         25039.750
       198   05 Jun 2027 07:25:09.651   05 Jun 2027 07:28:41.830           212.179                Sumatra         26522.375
       199   05 Jun 2027 07:31:24.024   05 Jun 2027 07:33:01.377            97.353                  Delhi         12169.125
       200   05 Jun 2027 07:38:42.745   05 Jun 2027 07:41:47.841           185.096                Novosib         23137.000
       201   05 Jun 2027 07:42:49.159   05 Jun 2027 07:44:04.272            75.113                Irkutsk          9389.125
       202   05 Jun 2027 07:44:08.919   05 Jun 2027 07:44:23.833            14.914              Murmansk2          1864.250
       203   05 Jun 2027 07:44:45.048   05 Jun 2027 07:44:53.387             8.339                Norilsk          1042.375
       204   05 Jun 2027 07:49:23.607   05 Jun 2027 07:49:37.839            14.232                Norilsk          1779.000
       205   05 Jun 2027 07:49:43.168   05 Jun 2027 07:50:54.659            71.491                Novosib          8936.375
       206   05 Jun 2027 07:51:19.063   05 Jun 2027 07:53:53.585           154.522              Murmansk1         19315.250
       207   05 Jun 2027 07:53:53.585   05 Jun 2027 07:54:22.135            28.550              Murmansk2          3568.750
       208   05 Jun 2027 07:56:03.045   05 Jun 2027 07:56:21.066            18.021              Murmansk2          2252.625
       209   05 Jun 2027 09:10:58.870   05 Jun 2027 09:13:37.179           158.309                  Delhi         19788.625
       210   05 Jun 2027 09:26:27.544   05 Jun 2027 09:30:22.762           235.218                Norilsk         29402.250
       211   05 Jun 2027 09:31:02.492   05 Jun 2027 09:32:10.690            68.198              Murmansk2          8524.750
       212   05 Jun 2027 10:31:37.697   05 Jun 2027 10:39:13.768           456.071               CapeTown         57008.875
       213   05 Jun 2027 10:52:27.161   05 Jun 2027 11:02:17.890           590.729                 Moscow         73841.125
       214   05 Jun 2027 11:02:23.596   05 Jun 2027 11:08:08.709           345.113              Murmansk1         43139.125
       215   05 Jun 2027 11:10:38.192   05 Jun 2027 11:17:30.051           411.859                Anadyr1         51482.375
       216   05 Jun 2027 12:05:13.958   05 Jun 2027 12:07:19.324           125.366               CapeTown         15670.750
       217   05 Jun 2027 12:08:27.590   05 Jun 2027 12:10:02.880            95.290               CapeTown         11911.250
       218   05 Jun 2027 12:13:12.013   05 Jun 2027 12:13:44.898            32.885               CapeTown          4110.625
       219   05 Jun 2027 12:34:22.081   05 Jun 2027 12:35:54.667            92.586                 Moscow         11573.250
       220   05 Jun 2027 12:46:21.688   05 Jun 2027 12:48:13.074           111.386                Anadyr2         13923.250
       221   05 Jun 2027 12:50:19.656   05 Jun 2027 12:54:56.063           276.407               Magadan2         34550.875
       222   05 Jun 2027 16:07:16.365   05 Jun 2027 16:09:10.833           114.468                Irkutsk         14308.500
       223   05 Jun 2027 16:52:00.817   05 Jun 2027 16:54:33.689           152.872            RioGallegos         19109.000
       224   05 Jun 2027 16:56:11.889   05 Jun 2027 16:56:23.229            11.340            RioGallegos          1417.500
       225   05 Jun 2027 17:39:38.276   05 Jun 2027 17:41:45.401           127.125                Irkutsk         15890.625
       226   05 Jun 2027 17:44:03.242   05 Jun 2027 17:47:13.621           190.379                Novosib         23797.375
       227   05 Jun 2027 19:23:05.036   05 Jun 2027 19:27:16.645           251.609                  Delhi         31451.125
       228   05 Jun 2027 19:28:42.431   05 Jun 2027 19:28:43.815             1.384                  Delhi           173.000
       229   05 Jun 2027 20:50:30.204   05 Jun 2027 20:51:29.384            59.180              Murmansk2          7397.500
       230   05 Jun 2027 20:54:22.026   05 Jun 2027 20:55:17.808            55.782                 Moscow          6972.750
       231   05 Jun 2027 22:55:23.211   05 Jun 2027 22:57:11.834           108.623               CapeTown         13577.875
       232   06 Jun 2027 03:12:03.708   06 Jun 2027 03:13:00.793            57.085                Novosib          7135.625
       233   06 Jun 2027 03:13:12.523   06 Jun 2027 03:13:50.231            37.708               Magadan1          4713.500
       234   06 Jun 2027 03:13:55.119   06 Jun 2027 03:14:44.699            49.580              Murmansk2          6197.500
       235   06 Jun 2027 04:49:41.754   06 Jun 2027 04:54:41.389           299.635                Norilsk         37454.375
       236   06 Jun 2027 04:54:51.316   06 Jun 2027 04:58:02.944           191.628              Murmansk1         23953.500
       237   06 Jun 2027 05:24:24.151   06 Jun 2027 05:28:09.384           225.233            RioGallegos         28154.125
       238   06 Jun 2027 05:28:26.202   06 Jun 2027 05:28:44.367            18.165            RioGallegos          2270.625
       239   06 Jun 2027 05:28:51.284   06 Jun 2027 05:29:23.375            32.091            RioGallegos          4011.375
       240   06 Jun 2027 05:31:21.321   06 Jun 2027 05:32:40.239            78.918            RioGallegos          9864.750
       241   06 Jun 2027 05:33:17.138   06 Jun 2027 05:33:51.313            34.175            RioGallegos          4271.875
       242   06 Jun 2027 05:59:16.698   06 Jun 2027 06:00:41.852            85.154                Sumatra         10644.250
       243   06 Jun 2027 06:02:20.464   06 Jun 2027 06:02:50.403            29.939                Sumatra          3742.375
       244   06 Jun 2027 06:06:40.531   06 Jun 2027 06:08:48.935           128.404                Sumatra         16050.500
       245   06 Jun 2027 06:10:11.235   06 Jun 2027 06:12:35.230           143.995                  Delhi         17999.375
       246   06 Jun 2027 06:13:12.015   06 Jun 2027 06:17:51.811           279.796                Irkutsk         34974.500
       247   06 Jun 2027 06:25:33.262   06 Jun 2027 06:30:32.785           299.523              Murmansk1         37440.375
       248   06 Jun 2027 06:30:32.785   06 Jun 2027 06:31:49.776            76.991              Murmansk2          9623.875
       249   06 Jun 2027 07:03:39.638   06 Jun 2027 07:06:56.296           196.658            RioGallegos         24582.250
       250   06 Jun 2027 07:38:25.078   06 Jun 2027 07:41:07.793           162.715                Sumatra         20339.375
       251   06 Jun 2027 07:43:14.862   06 Jun 2027 07:43:45.693            30.831                Sumatra          3853.875
       252   06 Jun 2027 07:44:25.213   06 Jun 2027 07:45:22.762            57.549                  Delhi          7193.625
       253   06 Jun 2027 07:46:17.732   06 Jun 2027 07:48:54.979           157.247                  Delhi         19655.875
       254   06 Jun 2027 07:51:00.324   06 Jun 2027 07:51:45.019            44.695                Novosib          5586.875
       255   06 Jun 2027 07:53:19.428   06 Jun 2027 07:57:29.529           250.101                Novosib         31262.625
       256   06 Jun 2027 08:01:07.828   06 Jun 2027 08:04:28.290           200.462                 Moscow         25057.750
       257   06 Jun 2027 08:04:42.952   06 Jun 2027 08:05:15.350            32.398              Murmansk2          4049.750
       258   06 Jun 2027 08:05:15.350   06 Jun 2027 08:06:17.412            62.062              Murmansk1          7757.750
       259   06 Jun 2027 08:08:04.301   06 Jun 2027 08:08:20.623            16.322              Murmansk1          2040.250
       260   06 Jun 2027 09:27:52.686   06 Jun 2027 09:28:13.779            21.093                 Moscow          2636.625
       261   06 Jun 2027 09:29:47.172   06 Jun 2027 09:30:46.463            59.291                 Moscow          7411.375
       262   06 Jun 2027 09:37:58.164   06 Jun 2027 09:42:19.965           261.801                Norilsk         32725.125
       263   06 Jun 2027 09:42:52.387   06 Jun 2027 09:44:12.111            79.724              Murmansk1          9965.500
       264   06 Jun 2027 10:42:56.420   06 Jun 2027 10:52:07.186           550.766               CapeTown         68845.750
       265   06 Jun 2027 11:04:47.846   06 Jun 2027 11:14:41.943           594.097                 Moscow         74262.125
       266   06 Jun 2027 11:14:45.968   06 Jun 2027 11:20:10.140           324.172              Murmansk2         40521.500
       267   06 Jun 2027 11:22:29.124   06 Jun 2027 11:31:13.649           524.525                Anadyr2         65565.625
       268   06 Jun 2027 12:17:15.684   06 Jun 2027 12:19:57.271           161.587               CapeTown         20198.375
       269   06 Jun 2027 12:20:26.887   06 Jun 2027 12:22:19.637           112.750               CapeTown         14093.750
       270   06 Jun 2027 12:47:05.827   06 Jun 2027 12:47:25.237            19.410              Murmansk1          2426.250
       271   06 Jun 2027 13:01:43.585   06 Jun 2027 13:04:49.938           186.353               Magadan2         23294.125
       272   06 Jun 2027 13:05:21.120   06 Jun 2027 13:07:49.244           148.124               Magadan1         18515.500
       273   06 Jun 2027 16:17:54.030   06 Jun 2027 16:23:21.602           327.572                Irkutsk         40946.500
       274   06 Jun 2027 17:52:46.384   06 Jun 2027 17:56:31.015           224.631                Novosib         28078.875
       275   06 Jun 2027 17:57:34.247   06 Jun 2027 17:59:19.879           105.632                Novosib         13204.000
       276   06 Jun 2027 19:36:59.340   06 Jun 2027 19:38:51.853           112.513                  Delhi         14064.125
       277   06 Jun 2027 21:01:47.042   06 Jun 2027 21:02:19.800            32.758              Murmansk2          4094.750
       278   06 Jun 2027 21:06:01.395   06 Jun 2027 21:09:34.759           213.364                 Moscow         26670.500
       279   07 Jun 2027 03:24:27.304   07 Jun 2027 03:24:49.624            22.320                Norilsk          2790.000
       280   07 Jun 2027 03:25:46.104   07 Jun 2027 03:25:48.563             2.459               Magadan1           307.375
       281   07 Jun 2027 03:25:49.316   07 Jun 2027 03:31:01.838           312.522                Norilsk         39065.250
       282   07 Jun 2027 03:31:20.878   07 Jun 2027 03:35:15.286           234.408              Murmansk2         29301.000
       283   07 Jun 2027 03:35:15.286   07 Jun 2027 03:35:40.157            24.871              Murmansk1          3108.875
       284   07 Jun 2027 04:01:06.269   07 Jun 2027 04:03:23.949           137.680            RioGallegos         17210.000
       285   07 Jun 2027 04:39:58.593   07 Jun 2027 04:40:13.880            15.287                Sumatra          1910.875
       286   07 Jun 2027 04:40:58.500   07 Jun 2027 04:42:08.990            70.490                Sumatra          8811.250
       287   07 Jun 2027 05:01:43.943   07 Jun 2027 05:06:30.026           286.083                Norilsk         35760.375
       288   07 Jun 2027 05:06:30.470   07 Jun 2027 05:09:53.283           202.813              Murmansk2         25351.625
       289   07 Jun 2027 05:36:33.627   07 Jun 2027 05:40:54.370           260.743            RioGallegos         32592.875
       290   07 Jun 2027 05:41:22.197   07 Jun 2027 05:41:23.711             1.514            RioGallegos           189.250
       291   07 Jun 2027 05:44:25.021   07 Jun 2027 05:44:41.588            16.567            RioGallegos          2070.875
       292   07 Jun 2027 05:45:52.932   07 Jun 2027 05:46:05.647            12.715            RioGallegos          1589.375
       293   07 Jun 2027 06:11:14.375   07 Jun 2027 06:13:42.275           147.900                Sumatra         18487.500
       294   07 Jun 2027 06:21:26.740   07 Jun 2027 06:24:29.639           182.899                  Delhi         22862.375
       295   07 Jun 2027 06:25:29.437   07 Jun 2027 06:29:59.305           269.868                Irkutsk         33733.500
       296   07 Jun 2027 06:37:01.051   07 Jun 2027 06:37:21.852            20.801              Murmansk1          2600.125
       297   07 Jun 2027 06:37:46.663   07 Jun 2027 06:39:38.184           111.521                 Moscow         13940.125
       298   07 Jun 2027 06:39:39.066   07 Jun 2027 06:44:47.661           308.595              Murmansk2         38574.375
       299   07 Jun 2027 07:16:43.033   07 Jun 2027 07:19:31.323           168.290            RioGallegos         21036.250
       300   07 Jun 2027 07:22:30.264   07 Jun 2027 07:22:48.551            18.287            RioGallegos          2285.875
       301   07 Jun 2027 07:55:33.047   07 Jun 2027 08:00:01.693           268.646                  Delhi         33580.750
       302   07 Jun 2027 08:03:21.851   07 Jun 2027 08:04:30.908            69.057                Novosib          8632.125
       303   07 Jun 2027 08:05:15.156   07 Jun 2027 08:08:28.961           193.805                Novosib         24225.625
       304   07 Jun 2027 08:08:43.115   07 Jun 2027 08:09:24.848            41.733                Norilsk          5216.625
       305   07 Jun 2027 08:13:16.699   07 Jun 2027 08:14:45.180            88.481                Novosib         11060.125
       306   07 Jun 2027 08:14:45.687   07 Jun 2027 08:16:33.730           108.043                 Moscow         13505.375
       307   07 Jun 2027 08:16:42.227   07 Jun 2027 08:18:37.603           115.376                Norilsk         14422.000
       308   07 Jun 2027 08:19:03.496   07 Jun 2027 08:20:20.528            77.032              Murmansk1          9629.000
       309   07 Jun 2027 09:48:43.883   07 Jun 2027 09:54:15.543           331.660                Norilsk         41457.500
       310   07 Jun 2027 09:54:27.678   07 Jun 2027 09:56:13.636           105.958              Murmansk1         13244.750
       311   07 Jun 2027 10:54:27.579   07 Jun 2027 11:03:44.881           557.302               CapeTown         69662.750
       312   07 Jun 2027 11:17:12.797   07 Jun 2027 11:27:10.703           597.906                 Moscow         74738.250
       313   07 Jun 2027 11:27:13.007   07 Jun 2027 11:31:35.853           262.846              Murmansk2         32855.750
       314   07 Jun 2027 11:31:35.853   07 Jun 2027 11:32:11.407            35.554              Murmansk1          4444.250
       315   07 Jun 2027 11:34:22.517   07 Jun 2027 11:41:49.013           446.496                Anadyr1         55812.000
       316   07 Jun 2027 12:29:20.141   07 Jun 2027 12:32:21.242           181.101               CapeTown         22637.625
       317   07 Jun 2027 12:59:42.532   07 Jun 2027 13:00:17.407            34.875              Murmansk2          4359.375
       318   07 Jun 2027 13:13:20.907   07 Jun 2027 13:16:49.927           209.020               Magadan2         26127.500
       319   07 Jun 2027 14:52:23.513   07 Jun 2027 14:52:43.769            20.256               Magadan2          2532.000
       320   07 Jun 2027 14:52:47.547   07 Jun 2027 14:53:24.651            37.104               Magadan2          4638.000
       321   07 Jun 2027 15:44:15.311   07 Jun 2027 15:44:50.563            35.252            RioGallegos          4406.500
       322   07 Jun 2027 16:29:14.777   07 Jun 2027 16:35:27.055           372.278                Irkutsk         46534.750
       323   07 Jun 2027 16:45:02.498   07 Jun 2027 16:46:45.441           102.943                Sumatra         12867.875
       324   07 Jun 2027 16:48:23.591   07 Jun 2027 16:50:43.099           139.508                Sumatra         17438.500
       325   07 Jun 2027 18:06:06.690   07 Jun 2027 18:08:04.236           117.546                Novosib         14693.250
       326   07 Jun 2027 21:13:46.295   07 Jun 2027 21:15:15.061            88.766              Murmansk1         11095.750
       327   07 Jun 2027 21:17:46.364   07 Jun 2027 21:19:47.549           121.185                 Moscow         15148.125
       328   07 Jun 2027 21:20:00.913   07 Jun 2027 21:21:36.091            95.178                 Moscow         11897.250
       329   07 Jun 2027 21:44:43.450   07 Jun 2027 21:45:34.861            51.411               CapeTown          6426.375
       330   07 Jun 2027 21:48:38.784   07 Jun 2027 21:50:19.764           100.980               CapeTown         12622.500
       331   08 Jun 2027 03:36:38.254   08 Jun 2027 03:36:58.673            20.419                Norilsk          2552.375
       332   08 Jun 2027 03:37:50.352   08 Jun 2027 03:42:59.757           309.405                Norilsk         38675.625
       333   08 Jun 2027 03:43:13.995   08 Jun 2027 03:45:02.159           108.164              Murmansk1         13520.500
       334   08 Jun 2027 04:50:22.243   08 Jun 2027 04:52:32.869           130.626                Sumatra         16328.250
       335   08 Jun 2027 05:13:45.305   08 Jun 2027 05:18:42.701           297.396                Norilsk         37174.500
       336   08 Jun 2027 05:18:55.393   08 Jun 2027 05:21:44.338           168.945              Murmansk1         21118.125
       337   08 Jun 2027 05:48:46.896   08 Jun 2027 05:52:08.206           201.310            RioGallegos         25163.750
       338   08 Jun 2027 05:57:28.824   08 Jun 2027 05:58:00.330            31.506            RioGallegos          3938.250
       339   08 Jun 2027 05:58:17.547   08 Jun 2027 05:58:34.948            17.401            RioGallegos          2175.125
       340   08 Jun 2027 06:23:17.634   08 Jun 2027 06:25:14.010           116.376                Sumatra         14547.000
       341   08 Jun 2027 06:25:48.702   08 Jun 2027 06:26:21.983            33.281                Sumatra          4160.125
       342   08 Jun 2027 06:32:52.135   08 Jun 2027 06:33:56.263            64.128                  Delhi          8016.000
       343   08 Jun 2027 06:37:27.824   08 Jun 2027 06:39:19.092           111.268                  Delhi         13908.500
       344   08 Jun 2027 06:39:45.435   08 Jun 2027 06:42:10.345           144.910                Irkutsk         18113.750
       345   08 Jun 2027 06:42:37.969   08 Jun 2027 06:43:12.826            34.857                Novosib          4357.125
       346   08 Jun 2027 06:49:34.676   08 Jun 2027 06:56:44.355           429.679              Murmansk2         53709.875
       347   08 Jun 2027 07:30:16.993   08 Jun 2027 07:32:14.124           117.131            RioGallegos         14641.375
       348   08 Jun 2027 07:33:24.675   08 Jun 2027 07:33:53.205            28.530            RioGallegos          3566.250
       349   08 Jun 2027 08:07:46.126   08 Jun 2027 08:14:12.189           386.063                  Delhi         48257.875
       350   08 Jun 2027 08:15:47.753   08 Jun 2027 08:20:34.845           287.092                Novosib         35886.500
       351   08 Jun 2027 08:25:13.294   08 Jun 2027 08:32:20.740           427.446              Murmansk2         53430.750
       352   08 Jun 2027 09:55:20.976   08 Jun 2027 09:57:05.023           104.047              Murmansk1         13005.875
       353   08 Jun 2027 10:00:21.665   08 Jun 2027 10:05:45.584           323.919              Murmansk1         40489.875
       354   08 Jun 2027 10:05:45.584   08 Jun 2027 10:07:24.648            99.064              Murmansk2         12383.000
       355   08 Jun 2027 10:07:24.648   08 Jun 2027 10:08:15.236            50.588              Murmansk1          6323.500
       356   08 Jun 2027 11:07:22.683   08 Jun 2027 11:12:28.601           305.918               CapeTown         38239.750
       357   08 Jun 2027 11:29:42.586   08 Jun 2027 11:33:41.489           238.903                 Moscow         29862.875
       358   08 Jun 2027 11:33:58.937   08 Jun 2027 11:39:54.320           355.383              Murmansk2         44422.875
       359   08 Jun 2027 11:39:54.320   08 Jun 2027 11:43:05.863           191.543              Murmansk1         23942.875
       360   08 Jun 2027 11:46:17.696   08 Jun 2027 11:52:31.604           373.908                Anadyr1         46738.500
       361   08 Jun 2027 12:44:10.603   08 Jun 2027 12:44:22.549            11.946               CapeTown          1493.250
       362   08 Jun 2027 12:44:46.976   08 Jun 2027 12:45:35.588            48.612               CapeTown          6076.500
       363   08 Jun 2027 13:25:05.022   08 Jun 2027 13:28:50.399           225.377               Magadan2         28172.125
       364   08 Jun 2027 13:33:39.000   08 Jun 2027 13:33:49.755            10.755               Magadan1          1344.375
       365   08 Jun 2027 15:54:13.242   08 Jun 2027 15:59:25.615           312.373            RioGallegos         39046.625
       366   08 Jun 2027 16:40:48.961   08 Jun 2027 16:44:11.030           202.069                Irkutsk         25258.625
       367   08 Jun 2027 16:47:29.199   08 Jun 2027 16:47:43.382            14.183                Irkutsk          1772.875
       368   08 Jun 2027 16:55:50.430   08 Jun 2027 16:58:25.265           154.835                Sumatra         19354.375
       369   08 Jun 2027 17:00:46.016   08 Jun 2027 17:04:16.682           210.666                Sumatra         26333.250
       370   08 Jun 2027 18:26:25.430   08 Jun 2027 18:28:17.320           111.890                  Delhi         13986.250
       371   08 Jun 2027 21:28:19.635   08 Jun 2027 21:30:18.697           119.062              Murmansk1         14882.750
       372   08 Jun 2027 21:31:57.299   08 Jun 2027 21:33:10.283            72.984                 Moscow          9123.000
       373   08 Jun 2027 21:55:45.741   08 Jun 2027 21:57:46.702           120.961               CapeTown         15120.125
       374   08 Jun 2027 22:00:33.664   08 Jun 2027 22:02:15.588           101.924               CapeTown          5295.001
       375   09 Jun 2027 03:49:50.200   09 Jun 2027 03:57:39.677           469.477              Murmansk1         58684.625
       376   09 Jun 2027 05:01:24.259   09 Jun 2027 05:04:17.798           173.539                Sumatra         21692.375
       377   09 Jun 2027 05:25:38.494   09 Jun 2027 05:25:46.774             8.280                Irkutsk          1035.000
       378   09 Jun 2027 05:25:46.812   09 Jun 2027 05:30:43.712           296.900                Norilsk         37112.500
       379   09 Jun 2027 05:30:52.033   09 Jun 2027 05:33:36.129           164.096              Murmansk2         20512.000
       380   09 Jun 2027 06:01:04.250   09 Jun 2027 06:03:13.574           129.324            RioGallegos         16165.500
       381   09 Jun 2027 06:35:26.674   09 Jun 2027 06:38:14.278           167.604                Sumatra         20950.500
       382   09 Jun 2027 06:50:17.875   09 Jun 2027 06:50:39.002            21.127                Irkutsk          2640.875
       383   09 Jun 2027 06:50:50.346   09 Jun 2027 06:51:40.433            50.087                Novosib          6260.875
       384   09 Jun 2027 06:52:45.673   09 Jun 2027 06:54:25.167            99.494                Irkutsk         12436.750
       385   09 Jun 2027 06:54:42.030   09 Jun 2027 06:55:25.469            43.439                Novosib          5429.875
       386   09 Jun 2027 07:01:27.561   09 Jun 2027 07:03:14.613           107.052                Novosib         13381.500
       387   09 Jun 2027 07:03:28.625   09 Jun 2027 07:08:41.627           313.002              Murmansk2         39125.250
       388   09 Jun 2027 08:20:05.715   09 Jun 2027 08:30:01.310           595.595                  Delhi         74449.375
       389   09 Jun 2027 08:30:02.607   09 Jun 2027 08:32:07.919           125.312                Novosib         15664.000
       390   09 Jun 2027 08:32:12.218   09 Jun 2027 08:32:36.720            24.502                Norilsk          3062.750
       391   09 Jun 2027 08:37:08.045   09 Jun 2027 08:41:39.925           271.880              Murmansk1         33985.000
       392   09 Jun 2027 08:41:39.925   09 Jun 2027 08:44:21.231           161.306              Murmansk2         20163.250
       393   09 Jun 2027 10:03:55.221   09 Jun 2027 10:05:23.649            88.428                 Moscow         11053.500
       394   09 Jun 2027 10:07:10.855   09 Jun 2027 10:07:45.896            35.041                 Moscow          4380.125
       395   09 Jun 2027 10:08:03.805   09 Jun 2027 10:08:53.485            49.680              Murmansk1          6210.000
       396   09 Jun 2027 10:09:40.806   09 Jun 2027 10:09:48.375             7.569              Murmansk1           946.125
       397   09 Jun 2027 10:12:00.850   09 Jun 2027 10:16:45.421           284.571                 Moscow         35571.375
       398   09 Jun 2027 10:16:45.953   09 Jun 2027 10:17:58.052            72.099                Norilsk          9012.375
       399   09 Jun 2027 10:18:04.942   09 Jun 2027 10:20:16.884           131.942              Murmansk1         16492.750
       400   09 Jun 2027 11:23:19.843   09 Jun 2027 11:23:52.531            32.688               CapeTown          4086.000
       401   09 Jun 2027 11:42:18.024   09 Jun 2027 11:46:03.637           225.613                 Moscow         28201.625
       402   09 Jun 2027 11:46:04.730   09 Jun 2027 11:55:24.088           559.358              Murmansk2         69919.750
       403   09 Jun 2027 11:58:14.213   09 Jun 2027 11:58:54.072            39.859                Anadyr1          4982.375
       404   09 Jun 2027 11:58:54.072   09 Jun 2027 11:59:55.050            60.978                Anadyr2          7622.250
       405   09 Jun 2027 12:00:44.953   09 Jun 2027 12:02:28.817           103.864                Anadyr2         12983.000
       406   09 Jun 2027 12:05:40.671   09 Jun 2027 12:05:59.444            18.773                Anadyr1          2346.625
       407   09 Jun 2027 12:07:46.722   09 Jun 2027 12:08:51.300            64.578                Anadyr1          8072.250
       408   09 Jun 2027 13:36:53.382   09 Jun 2027 13:38:51.765           118.383               Magadan2         14797.875
       409   09 Jun 2027 13:38:51.765   09 Jun 2027 13:40:51.292           119.527               Magadan1         14940.875
       410   09 Jun 2027 16:05:29.372   09 Jun 2027 16:08:53.127           203.755            RioGallegos         25469.375
       411   09 Jun 2027 16:54:19.150   09 Jun 2027 16:58:34.212           255.062                Irkutsk         31882.750
       412   09 Jun 2027 17:07:02.279   09 Jun 2027 17:11:51.826           289.547                Sumatra         36193.375
       413   09 Jun 2027 18:31:51.557   09 Jun 2027 18:32:07.700            16.143                Novosib          2017.875
       414   09 Jun 2027 18:37:13.085   09 Jun 2027 18:39:59.003           165.918                  Delhi         20739.750
       415   09 Jun 2027 18:41:50.904   09 Jun 2027 18:42:18.663            27.759                  Delhi          3469.875
       416   09 Jun 2027 21:39:57.099   09 Jun 2027 21:42:51.601           174.502              Murmansk2         21812.750
       417   09 Jun 2027 21:46:03.772   09 Jun 2027 21:48:29.299           145.527                 Moscow         17312.875
       418   10 Jun 2027 04:01:53.446   10 Jun 2027 04:05:57.953           244.507                Norilsk         30563.375
       419   10 Jun 2027 05:12:43.623   10 Jun 2027 05:13:19.160            35.537                Sumatra          4442.125
       420   10 Jun 2027 05:14:07.055   10 Jun 2027 05:16:07.541           120.486                Sumatra         15060.750
       421   10 Jun 2027 05:37:45.161   10 Jun 2027 05:41:52.170           247.009              Murmansk2         30876.125
       422   10 Jun 2027 05:41:52.170   10 Jun 2027 05:42:59.774            67.604              Murmansk1          8450.500
       423   10 Jun 2027 05:44:14.320   10 Jun 2027 05:45:28.676            74.356              Murmansk2          9294.500
       424   10 Jun 2027 06:13:26.087   10 Jun 2027 06:14:50.664            84.577            RioGallegos         10572.125
       425   10 Jun 2027 06:14:56.140   10 Jun 2027 06:15:20.661            24.521            RioGallegos          3065.125
       426   10 Jun 2027 06:16:21.018   10 Jun 2027 06:17:16.590            55.572            RioGallegos          6946.500
       427   10 Jun 2027 06:22:36.246   10 Jun 2027 06:23:21.655            45.409            RioGallegos          5676.125
       428   10 Jun 2027 06:47:42.087   10 Jun 2027 06:48:24.689            42.602                Sumatra          5325.250
       429   10 Jun 2027 06:50:00.506   10 Jun 2027 06:52:22.324           141.818                Sumatra         17727.250
       430   10 Jun 2027 07:01:14.818   10 Jun 2027 07:02:20.889            66.071                  Delhi          8258.875
       431   10 Jun 2027 07:02:25.586   10 Jun 2027 07:03:35.656            70.070                Novosib          8758.750
       432   10 Jun 2027 07:04:45.349   10 Jun 2027 07:06:44.090           118.741                Irkutsk         14842.625
       433   10 Jun 2027 07:07:04.451   10 Jun 2027 07:07:41.636            37.185                Novosib          4648.125
       434   10 Jun 2027 07:13:02.954   10 Jun 2027 07:13:07.963             5.009              Murmansk2           626.125
       435   10 Jun 2027 07:13:07.963   10 Jun 2027 07:14:14.926            66.963              Murmansk1          8370.375
       436   10 Jun 2027 07:14:26.922   10 Jun 2027 07:15:14.571            47.649                Novosib          5956.125
       437   10 Jun 2027 07:15:19.365   10 Jun 2027 07:16:14.250            54.885                 Moscow          6860.625
       438   10 Jun 2027 07:16:22.237   10 Jun 2027 07:18:54.820           152.583              Murmansk1         19072.875
       439   10 Jun 2027 08:32:32.949   10 Jun 2027 08:36:44.427           251.478                  Delhi         31434.750
       440   10 Jun 2027 08:39:38.761   10 Jun 2027 08:40:20.571            41.810                  Delhi          5226.250
       441   10 Jun 2027 08:40:55.370   10 Jun 2027 08:44:37.962           222.592                Novosib         27824.000
       442   10 Jun 2027 08:49:21.384   10 Jun 2027 08:53:36.260           254.876                Norilsk         31859.500
       443   10 Jun 2027 08:53:44.258   10 Jun 2027 08:56:21.967           157.709              Murmansk2         19713.625
       444   10 Jun 2027 10:16:19.885   10 Jun 2027 10:21:27.937           308.052                 Moscow         38506.500
       445   10 Jun 2027 10:21:32.220   10 Jun 2027 10:22:42.686            70.466              Murmansk1          8808.250
       446   10 Jun 2027 10:23:21.189   10 Jun 2027 10:24:32.493            71.304              Murmansk2          8913.000
       447   10 Jun 2027 10:25:29.402   10 Jun 2027 10:26:15.948            46.546              Murmansk2          5818.250
       448   10 Jun 2027 10:26:25.431   10 Jun 2027 10:29:39.888           194.457                Norilsk         24307.125
       449   10 Jun 2027 10:35:54.545   10 Jun 2027 10:39:20.619           206.074                Anadyr1         25759.250
       450   10 Jun 2027 11:57:23.657   10 Jun 2027 12:01:08.263           224.606              Murmansk1         28075.750
       451   10 Jun 2027 12:01:34.771   10 Jun 2027 12:01:56.522            21.751              Murmansk1          2718.875
       452   10 Jun 2027 12:02:32.120   10 Jun 2027 12:03:41.108            68.988              Murmansk1          8623.500
       453   10 Jun 2027 12:03:43.750   10 Jun 2027 12:04:35.781            52.031              Murmansk2          6503.875
       454   10 Jun 2027 12:05:02.005   10 Jun 2027 12:05:54.762            52.757              Murmansk2          6594.625
       455   10 Jun 2027 12:10:11.767   10 Jun 2027 12:11:22.144            70.377                Anadyr1          8797.125
       456   10 Jun 2027 13:48:44.662   10 Jun 2027 13:52:52.537           247.875               Magadan1         30984.375
       457   10 Jun 2027 13:55:12.963   10 Jun 2027 13:56:12.262            59.299               Magadan1          7412.375
       458   10 Jun 2027 16:17:01.222   10 Jun 2027 16:22:17.120           315.898            RioGallegos         39487.250
       459   10 Jun 2027 16:23:36.277   10 Jun 2027 16:24:11.034            34.757            RioGallegos          4344.625
       460   10 Jun 2027 17:07:40.940   10 Jun 2027 17:08:24.014            43.074                Irkutsk          5384.250
       461   10 Jun 2027 17:18:27.732   10 Jun 2027 17:19:31.780            64.048                Sumatra          8006.000
       462   10 Jun 2027 17:21:58.531   10 Jun 2027 17:25:09.662           191.131                Sumatra         23891.375
       463   10 Jun 2027 18:39:54.357   10 Jun 2027 18:41:12.173            77.816                Novosib          9727.000
       464   10 Jun 2027 18:42:34.104   10 Jun 2027 18:42:41.740             7.636                Novosib           954.500
       465   10 Jun 2027 18:48:28.754   10 Jun 2027 18:51:46.038           197.284                  Delhi         24660.500
       466   10 Jun 2027 21:52:50.908   10 Jun 2027 21:52:51.737             0.829              Murmansk1           103.625
       467   10 Jun 2027 21:53:20.221   10 Jun 2027 21:55:04.282           104.061                 Moscow         13007.625
       468   10 Jun 2027 21:56:07.449   10 Jun 2027 21:57:42.870            95.421                 Moscow         11927.625
       469   10 Jun 2027 22:19:17.396   10 Jun 2027 22:21:46.008           148.612               CapeTown          9183.375
       470   11 Jun 2027 05:24:14.209   11 Jun 2027 05:25:46.923            92.714                Sumatra         11589.250
       471   11 Jun 2027 05:49:42.835   11 Jun 2027 05:51:16.925            94.090                Novosib         11761.250
       472   11 Jun 2027 05:51:24.703   11 Jun 2027 05:54:46.294           201.591                Norilsk         25198.875
       473   11 Jun 2027 05:55:01.808   11 Jun 2027 05:57:21.967           140.159              Murmansk1         17519.875
       474   11 Jun 2027 06:25:52.969   11 Jun 2027 06:28:21.704           148.735            RioGallegos         18591.875
       475   11 Jun 2027 06:29:21.950   11 Jun 2027 06:29:55.718            33.768            RioGallegos          4221.000
       476   11 Jun 2027 07:00:05.044   11 Jun 2027 07:03:18.178           193.134                Sumatra         24141.750
       477   11 Jun 2027 07:04:24.987   11 Jun 2027 07:04:27.584             2.597                Sumatra           324.625
       478   11 Jun 2027 07:07:27.341   11 Jun 2027 07:08:52.093            84.752                Sumatra         10594.000
       479   11 Jun 2027 07:10:40.767   11 Jun 2027 07:11:52.022            71.255                  Delhi          8906.875
       480   11 Jun 2027 07:14:32.988   11 Jun 2027 07:15:18.947            45.959                Novosib          5744.875
       481   11 Jun 2027 07:15:29.312   11 Jun 2027 07:19:07.530           218.218                Irkutsk         27277.250
       482   11 Jun 2027 07:19:40.587   11 Jun 2027 07:20:50.060            69.473                 Moscow          8684.125
