uniorb/output/strategy_4/Drop/Drop_KinoSat_110308.txt

KinoSat_110308
-------------------------
    Access    *     Start Time (UTCG)     *     Stop Time (UTCG)  *   Duration (s)        *       Station  *  Data (Mbytes)
         1   01 Jun 2027 03:29:44.832   01 Jun 2027 03:30:05.910            21.078               Magadan2          2634.750
         2   01 Jun 2027 03:30:10.100   01 Jun 2027 03:31:55.966           105.866               Magadan1         13233.250
         3   01 Jun 2027 03:32:10.499   01 Jun 2027 03:32:38.405            27.906               Magadan1          3488.250
         4   01 Jun 2027 03:32:56.215   01 Jun 2027 03:33:43.057            46.842               Magadan1          5855.250
         5   01 Jun 2027 03:33:48.593   01 Jun 2027 03:34:21.621            33.028                Irkutsk          4128.500
         6   01 Jun 2027 03:34:23.562   01 Jun 2027 03:34:41.142            17.580               Magadan1          2197.500
         7   01 Jun 2027 03:34:47.828   01 Jun 2027 03:34:49.839             2.011                Irkutsk           251.375
         8   01 Jun 2027 04:47:19.223   01 Jun 2027 04:49:19.295           120.072                Sumatra         15009.000
         9   01 Jun 2027 05:07:14.068   01 Jun 2027 05:07:49.406            35.338                Norilsk          4417.250
        10   01 Jun 2027 05:07:58.655   01 Jun 2027 05:08:39.986            41.331                Norilsk          5166.375
        11   01 Jun 2027 05:08:51.497   01 Jun 2027 05:09:02.777            11.280              Murmansk1          1410.000
        12   01 Jun 2027 05:09:18.170   01 Jun 2027 05:10:06.426            48.256                Irkutsk          6032.000
        13   01 Jun 2027 05:10:11.540   01 Jun 2027 05:10:57.613            46.073                Irkutsk          5759.125
        14   01 Jun 2027 05:47:02.818   01 Jun 2027 05:47:34.040            31.222            RioGallegos          3902.750
        15   01 Jun 2027 05:50:01.869   01 Jun 2027 05:50:46.434            44.565            RioGallegos          5570.625
        16   01 Jun 2027 06:23:51.487   01 Jun 2027 06:24:19.683            28.196                Sumatra          3524.500
        17   01 Jun 2027 06:29:00.984   01 Jun 2027 06:29:45.465            44.481                  Delhi          5560.125
        18   01 Jun 2027 06:36:11.236   01 Jun 2027 06:36:39.272            28.036                  Delhi          3504.500
        19   01 Jun 2027 06:44:09.549   01 Jun 2027 06:44:32.049            22.500                Norilsk          2812.500
        20   01 Jun 2027 06:44:40.665   01 Jun 2027 06:45:16.003            35.338                Novosib          4417.250
        21   01 Jun 2027 06:45:24.125   01 Jun 2027 06:45:57.175            33.050                Norilsk          4131.250
        22   01 Jun 2027 06:46:03.450   01 Jun 2027 06:46:28.817            25.367                Norilsk          3170.875
        23   01 Jun 2027 06:47:26.271   01 Jun 2027 06:48:13.587            47.316              Murmansk1          5914.500
        24   01 Jun 2027 08:06:19.629   01 Jun 2027 08:06:41.087            21.458                  Delhi          2682.250
        25   01 Jun 2027 08:20:44.353   01 Jun 2027 08:21:11.992            27.639                 Moscow          3454.875
        26   01 Jun 2027 08:21:21.362   01 Jun 2027 08:22:10.366            49.004              Murmansk2          6125.500
        27   01 Jun 2027 08:22:24.748   01 Jun 2027 08:26:00.415           215.667                 Moscow         26958.375
        28   01 Jun 2027 08:26:00.753   01 Jun 2027 08:26:14.291            13.538                Norilsk          1692.250
        29   01 Jun 2027 11:43:20.165   01 Jun 2027 11:47:59.206           279.041                Anadyr2         34880.125
        30   01 Jun 2027 13:21:48.139   01 Jun 2027 13:27:13.377           325.238               Magadan2         40654.750
        31   01 Jun 2027 15:49:51.324   01 Jun 2027 15:56:01.789           370.465            RioGallegos         46308.125
        32   01 Jun 2027 16:40:04.276   01 Jun 2027 16:41:34.463            90.187                Irkutsk         11273.375
        33   01 Jun 2027 16:51:12.951   01 Jun 2027 16:53:09.528           116.577                Sumatra         14572.125
        34   01 Jun 2027 16:55:19.588   01 Jun 2027 16:56:16.905            57.317                Sumatra          7164.625
        35   01 Jun 2027 17:02:26.687   01 Jun 2027 17:03:00.103            33.416                Sumatra          4177.000
        36   01 Jun 2027 18:12:58.389   01 Jun 2027 18:14:48.509           110.120                Novosib         13765.000
        37   01 Jun 2027 18:22:12.024   01 Jun 2027 18:24:52.907           160.883                  Delhi         16081.124
        38   02 Jun 2027 03:46:28.003   02 Jun 2027 03:46:55.398            27.395                Irkutsk          3424.375
        39   02 Jun 2027 03:47:08.240   02 Jun 2027 03:48:03.552            55.312                Novosib          6914.000
        40   02 Jun 2027 04:57:03.389   02 Jun 2027 04:57:18.274            14.885                Sumatra          1860.625
        41   02 Jun 2027 04:58:59.540   02 Jun 2027 05:01:21.270           141.730                Sumatra         17716.250
        42   02 Jun 2027 05:20:26.459   02 Jun 2027 05:22:56.568           150.109                Irkutsk         18763.625
        43   02 Jun 2027 05:22:59.806   02 Jun 2027 05:24:30.302            90.496                Novosib         11312.000
        44   02 Jun 2027 05:24:37.473   02 Jun 2027 05:27:57.871           200.398                Norilsk         25049.750
        45   02 Jun 2027 05:28:05.575   02 Jun 2027 05:30:26.042           140.467              Murmansk1         17558.375
        46   02 Jun 2027 06:47:53.567   02 Jun 2027 06:49:56.460           122.893                Novosib         15361.625
        47   02 Jun 2027 06:50:23.527   02 Jun 2027 06:53:03.889           160.362                  Delhi         20045.250
        48   02 Jun 2027 06:59:17.263   02 Jun 2027 07:00:22.116            64.853                Novosib          8106.625
        49   02 Jun 2027 07:00:50.848   02 Jun 2027 07:02:34.356           103.508              Murmansk2         12938.500
        50   02 Jun 2027 07:02:34.356   02 Jun 2027 07:05:46.555           192.199              Murmansk1         24024.875
        51   02 Jun 2027 08:27:43.032   02 Jun 2027 08:30:01.622           138.590                Novosib         17323.750
        52   02 Jun 2027 08:34:15.707   02 Jun 2027 08:34:51.470            35.763                 Moscow          4470.375
        53   02 Jun 2027 08:35:23.696   02 Jun 2027 08:36:39.450            75.754                Norilsk          9469.250
        54   02 Jun 2027 08:36:43.971   02 Jun 2027 08:41:34.109           290.138              Murmansk2         36267.250
        55   02 Jun 2027 09:45:19.539   02 Jun 2027 09:47:15.752           116.213               CapeTown         14526.625
        56   02 Jun 2027 10:04:18.373   02 Jun 2027 10:05:01.019            42.646                 Moscow          5330.750
        57   02 Jun 2027 10:08:19.825   02 Jun 2027 10:10:14.154           114.329              Murmansk1         14291.125
        58   02 Jun 2027 10:10:45.705   02 Jun 2027 10:13:50.811           185.106                 Moscow         23138.250
        59   02 Jun 2027 10:14:19.539   02 Jun 2027 10:16:28.268           128.729              Murmansk2         16091.125
        60   02 Jun 2027 10:16:28.268   02 Jun 2027 10:17:31.906            63.638              Murmansk1          7954.750
        61   02 Jun 2027 10:20:15.369   02 Jun 2027 10:27:09.985           414.616                Anadyr2         51827.000
        62   02 Jun 2027 11:22:18.444   02 Jun 2027 11:24:13.173           114.729               CapeTown         14341.125
        63   02 Jun 2027 12:04:47.337   02 Jun 2027 12:04:53.376             6.039                Anadyr2           754.875
        64   02 Jun 2027 13:33:43.236   02 Jun 2027 13:35:34.839           111.603               Magadan1         13950.375
        65   02 Jun 2027 13:36:43.988   02 Jun 2027 13:38:42.044           118.056               Magadan2         14757.000
        66   02 Jun 2027 13:41:04.914   02 Jun 2027 13:41:35.386            30.472               Magadan1          3809.000
        67   02 Jun 2027 15:16:24.973   02 Jun 2027 15:17:11.379            46.406               Magadan1          5800.750
        68   02 Jun 2027 16:01:36.531   02 Jun 2027 16:05:47.555           251.024            RioGallegos         31378.000
        69   02 Jun 2027 16:10:28.080   02 Jun 2027 16:11:01.942            33.862            RioGallegos          4232.750
        70   02 Jun 2027 16:49:08.669   02 Jun 2027 16:51:51.840           163.171                Irkutsk         20396.375
        71   02 Jun 2027 16:53:58.573   02 Jun 2027 16:54:20.670            22.097                Novosib          2762.125
        72   02 Jun 2027 17:02:55.554   02 Jun 2027 17:05:28.877           153.323                Sumatra         19165.375
        73   02 Jun 2027 17:12:20.873   02 Jun 2027 17:13:35.866            74.993                Sumatra          9374.125
        74   02 Jun 2027 18:32:45.718   02 Jun 2027 18:36:48.671           242.953                  Delhi         30369.125
        75   02 Jun 2027 20:04:49.474   02 Jun 2027 20:07:42.229           172.755                 Moscow         21594.375
        76   02 Jun 2027 21:47:51.426   02 Jun 2027 21:48:23.537            32.111                 Moscow          4013.875
        77   02 Jun 2027 22:02:45.848   02 Jun 2027 22:05:00.320           134.472               CapeTown          4323.624
        78   03 Jun 2027 03:59:10.722   03 Jun 2027 04:00:10.905            60.183                Novosib          7522.875
        79   03 Jun 2027 04:00:18.290   03 Jun 2027 04:04:05.825           227.535                Norilsk         28441.875
        80   03 Jun 2027 04:04:18.677   03 Jun 2027 04:05:02.180            43.503              Murmansk1          5437.875
        81   03 Jun 2027 05:08:49.328   03 Jun 2027 05:09:49.662            60.334                Sumatra          7541.750
        82   03 Jun 2027 05:11:35.893   03 Jun 2027 05:13:28.963           113.070                Sumatra         14133.750
        83   03 Jun 2027 05:34:42.581   03 Jun 2027 05:34:54.400            11.819                Irkutsk          1477.375
        84   03 Jun 2027 05:34:54.728   03 Jun 2027 05:36:10.960            76.232                 Moscow          9529.000
        85   03 Jun 2027 05:36:17.610   03 Jun 2027 05:36:33.186            15.576                Novosib          1947.000
        86   03 Jun 2027 05:36:41.687   03 Jun 2027 05:39:59.530           197.843                Norilsk         24730.375
        87   03 Jun 2027 05:40:06.933   03 Jun 2027 05:42:20.795           133.862              Murmansk1         16732.750
        88   03 Jun 2027 07:00:23.584   03 Jun 2027 07:05:35.958           312.374                  Delhi         39046.750
        89   03 Jun 2027 07:05:37.076   03 Jun 2027 07:06:56.000            78.924                Irkutsk          9865.500
        90   03 Jun 2027 07:10:36.683   03 Jun 2027 07:11:28.562            51.879              Murmansk1          6484.875
        91   03 Jun 2027 07:11:49.673   03 Jun 2027 07:15:59.451           249.778                Norilsk         31222.250
        92   03 Jun 2027 07:16:23.725   03 Jun 2027 07:17:45.747            82.022              Murmansk2         10252.750
        93   03 Jun 2027 08:37:39.875   03 Jun 2027 08:38:08.642            28.767                 Moscow          3595.875
        94   03 Jun 2027 08:47:16.011   03 Jun 2027 08:47:55.492            39.481                Norilsk          4935.125
        95   03 Jun 2027 08:48:45.603   03 Jun 2027 08:53:35.409           289.806              Murmansk2         36225.750
        96   03 Jun 2027 09:57:50.666   03 Jun 2027 10:00:38.962           168.296               CapeTown         21037.000
        97   03 Jun 2027 10:20:21.236   03 Jun 2027 10:22:12.458           111.222              Murmansk1         13902.750
        98   03 Jun 2027 10:22:51.682   03 Jun 2027 10:25:47.098           175.416                 Moscow         21927.000
        99   03 Jun 2027 10:26:06.828   03 Jun 2027 10:28:25.870           139.042              Murmansk1         17380.250
       100   03 Jun 2027 10:28:25.870   03 Jun 2027 10:29:33.458            67.588              Murmansk2          8448.500
       101   03 Jun 2027 10:32:02.724   03 Jun 2027 10:39:57.381           474.657                Anadyr2         59332.125
       102   03 Jun 2027 11:34:27.484   03 Jun 2027 11:39:26.654           299.170               CapeTown         37396.250
       103   03 Jun 2027 11:56:19.260   03 Jun 2027 11:56:28.398             9.138              Murmansk2          1142.250
       104   03 Jun 2027 11:57:20.152   03 Jun 2027 11:58:41.073            80.921                 Moscow         10115.125
       105   03 Jun 2027 12:00:49.780   03 Jun 2027 12:05:22.192           272.412              Murmansk2         34051.500
       106   03 Jun 2027 12:07:20.751   03 Jun 2027 12:16:51.581           570.830                Anadyr1         71353.750
       107   03 Jun 2027 12:17:24.999   03 Jun 2027 12:17:38.013            13.014                Anadyr2          1626.750
       108   03 Jun 2027 13:45:39.641   03 Jun 2027 13:50:14.369           274.728               Magadan1         34341.000
       109   03 Jun 2027 15:28:39.587   03 Jun 2027 15:30:39.043           119.456                Irkutsk         14932.000
       110   03 Jun 2027 16:13:25.414   03 Jun 2027 16:16:11.609           166.195            RioGallegos         20774.375
       111   03 Jun 2027 16:17:38.561   03 Jun 2027 16:19:07.772            89.211            RioGallegos         11151.375
       112   03 Jun 2027 17:01:02.922   03 Jun 2027 17:03:06.876           123.954                Irkutsk         15494.250
       113   03 Jun 2027 17:03:14.723   03 Jun 2027 17:06:09.379           174.656                Novosib         21832.000
       114   03 Jun 2027 17:16:10.064   03 Jun 2027 17:17:41.311            91.247                Sumatra         11405.875
       115   03 Jun 2027 18:43:28.348   03 Jun 2027 18:44:45.530            77.182                Novosib          9647.750
       116   03 Jun 2027 18:46:36.956   03 Jun 2027 18:48:47.868           130.912                  Delhi         16364.000
       117   03 Jun 2027 18:52:00.575   03 Jun 2027 18:53:54.885           114.310                  Delhi         14288.750
       118   03 Jun 2027 20:17:00.459   03 Jun 2027 20:19:33.196           152.737                 Moscow         15184.375
       119   04 Jun 2027 04:11:13.743   04 Jun 2027 04:12:17.481            63.738                Novosib          7967.250
       120   04 Jun 2027 04:12:23.163   04 Jun 2027 04:15:52.151           208.988              Murmansk2         26123.500
       121   04 Jun 2027 05:20:41.374   04 Jun 2027 05:22:34.764           113.390                Sumatra         14173.750
       122   04 Jun 2027 05:31:35.616   04 Jun 2027 05:34:14.247           158.631                  Delhi         19828.875
       123   04 Jun 2027 05:46:58.681   04 Jun 2027 05:48:43.247           104.566                 Moscow         13070.750
       124   04 Jun 2027 05:48:47.421   04 Jun 2027 05:52:01.289           193.868                Norilsk         24233.500
       125   04 Jun 2027 05:52:20.410   04 Jun 2027 05:54:16.228           115.818              Murmansk2         14477.250
       126   04 Jun 2027 07:12:09.128   04 Jun 2027 07:17:33.463           324.335                  Delhi         40541.875
       127   04 Jun 2027 07:17:48.436   04 Jun 2027 07:18:54.442            66.006                Irkutsk          8250.750
       128   04 Jun 2027 07:22:56.954   04 Jun 2027 07:23:48.272            51.318              Murmansk2          6414.750
       129   04 Jun 2027 07:23:49.085   04 Jun 2027 07:24:15.387            26.302                Novosib          3287.750
       130   04 Jun 2027 07:24:15.720   04 Jun 2027 07:28:01.014           225.294                Norilsk         28161.750
       131   04 Jun 2027 07:28:14.205   04 Jun 2027 07:29:45.318            91.113              Murmansk1         11389.125
       132   04 Jun 2027 08:59:16.225   04 Jun 2027 09:00:24.718            68.493                Norilsk          8561.625
       133   04 Jun 2027 09:00:47.284   04 Jun 2027 09:05:36.844           289.560              Murmansk2         36195.000
       134   04 Jun 2027 10:12:20.706   04 Jun 2027 10:13:34.458            73.752               CapeTown          9219.000
       135   04 Jun 2027 10:32:22.752   04 Jun 2027 10:34:12.162           109.410              Murmansk1         13676.250
       136   04 Jun 2027 10:34:36.506   04 Jun 2027 10:37:41.951           185.445                 Moscow         23180.625
       137   04 Jun 2027 10:37:54.080   04 Jun 2027 10:40:23.996           149.916              Murmansk2         18739.500
       138   04 Jun 2027 10:40:23.996   04 Jun 2027 10:41:34.902            70.906              Murmansk1          8863.250
       139   04 Jun 2027 10:43:53.699   04 Jun 2027 10:52:38.707           525.008                Anadyr2         65626.000
       140   04 Jun 2027 11:41:51.582   04 Jun 2027 11:51:21.977           570.395               CapeTown         71299.375
       141   04 Jun 2027 12:08:30.729   04 Jun 2027 12:14:19.295           348.566              Murmansk1         43570.750
       142   04 Jun 2027 12:14:19.295   04 Jun 2027 12:17:20.103           180.808              Murmansk2         22601.000
       143   04 Jun 2027 12:19:18.823   04 Jun 2027 12:19:57.500            38.677                Anadyr2          4834.625
       144   04 Jun 2027 12:23:07.970   04 Jun 2027 12:26:51.263           223.293               Magadan2         27911.625
       145   04 Jun 2027 13:57:37.105   04 Jun 2027 13:58:52.369            75.264               Magadan1          9408.000
       146   04 Jun 2027 13:59:56.729   04 Jun 2027 14:00:48.348            51.619               Magadan2          6452.375
       147   04 Jun 2027 14:05:25.619   04 Jun 2027 14:07:04.913            99.294               Magadan1         12411.750
       148   04 Jun 2027 15:39:18.236   04 Jun 2027 15:42:24.392           186.156                Irkutsk         23269.500
       149   04 Jun 2027 16:27:03.677   04 Jun 2027 16:28:12.082            68.405            RioGallegos          8550.625
       150   04 Jun 2027 17:12:58.835   04 Jun 2027 17:14:38.467            99.632                Irkutsk         12454.000
       151   04 Jun 2027 17:15:33.228   04 Jun 2027 17:18:00.859           147.631                Novosib         18453.875
       152   04 Jun 2027 17:19:10.377   04 Jun 2027 17:22:03.939           173.562                Novosib         21695.250
       153   04 Jun 2027 18:52:29.922   04 Jun 2027 18:53:29.009            59.087                Novosib          7385.875
       154   04 Jun 2027 18:56:18.457   04 Jun 2027 18:58:29.969           131.512                  Delhi         16439.000
       155   04 Jun 2027 19:04:37.067   04 Jun 2027 19:05:47.052            69.985                  Delhi          8748.125
       156   04 Jun 2027 20:27:25.907   04 Jun 2027 20:29:16.010           110.103                 Moscow         13762.875
       157   04 Jun 2027 22:02:26.717   04 Jun 2027 22:03:48.659            81.942              Murmansk1           457.250
       158   05 Jun 2027 04:23:15.306   05 Jun 2027 04:27:47.086           271.780                Norilsk         33972.500
       159   05 Jun 2027 05:32:39.103   05 Jun 2027 05:35:20.741           161.638                Sumatra         20204.750
       160   05 Jun 2027 05:48:43.622   05 Jun 2027 05:50:36.050           112.428                  Delhi         14053.500
       161   05 Jun 2027 05:58:23.631   05 Jun 2027 05:59:00.549            36.918                 Moscow          4614.750
       162   05 Jun 2027 05:59:13.880   05 Jun 2027 06:00:49.616            95.736                 Moscow         11967.000
       163   05 Jun 2027 06:00:54.747   05 Jun 2027 06:04:03.121           188.374                Norilsk         23546.750
       164   05 Jun 2027 06:04:20.497   05 Jun 2027 06:06:12.321           111.824              Murmansk1         13978.000
       165   05 Jun 2027 07:23:48.910   05 Jun 2027 07:29:27.424           338.514                  Delhi         42314.250
       166   05 Jun 2027 07:29:37.055   05 Jun 2027 07:30:01.631            24.576                 Moscow          3072.000
       167   05 Jun 2027 07:30:26.779   05 Jun 2027 07:30:49.327            22.548                Norilsk          2818.500
       168   05 Jun 2027 07:34:42.103   05 Jun 2027 07:35:29.773            47.670              Murmansk1          5958.750
       169   05 Jun 2027 07:35:45.979   05 Jun 2027 07:37:05.449            79.470                Norilsk          9933.750
       170   05 Jun 2027 07:37:13.499   05 Jun 2027 07:38:17.401            63.902              Murmansk2          7987.750
       171   05 Jun 2027 07:38:17.401   05 Jun 2027 07:41:45.237           207.836              Murmansk1         25979.500
       172   05 Jun 2027 09:04:18.975   05 Jun 2027 09:04:33.657            14.682                 Moscow          1835.250
       173   05 Jun 2027 09:11:15.775   05 Jun 2027 09:12:08.350            52.575              Murmansk2          6571.875
       174   05 Jun 2027 09:12:10.261   05 Jun 2027 09:14:09.266           119.005                 Moscow         14875.625
       175   05 Jun 2027 09:14:32.480   05 Jun 2027 09:17:38.381           185.901              Murmansk2         23237.625
       176   05 Jun 2027 10:22:30.497   05 Jun 2027 10:26:15.298           224.801               CapeTown         28100.125
       177   05 Jun 2027 10:44:00.647   05 Jun 2027 10:45:52.320           111.673              Murmansk1         13959.125
       178   05 Jun 2027 10:45:52.320   05 Jun 2027 10:52:22.599           390.279              Murmansk2         48784.875
       179   05 Jun 2027 10:52:22.599   05 Jun 2027 10:53:36.182            73.583              Murmansk1          9197.875
       180   05 Jun 2027 10:55:47.125   05 Jun 2027 11:05:15.195           568.070                Anadyr2         71008.750
       181   05 Jun 2027 11:57:05.379   05 Jun 2027 12:03:12.323           366.944               CapeTown         45868.000
       182   05 Jun 2027 12:21:07.464   05 Jun 2027 12:26:13.783           306.319              Murmansk2         38289.875
       183   05 Jun 2027 12:26:13.783   05 Jun 2027 12:26:38.148            24.365              Murmansk1          3045.625
       184   05 Jun 2027 12:34:45.389   05 Jun 2027 12:38:44.296           238.907               Magadan2         29863.375
       185   05 Jun 2027 14:09:35.440   05 Jun 2027 14:10:39.794            64.354               Magadan2          8044.250
       186   05 Jun 2027 14:12:55.781   05 Jun 2027 14:14:15.034            79.253               Magadan1          9906.625
       187   05 Jun 2027 15:05:34.385   05 Jun 2027 15:06:21.154            46.769            RioGallegos          5846.125
       188   05 Jun 2027 15:50:39.168   05 Jun 2027 15:54:13.389           214.221                Irkutsk         26777.625
       189   05 Jun 2027 15:55:15.966   05 Jun 2027 15:58:01.361           165.395                Irkutsk         20674.375
       190   05 Jun 2027 16:09:58.954   05 Jun 2027 16:12:20.458           141.504                Sumatra         17688.000
       191   05 Jun 2027 17:26:02.777   05 Jun 2027 17:27:48.034           105.257                Novosib         13157.125
       192   05 Jun 2027 17:38:40.060   05 Jun 2027 17:40:23.104           103.044                Sumatra         12880.500
       193   05 Jun 2027 19:05:36.874   05 Jun 2027 19:05:54.065            17.191                Novosib          2148.875
       194   05 Jun 2027 19:08:11.405   05 Jun 2027 19:11:10.592           179.187                  Delhi         22398.375
       195   05 Jun 2027 19:15:51.579   05 Jun 2027 19:17:42.937           111.358                  Delhi         13919.750
       196   05 Jun 2027 20:41:05.980   05 Jun 2027 20:41:28.069            22.089                 Moscow          2761.125
       197   05 Jun 2027 22:14:18.312   05 Jun 2027 22:15:12.314            54.002                 Moscow          3379.000
       198   06 Jun 2027 04:35:16.715   06 Jun 2027 04:39:35.575           258.860                Norilsk         32357.500
       199   06 Jun 2027 05:44:42.418   06 Jun 2027 05:46:36.491           114.073                Sumatra         14259.125
       200   06 Jun 2027 05:55:21.127   06 Jun 2027 05:56:05.278            44.151                  Delhi          5518.875
       201   06 Jun 2027 05:58:36.196   06 Jun 2027 06:00:51.245           135.049                  Delhi         16881.125
       202   06 Jun 2027 06:09:45.767   06 Jun 2027 06:10:11.519            25.752              Murmansk1          3219.000
       203   06 Jun 2027 06:11:02.987   06 Jun 2027 06:12:52.955           109.968                 Moscow         13746.000
       204   06 Jun 2027 06:13:02.881   06 Jun 2027 06:16:05.003           182.122                Norilsk         22765.250
       205   06 Jun 2027 06:16:08.226   06 Jun 2027 06:18:09.029           120.803              Murmansk2         15100.375
       206   06 Jun 2027 07:35:20.970   06 Jun 2027 07:41:17.412           356.442                  Delhi         44555.250
       207   06 Jun 2027 07:41:18.591   06 Jun 2027 07:42:14.883            56.292                Novosib          7036.500
       208   06 Jun 2027 07:46:48.465   06 Jun 2027 07:47:19.843            31.378              Murmansk2          3922.250
       209   06 Jun 2027 07:47:23.190   06 Jun 2027 07:47:35.231            12.041                 Moscow          1505.125
       210   06 Jun 2027 07:47:37.895   06 Jun 2027 07:49:02.405            84.510                Norilsk         10563.750
       211   06 Jun 2027 07:49:12.436   06 Jun 2027 07:53:45.463           273.027              Murmansk2         34128.375
       212   06 Jun 2027 09:16:34.948   06 Jun 2027 09:16:52.018            17.070                 Moscow          2133.750
       213   06 Jun 2027 09:21:54.343   06 Jun 2027 09:26:10.060           255.717                 Moscow         31964.625
       214   06 Jun 2027 09:26:26.805   06 Jun 2027 09:29:39.995           193.190              Murmansk1         24148.750
       215   06 Jun 2027 10:31:20.008   06 Jun 2027 10:38:46.056           446.048               CapeTown         55756.000
       216   06 Jun 2027 10:56:25.987   06 Jun 2027 10:57:18.508            52.521              Murmansk1          6565.125
       217   06 Jun 2027 10:57:21.520   06 Jun 2027 11:01:25.830           244.310                 Moscow         30538.750
       218   06 Jun 2027 11:01:28.962   06 Jun 2027 11:05:37.261           248.299              Murmansk2         31037.375
       219   06 Jun 2027 11:07:47.496   06 Jun 2027 11:15:57.847           490.351                Anadyr2         61293.875
       220   06 Jun 2027 12:46:29.567   06 Jun 2027 12:47:38.908            69.341               Magadan1          8667.625
       221   06 Jun 2027 12:48:18.711   06 Jun 2027 12:50:00.617           101.906               Magadan2         12738.250
       222   06 Jun 2027 12:52:01.214   06 Jun 2027 12:55:14.874           193.660               Magadan1         24207.500
       223   06 Jun 2027 15:15:37.375   06 Jun 2027 15:18:34.349           176.974            RioGallegos         22121.750
       224   06 Jun 2027 16:02:13.448   06 Jun 2027 16:03:56.691           103.243                Irkutsk         12905.375
       225   06 Jun 2027 16:07:45.084   06 Jun 2027 16:09:15.920            90.836                Irkutsk         11354.500
       226   06 Jun 2027 16:17:14.712   06 Jun 2027 16:19:53.812           159.100                Sumatra         19887.500
       227   06 Jun 2027 17:41:49.739   06 Jun 2027 17:44:00.886           131.147                Novosib         16393.375
       228   06 Jun 2027 17:47:49.291   06 Jun 2027 17:49:45.034           115.743                  Delhi         14467.875
       229   06 Jun 2027 19:20:07.998   06 Jun 2027 19:20:57.262            49.264                  Delhi          6158.000
       230   06 Jun 2027 19:21:15.748   06 Jun 2027 19:21:31.481            15.733                  Delhi          1966.625
       231   06 Jun 2027 20:47:15.683   06 Jun 2027 20:47:57.143            41.460              Murmansk1          5182.500
       232   06 Jun 2027 20:50:59.717   06 Jun 2027 20:51:29.353            29.636                 Moscow          3704.500
       233   06 Jun 2027 20:53:36.842   06 Jun 2027 20:55:17.739           100.897                 Moscow         12612.125
       234   06 Jun 2027 22:50:11.448   06 Jun 2027 22:50:46.140            34.692               CapeTown          3296.750
       235   07 Jun 2027 03:11:13.182   07 Jun 2027 03:20:39.228           566.046              Murmansk1         70755.750
       236   07 Jun 2027 03:46:07.081   07 Jun 2027 03:51:44.830           337.749            RioGallegos         42218.625
       237   07 Jun 2027 04:22:48.613   07 Jun 2027 04:25:46.880           178.267                Sumatra         22283.375
       238   07 Jun 2027 04:46:54.614   07 Jun 2027 04:47:12.119            17.505              Murmansk2          2188.125
       239   07 Jun 2027 04:47:18.264   07 Jun 2027 04:52:08.459           290.195                Norilsk         36274.375
       240   07 Jun 2027 04:52:16.463   07 Jun 2027 04:55:00.761           164.298              Murmansk1         20537.250
       241   07 Jun 2027 06:02:46.237   07 Jun 2027 06:09:02.964           376.727                Sumatra         47090.875
       242   07 Jun 2027 06:11:45.998   07 Jun 2027 06:14:23.703           157.705                Novosib         19713.125
       243   07 Jun 2027 06:15:04.364   07 Jun 2027 06:18:47.202           222.838                Novosib         27854.750
       244   07 Jun 2027 06:21:33.298   07 Jun 2027 06:22:04.098            30.800                Irkutsk          3850.000
       245   07 Jun 2027 06:23:05.969   07 Jun 2027 06:24:24.497            78.528                 Moscow          9816.000
       246   07 Jun 2027 06:24:51.859   07 Jun 2027 06:28:06.913           195.054                Norilsk         24381.750
       247   07 Jun 2027 06:28:08.272   07 Jun 2027 06:30:06.316           118.044              Murmansk1         14755.500
       248   07 Jun 2027 07:49:01.585   07 Jun 2027 07:53:02.732           241.147                  Delhi         30143.375
       249   07 Jun 2027 07:53:17.898   07 Jun 2027 07:54:04.877            46.979                Novosib          5872.375
       250   07 Jun 2027 07:58:42.418   07 Jun 2027 07:59:29.351            46.933              Murmansk2          5866.625
       251   07 Jun 2027 07:59:46.984   07 Jun 2027 07:59:52.811             5.827                Novosib           728.375
       252   07 Jun 2027 08:00:54.499   07 Jun 2027 08:05:45.967           291.468              Murmansk1         36433.500
       253   07 Jun 2027 09:28:35.611   07 Jun 2027 09:29:27.143            51.532                 Moscow          6441.500
       254   07 Jun 2027 09:33:19.863   07 Jun 2027 09:35:49.938           150.075              Murmansk2         18759.375
       255   07 Jun 2027 09:35:59.178   07 Jun 2027 09:38:36.105           156.927                Norilsk         19615.875
       256   07 Jun 2027 09:38:52.131   07 Jun 2027 09:41:41.657           169.526              Murmansk2         21190.750
       257   07 Jun 2027 10:46:46.746   07 Jun 2027 10:51:08.971           262.225               CapeTown         32778.125
       258   07 Jun 2027 11:08:27.653   07 Jun 2027 11:09:19.712            52.059              Murmansk1          6507.375
       259   07 Jun 2027 11:09:29.815   07 Jun 2027 11:13:13.647           223.832                 Moscow         27979.000
       260   07 Jun 2027 11:13:16.812   07 Jun 2027 11:17:38.074           261.262              Murmansk1         32657.750
       261   07 Jun 2027 11:19:38.875   07 Jun 2027 11:21:13.941            95.066                Anadyr2         11883.250
       262   07 Jun 2027 11:23:40.506   07 Jun 2027 11:24:13.751            33.245                Anadyr2          4155.625
       263   07 Jun 2027 12:58:17.973   07 Jun 2027 13:04:26.181           368.208               Magadan1         46026.000
       264   07 Jun 2027 15:26:53.737   07 Jun 2027 15:30:22.525           208.788            RioGallegos         26098.500
       265   07 Jun 2027 16:16:07.729   07 Jun 2027 16:17:58.966           111.237                Irkutsk         13904.625
       266   07 Jun 2027 16:28:26.690   07 Jun 2027 16:31:41.507           194.817                Sumatra         24352.125
       267   07 Jun 2027 17:49:26.992   07 Jun 2027 17:50:05.781            38.789                Novosib          4848.625
       268   07 Jun 2027 17:52:07.516   07 Jun 2027 17:53:00.704            53.188                Novosib          6648.500
       269   07 Jun 2027 17:58:37.335   07 Jun 2027 18:01:27.700           170.365                  Delhi         21295.625
       270   07 Jun 2027 19:32:07.969   07 Jun 2027 19:33:07.561            59.592                  Delhi          7449.000
       271   07 Jun 2027 21:04:01.911   07 Jun 2027 21:05:42.503           100.592                 Moscow         12574.000
       272   07 Jun 2027 21:28:31.967   07 Jun 2027 21:30:30.078           118.111               CapeTown         14763.875
       273   08 Jun 2027 03:22:05.192   08 Jun 2027 03:22:17.737            12.545                Irkutsk          1568.125
       274   08 Jun 2027 03:23:08.584   08 Jun 2027 03:23:35.656            27.072              Murmansk1          3384.000
       275   08 Jun 2027 03:23:38.336   08 Jun 2027 03:24:00.515            22.179                Novosib          2772.375
       276   08 Jun 2027 03:24:22.507   08 Jun 2027 03:28:21.703           239.196                Norilsk         29899.500
       277   08 Jun 2027 03:28:38.807   08 Jun 2027 03:28:50.076            11.269              Murmansk1          1408.625
       278   08 Jun 2027 04:34:08.084   08 Jun 2027 04:35:46.909            98.825                Sumatra         12353.125
       279   08 Jun 2027 04:40:38.602   08 Jun 2027 04:41:58.608            80.006                Sumatra         10000.750
       280   08 Jun 2027 04:59:00.097   08 Jun 2027 04:59:34.693            34.596              Murmansk1          4324.500
       281   08 Jun 2027 04:59:36.752   08 Jun 2027 05:04:09.674           272.922                Norilsk         34115.250
       282   08 Jun 2027 05:04:44.832   08 Jun 2027 05:06:53.321           128.489              Murmansk2         16061.125
       283   08 Jun 2027 06:16:49.516   08 Jun 2027 06:20:43.725           234.209                Sumatra         29276.125
       284   08 Jun 2027 06:23:50.381   08 Jun 2027 06:30:34.243           403.862                Novosib         50482.750
       285   08 Jun 2027 06:34:30.836   08 Jun 2027 06:35:00.267            29.431                 Moscow          3678.875
       286   08 Jun 2027 06:35:01.572   08 Jun 2027 06:35:42.081            40.509              Murmansk1          5063.625
       287   08 Jun 2027 06:36:01.063   08 Jun 2027 06:36:39.334            38.271                Novosib          4783.875
       288   08 Jun 2027 06:37:06.160   08 Jun 2027 06:42:04.143           297.983              Murmansk2         37247.875
       289   08 Jun 2027 08:00:57.711   08 Jun 2027 08:01:18.114            20.403                  Delhi          2550.375
       290   08 Jun 2027 08:02:20.396   08 Jun 2027 08:06:46.821           266.425                Novosib         33303.125
       291   08 Jun 2027 08:10:55.723   08 Jun 2027 08:11:08.653            12.930                Novosib          1616.250
       292   08 Jun 2027 08:11:16.854   08 Jun 2027 08:11:28.956            12.102              Murmansk1          1512.750
       293   08 Jun 2027 08:11:29.816   08 Jun 2027 08:12:57.940            88.124                Norilsk         11015.500
       294   08 Jun 2027 08:13:11.472   08 Jun 2027 08:17:46.717           275.245              Murmansk2         34405.625
       295   08 Jun 2027 09:39:57.371   08 Jun 2027 09:40:15.505            18.134                 Moscow          2266.750
       296   08 Jun 2027 09:44:09.718   08 Jun 2027 09:47:25.190           195.472              Murmansk2         24434.000
       297   08 Jun 2027 09:47:26.296   08 Jun 2027 09:47:52.339            26.043                Norilsk          3255.375
       298   08 Jun 2027 09:48:09.662   08 Jun 2027 09:50:09.525           119.863                 Moscow         14982.875
       299   08 Jun 2027 09:50:13.172   08 Jun 2027 09:53:43.340           210.168              Murmansk2         26271.000
       300   08 Jun 2027 09:59:16.914   08 Jun 2027 10:01:19.659           122.745                Anadyr2         15343.125
       301   08 Jun 2027 10:58:47.146   08 Jun 2027 11:03:25.329           278.183               CapeTown         34772.875
       302   08 Jun 2027 11:21:05.608   08 Jun 2027 11:21:46.017            40.409                 Moscow          5051.125
       303   08 Jun 2027 11:24:42.805   08 Jun 2027 11:27:17.873           155.068              Murmansk2         19383.500
       304   08 Jun 2027 13:10:09.290   08 Jun 2027 13:14:32.512           263.222               Magadan1         32902.750
       305   08 Jun 2027 13:16:47.434   08 Jun 2027 13:20:27.581           220.147               Magadan2         27518.375
       306   08 Jun 2027 15:38:25.698   08 Jun 2027 15:42:13.638           227.940            RioGallegos         28492.500
       307   08 Jun 2027 16:41:41.184   08 Jun 2027 16:43:35.160           113.976                Sumatra         14247.000
       308   08 Jun 2027 16:46:41.720   08 Jun 2027 16:47:10.454            28.734                Sumatra          3591.750
       309   08 Jun 2027 18:01:19.007   08 Jun 2027 18:02:37.192            78.185                Novosib          9773.125
       310   08 Jun 2027 18:04:12.550   08 Jun 2027 18:04:14.276             1.726                Novosib           215.750
       311   08 Jun 2027 18:07:59.201   08 Jun 2027 18:10:29.981           150.780                Novosib         18847.500
       312   08 Jun 2027 18:11:27.183   08 Jun 2027 18:13:15.527           108.344                  Delhi         13543.000
       313   08 Jun 2027 21:13:30.474   08 Jun 2027 21:15:56.828           146.354              Murmansk1         18294.250
       314   08 Jun 2027 21:17:45.176   08 Jun 2027 21:19:13.875            88.699                 Moscow         11087.375
       315   08 Jun 2027 21:44:05.608   08 Jun 2027 21:46:12.041           126.433               CapeTown          9144.624
       316   09 Jun 2027 03:35:26.817   09 Jun 2027 03:36:39.628            72.811              Murmansk1          9101.375
       317   09 Jun 2027 04:45:38.752   09 Jun 2027 04:47:11.892            93.140                Sumatra         11642.500
       318   09 Jun 2027 05:11:21.718   09 Jun 2027 05:16:11.069           289.351                Norilsk         36168.875
       319   09 Jun 2027 05:16:32.288   09 Jun 2027 05:18:46.626           134.338              Murmansk2         16792.250
       320   09 Jun 2027 06:35:57.815   09 Jun 2027 06:37:41.728           103.913                Novosib         12989.125
       321   09 Jun 2027 06:38:42.675   09 Jun 2027 06:41:45.784           183.109                  Delhi         22888.625
       322   09 Jun 2027 06:46:48.326   09 Jun 2027 06:47:48.165            59.839                 Moscow          7479.875
       323   09 Jun 2027 06:47:48.633   09 Jun 2027 06:48:38.513            49.880                Novosib          6235.000
       324   09 Jun 2027 06:49:05.740   09 Jun 2027 06:50:36.955            91.215              Murmansk2         11401.875
       325   09 Jun 2027 06:50:36.955   09 Jun 2027 06:54:02.466           205.511              Murmansk1         25688.875
       326   09 Jun 2027 08:12:50.152   09 Jun 2027 08:13:31.476            41.324                  Delhi          5165.500
       327   09 Jun 2027 08:15:21.317   09 Jun 2027 08:18:42.586           201.269                Novosib         25158.625
       328   09 Jun 2027 08:23:05.495   09 Jun 2027 08:24:06.450            60.955                Norilsk          7619.375
       329   09 Jun 2027 08:24:57.269   09 Jun 2027 08:29:47.683           290.414              Murmansk2         36301.750
       330   09 Jun 2027 09:52:34.765   09 Jun 2027 09:53:02.420            27.655                 Moscow          3456.875
       331   09 Jun 2027 09:56:33.182   09 Jun 2027 09:59:28.445           175.263              Murmansk2         21907.875
       332   09 Jun 2027 09:59:44.981   09 Jun 2027 10:02:08.007           143.026                 Moscow         17878.250
       333   09 Jun 2027 10:02:47.267   09 Jun 2027 10:05:45.012           177.745              Murmansk2         22218.125
       334   09 Jun 2027 10:08:48.307   09 Jun 2027 10:14:29.776           341.469                Anadyr1         42683.625
       335   09 Jun 2027 11:10:42.593   09 Jun 2027 11:15:35.888           293.295               CapeTown         36661.875
       336   09 Jun 2027 11:32:57.837   09 Jun 2027 11:33:58.819            60.982                 Moscow          7622.750
       337   09 Jun 2027 11:36:40.772   09 Jun 2027 11:38:40.004           119.232              Murmansk1         14904.000
       338   09 Jun 2027 11:38:40.004   09 Jun 2027 11:41:38.587           178.583              Murmansk2         22322.875
       339   09 Jun 2027 11:48:54.588   09 Jun 2027 11:55:04.179           369.591                Anadyr2         46198.875
       340   09 Jun 2027 13:22:02.761   09 Jun 2027 13:24:53.130           170.369               Magadan2         21296.125
       341   09 Jun 2027 13:28:32.366   09 Jun 2027 13:29:05.281            32.915               Magadan2          4114.375
       342   09 Jun 2027 14:57:38.613   09 Jun 2027 14:58:14.142            35.529               Magadan1          4441.125
       343   09 Jun 2027 15:50:05.787   09 Jun 2027 15:54:07.045           241.258            RioGallegos         30157.250
       344   09 Jun 2027 15:56:16.993   09 Jun 2027 15:56:27.824            10.831            RioGallegos          1353.875
       345   09 Jun 2027 16:37:31.025   09 Jun 2027 16:40:19.311           168.286                Irkutsk         21035.750
       346   09 Jun 2027 16:41:49.783   09 Jun 2027 16:41:51.587             1.804                Irkutsk           225.500
       347   09 Jun 2027 16:51:27.361   09 Jun 2027 16:55:34.443           247.082                Sumatra         30885.250
       348   09 Jun 2027 18:13:13.020   09 Jun 2027 18:15:03.562           110.542                Novosib         13817.750
       349   09 Jun 2027 18:22:31.517   09 Jun 2027 18:25:07.627           156.110                  Delhi         19513.750
       350   09 Jun 2027 18:28:03.075   09 Jun 2027 18:28:32.306            29.231                  Delhi          3653.875
       351   09 Jun 2027 19:55:35.925   09 Jun 2027 19:56:08.782            32.857                 Moscow          4107.125
       352   09 Jun 2027 21:28:52.083   09 Jun 2027 21:29:44.957            52.874                 Moscow          6609.250
       353   09 Jun 2027 21:35:47.495   09 Jun 2027 21:38:41.895           174.400                 Moscow         21800.000
       354   09 Jun 2027 22:00:38.745   09 Jun 2027 22:02:47.175           128.430               CapeTown          1962.750
       355   10 Jun 2027 03:47:26.361   10 Jun 2027 03:48:18.363            52.002                Novosib          6500.250
       356   10 Jun 2027 03:48:30.328   10 Jun 2027 03:50:36.792           126.464              Murmansk1         15808.000
       357   10 Jun 2027 04:57:17.850   10 Jun 2027 04:57:33.813            15.963                Sumatra          1995.375
       358   10 Jun 2027 04:59:14.035   10 Jun 2027 05:01:36.182           142.147                Sumatra         17768.375
       359   10 Jun 2027 05:23:07.222   10 Jun 2027 05:23:11.257             4.035                Irkutsk           504.375
       360   10 Jun 2027 05:23:13.811   10 Jun 2027 05:24:45.053            91.242                Novosib         11405.250
       361   10 Jun 2027 05:24:52.232   10 Jun 2027 05:28:12.604           200.372                Norilsk         25046.500
       362   10 Jun 2027 05:28:20.073   10 Jun 2027 05:30:40.668           140.595              Murmansk2         17574.375
       363   10 Jun 2027 06:48:08.449   10 Jun 2027 06:50:11.149           122.700                Novosib         15337.500
       364   10 Jun 2027 06:50:38.214   10 Jun 2027 06:53:49.862           191.648                  Delhi         23956.000
       365   10 Jun 2027 06:53:57.805   10 Jun 2027 06:55:11.150            73.345                Irkutsk          9168.125
       366   10 Jun 2027 06:58:40.967   10 Jun 2027 06:59:14.155            33.188                Norilsk          4148.500
       367   10 Jun 2027 06:59:31.867   10 Jun 2027 07:00:36.797            64.930                Novosib          8116.250
       368   10 Jun 2027 07:01:05.670   10 Jun 2027 07:02:48.921           103.251              Murmansk1         12906.375
       369   10 Jun 2027 07:02:48.921   10 Jun 2027 07:06:01.246           192.325              Murmansk2         24040.625
       370   10 Jun 2027 08:27:58.592   10 Jun 2027 08:30:16.240           137.648                Novosib         17206.000
       371   10 Jun 2027 08:34:29.933   10 Jun 2027 08:35:11.440            41.507                 Moscow          5188.375
       372   10 Jun 2027 08:35:40.328   10 Jun 2027 08:36:55.409            75.081                Norilsk          9385.125
       373   10 Jun 2027 08:36:58.825   10 Jun 2027 08:41:48.835           290.010              Murmansk2         36251.250
       374   10 Jun 2027 09:45:34.974   10 Jun 2027 09:47:32.014           117.040               CapeTown         14630.000
       375   10 Jun 2027 10:04:33.054   10 Jun 2027 10:05:16.064            43.010                 Moscow          5376.250
       376   10 Jun 2027 10:08:34.459   10 Jun 2027 10:11:00.356           145.897              Murmansk1         18237.125
       377   10 Jun 2027 10:11:00.665   10 Jun 2027 10:14:05.480           184.815                 Moscow         23101.875
       378   10 Jun 2027 10:14:36.137   10 Jun 2027 10:16:43.415           127.278              Murmansk1         15909.750
       379   10 Jun 2027 10:16:43.415   10 Jun 2027 10:17:46.641            63.226              Murmansk2          7903.250
       380   10 Jun 2027 10:20:29.849   10 Jun 2027 10:27:25.433           415.584                Anadyr1         51948.000
       381   10 Jun 2027 11:22:33.063   10 Jun 2027 11:27:41.135           308.072               CapeTown         38509.000
       382   10 Jun 2027 11:44:47.547   10 Jun 2027 11:46:07.610            80.063                 Moscow         10007.875
       383   10 Jun 2027 11:48:37.556   10 Jun 2027 11:49:30.977            53.421              Murmansk2          6677.625
       384   10 Jun 2027 12:01:34.952   10 Jun 2027 12:01:38.470             3.518               Magadan2           439.750
       385   10 Jun 2027 13:33:57.880   10 Jun 2027 13:35:49.099           111.219               Magadan1         13902.375
       386   10 Jun 2027 13:38:29.617   10 Jun 2027 13:39:16.887            47.270               Magadan2          5908.750
       387   10 Jun 2027 13:41:19.967   10 Jun 2027 13:45:02.846           222.879               Magadan2         27859.875
       388   10 Jun 2027 16:01:51.052   10 Jun 2027 16:02:16.234            25.182            RioGallegos          3147.750
       389   10 Jun 2027 16:04:22.885   10 Jun 2027 16:07:48.273           205.388            RioGallegos         25673.500
       390   10 Jun 2027 16:49:23.278   10 Jun 2027 16:51:10.997           107.719                Irkutsk         13464.875
       391   10 Jun 2027 16:52:16.436   10 Jun 2027 16:54:35.262           138.826                Novosib         17353.250
       392   10 Jun 2027 17:03:10.063   10 Jun 2027 17:05:01.170           111.107                Sumatra         13888.375
       393   10 Jun 2027 18:25:08.627   10 Jun 2027 18:26:50.539           101.912                Novosib         12739.000
       394   10 Jun 2027 18:33:00.150   10 Jun 2027 18:35:16.893           136.743                  Delhi         17092.875
       395   10 Jun 2027 20:04:59.702   10 Jun 2027 20:07:56.864           177.162                 Moscow         22145.250
       396   10 Jun 2027 21:38:36.858   10 Jun 2027 21:39:52.432            75.574                 Moscow          9446.750
       397   10 Jun 2027 21:48:38.705   10 Jun 2027 21:50:57.654           138.949                 Moscow          5714.250
       398   11 Jun 2027 03:59:27.883   11 Jun 2027 04:04:20.535           292.652                Norilsk         36581.500
       399   11 Jun 2027 04:04:35.465   11 Jun 2027 04:05:18.251            42.786              Murmansk2          5348.250
       400   11 Jun 2027 05:09:03.882   11 Jun 2027 05:10:05.433            61.551                Sumatra          7693.875
       401   11 Jun 2027 05:11:50.777   11 Jun 2027 05:13:43.973           113.196                Sumatra         14149.500
       402   11 Jun 2027 05:34:56.950   11 Jun 2027 05:35:09.072            12.122                Irkutsk          1515.250
       403   11 Jun 2027 05:35:10.960   11 Jun 2027 05:36:26.290            75.330                 Moscow          9416.250
       404   11 Jun 2027 05:36:33.225   11 Jun 2027 05:36:47.931            14.706                Novosib          1838.250
       405   11 Jun 2027 05:36:56.466   11 Jun 2027 05:40:14.265           197.799                Norilsk         24724.875
       406   11 Jun 2027 05:40:25.877   11 Jun 2027 05:42:35.429           129.552              Murmansk2         16194.000
       407   11 Jun 2027 07:00:38.209   11 Jun 2027 07:05:50.652           312.443                  Delhi         39055.375
       408   11 Jun 2027 07:05:51.569   11 Jun 2027 07:07:10.628            79.059                Irkutsk          9882.375
       409   11 Jun 2027 07:10:51.291   11 Jun 2027 07:11:45.786            54.495              Murmansk2          6811.875
       410   11 Jun 2027 07:12:06.394   11 Jun 2027 07:16:14.188           247.794                Norilsk         30974.250
       411   11 Jun 2027 07:16:38.406   11 Jun 2027 07:18:00.445            82.039              Murmansk1         10254.875
       412   11 Jun 2027 08:47:30.657   11 Jun 2027 08:48:10.153            39.496                Norilsk          4937.000
       413   11 Jun 2027 08:48:11.539   11 Jun 2027 08:50:20.633           129.094                 Moscow         16136.750
       414   11 Jun 2027 08:50:28.596   11 Jun 2027 08:53:50.138           201.542              Murmansk1         25192.750
       415   11 Jun 2027 09:58:05.950   11 Jun 2027 10:00:54.606           168.656               CapeTown         21082.000
       416   11 Jun 2027 10:20:12.433   11 Jun 2027 10:22:51.284           158.851              Murmansk1         19856.375
       417   11 Jun 2027 10:23:06.632   11 Jun 2027 10:26:01.749           175.117                 Moscow         21889.625
       418   11 Jun 2027 10:26:23.415   11 Jun 2027 10:28:28.828           125.413              Murmansk2         15676.625
       419   11 Jun 2027 10:28:28.828   11 Jun 2027 10:29:48.192            79.364              Murmansk1          9920.500
       420   11 Jun 2027 10:32:17.272   11 Jun 2027 10:40:12.725           475.453                Anadyr2         59431.625
       421   11 Jun 2027 11:34:42.336   11 Jun 2027 11:39:41.334           298.998               CapeTown         37374.750
       422   11 Jun 2027 11:56:33.870   11 Jun 2027 11:58:54.254           140.384                 Moscow         17548.000
       423   11 Jun 2027 11:59:54.019   11 Jun 2027 12:05:36.887           342.868              Murmansk2         42858.500
       424   11 Jun 2027 12:07:33.509   11 Jun 2027 12:13:59.575           386.066                Anadyr1         48258.250
       425   11 Jun 2027 12:14:34.504   11 Jun 2027 12:15:03.384            28.880               Magadan1          3610.000
       426   11 Jun 2027 12:16:11.596   11 Jun 2027 12:16:37.462            25.866               Magadan2          3233.250
       427   11 Jun 2027 13:45:54.303   11 Jun 2027 13:47:24.049            89.746               Magadan2         11218.250
       428   11 Jun 2027 13:47:51.308   11 Jun 2027 13:50:29.188           157.880               Magadan1         19735.000
       429   11 Jun 2027 15:28:52.056   11 Jun 2027 15:31:15.211           143.155                Irkutsk         17894.375
       430   11 Jun 2027 16:13:39.982   11 Jun 2027 16:14:50.553            70.571            RioGallegos          8821.375
       431   11 Jun 2027 16:16:26.636   11 Jun 2027 16:19:22.136           175.500            RioGallegos         21937.500
       432   11 Jun 2027 17:03:07.620   11 Jun 2027 17:06:53.052           225.432                Novosib         28179.000
       433   11 Jun 2027 17:14:59.219   11 Jun 2027 17:16:25.989            86.770                Sumatra         10846.250
       434   11 Jun 2027 18:40:10.199   11 Jun 2027 18:41:42.858            92.659                Novosib         11582.375
       435   11 Jun 2027 18:44:44.143   11 Jun 2027 18:46:51.999           127.856                  Delhi         15982.000
       436   11 Jun 2027 18:49:02.707   11 Jun 2027 18:50:47.140           104.433                  Delhi         13054.125
       437   11 Jun 2027 20:16:00.817   11 Jun 2027 20:17:15.806            74.989                 Moscow          9373.625
       438   11 Jun 2027 20:19:47.878   11 Jun 2027 20:20:50.177            62.299                 Moscow          7787.375
       439   11 Jun 2027 21:58:33.299   11 Jun 2027 22:00:08.128            94.829                 Moscow          3958.750
       440   12 Jun 2027 04:11:28.923   12 Jun 2027 04:16:14.106           285.183                Norilsk         35647.875
       441   12 Jun 2027 05:20:56.011   12 Jun 2027 05:22:07.278            71.267                Sumatra          8908.375
       442   12 Jun 2027 05:31:49.611   12 Jun 2027 05:34:28.758           159.147                  Delhi         19893.375
       443   12 Jun 2027 05:47:16.252   12 Jun 2027 05:47:55.516            39.264                 Moscow          4908.000
       444   12 Jun 2027 05:47:56.814   12 Jun 2027 05:48:50.308            53.494                Novosib          6686.750
       445   12 Jun 2027 05:49:02.223   12 Jun 2027 05:52:16.025           193.802                Norilsk         24225.250
       446   12 Jun 2027 05:52:39.180   12 Jun 2027 05:54:30.876           111.696              Murmansk2         13962.000
       447   12 Jun 2027 07:12:23.667   12 Jun 2027 07:17:48.114           324.447                  Delhi         40555.875
       448   12 Jun 2027 07:18:03.637   12 Jun 2027 07:19:09.054            65.417                Irkutsk          8177.125
       449   12 Jun 2027 07:23:14.149   12 Jun 2027 07:23:46.523            32.374              Murmansk1          4046.750
       450   12 Jun 2027 07:23:55.215   12 Jun 2027 07:28:15.749           260.534                Norilsk         32566.750
       451   12 Jun 2027 07:28:28.897   12 Jun 2027 07:30:00.025            91.128              Murmansk2         11391.000
       452   12 Jun 2027 08:59:30.864   12 Jun 2027 09:00:40.706            69.842                Norilsk          8730.250
       453   12 Jun 2027 09:01:02.141   12 Jun 2027 09:05:51.579           289.438              Murmansk1         36179.750
       454   12 Jun 2027 10:12:35.739   12 Jun 2027 10:13:49.837            74.098               CapeTown          9262.250
       455   12 Jun 2027 10:32:37.387   12 Jun 2027 10:34:26.810           109.423              Murmansk2         13677.875
       456   12 Jun 2027 10:34:50.580   12 Jun 2027 10:37:56.580           186.000                 Moscow         23250.000
       457   12 Jun 2027 10:38:10.672   12 Jun 2027 10:40:21.642           130.970              Murmansk1         16371.250
       458   12 Jun 2027 10:40:21.642   12 Jun 2027 10:41:49.631            87.989              Murmansk2         10998.625
       459   12 Jun 2027 10:44:08.291   12 Jun 2027 10:52:53.974           525.683                Anadyr2         65710.375
       460   12 Jun 2027 11:42:06.245   12 Jun 2027 11:51:36.584           570.339               CapeTown         71292.375
       461   12 Jun 2027 12:08:45.930   12 Jun 2027 12:17:34.783           528.853              Murmansk2         66106.625
       462   12 Jun 2027 12:19:33.533   12 Jun 2027 12:22:09.355           155.822                Anadyr1         19477.750
       463   12 Jun 2027 12:23:22.276   12 Jun 2027 12:27:05.940           223.664               Magadan2         27958.000
       464   12 Jun 2027 13:57:51.782   12 Jun 2027 13:59:06.822            75.040               Magadan2          9380.000
       465   12 Jun 2027 14:02:29.298   12 Jun 2027 14:03:02.458            33.160               Magadan1          4145.000
       466   12 Jun 2027 15:39:32.219   12 Jun 2027 15:42:56.227           204.008                Irkutsk         25501.000
       467   12 Jun 2027 16:25:31.668   12 Jun 2027 16:27:18.751           107.083            RioGallegos         13385.375
       468   12 Jun 2027 16:28:27.040   12 Jun 2027 16:28:27.060             0.020            RioGallegos             2.500
       469   12 Jun 2027 17:13:13.494   12 Jun 2027 17:14:52.811            99.317                Irkutsk         12414.625
       470   12 Jun 2027 17:15:48.562   12 Jun 2027 17:18:15.553           146.991                Novosib         18373.875
       471   12 Jun 2027 17:19:25.718   12 Jun 2027 17:22:12.621           166.903                Novosib         20862.875
       472   12 Jun 2027 18:53:43.853   12 Jun 2027 18:56:08.798           144.945                Novosib         18118.125
       473   12 Jun 2027 18:56:33.037   12 Jun 2027 18:56:47.438            14.401                  Delhi          1800.125
       474   12 Jun 2027 18:58:44.487   12 Jun 2027 19:00:51.588           127.101                  Delhi         15887.625
       475   12 Jun 2027 20:27:40.362   12 Jun 2027 20:29:31.280           110.918                 Moscow         11874.125
       476   13 Jun 2027 04:23:30.154   13 Jun 2027 04:28:02.558           272.404                Norilsk         34050.500
       477   13 Jun 2027 05:32:53.820   13 Jun 2027 05:35:34.733           160.913                Sumatra         20114.125
       478   13 Jun 2027 05:43:05.351   13 Jun 2027 05:43:17.215            11.864                  Delhi          1483.000
       479   13 Jun 2027 05:44:59.077   13 Jun 2027 05:46:13.264            74.187                  Delhi          9273.375
       480   13 Jun 2027 05:58:40.377   13 Jun 2027 05:59:00.540            20.163                Irkutsk          2520.375
       481   13 Jun 2027 05:59:28.600   13 Jun 2027 06:01:04.132            95.532                 Moscow         11941.500
       482   13 Jun 2027 06:01:09.571   13 Jun 2027 06:04:17.858           188.287                Norilsk         23535.875
