uniorb/output/strategy_4/Drop/Drop_KinoSat_110308.txt

KinoSat_110308
-------------------------
    Access    *     Start Time (UTCG)     *     Stop Time (UTCG)  *   Duration (s)        *       Station  *  Data (Mbytes)
         1   01 Jun 2027 03:29:44.832   01 Jun 2027 03:30:05.910            21.078               Magadan2          2634.750
         2   01 Jun 2027 03:30:10.100   01 Jun 2027 03:31:55.966           105.866               Magadan1         13233.250
         3   01 Jun 2027 03:32:10.499   01 Jun 2027 03:32:38.405            27.906               Magadan1          3488.250
         4   01 Jun 2027 03:32:56.215   01 Jun 2027 03:33:43.057            46.842               Magadan1          5855.250
         5   01 Jun 2027 03:33:48.593   01 Jun 2027 03:34:21.621            33.028                Irkutsk          4128.500
         6   01 Jun 2027 03:34:23.562   01 Jun 2027 03:34:41.142            17.580               Magadan1          2197.500
         7   01 Jun 2027 03:34:47.828   01 Jun 2027 03:34:49.839             2.011                Irkutsk           251.375
         8   01 Jun 2027 04:47:19.223   01 Jun 2027 04:49:19.295           120.072                Sumatra         15009.000
         9   01 Jun 2027 05:07:14.068   01 Jun 2027 05:07:49.406            35.338                Norilsk          4417.250
        10   01 Jun 2027 05:07:58.655   01 Jun 2027 05:08:39.986            41.331                Norilsk          5166.375
        11   01 Jun 2027 05:08:51.497   01 Jun 2027 05:09:02.777            11.280              Murmansk1          1410.000
        12   01 Jun 2027 05:09:18.170   01 Jun 2027 05:10:06.426            48.256                Irkutsk          6032.000
        13   01 Jun 2027 05:10:11.540   01 Jun 2027 05:10:57.613            46.073                Irkutsk          5759.125
        14   01 Jun 2027 05:47:02.818   01 Jun 2027 05:47:34.040            31.222            RioGallegos          3902.750
        15   01 Jun 2027 05:50:01.869   01 Jun 2027 05:50:46.434            44.565            RioGallegos          5570.625
        16   01 Jun 2027 06:23:51.487   01 Jun 2027 06:24:19.683            28.196                Sumatra          3524.500
        17   01 Jun 2027 06:29:00.984   01 Jun 2027 06:29:45.465            44.481                  Delhi          5560.125
        18   01 Jun 2027 06:36:11.236   01 Jun 2027 06:36:39.272            28.036                  Delhi          3504.500
        19   01 Jun 2027 06:44:09.549   01 Jun 2027 06:44:32.049            22.500                Norilsk          2812.500
        20   01 Jun 2027 06:44:40.665   01 Jun 2027 06:45:16.003            35.338                Novosib          4417.250
        21   01 Jun 2027 06:45:24.125   01 Jun 2027 06:45:57.175            33.050                Norilsk          4131.250
        22   01 Jun 2027 06:46:03.450   01 Jun 2027 06:46:28.817            25.367                Norilsk          3170.875
        23   01 Jun 2027 06:47:26.271   01 Jun 2027 06:48:13.587            47.316              Murmansk1          5914.500
        24   01 Jun 2027 08:06:19.629   01 Jun 2027 08:06:41.087            21.458                  Delhi          2682.250
        25   01 Jun 2027 08:20:23.483   01 Jun 2027 08:21:28.571            65.088                Novosib          8136.000
        26   01 Jun 2027 08:21:45.354   01 Jun 2027 08:22:35.530            50.176              Murmansk2          6272.000
        27   01 Jun 2027 08:22:46.120   01 Jun 2027 08:23:07.982            21.862                Novosib          2732.750
        28   01 Jun 2027 08:23:11.501   01 Jun 2027 08:23:27.972            16.471                Norilsk          2058.875
        29   01 Jun 2027 08:23:29.874   01 Jun 2027 08:24:39.367            69.493                 Moscow          8686.625
        30   01 Jun 2027 10:11:04.851   01 Jun 2027 10:11:42.871            38.020                Anadyr2          4752.500
        31   01 Jun 2027 11:43:20.165   01 Jun 2027 11:47:59.206           279.041                Anadyr2         34880.125
        32   01 Jun 2027 13:21:48.139   01 Jun 2027 13:27:13.377           325.238               Magadan2         40654.750
        33   01 Jun 2027 15:49:51.324   01 Jun 2027 15:56:01.789           370.465            RioGallegos         46308.125
        34   01 Jun 2027 16:41:34.463   01 Jun 2027 16:41:36.806             2.343                Irkutsk           292.875
        35   01 Jun 2027 16:51:12.951   01 Jun 2027 16:55:19.588           246.637                Sumatra         30829.625
        36   01 Jun 2027 18:14:48.509   01 Jun 2027 18:15:06.955            18.446                Novosib          2305.750
        37   01 Jun 2027 18:21:08.044   01 Jun 2027 18:24:52.907           224.863                  Delhi         28107.875
        38   01 Jun 2027 19:53:41.539   01 Jun 2027 19:55:20.335            98.796                 Moscow          2464.874
        39   02 Jun 2027 03:46:23.140   02 Jun 2027 03:46:32.481             9.341               Magadan2          1167.625
        40   02 Jun 2027 03:47:08.240   02 Jun 2027 03:48:03.552            55.312                Novosib          6914.000
        41   02 Jun 2027 04:23:58.968   02 Jun 2027 04:24:30.798            31.830            RioGallegos          3978.750
        42   02 Jun 2027 04:24:58.476   02 Jun 2027 04:25:27.908            29.432            RioGallegos          3679.000
        43   02 Jun 2027 04:34:10.272   02 Jun 2027 04:34:33.697            23.425            RioGallegos          2928.125
        44   02 Jun 2027 04:57:03.389   02 Jun 2027 04:57:18.274            14.885                Sumatra          1860.625
        45   02 Jun 2027 04:58:59.540   02 Jun 2027 05:01:21.270           141.730                Sumatra         17716.250
        46   02 Jun 2027 05:19:55.608   02 Jun 2027 05:22:56.568           180.960                Irkutsk         22620.000
        47   02 Jun 2027 05:22:59.806   02 Jun 2027 05:23:24.096            24.290                Novosib          3036.250
        48   02 Jun 2027 05:23:56.105   02 Jun 2027 05:24:37.473            41.368                Norilsk          5171.000
        49   02 Jun 2027 05:24:48.635   02 Jun 2027 05:25:18.048            29.413              Murmansk1          3676.625
        50   02 Jun 2027 05:25:18.048   02 Jun 2027 05:26:06.904            48.856              Murmansk2          6107.000
        51   02 Jun 2027 05:26:17.336   02 Jun 2027 05:28:05.575           108.239              Murmansk2         13529.875
        52   02 Jun 2027 06:01:18.188   02 Jun 2027 06:02:06.889            48.701            RioGallegos          6087.625
        53   02 Jun 2027 06:03:14.038   02 Jun 2027 06:03:18.838             4.800            RioGallegos           600.000
        54   02 Jun 2027 06:05:36.251   02 Jun 2027 06:06:30.599            54.348            RioGallegos          6793.500
        55   02 Jun 2027 06:33:47.615   02 Jun 2027 06:36:02.396           134.781                Sumatra         16847.625
        56   02 Jun 2027 06:58:40.483   02 Jun 2027 07:01:04.690           144.207              Murmansk1         18025.875
        57   02 Jun 2027 07:01:12.840   02 Jun 2027 07:01:40.228            27.388                 Moscow          3423.500
        58   02 Jun 2027 07:02:34.356   02 Jun 2027 07:03:26.095            51.739              Murmansk1          6467.375
        59   02 Jun 2027 07:04:33.935   02 Jun 2027 07:05:39.336            65.401              Murmansk2          8175.125
        60   02 Jun 2027 08:19:10.030   02 Jun 2027 08:22:21.048           191.018                  Delhi         23877.250
        61   02 Jun 2027 08:27:43.032   02 Jun 2027 08:30:01.622           138.590                Novosib         17323.750
        62   02 Jun 2027 08:34:15.707   02 Jun 2027 08:34:51.470            35.763                 Moscow          4470.375
        63   02 Jun 2027 08:35:23.696   02 Jun 2027 08:38:57.244           213.548                Norilsk         26693.500
        64   02 Jun 2027 08:39:17.787   02 Jun 2027 08:41:34.109           136.322              Murmansk1         17040.250
        65   02 Jun 2027 10:01:35.144   02 Jun 2027 10:07:07.200           332.056                 Moscow         41507.000
        66   02 Jun 2027 10:08:19.825   02 Jun 2027 10:08:23.607             3.782              Murmansk2           472.750
        67   02 Jun 2027 10:08:30.053   02 Jun 2027 10:09:11.469            41.416              Murmansk2          5177.000
        68   02 Jun 2027 10:10:14.154   02 Jun 2027 10:10:45.381            31.227              Murmansk2          3903.375
        69   02 Jun 2027 10:20:15.369   02 Jun 2027 10:27:09.985           414.616                Anadyr2         51827.000
        70   02 Jun 2027 11:43:49.293   02 Jun 2027 11:46:28.235           158.942              Murmansk2         19867.750
        71   02 Jun 2027 11:46:45.703   02 Jun 2027 11:47:11.906            26.203              Murmansk2          3275.375
        72   02 Jun 2027 11:55:19.216   02 Jun 2027 11:57:18.818           119.602                Anadyr2         14950.250
        73   02 Jun 2027 11:57:37.227   02 Jun 2027 11:58:33.110            55.883                Anadyr2          6985.375
        74   02 Jun 2027 13:33:43.236   02 Jun 2027 13:35:34.839           111.603               Magadan1         13950.375
        75   02 Jun 2027 13:36:43.988   02 Jun 2027 13:38:14.810            90.822               Magadan2         11352.750
        76   02 Jun 2027 13:43:02.009   02 Jun 2027 13:43:14.803            12.794               Magadan2          1599.250
        77   02 Jun 2027 16:01:36.531   02 Jun 2027 16:07:34.028           357.497            RioGallegos         44687.125
        78   02 Jun 2027 16:49:08.669   02 Jun 2027 16:50:55.926           107.257                Irkutsk         13407.125
        79   02 Jun 2027 16:52:02.618   02 Jun 2027 16:54:20.670           138.052                Novosib         17256.500
        80   02 Jun 2027 17:02:55.554   02 Jun 2027 17:04:46.765           111.211                Sumatra         13901.375
        81   02 Jun 2027 18:24:53.974   02 Jun 2027 18:26:36.213           102.239                Novosib         12779.875
        82   02 Jun 2027 18:32:45.718   02 Jun 2027 18:34:09.087            83.369                  Delhi         10421.125
        83   02 Jun 2027 18:36:41.567   02 Jun 2027 18:36:48.671             7.104                  Delhi           888.000
        84   02 Jun 2027 18:41:50.561   02 Jun 2027 18:44:06.546           135.985                  Delhi         16998.125
        85   02 Jun 2027 20:04:49.474   02 Jun 2027 20:07:42.229           172.755                 Moscow         21594.375
        86   02 Jun 2027 21:48:23.537   02 Jun 2027 21:50:42.745           139.208                 Moscow          3377.750
        87   03 Jun 2027 03:59:10.722   03 Jun 2027 04:00:10.905            60.183                Novosib          7522.875
        88   03 Jun 2027 04:00:18.290   03 Jun 2027 04:03:09.243           170.953                Norilsk         21369.125
        89   03 Jun 2027 05:08:49.328   03 Jun 2027 05:09:49.662            60.334                Sumatra          7541.750
        90   03 Jun 2027 05:10:31.711   03 Jun 2027 05:11:35.893            64.182                Sumatra          8022.750
        91   03 Jun 2027 05:21:57.663   03 Jun 2027 05:22:35.900            38.237                  Delhi          4779.625
        92   03 Jun 2027 05:24:16.622   03 Jun 2027 05:26:30.360           133.738                  Delhi         16717.250
        93   03 Jun 2027 05:34:41.250   03 Jun 2027 05:35:23.939            42.689              Murmansk1          5336.125
        94   03 Jun 2027 05:35:23.939   03 Jun 2027 05:39:53.789           269.850              Murmansk2         33731.250
        95   03 Jun 2027 05:39:53.789   03 Jun 2027 05:40:28.655            34.866              Murmansk1          4358.250
        96   03 Jun 2027 06:46:34.789   03 Jun 2027 06:49:56.622           201.833                Sumatra         25229.125
        97   03 Jun 2027 07:00:07.549   03 Jun 2027 07:01:38.708            91.159                Novosib         11394.875
        98   03 Jun 2027 07:02:27.963   03 Jun 2027 07:05:07.826           159.863                Irkutsk         19982.875
        99   03 Jun 2027 07:05:14.431   03 Jun 2027 07:06:49.266            94.835                 Moscow         11854.375
       100   03 Jun 2027 07:10:36.683   03 Jun 2027 07:11:28.562            51.879              Murmansk1          6484.875
       101   03 Jun 2027 07:11:57.639   03 Jun 2027 07:12:48.959            51.320              Murmansk1          6415.000
       102   03 Jun 2027 07:12:51.082   03 Jun 2027 07:12:56.490             5.408              Murmansk1           676.000
       103   03 Jun 2027 07:13:09.610   03 Jun 2027 07:13:46.954            37.344                 Moscow          4668.000
       104   03 Jun 2027 07:14:19.993   03 Jun 2027 07:15:15.667            55.674              Murmansk2          6959.250
       105   03 Jun 2027 07:15:56.178   03 Jun 2027 07:15:59.451             3.273                Norilsk           409.125
       106   03 Jun 2027 07:17:40.513   03 Jun 2027 07:17:45.747             5.234              Murmansk2           654.250
       107   03 Jun 2027 08:32:24.195   03 Jun 2027 08:34:24.076           119.881                  Delhi         14985.125
       108   03 Jun 2027 08:37:25.240   03 Jun 2027 08:38:18.124            52.884                  Delhi          6610.500
       109   03 Jun 2027 08:46:39.787   03 Jun 2027 08:46:55.428            15.641                Norilsk          1955.125
       110   03 Jun 2027 08:47:08.774   03 Jun 2027 08:51:47.551           278.777                Norilsk         34847.125
       111   03 Jun 2027 08:51:54.559   03 Jun 2027 08:53:35.409           100.850              Murmansk1         12606.250
       112   03 Jun 2027 09:53:01.975   03 Jun 2027 10:00:38.962           456.987               CapeTown         57123.375
       113   03 Jun 2027 10:13:51.984   03 Jun 2027 10:23:09.034           557.050                 Moscow         69631.250
       114   03 Jun 2027 10:23:13.240   03 Jun 2027 10:28:25.870           312.630              Murmansk1         39078.750
       115   03 Jun 2027 10:28:25.870   03 Jun 2027 10:29:22.828            56.958              Murmansk2          7119.750
       116   03 Jun 2027 10:32:02.724   03 Jun 2027 10:36:19.697           256.973                Anadyr2         32121.625
       117   03 Jun 2027 10:36:46.513   03 Jun 2027 10:37:58.028            71.515                Anadyr1          8939.375
       118   03 Jun 2027 11:55:57.235   03 Jun 2027 12:00:49.780           292.545              Murmansk2         36568.125
       119   03 Jun 2027 12:04:44.591   03 Jun 2027 12:05:20.896            36.305              Murmansk1          4538.125
       120   03 Jun 2027 12:07:20.751   03 Jun 2027 12:08:07.783            47.032                Anadyr2          5879.000
       121   03 Jun 2027 12:10:39.668   03 Jun 2027 12:11:30.296            50.628                Anadyr1          6328.500
       122   03 Jun 2027 12:11:43.836   03 Jun 2027 12:14:18.943           155.107               Magadan1         19388.375
       123   03 Jun 2027 13:45:39.641   03 Jun 2027 13:47:09.673            90.032               Magadan2         11254.000
       124   03 Jun 2027 15:28:39.587   03 Jun 2027 15:30:57.775           138.188                Irkutsk         17273.500
       125   03 Jun 2027 16:13:25.414   03 Jun 2027 16:16:11.609           166.195            RioGallegos         20774.375
       126   03 Jun 2027 16:17:38.561   03 Jun 2027 16:19:07.772            89.211            RioGallegos         11151.375
       127   03 Jun 2027 17:01:02.922   03 Jun 2027 17:03:06.876           123.954                Irkutsk         15494.250
       128   03 Jun 2027 17:06:09.379   03 Jun 2027 17:09:09.984           180.605                Novosib         22575.625
       129   03 Jun 2027 17:17:41.311   03 Jun 2027 17:19:11.920            90.609                Sumatra         11326.125
       130   03 Jun 2027 18:44:29.624   03 Jun 2027 18:46:36.956           127.332                  Delhi         15916.500
       131   03 Jun 2027 18:49:51.897   03 Jun 2027 18:50:32.928            41.031                  Delhi          5128.875
       132   03 Jun 2027 20:15:46.464   03 Jun 2027 20:19:33.196           226.732                 Moscow         28341.500
       133   03 Jun 2027 21:59:53.435   03 Jun 2027 22:00:58.152            64.717                 Moscow          8089.625
       134   03 Jun 2027 22:14:29.594   03 Jun 2027 22:14:49.054            19.460               CapeTown          2432.500
       135   03 Jun 2027 22:16:56.909   03 Jun 2027 22:17:10.982            14.073               CapeTown          1759.125
       136   03 Jun 2027 22:22:05.018   03 Jun 2027 22:23:54.900           109.882               CapeTown           835.999
       137   04 Jun 2027 04:11:13.743   04 Jun 2027 04:12:17.481            63.738                Novosib          7967.250
       138   04 Jun 2027 04:12:23.163   04 Jun 2027 04:14:27.886           124.723              Murmansk2         15590.375
       139   04 Jun 2027 05:20:41.374   04 Jun 2027 05:21:53.238            71.864                Sumatra          8983.000
       140   04 Jun 2027 05:22:34.764   04 Jun 2027 05:23:45.222            70.458                Sumatra          8807.250
       141   04 Jun 2027 05:31:35.616   04 Jun 2027 05:34:14.247           158.631                  Delhi         19828.875
       142   04 Jun 2027 05:46:51.533   04 Jun 2027 05:47:34.738            43.205              Murmansk1          5400.625
       143   04 Jun 2027 05:47:34.738   04 Jun 2027 05:48:45.653            70.915              Murmansk2          8864.375
       144   04 Jun 2027 05:48:47.421   04 Jun 2027 05:52:01.289           193.868                Norilsk         24233.500
       145   04 Jun 2027 05:52:20.410   04 Jun 2027 05:54:16.228           115.818              Murmansk2         14477.250
       146   04 Jun 2027 06:59:50.570   04 Jun 2027 07:02:20.004           149.434                Sumatra         18679.250
       147   04 Jun 2027 07:04:50.551   04 Jun 2027 07:05:14.179            23.628                  Delhi          2953.500
       148   04 Jun 2027 07:05:48.147   04 Jun 2027 07:06:43.881            55.734                  Delhi          6966.750
       149   04 Jun 2027 07:08:01.196   04 Jun 2027 07:08:19.737            18.541                  Delhi          2317.625
       150   04 Jun 2027 07:09:59.624   04 Jun 2027 07:10:30.779            31.155                  Delhi          3894.375
       151   04 Jun 2027 07:11:12.736   04 Jun 2027 07:12:09.128            56.392                  Delhi          7049.000
       152   04 Jun 2027 07:12:25.163   04 Jun 2027 07:13:13.631            48.468                Novosib          6058.500
       153   04 Jun 2027 07:13:51.284   04 Jun 2027 07:16:45.564           174.280                Novosib         21785.000
       154   04 Jun 2027 07:16:55.115   04 Jun 2027 07:18:54.442           119.327                Irkutsk         14915.875
       155   04 Jun 2027 07:22:52.461   04 Jun 2027 07:23:29.319            36.858              Murmansk1          4607.250
       156   04 Jun 2027 07:23:38.478   04 Jun 2027 07:25:53.227           134.749                Norilsk         16843.625
       157   04 Jun 2027 07:26:05.548   04 Jun 2027 07:28:29.760           144.212              Murmansk1         18026.500
       158   04 Jun 2027 07:29:41.843   04 Jun 2027 07:29:45.318             3.475              Murmansk2           434.375
       159   04 Jun 2027 08:59:46.657   04 Jun 2027 09:02:07.856           141.199                 Moscow         17649.875
       160   04 Jun 2027 09:02:15.847   04 Jun 2027 09:05:36.844           200.997              Murmansk2         25124.625
       161   04 Jun 2027 10:04:20.836   04 Jun 2027 10:13:31.669           550.833               CapeTown         68854.125
       162   04 Jun 2027 10:26:12.706   04 Jun 2027 10:32:54.638           401.932                 Moscow         50241.500
       163   04 Jun 2027 10:33:01.062   04 Jun 2027 10:34:12.162            71.100              Murmansk1          8887.500
       164   04 Jun 2027 10:34:12.162   04 Jun 2027 10:36:34.028           141.866              Murmansk2         17733.250
       165   04 Jun 2027 10:37:33.430   04 Jun 2027 10:37:54.080            20.650              Murmansk2          2581.250
       166   04 Jun 2027 10:38:18.340   04 Jun 2027 10:38:42.010            23.670              Murmansk2          2958.750
       167   04 Jun 2027 10:41:10.486   04 Jun 2027 10:41:34.902            24.416              Murmansk2          3052.000
       168   04 Jun 2027 10:43:53.699   04 Jun 2027 10:51:45.797           472.098                Anadyr2         59012.250
       169   04 Jun 2027 10:52:36.243   04 Jun 2027 10:52:38.707             2.464                Anadyr2           308.000
       170   04 Jun 2027 12:08:30.729   04 Jun 2027 12:12:04.866           214.137              Murmansk1         26767.125
       171   04 Jun 2027 12:12:07.092   04 Jun 2027 12:13:31.339            84.247              Murmansk2         10530.875
       172   04 Jun 2027 12:19:18.823   04 Jun 2027 12:21:54.427           155.604                Anadyr1         19450.500
       173   04 Jun 2027 12:23:07.970   04 Jun 2027 12:23:40.287            32.317               Magadan2          4039.625
       174   04 Jun 2027 12:27:35.359   04 Jun 2027 12:29:33.259           117.900               Magadan1         14737.500
       175   04 Jun 2027 13:57:37.105   04 Jun 2027 13:58:52.369            75.264               Magadan1          9408.000
       176   04 Jun 2027 13:59:56.729   04 Jun 2027 14:00:48.348            51.619               Magadan2          6452.375
       177   04 Jun 2027 14:07:04.913   04 Jun 2027 14:07:10.242             5.329               Magadan1           666.125
       178   04 Jun 2027 15:39:18.236   04 Jun 2027 15:44:52.301           334.065                Irkutsk         41758.125
       179   04 Jun 2027 16:27:03.677   04 Jun 2027 16:28:12.082            68.405            RioGallegos          8550.625
       180   04 Jun 2027 17:14:10.842   04 Jun 2027 17:18:00.859           230.017                Novosib         28752.125
       181   04 Jun 2027 17:27:28.574   04 Jun 2027 17:29:05.436            96.862                Sumatra         12107.750
       182   04 Jun 2027 18:52:29.922   04 Jun 2027 18:53:29.009            59.087                Novosib          7385.875
       183   04 Jun 2027 18:55:53.868   04 Jun 2027 18:56:47.943            54.075                Novosib          6759.375
       184   04 Jun 2027 18:58:29.969   04 Jun 2027 19:00:38.550           128.581                  Delhi         16072.625
       185   04 Jun 2027 19:04:37.067   04 Jun 2027 19:05:47.052            69.985                  Delhi          8748.125
       186   04 Jun 2027 20:27:25.907   04 Jun 2027 20:29:16.010           110.103                 Moscow         13762.875
       187   04 Jun 2027 22:02:26.717   04 Jun 2027 22:03:48.659            81.942              Murmansk1         10237.125
       188   05 Jun 2027 04:23:15.306   05 Jun 2027 04:24:29.472            74.166                Norilsk          9270.750
       189   05 Jun 2027 04:24:29.998   05 Jun 2027 04:26:19.067           109.069              Murmansk2         13633.625
       190   05 Jun 2027 05:32:39.103   05 Jun 2027 05:35:20.741           161.638                Sumatra         20204.750
       191   05 Jun 2027 05:42:51.195   05 Jun 2027 05:43:06.533            15.338                  Delhi          1917.250
       192   05 Jun 2027 05:44:07.995   05 Jun 2027 05:44:40.800            32.805                  Delhi          4100.625
       193   05 Jun 2027 05:48:43.622   05 Jun 2027 05:50:36.050           112.428                  Delhi         14053.500
       194   05 Jun 2027 05:58:23.631   05 Jun 2027 05:59:00.549            36.918                 Moscow          4614.750
       195   05 Jun 2027 05:59:13.880   05 Jun 2027 06:01:02.872           108.992                 Moscow         13624.000
       196   05 Jun 2027 06:01:09.854   05 Jun 2027 06:06:12.321           302.467              Murmansk1         37808.375
       197   05 Jun 2027 06:40:28.199   05 Jun 2027 06:40:39.858            11.659            RioGallegos          1457.375
       198   05 Jun 2027 07:16:57.846   05 Jun 2027 07:21:51.869           294.023                  Delhi         36752.875
       199   05 Jun 2027 07:24:46.729   05 Jun 2027 07:28:56.791           250.062                Novosib         31257.750
       200   05 Jun 2027 07:29:10.430   05 Jun 2027 07:30:01.631            51.201                 Moscow          6400.125
       201   05 Jun 2027 07:34:41.599   05 Jun 2027 07:35:15.789            34.190                Novosib          4273.750
       202   05 Jun 2027 07:35:16.540   05 Jun 2027 07:37:58.452           161.912                 Moscow         20239.000
       203   05 Jun 2027 07:37:58.702   05 Jun 2027 07:40:05.405           126.703              Murmansk1         15837.875
       204   05 Jun 2027 07:41:19.126   05 Jun 2027 07:41:43.311            24.185              Murmansk2          3023.125
       205   05 Jun 2027 07:41:43.311   05 Jun 2027 07:41:45.237             1.926              Murmansk1           240.750
       206   05 Jun 2027 09:11:11.386   05 Jun 2027 09:15:40.361           268.975                Norilsk         33621.875
       207   05 Jun 2027 09:15:41.769   05 Jun 2027 09:17:38.381           116.612              Murmansk1         14576.500
       208   05 Jun 2027 10:15:52.078   05 Jun 2027 10:25:09.428           557.350               CapeTown         69668.750
       209   05 Jun 2027 10:38:37.699   05 Jun 2027 10:45:18.669           400.970                 Moscow         50121.250
       210   05 Jun 2027 10:45:43.800   05 Jun 2027 10:45:57.290            13.490                 Moscow          1686.250
       211   05 Jun 2027 10:46:10.908   05 Jun 2027 10:50:54.266           283.358              Murmansk1         35419.750
       212   05 Jun 2027 10:51:33.809   05 Jun 2027 10:52:22.599            48.790              Murmansk1          6098.750
       213   05 Jun 2027 10:55:47.125   05 Jun 2027 11:01:13.424           326.299                Anadyr1         40787.375
       214   05 Jun 2027 11:01:46.554   05 Jun 2027 11:05:15.195           208.641                Anadyr2         26080.125
       215   05 Jun 2027 12:21:07.464   05 Jun 2027 12:22:57.077           109.613              Murmansk2         13701.625
       216   05 Jun 2027 12:31:19.198   05 Jun 2027 12:31:58.749            39.551                Anadyr1          4943.875
       217   05 Jun 2027 12:32:30.088   05 Jun 2027 12:33:50.610            80.522                Anadyr1         10065.250
       218   05 Jun 2027 12:34:45.389   05 Jun 2027 12:38:44.296           238.907               Magadan2         29863.375
       219   05 Jun 2027 14:09:35.440   05 Jun 2027 14:10:39.794            64.354               Magadan2          8044.250
       220   05 Jun 2027 15:05:34.385   05 Jun 2027 15:06:21.154            46.769            RioGallegos          5846.125
       221   05 Jun 2027 15:50:39.168   05 Jun 2027 15:54:13.389           214.221                Irkutsk         26777.625
       222   05 Jun 2027 15:55:15.966   05 Jun 2027 15:58:01.361           165.395                Irkutsk         20674.375
       223   05 Jun 2027 16:09:58.954   05 Jun 2027 16:12:20.458           141.504                Sumatra         17688.000
       224   05 Jun 2027 17:27:48.034   05 Jun 2027 17:29:54.457           126.423                Novosib         15802.875
       225   05 Jun 2027 17:40:23.104   05 Jun 2027 17:40:56.757            33.653                Sumatra          4206.625
       226   05 Jun 2027 19:05:36.874   05 Jun 2027 19:07:38.667           121.793                Novosib         15224.125
       227   05 Jun 2027 19:08:11.405   05 Jun 2027 19:10:04.500           113.095                  Delhi         14136.875
       228   05 Jun 2027 19:11:10.592   05 Jun 2027 19:11:11.521             0.929                  Delhi           116.125
       229   05 Jun 2027 20:37:47.598   05 Jun 2027 20:38:54.805            67.207              Murmansk2          8400.875
       230   05 Jun 2027 20:39:10.929   05 Jun 2027 20:41:05.980           115.051                 Moscow         14381.375
       231   05 Jun 2027 22:16:39.286   05 Jun 2027 22:17:14.886            35.600              Murmansk2          2119.750
       232   06 Jun 2027 04:35:16.715   06 Jun 2027 04:37:57.026           160.311                Norilsk         20038.875
       233   06 Jun 2027 05:44:42.418   06 Jun 2027 05:46:36.491           114.073                Sumatra         14259.125
       234   06 Jun 2027 05:55:21.127   06 Jun 2027 05:57:48.655           147.528                  Delhi         18441.000
       235   06 Jun 2027 06:09:45.767   06 Jun 2027 06:10:11.519            25.752              Murmansk2          3219.000
       236   06 Jun 2027 06:11:02.987   06 Jun 2027 06:13:17.423           134.436                 Moscow         16804.500
       237   06 Jun 2027 06:13:33.307   06 Jun 2027 06:16:08.226           154.919              Murmansk1         19364.875
       238   06 Jun 2027 06:16:08.226   06 Jun 2027 06:16:41.699            33.473              Murmansk2          4184.125
       239   06 Jun 2027 06:51:42.504   06 Jun 2027 06:53:24.946           102.442            RioGallegos         12805.250
       240   06 Jun 2027 07:29:10.979   06 Jun 2027 07:33:49.415           278.436                  Delhi         34804.500
       241   06 Jun 2027 07:37:12.673   06 Jun 2027 07:41:11.446           238.773                Novosib         29846.625
       242   06 Jun 2027 07:41:33.616   06 Jun 2027 07:41:44.830            11.214                 Moscow          1401.750
       243   06 Jun 2027 07:46:42.217   06 Jun 2027 07:48:02.555            80.338                Novosib         10042.250
       244   06 Jun 2027 07:48:07.162   06 Jun 2027 07:50:03.366           116.204                 Moscow         14525.500
       245   06 Jun 2027 07:50:13.130   06 Jun 2027 07:51:10.424            57.294              Murmansk1          7161.750
       246   06 Jun 2027 07:51:10.424   06 Jun 2027 07:52:21.351            70.927              Murmansk2          8865.875
       247   06 Jun 2027 07:53:44.886   06 Jun 2027 07:53:45.463             0.577              Murmansk1            72.125
       248   06 Jun 2027 09:16:45.742   06 Jun 2027 09:16:57.049            11.307              Murmansk2          1413.375
       249   06 Jun 2027 09:17:31.298   06 Jun 2027 09:18:35.930            64.632              Murmansk2          8079.000
       250   06 Jun 2027 09:21:54.343   06 Jun 2027 09:26:10.060           255.717                 Moscow         31964.625
       251   06 Jun 2027 09:26:34.313   06 Jun 2027 09:27:33.567            59.254                Norilsk          7406.750
       252   06 Jun 2027 09:27:44.528   06 Jun 2027 09:29:39.995           115.467              Murmansk1         14433.375
       253   06 Jun 2027 10:27:31.204   06 Jun 2027 10:33:53.467           382.263               CapeTown         47782.875
       254   06 Jun 2027 10:51:58.845   06 Jun 2027 10:52:54.627            55.782                 Moscow          6972.750
       255   06 Jun 2027 10:53:46.666   06 Jun 2027 10:54:56.464            69.798                 Moscow          8724.750
       256   06 Jun 2027 10:54:59.003   06 Jun 2027 10:55:53.923            54.920              Murmansk2          6865.000
       257   06 Jun 2027 10:56:01.891   06 Jun 2027 10:57:18.508            76.617              Murmansk2          9577.125
       258   06 Jun 2027 10:57:18.508   06 Jun 2027 10:59:19.460           120.952              Murmansk1         15119.000
       259   06 Jun 2027 11:00:15.025   06 Jun 2027 11:00:34.103            19.078              Murmansk1          2384.750
       260   06 Jun 2027 11:00:44.395   06 Jun 2027 11:00:58.621            14.226              Murmansk1          1778.250
       261   06 Jun 2027 11:00:58.730   06 Jun 2027 11:02:56.405           117.675              Murmansk1         14709.375
       262   06 Jun 2027 11:07:42.333   06 Jun 2027 11:14:09.113           386.780                Anadyr1         48347.500
       263   06 Jun 2027 11:15:57.847   06 Jun 2027 11:17:00.744            62.897                Anadyr1          7862.125
       264   06 Jun 2027 12:33:47.911   06 Jun 2027 12:34:34.179            46.268              Murmansk1          5783.500
       265   06 Jun 2027 12:44:59.027   06 Jun 2027 12:45:33.075            34.048                Anadyr1          4256.000
       266   06 Jun 2027 12:46:29.567   06 Jun 2027 12:47:38.908            69.341               Magadan1          8667.625
       267   06 Jun 2027 12:48:18.711   06 Jun 2027 12:52:01.214           222.503               Magadan2         27812.875
       268   06 Jun 2027 14:25:58.770   06 Jun 2027 14:26:16.001            17.231               Magadan1          2153.875
       269   06 Jun 2027 15:15:37.375   06 Jun 2027 15:18:34.349           176.974            RioGallegos         22121.750
       270   06 Jun 2027 16:02:13.448   06 Jun 2027 16:06:05.105           231.657                Irkutsk         28957.125
       271   06 Jun 2027 16:17:14.712   06 Jun 2027 16:19:53.812           159.100                Sumatra         19887.500
       272   06 Jun 2027 17:39:52.478   06 Jun 2027 17:41:49.739           117.261                Novosib         14657.625
       273   06 Jun 2027 17:47:49.291   06 Jun 2027 17:49:45.034           115.743                  Delhi         14467.875
       274   06 Jun 2027 19:20:07.998   06 Jun 2027 19:21:15.748            67.750                  Delhi          8468.750
       275   06 Jun 2027 19:21:31.481   06 Jun 2027 19:22:22.229            50.748                  Delhi          6343.500
       276   06 Jun 2027 20:50:59.717   06 Jun 2027 20:53:36.842           157.125                 Moscow         19640.625
       277   06 Jun 2027 22:50:11.448   06 Jun 2027 22:50:46.140            34.692               CapeTown          4336.500
       278   07 Jun 2027 03:11:13.182   07 Jun 2027 03:20:39.228           566.046              Murmansk2         70755.750
       279   07 Jun 2027 03:46:07.081   07 Jun 2027 03:51:44.830           337.749            RioGallegos         42218.625
       280   07 Jun 2027 04:22:48.613   07 Jun 2027 04:25:46.880           178.267                Sumatra         22283.375
       281   07 Jun 2027 04:46:54.614   07 Jun 2027 04:55:00.761           486.147              Murmansk2         60768.375
       282   07 Jun 2027 05:22:29.129   07 Jun 2027 05:25:29.927           180.798            RioGallegos         22599.750
       283   07 Jun 2027 05:26:45.824   07 Jun 2027 05:26:51.228             5.404            RioGallegos           675.500
       284   07 Jun 2027 05:56:51.519   07 Jun 2027 05:58:04.565            73.046                Sumatra          9130.750
       285   07 Jun 2027 05:59:23.274   07 Jun 2027 06:01:41.245           137.971                Sumatra         17246.375
       286   07 Jun 2027 06:11:45.998   07 Jun 2027 06:13:15.974            89.976                Novosib         11247.000
       287   07 Jun 2027 06:13:56.788   07 Jun 2027 06:14:42.284            45.496                Irkutsk          5687.000
       288   07 Jun 2027 06:15:22.008   07 Jun 2027 06:15:40.656            18.648                Irkutsk          2331.000
       289   07 Jun 2027 06:21:33.298   07 Jun 2027 06:22:04.098            30.800                Irkutsk          3850.000
       290   07 Jun 2027 06:22:54.300   07 Jun 2027 06:23:25.106            30.806                Norilsk          3850.750
       291   07 Jun 2027 06:23:25.227   07 Jun 2027 06:25:29.124           123.897                 Moscow         15487.125
       292   07 Jun 2027 06:25:35.526   07 Jun 2027 06:28:08.272           152.746              Murmansk2         19093.250
       293   07 Jun 2027 06:28:08.272   07 Jun 2027 06:28:49.645            41.373              Murmansk1          5171.625
       294   07 Jun 2027 06:28:56.321   07 Jun 2027 06:29:22.745            26.424              Murmansk1          3303.000
       295   07 Jun 2027 06:29:48.539   07 Jun 2027 06:30:06.316            17.777              Murmansk1          2222.125
       296   07 Jun 2027 07:41:30.631   07 Jun 2027 07:46:41.490           310.859                  Delhi         38857.375
       297   07 Jun 2027 07:47:42.345   07 Jun 2027 07:48:59.159            76.814                  Delhi          9601.750
       298   07 Jun 2027 07:50:26.277   07 Jun 2027 07:53:29.792           183.515                Novosib         22939.375
       299   07 Jun 2027 07:58:39.746   07 Jun 2027 08:03:33.051           293.305                Norilsk         36663.125
       300   07 Jun 2027 08:03:50.043   07 Jun 2027 08:05:20.183            90.140              Murmansk2         11267.500
       301   07 Jun 2027 09:25:19.999   07 Jun 2027 09:29:27.143           247.144                 Moscow         30893.000
       302   07 Jun 2027 09:29:28.807   07 Jun 2027 09:30:07.589            38.782              Murmansk1          4847.750
       303   07 Jun 2027 09:30:07.589   07 Jun 2027 09:32:05.797           118.208              Murmansk2         14776.000
       304   07 Jun 2027 09:33:19.863   07 Jun 2027 09:35:07.832           107.969              Murmansk1         13496.125
       305   07 Jun 2027 09:35:07.832   07 Jun 2027 09:35:49.938            42.106              Murmansk2          5263.250
       306   07 Jun 2027 09:35:59.178   07 Jun 2027 09:39:22.894           203.716                Norilsk         25464.500
       307   07 Jun 2027 10:44:29.341   07 Jun 2027 10:45:15.280            45.939               CapeTown          5742.375
       308   07 Jun 2027 11:06:25.597   07 Jun 2027 11:07:40.437            74.840              Murmansk2          9355.000
       309   07 Jun 2027 11:08:02.922   07 Jun 2027 11:08:27.653            24.731              Murmansk2          3091.375
       310   07 Jun 2027 11:08:50.468   07 Jun 2027 11:09:19.712            29.244              Murmansk2          3655.500
       311   07 Jun 2027 11:09:49.298   07 Jun 2027 11:09:57.447             8.149              Murmansk2          1018.625
       312   07 Jun 2027 11:10:06.131   07 Jun 2027 11:10:20.235            14.104              Murmansk2          1763.000
       313   07 Jun 2027 11:10:42.065   07 Jun 2027 11:11:14.014            31.949              Murmansk2          3993.625
       314   07 Jun 2027 11:12:32.477   07 Jun 2027 11:15:06.228           153.751              Murmansk2         19218.875
       315   07 Jun 2027 11:15:33.758   07 Jun 2027 11:16:12.109            38.351              Murmansk1          4793.875
       316   07 Jun 2027 11:19:38.875   07 Jun 2027 11:22:25.603           166.728                Anadyr2         20841.000
       317   07 Jun 2027 11:23:40.506   07 Jun 2027 11:24:53.088            72.582                Anadyr2          9072.750
       318   07 Jun 2027 11:26:28.853   07 Jun 2027 11:27:11.028            42.175                Anadyr1          5271.875
       319   07 Jun 2027 12:15:02.688   07 Jun 2027 12:17:19.357           136.669               CapeTown         17083.625
       320   07 Jun 2027 12:46:32.811   07 Jun 2027 12:47:43.687            70.876              Murmansk1          8859.500
       321   07 Jun 2027 12:58:17.973   07 Jun 2027 13:00:18.747           120.774               Magadan1         15096.750
       322   07 Jun 2027 13:00:18.747   07 Jun 2027 13:02:35.239           136.492               Magadan2         17061.500
       323   07 Jun 2027 14:33:34.178   07 Jun 2027 14:33:34.799             0.621               Magadan1            77.625
       324   07 Jun 2027 14:43:08.827   07 Jun 2027 14:43:53.539            44.712               Magadan1          5589.000
       325   07 Jun 2027 15:26:53.737   07 Jun 2027 15:30:22.525           208.788            RioGallegos         26098.500
       326   07 Jun 2027 16:13:55.023   07 Jun 2027 16:15:20.540            85.517                Irkutsk         10689.625
       327   07 Jun 2027 16:16:07.729   07 Jun 2027 16:17:58.966           111.237                Irkutsk         13904.625
       328   07 Jun 2027 16:29:51.142   07 Jun 2027 16:31:41.507           110.365                Sumatra         13795.625
       329   07 Jun 2027 17:49:26.992   07 Jun 2027 17:50:05.781            38.789                Novosib          4848.625
       330   07 Jun 2027 17:52:07.516   07 Jun 2027 17:53:00.704            53.188                Novosib          6648.500
       331   07 Jun 2027 17:58:37.335   07 Jun 2027 18:01:27.700           170.365                  Delhi         21295.625
       332   07 Jun 2027 19:32:07.969   07 Jun 2027 19:33:07.561            59.592                  Delhi          7449.000
       333   07 Jun 2027 21:02:51.256   07 Jun 2027 21:04:01.911            70.655                 Moscow          8831.875
       334   07 Jun 2027 21:05:42.503   07 Jun 2027 21:06:03.517            21.014                 Moscow          2626.750
       335   07 Jun 2027 21:07:14.334   07 Jun 2027 21:07:15.306             0.972                 Moscow           121.500
       336   07 Jun 2027 21:28:31.967   07 Jun 2027 21:30:30.078           118.111               CapeTown         14763.875
       337   08 Jun 2027 03:22:05.192   08 Jun 2027 03:22:17.737            12.545                Irkutsk          1568.125
       338   08 Jun 2027 03:23:08.584   08 Jun 2027 03:27:57.766           289.182              Murmansk2         36147.750
       339   08 Jun 2027 03:27:57.766   08 Jun 2027 03:29:36.607            98.841              Murmansk1         12355.125
       340   08 Jun 2027 04:34:08.084   08 Jun 2027 04:35:46.909            98.825                Sumatra         12353.125
       341   08 Jun 2027 04:40:38.602   08 Jun 2027 04:41:58.608            80.006                Sumatra         10000.750
       342   08 Jun 2027 04:59:00.097   08 Jun 2027 05:06:53.321           473.224              Murmansk1         59153.000
       343   08 Jun 2027 05:36:04.797   08 Jun 2027 05:36:45.399            40.602            RioGallegos          5075.250
       344   08 Jun 2027 05:37:31.816   08 Jun 2027 05:37:46.287            14.471            RioGallegos          1808.875
       345   08 Jun 2027 05:38:10.745   08 Jun 2027 05:38:48.459            37.714            RioGallegos          4714.250
       346   08 Jun 2027 06:09:07.003   08 Jun 2027 06:09:41.614            34.611                Sumatra          4326.375
       347   08 Jun 2027 06:11:25.133   08 Jun 2027 06:13:40.043           134.910                Sumatra         16863.750
       348   08 Jun 2027 06:17:29.754   08 Jun 2027 06:17:34.691             4.937                  Delhi           617.125
       349   08 Jun 2027 06:23:50.381   08 Jun 2027 06:25:46.309           115.928                Novosib         14491.000
       350   08 Jun 2027 06:25:56.764   08 Jun 2027 06:26:46.775            50.011                Irkutsk          6251.375
       351   08 Jun 2027 06:27:42.030   08 Jun 2027 06:27:58.919            16.889                Irkutsk          2111.125
       352   08 Jun 2027 06:28:36.948   08 Jun 2027 06:29:15.805            38.857                Novosib          4857.125
       353   08 Jun 2027 06:29:53.784   08 Jun 2027 06:30:15.315            21.531                Irkutsk          2691.375
       354   08 Jun 2027 06:34:30.836   08 Jun 2027 06:37:38.980           188.144                 Moscow         23518.000
       355   08 Jun 2027 06:37:40.854   08 Jun 2027 06:39:26.949           106.095              Murmansk2         13261.875
       356   08 Jun 2027 07:53:57.949   08 Jun 2027 07:58:00.657           242.708                  Delhi         30338.500
       357   08 Jun 2027 08:02:20.396   08 Jun 2027 08:05:52.159           211.763                Novosib         26470.375
       358   08 Jun 2027 08:10:55.723   08 Jun 2027 08:11:39.883            44.160                Novosib          5520.000
       359   08 Jun 2027 08:11:40.691   08 Jun 2027 08:14:11.710           151.019                 Moscow         18877.375
       360   08 Jun 2027 08:14:15.568   08 Jun 2027 08:17:46.717           211.149              Murmansk1         26393.625
       361   08 Jun 2027 09:37:26.795   08 Jun 2027 09:40:15.505           168.710                 Moscow         21088.750
       362   08 Jun 2027 09:40:35.582   08 Jun 2027 09:40:59.431            23.849                 Moscow          2981.125
       363   08 Jun 2027 09:41:15.410   08 Jun 2027 09:42:29.682            74.272              Murmansk1          9284.000
       364   08 Jun 2027 09:42:43.262   08 Jun 2027 09:44:32.057           108.795              Murmansk1         13599.375
       365   08 Jun 2027 09:44:53.133   08 Jun 2027 09:45:01.073             7.940              Murmansk1           992.500
       366   08 Jun 2027 09:45:08.056   08 Jun 2027 09:45:22.700            14.644              Murmansk1          1830.500
       367   08 Jun 2027 09:45:40.257   08 Jun 2027 09:46:36.069            55.812              Murmansk2          6976.500
       368   08 Jun 2027 09:46:36.069   08 Jun 2027 09:47:04.787            28.718              Murmansk1          3589.750
       369   08 Jun 2027 09:47:23.690   08 Jun 2027 09:51:04.732           221.042                Norilsk         27630.250
       370   08 Jun 2027 09:57:18.709   08 Jun 2027 10:01:19.659           240.950                Anadyr1         30118.750
       371   08 Jun 2027 11:25:01.602   08 Jun 2027 11:25:17.780            16.178              Murmansk1          2022.250
       372   08 Jun 2027 11:31:36.451   08 Jun 2027 11:32:53.161            76.710                Anadyr1          9588.750
       373   08 Jun 2027 11:36:19.809   08 Jun 2027 11:36:46.883            27.074                Anadyr2          3384.250
       374   08 Jun 2027 11:38:45.937   08 Jun 2027 11:39:30.531            44.594                Anadyr1          5574.250
       375   08 Jun 2027 11:41:02.688   08 Jun 2027 11:41:33.549            30.861                Anadyr1          3857.625
       376   08 Jun 2027 12:28:45.100   08 Jun 2027 12:29:35.994            50.894               CapeTown          6361.750
       377   08 Jun 2027 12:30:19.819   08 Jun 2027 12:31:09.822            50.003               CapeTown          6250.375
       378   08 Jun 2027 12:59:23.521   08 Jun 2027 13:02:15.814           172.293              Murmansk1         21536.625
       379   08 Jun 2027 13:02:18.745   08 Jun 2027 13:02:43.228            24.483              Murmansk2          3060.375
       380   08 Jun 2027 13:10:09.290   08 Jun 2027 13:14:32.512           263.222               Magadan1         32902.750
       381   08 Jun 2027 14:57:34.059   08 Jun 2027 14:57:55.057            20.998               Magadan1          2624.750
       382   08 Jun 2027 15:38:25.698   08 Jun 2027 15:42:13.638           227.940            RioGallegos         28492.500
       383   08 Jun 2027 16:26:09.571   08 Jun 2027 16:28:15.207           125.636                Irkutsk         15704.500
       384   08 Jun 2027 16:28:48.409   08 Jun 2027 16:29:54.556            66.147                Irkutsk          8268.375
       385   08 Jun 2027 16:41:41.184   08 Jun 2027 16:43:35.160           113.976                Sumatra         14247.000
       386   08 Jun 2027 18:01:19.007   08 Jun 2027 18:02:37.192            78.185                Novosib          9773.125
       387   08 Jun 2027 18:04:12.550   08 Jun 2027 18:04:14.276             1.726                Novosib           215.750
       388   08 Jun 2027 18:07:59.201   08 Jun 2027 18:08:34.945            35.744                Novosib          4468.000
       389   08 Jun 2027 18:09:53.159   08 Jun 2027 18:13:15.527           202.368                  Delhi         25296.000
       390   08 Jun 2027 18:17:51.121   08 Jun 2027 18:19:02.315            71.194                  Delhi          8899.250
       391   08 Jun 2027 21:13:30.474   08 Jun 2027 21:14:21.214            50.740              Murmansk1          6342.500
       392   08 Jun 2027 21:14:44.890   08 Jun 2027 21:16:29.267           104.377                 Moscow         13047.125
       393   08 Jun 2027 21:39:50.151   08 Jun 2027 21:40:42.275            52.124               CapeTown          6515.500
       394   08 Jun 2027 21:41:31.388   08 Jun 2027 21:43:15.577           104.189               CapeTown         13023.625
       395   09 Jun 2027 03:35:24.409   09 Jun 2027 03:36:10.065            45.656                Novosib          5707.000
       396   09 Jun 2027 03:36:29.273   09 Jun 2027 03:36:43.036            13.763              Murmansk1          1720.375
       397   09 Jun 2027 04:45:38.752   09 Jun 2027 04:47:11.892            93.140                Sumatra         11642.500
       398   09 Jun 2027 05:11:08.336   09 Jun 2027 05:11:45.739            37.403              Murmansk2          4675.375
       399   09 Jun 2027 05:11:46.196   09 Jun 2027 05:16:11.069           264.873                Norilsk         33109.125
       400   09 Jun 2027 05:16:32.288   09 Jun 2027 05:17:32.585            60.297              Murmansk2          7537.125
       401   09 Jun 2027 05:47:17.946   09 Jun 2027 05:48:37.630            79.684            RioGallegos          9960.500
       402   09 Jun 2027 05:51:01.715   09 Jun 2027 05:51:09.360             7.645            RioGallegos           955.625
       403   09 Jun 2027 05:54:42.955   09 Jun 2027 05:54:47.073             4.118            RioGallegos           514.750
       404   09 Jun 2027 06:21:30.044   09 Jun 2027 06:23:04.408            94.364                Sumatra         11795.500
       405   09 Jun 2027 06:27:32.903   09 Jun 2027 06:28:46.360            73.457                Sumatra          9182.125
       406   09 Jun 2027 06:29:15.535   09 Jun 2027 06:31:33.588           138.053                  Delhi         17256.625
       407   09 Jun 2027 06:35:57.815   09 Jun 2027 06:38:22.391           144.576                Novosib         18072.000
       408   09 Jun 2027 06:39:20.129   09 Jun 2027 06:39:50.225            30.096                Irkutsk          3762.000
       409   09 Jun 2027 06:40:46.936   09 Jun 2027 06:42:09.598            82.662                Irkutsk         10332.750
       410   09 Jun 2027 06:46:48.326   09 Jun 2027 06:47:13.441            25.115                 Moscow          3139.375
       411   09 Jun 2027 06:47:17.209   09 Jun 2027 06:47:41.767            24.558              Murmansk1          3069.750
       412   09 Jun 2027 06:47:48.633   09 Jun 2027 06:48:38.513            49.880                Novosib          6235.000
       413   09 Jun 2027 06:48:54.603   09 Jun 2027 06:49:00.394             5.791              Murmansk1           723.875
       414   09 Jun 2027 06:49:05.740   09 Jun 2027 06:49:14.976             9.236              Murmansk1          1154.500
       415   09 Jun 2027 06:49:21.580   09 Jun 2027 06:49:47.511            25.931                 Moscow          3241.375
       416   09 Jun 2027 06:50:36.955   09 Jun 2027 06:52:16.610            99.655              Murmansk1         12456.875
       417   09 Jun 2027 06:52:53.601   09 Jun 2027 06:52:59.440             5.839              Murmansk1           729.875
       418   09 Jun 2027 06:53:53.355   09 Jun 2027 06:54:02.466             9.111              Murmansk1          1138.875
       419   09 Jun 2027 08:06:34.944   09 Jun 2027 08:10:14.979           220.035                  Delhi         27504.375
       420   09 Jun 2027 08:15:04.505   09 Jun 2027 08:18:42.586           218.081                Novosib         27260.125
       421   09 Jun 2027 08:23:05.495   09 Jun 2027 08:28:04.639           299.144                Norilsk         37393.000
       422   09 Jun 2027 08:28:27.404   09 Jun 2027 08:29:47.683            80.279              Murmansk1         10034.875
       423   09 Jun 2027 09:49:36.753   09 Jun 2027 09:54:17.463           280.710                 Moscow         35088.750
       424   09 Jun 2027 09:54:35.482   09 Jun 2027 09:59:02.309           266.827              Murmansk1         33353.375
       425   09 Jun 2027 10:00:51.983   09 Jun 2027 10:02:21.263            89.280                Norilsk         11160.000
       426   09 Jun 2027 10:08:48.307   09 Jun 2027 10:12:43.275           234.968                Anadyr2         29371.000
       427   09 Jun 2027 10:13:05.645   09 Jun 2027 10:14:29.776            84.131                Anadyr1         10516.375
       428   09 Jun 2027 11:31:13.916   09 Jun 2027 11:32:04.059            50.143              Murmansk1          6267.875
       429   09 Jun 2027 11:43:34.851   09 Jun 2027 11:48:14.029           279.178                Anadyr2         34897.250
       430   09 Jun 2027 12:40:30.211   09 Jun 2027 12:41:08.511            38.300               CapeTown          4787.500
       431   09 Jun 2027 12:41:57.544   09 Jun 2027 12:42:25.375            27.831               CapeTown          3478.875
       432   09 Jun 2027 12:44:46.541   09 Jun 2027 12:46:33.306           106.765               CapeTown         13345.625
       433   09 Jun 2027 13:12:23.130   09 Jun 2027 13:12:28.091             4.961              Murmansk2           620.125
       434   09 Jun 2027 13:22:02.761   09 Jun 2027 13:24:53.130           170.369               Magadan2         21296.125
       435   09 Jun 2027 13:26:14.101   09 Jun 2027 13:27:27.854            73.753               Magadan2          9219.125
       436   09 Jun 2027 14:57:38.613   09 Jun 2027 14:57:39.554             0.941               Magadan1           117.625
       437   09 Jun 2027 15:50:05.787   09 Jun 2027 15:56:27.824           382.037            RioGallegos         47754.625
       438   09 Jun 2027 16:37:31.025   09 Jun 2027 16:38:43.208            72.183                Irkutsk          9022.875
       439   09 Jun 2027 16:41:49.783   09 Jun 2027 16:41:51.587             1.804                Irkutsk           225.500
       440   09 Jun 2027 16:46:36.828   09 Jun 2027 16:46:59.190            22.362                Irkutsk          2795.250
       441   09 Jun 2027 16:51:27.361   09 Jun 2027 16:55:34.443           247.082                Sumatra         30885.250
       442   09 Jun 2027 18:15:03.562   09 Jun 2027 18:15:21.123            17.561                Novosib          2195.125
       443   09 Jun 2027 18:21:22.380   09 Jun 2027 18:25:07.627           225.247                  Delhi         28155.875
       444   09 Jun 2027 19:53:55.814   09 Jun 2027 19:55:35.925           100.111                 Moscow         12513.875
       445   09 Jun 2027 21:26:40.199   09 Jun 2027 21:28:52.083           131.884                 Moscow         16485.500
       446   09 Jun 2027 21:53:00.966   09 Jun 2027 21:53:28.092            27.126               CapeTown          3390.750
       447   09 Jun 2027 21:56:52.093   09 Jun 2027 21:58:01.338            69.245               CapeTown          8655.625
       448   10 Jun 2027 03:47:26.361   10 Jun 2027 03:48:18.363            52.002                Novosib          6500.250
       449   10 Jun 2027 03:48:30.328   10 Jun 2027 03:50:36.792           126.464              Murmansk1         15808.000
       450   10 Jun 2027 04:57:17.850   10 Jun 2027 04:59:14.035           116.185                Sumatra         14523.125
       451   10 Jun 2027 05:12:10.813   10 Jun 2027 05:13:56.673           105.860                  Delhi         13232.500
       452   10 Jun 2027 05:23:13.811   10 Jun 2027 05:24:45.053            91.242                Novosib         11405.250
       453   10 Jun 2027 05:24:52.232   10 Jun 2027 05:28:12.604           200.372                Norilsk         25046.500
       454   10 Jun 2027 06:03:12.818   10 Jun 2027 06:03:33.735            20.917            RioGallegos          2614.625
       455   10 Jun 2027 06:05:35.273   10 Jun 2027 06:05:50.827            15.554            RioGallegos          1944.250
       456   10 Jun 2027 06:07:18.267   10 Jun 2027 06:08:01.003            42.736            RioGallegos          5342.000
       457   10 Jun 2027 06:34:02.880   10 Jun 2027 06:36:17.108           134.228                Sumatra         16778.500
       458   10 Jun 2027 06:40:51.894   10 Jun 2027 06:42:47.617           115.723                Sumatra         14465.375
       459   10 Jun 2027 06:43:12.565   10 Jun 2027 06:44:22.269            69.704                  Delhi          8713.000
       460   10 Jun 2027 06:48:08.449   10 Jun 2027 06:51:05.572           177.123                Novosib         22140.375
       461   10 Jun 2027 06:51:53.782   10 Jun 2027 06:53:03.546            69.764                Irkutsk          8720.500
       462   10 Jun 2027 06:53:35.568   10 Jun 2027 06:54:06.633            31.065                 Moscow          3883.125
       463   10 Jun 2027 06:54:37.291   10 Jun 2027 06:54:58.555            21.264                Norilsk          2658.000
       464   10 Jun 2027 06:58:40.967   10 Jun 2027 06:59:14.155            33.188                Norilsk          4148.500
       465   10 Jun 2027 06:59:17.612   10 Jun 2027 07:01:14.050           116.438              Murmansk2         14554.750
       466   10 Jun 2027 07:01:29.900   10 Jun 2027 07:01:55.030            25.130                 Moscow          3141.250
       467   10 Jun 2027 07:02:32.266   10 Jun 2027 07:03:41.853            69.587              Murmansk2          8698.375
       468   10 Jun 2027 07:04:11.775   10 Jun 2027 07:04:12.484             0.709                Norilsk            88.625
       469   10 Jun 2027 08:19:25.591   10 Jun 2027 08:20:35.101            69.510                  Delhi          8688.750
       470   10 Jun 2027 08:20:43.902   10 Jun 2027 08:22:35.996           112.094                  Delhi         14011.750
       471   10 Jun 2027 08:27:58.592   10 Jun 2027 08:30:16.240           137.648                Novosib         17206.000
       472   10 Jun 2027 08:34:29.933   10 Jun 2027 08:35:11.440            41.507                 Moscow          5188.375
       473   10 Jun 2027 08:35:38.810   10 Jun 2027 08:41:48.835           370.025              Murmansk2         46253.125
       474   10 Jun 2027 10:01:50.065   10 Jun 2027 10:05:45.373           235.308                 Moscow         29413.500
       475   10 Jun 2027 10:08:34.459   10 Jun 2027 10:09:18.831            44.372              Murmansk1          5546.500
       476   10 Jun 2027 10:14:16.221   10 Jun 2027 10:14:36.137            19.916              Murmansk1          2489.500
       477   10 Jun 2027 10:20:29.849   10 Jun 2027 10:27:15.281           405.432                Anadyr1         50679.000
       478   10 Jun 2027 11:43:41.800   10 Jun 2027 11:45:20.597            98.797              Murmansk1         12349.625
       479   10 Jun 2027 11:45:24.097   10 Jun 2027 11:45:38.913            14.816              Murmansk1          1852.000
       480   10 Jun 2027 11:46:04.151   10 Jun 2027 11:46:43.010            38.859              Murmansk1          4857.375
       481   10 Jun 2027 11:47:26.773   10 Jun 2027 11:48:21.662            54.889              Murmansk1          6861.125
       482   10 Jun 2027 11:55:33.911   10 Jun 2027 12:00:14.654           280.743                Anadyr2         35092.875
