uniorb/output/strategy_4/Drop/Drop_KinoSat_111210.txt

KinoSat_111210
-------------------------
    Access    *     Start Time (UTCG)     *     Stop Time (UTCG)  *   Duration (s)        *       Station  *  Data (Mbytes)
         1   01 Jun 2027 04:11:30.003   01 Jun 2027 04:11:37.005             7.002               Magadan2           218.813
         2   01 Jun 2027 04:12:19.489   01 Jun 2027 04:12:46.222            26.733               Magadan2           835.406
         3   01 Jun 2027 04:20:27.990   01 Jun 2027 04:21:08.546            40.556                Norilsk          1267.375
         4   01 Jun 2027 04:22:07.361   01 Jun 2027 04:22:42.073            34.712              Murmansk1          1084.750
         5   01 Jun 2027 04:25:11.408   01 Jun 2027 04:25:12.974             1.566              Murmansk2            48.937
         6   01 Jun 2027 05:44:15.401   01 Jun 2027 05:47:19.736           184.335               Magadan2          5760.469
         7   01 Jun 2027 05:47:19.736   01 Jun 2027 05:47:46.847            27.111               Magadan1           847.219
         8   01 Jun 2027 05:47:59.117   01 Jun 2027 05:49:13.715            74.598                Anadyr2          2331.188
         9   01 Jun 2027 07:19:16.411   01 Jun 2027 07:20:45.691            89.280                Anadyr2          2790.000
        10   01 Jun 2027 07:20:45.691   01 Jun 2027 07:22:28.809           103.118                Anadyr1          3222.438
        11   01 Jun 2027 07:22:49.512   01 Jun 2027 07:23:46.042            56.530                Anadyr1          1766.563
        12   01 Jun 2027 07:24:06.043   01 Jun 2027 07:25:49.740           103.697               Magadan1          3240.531
        13   01 Jun 2027 07:27:07.232   01 Jun 2027 07:27:32.825            25.593              Murmansk1           799.781
        14   01 Jun 2027 08:01:16.263   01 Jun 2027 08:02:22.104            65.841            RioGallegos          2057.531
        15   01 Jun 2027 08:57:05.113   01 Jun 2027 08:57:37.105            31.992                Norilsk           999.750
        16   01 Jun 2027 08:57:45.267   01 Jun 2027 09:00:44.165           178.898                Irkutsk          5590.562
        17   01 Jun 2027 09:00:55.065   01 Jun 2027 09:01:27.573            32.508                Norilsk          1015.875
        18   01 Jun 2027 09:01:33.760   01 Jun 2027 09:01:34.347             0.587                Norilsk            18.344
        19   01 Jun 2027 09:01:36.084   01 Jun 2027 09:01:40.143             4.059                Irkutsk           126.844
        20   01 Jun 2027 09:01:46.496   01 Jun 2027 09:01:54.624             8.128                Novosib           254.000
        21   01 Jun 2027 09:02:40.196   01 Jun 2027 09:02:53.936            13.740                Novosib           429.375
        22   01 Jun 2027 09:03:16.931   01 Jun 2027 09:04:34.525            77.594              Murmansk2          2424.813
        23   01 Jun 2027 09:36:26.817   01 Jun 2027 09:37:51.867            85.050            RioGallegos          2657.813
        24   01 Jun 2027 09:38:24.985   01 Jun 2027 09:39:30.893            65.908            RioGallegos          2059.625
        25   01 Jun 2027 09:40:37.719   01 Jun 2027 09:40:48.256            10.537            RioGallegos           329.281
        26   01 Jun 2027 10:11:14.777   01 Jun 2027 10:14:23.440           188.663                Sumatra          5895.719
        27   01 Jun 2027 10:33:39.505   01 Jun 2027 10:34:00.918            21.413              Murmansk2           669.156
        28   01 Jun 2027 10:34:07.430   01 Jun 2027 10:35:55.046           107.616                Novosib          3363.000
        29   01 Jun 2027 10:35:56.315   01 Jun 2027 10:36:22.912            26.597                Irkutsk           831.156
        30   01 Jun 2027 10:36:30.413   01 Jun 2027 10:37:45.640            75.227              Murmansk2          2350.844
        31   01 Jun 2027 11:16:32.471   01 Jun 2027 11:17:11.576            39.105            RioGallegos          1222.031
        32   01 Jun 2027 11:17:43.780   01 Jun 2027 11:18:29.047            45.267            RioGallegos          1414.594
        33   01 Jun 2027 11:51:12.297   01 Jun 2027 11:52:27.574            75.277                Sumatra          2352.406
        34   01 Jun 2027 11:54:17.488   01 Jun 2027 11:54:22.751             5.263                Sumatra           164.469
        35   01 Jun 2027 11:57:51.734   01 Jun 2027 11:58:05.996            14.262                  Delhi           445.687
        36   01 Jun 2027 11:58:35.466   01 Jun 2027 11:59:49.358            73.892                  Delhi          2309.125
        37   01 Jun 2027 12:07:15.977   01 Jun 2027 12:09:01.319           105.342                Norilsk          3291.937
        38   01 Jun 2027 13:39:51.316   01 Jun 2027 13:40:50.197            58.881                 Moscow          1840.031
        39   01 Jun 2027 13:42:30.245   01 Jun 2027 13:43:41.402            71.157                 Moscow          2223.656
        40   01 Jun 2027 13:44:09.151   01 Jun 2027 13:45:26.313            77.162              Murmansk2          2411.313
        41   01 Jun 2027 13:45:26.313   01 Jun 2027 13:45:37.412            11.099              Murmansk1           346.844
        42   01 Jun 2027 13:46:18.746   01 Jun 2027 13:46:36.655            17.909              Murmansk2           559.656
        43   01 Jun 2027 13:46:51.842   01 Jun 2027 13:48:48.403           116.561                Norilsk          3642.531
        44   01 Jun 2027 13:50:39.076   01 Jun 2027 13:51:40.483            61.407                Norilsk          1918.969
        45   01 Jun 2027 14:54:43.371   01 Jun 2027 14:55:28.215            44.844               CapeTown          1401.375
        46   01 Jun 2027 14:56:12.908   01 Jun 2027 14:57:39.909            87.001               CapeTown          2718.781
        47   01 Jun 2027 15:20:50.991   01 Jun 2027 15:21:01.665            10.674              Murmansk1           333.563
        48   01 Jun 2027 15:21:01.665   01 Jun 2027 15:21:53.691            52.026              Murmansk2          1625.812
        49   01 Jun 2027 15:26:41.397   01 Jun 2027 15:27:04.407            23.010              Murmansk2           719.063
        50   01 Jun 2027 15:28:43.022   01 Jun 2027 15:29:10.052            27.030              Murmansk1           844.688
        51   01 Jun 2027 15:34:24.867   01 Jun 2027 15:34:45.295            20.428                Anadyr1           638.375
        52   01 Jun 2027 15:35:27.109   01 Jun 2027 15:36:07.918            40.809                Anadyr2          1275.281
        53   01 Jun 2027 15:37:01.591   01 Jun 2027 15:37:28.664            27.073                Anadyr1           846.031
        54   01 Jun 2027 15:37:59.412   01 Jun 2027 15:38:01.672             2.260                Anadyr2            70.625
        55   01 Jun 2027 15:38:22.498   01 Jun 2027 15:39:02.933            40.435                Anadyr2          1263.594
        56   01 Jun 2027 16:34:12.861   01 Jun 2027 16:34:25.647            12.786               CapeTown           399.562
        57   01 Jun 2027 16:37:38.353   01 Jun 2027 16:37:58.210            19.857               CapeTown           620.531
        58   01 Jun 2027 16:59:17.824   01 Jun 2027 17:02:40.390           202.566              Murmansk2          6330.187
        59   01 Jun 2027 17:04:15.238   01 Jun 2027 17:04:40.420            25.182              Murmansk2           786.938
        60   01 Jun 2027 17:05:23.589   01 Jun 2027 17:05:45.301            21.712              Murmansk1           678.500
        61   01 Jun 2027 17:09:53.535   01 Jun 2027 17:11:05.692            72.157                Anadyr1          2254.906
        62   01 Jun 2027 17:13:31.099   01 Jun 2027 17:13:34.195             3.096                Anadyr1            96.750
        63   01 Jun 2027 17:14:47.992   01 Jun 2027 17:15:20.686            32.694                Anadyr1          1021.687
        64   01 Jun 2027 17:16:05.224   01 Jun 2027 17:16:40.998            35.774               Magadan2          1117.938
        65   01 Jun 2027 17:18:56.283   01 Jun 2027 17:20:17.835            81.552               Magadan1          2548.500
        66   01 Jun 2027 18:45:47.822   01 Jun 2027 18:49:57.677           249.855                Anadyr2          7807.969
        67   01 Jun 2027 18:50:22.972   01 Jun 2027 18:51:29.468            66.496               Magadan2          2078.000
        68   01 Jun 2027 18:52:26.196   01 Jun 2027 18:52:46.322            20.126               Magadan2           628.937
        69   01 Jun 2027 18:54:54.474   01 Jun 2027 18:55:56.387            61.913               Magadan2          1934.781
        70   01 Jun 2027 20:21:39.996   01 Jun 2027 20:25:25.482           225.486                Anadyr1          7046.438
        71   01 Jun 2027 20:25:40.226   01 Jun 2027 20:27:34.886           114.660                Norilsk          3583.125
        72   01 Jun 2027 20:28:23.672   01 Jun 2027 20:28:35.130            11.458               Magadan2           358.063
        73   01 Jun 2027 20:29:34.819   01 Jun 2027 20:32:18.993           164.174                Irkutsk          5130.438
        74   01 Jun 2027 20:34:41.444   01 Jun 2027 20:35:35.856            54.412                Irkutsk          1700.375
        75   01 Jun 2027 20:46:17.174   01 Jun 2027 20:46:54.963            37.789                Sumatra          1180.906
        76   01 Jun 2027 20:47:38.128   01 Jun 2027 20:49:32.407           114.279                Sumatra          3571.219
        77   01 Jun 2027 21:57:59.627   01 Jun 2027 21:58:01.741             2.114                Anadyr2            66.062
        78   01 Jun 2027 21:58:26.156   01 Jun 2027 21:58:51.902            25.746                Anadyr1           804.562
        79   01 Jun 2027 21:59:22.676   01 Jun 2027 21:59:29.402             6.726                Anadyr1           210.188
        80   01 Jun 2027 21:59:32.013   01 Jun 2027 21:59:58.854            26.841                Norilsk           838.781
        81   01 Jun 2027 22:00:08.086   01 Jun 2027 22:00:25.316            17.230                Norilsk           538.437
        82   01 Jun 2027 22:00:38.014   01 Jun 2027 22:00:49.159            11.145               Magadan2           348.281
        83   01 Jun 2027 22:01:13.506   01 Jun 2027 22:01:15.452             1.946               Magadan1            60.813
        84   01 Jun 2027 22:01:19.675   01 Jun 2027 22:01:37.107            17.432               Magadan1           544.750
        85   01 Jun 2027 22:03:32.372   01 Jun 2027 22:04:50.967            78.595                Irkutsk          2456.094
        86   01 Jun 2027 22:07:30.921   01 Jun 2027 22:08:14.163            43.242                Novosib          1351.312
        87   01 Jun 2027 22:08:22.988   01 Jun 2027 22:08:23.144             0.156                Novosib             4.875
        88   01 Jun 2027 22:11:29.068   01 Jun 2027 22:11:47.008            17.940                Novosib           560.625
        89   01 Jun 2027 22:15:05.802   01 Jun 2027 22:15:31.091            25.289                Irkutsk           790.281
        90   01 Jun 2027 22:19:44.721   01 Jun 2027 22:20:09.491            24.770                Sumatra           774.063
        91   01 Jun 2027 22:22:23.620   01 Jun 2027 22:23:11.795            48.175                Sumatra          1505.469
        92   01 Jun 2027 23:03:45.368   01 Jun 2027 23:04:03.764            18.396            RioGallegos           574.875
        93   01 Jun 2027 23:31:31.100   01 Jun 2027 23:33:16.463           105.363                Anadyr2          3292.594
        94   01 Jun 2027 23:33:57.605   01 Jun 2027 23:34:09.543            11.938                Anadyr2           373.062
        95   01 Jun 2027 23:34:10.019   01 Jun 2027 23:34:11.089             1.070                Anadyr2            33.438
        96   01 Jun 2027 23:35:31.316   01 Jun 2027 23:35:50.577            19.261                Norilsk           601.906
        97   01 Jun 2027 23:36:08.512   01 Jun 2027 23:37:33.732            85.220               Magadan1          2663.125
        98   01 Jun 2027 23:37:36.372   01 Jun 2027 23:37:40.298             3.926               Magadan2           122.687
        99   01 Jun 2027 23:37:48.928   01 Jun 2027 23:37:58.833             9.905               Magadan2           309.531
       100   01 Jun 2027 23:38:59.589   01 Jun 2027 23:39:19.667            20.078               Magadan2           627.437
       101   01 Jun 2027 23:39:23.120   01 Jun 2027 23:41:44.729           141.609                Novosib          4425.281
       102   01 Jun 2027 23:46:50.184   01 Jun 2027 23:47:51.404            61.220                  Delhi          1913.125
       103   01 Jun 2027 23:49:22.477   01 Jun 2027 23:49:37.773            15.296                  Delhi           478.000
       104   01 Jun 2027 23:54:35.105   01 Jun 2027 23:54:45.343            10.238                  Delhi           319.938
       105   01 Jun 2027 23:54:56.253   01 Jun 2027 23:56:19.967            83.714                  Delhi          2616.063
       106   02 Jun 2027 00:35:24.265   02 Jun 2027 00:35:39.761            15.496            RioGallegos           484.250
       107   02 Jun 2027 01:04:53.171   02 Jun 2027 01:06:27.760            94.589                Anadyr2          2955.906
       108   02 Jun 2027 01:07:08.795   02 Jun 2027 01:07:29.788            20.993                Anadyr1           656.031
       109   02 Jun 2027 01:07:29.788   02 Jun 2027 01:07:39.654             9.866                Anadyr2           308.312
       110   02 Jun 2027 01:11:04.014   02 Jun 2027 01:13:30.056           146.042               Magadan1          4563.812
       111   02 Jun 2027 01:13:45.415   02 Jun 2027 01:14:32.498            47.083              Murmansk2          1471.344
       112   02 Jun 2027 01:15:20.871   02 Jun 2027 01:17:33.474           132.603                Novosib          4143.844
       113   02 Jun 2027 01:22:50.143   02 Jun 2027 01:22:57.323             7.180                 Moscow           224.375
       114   02 Jun 2027 01:25:10.618   02 Jun 2027 01:26:10.903            60.285                  Delhi          1883.906
       115   02 Jun 2027 01:45:30.933   02 Jun 2027 01:46:03.036            32.103               CapeTown          1003.219
       116   02 Jun 2027 01:46:34.842   02 Jun 2027 01:46:54.059            19.217               CapeTown           600.531
       117   02 Jun 2027 02:38:29.670   02 Jun 2027 02:40:41.149           131.479                Anadyr1          4108.719
       118   02 Jun 2027 02:41:41.612   02 Jun 2027 02:41:50.330             8.718                Anadyr2           272.437
       119   02 Jun 2027 02:42:56.256   02 Jun 2027 02:44:08.598            72.342               Magadan2          2260.688
       120   02 Jun 2027 02:46:41.188   02 Jun 2027 02:47:12.327            31.139               Magadan1           973.094
       121   02 Jun 2027 02:49:37.506   02 Jun 2027 02:51:05.386            87.880              Murmansk1          2746.250
       122   02 Jun 2027 02:52:27.288   02 Jun 2027 02:53:33.289            66.001                Novosib          2062.531
       123   02 Jun 2027 02:57:42.063   02 Jun 2027 02:57:50.881             8.818                 Moscow           275.562
       124   02 Jun 2027 03:00:00.625   02 Jun 2027 03:00:37.789            37.164                 Moscow          1161.375
       125   02 Jun 2027 03:01:10.606   02 Jun 2027 03:01:33.084            22.478                 Moscow           702.437
       126   02 Jun 2027 03:01:36.735   02 Jun 2027 03:02:27.725            50.990                 Moscow          1593.438
       127   02 Jun 2027 03:16:50.801   02 Jun 2027 03:20:06.983           196.182               CapeTown          6130.688
       128   02 Jun 2027 04:20:14.422   02 Jun 2027 04:21:17.702            63.280                Anadyr1          1977.500
       129   02 Jun 2027 04:21:17.702   02 Jun 2027 04:23:05.503           107.801                Anadyr2          3368.781
       130   02 Jun 2027 05:55:49.176   02 Jun 2027 05:56:53.644            64.468                Anadyr1          2014.625
       131   02 Jun 2027 05:57:01.671   02 Jun 2027 05:58:08.955            67.284               Magadan2          2102.625
       132   02 Jun 2027 05:58:25.636   02 Jun 2027 05:58:51.984            26.348               Magadan2           823.375
       133   02 Jun 2027 05:58:54.600   02 Jun 2027 05:59:24.903            30.303                Anadyr2           946.969
       134   02 Jun 2027 06:00:04.295   02 Jun 2027 06:00:09.815             5.520               Magadan2           172.500
       135   02 Jun 2027 07:31:45.806   02 Jun 2027 07:36:00.329           254.523                Anadyr2          7953.844
       136   02 Jun 2027 07:36:00.329   02 Jun 2027 07:36:25.155            24.826                Anadyr1           775.813
       137   02 Jun 2027 07:36:51.763   02 Jun 2027 07:37:07.627            15.864                Irkutsk           495.750
       138   02 Jun 2027 08:13:00.767   02 Jun 2027 08:14:40.934           100.167            RioGallegos          3130.219
       139   02 Jun 2027 09:09:04.409   02 Jun 2027 09:12:08.605           184.196               Magadan2          5756.125
       140   02 Jun 2027 09:13:18.143   02 Jun 2027 09:13:20.635             2.492                Irkutsk            77.875
       141   02 Jun 2027 09:13:20.890   02 Jun 2027 09:13:43.307            22.417                Irkutsk           700.531
       142   02 Jun 2027 09:14:04.083   02 Jun 2027 09:14:17.317            13.234                Norilsk           413.562
       143   02 Jun 2027 09:48:37.816   02 Jun 2027 09:50:23.510           105.694            RioGallegos          3302.937
       144   02 Jun 2027 10:23:14.730   02 Jun 2027 10:25:08.566           113.836                Sumatra          3557.375
       145   02 Jun 2027 10:43:23.034   02 Jun 2027 10:43:33.900            10.866                  Delhi           339.562
       146   02 Jun 2027 10:44:11.290   02 Jun 2027 10:44:40.094            28.804                Irkutsk           900.125
       147   02 Jun 2027 10:45:45.647   02 Jun 2027 10:45:58.723            13.076                Irkutsk           408.625
       148   02 Jun 2027 10:46:27.286   02 Jun 2027 10:46:39.198            11.912                Novosib           372.250
       149   02 Jun 2027 10:47:01.254   02 Jun 2027 10:47:12.554            11.300                Novosib           353.125
       150   02 Jun 2027 10:47:14.287   02 Jun 2027 10:47:29.554            15.267                Irkutsk           477.094
       151   02 Jun 2027 10:47:32.152   02 Jun 2027 10:48:28.056            55.904                Norilsk          1747.000
       152   02 Jun 2027 10:48:32.527   02 Jun 2027 10:49:19.177            46.650                Irkutsk          1457.813
       153   02 Jun 2027 10:49:34.955   02 Jun 2027 10:50:02.646            27.691                Norilsk           865.344
       154   02 Jun 2027 11:29:11.133   02 Jun 2027 11:29:48.685            37.552            RioGallegos          1173.500
       155   02 Jun 2027 11:31:36.800   02 Jun 2027 11:32:12.107            35.307            RioGallegos          1103.344
       156   02 Jun 2027 12:07:37.031   02 Jun 2027 12:07:43.466             6.435                  Delhi           201.094
       157   02 Jun 2027 12:09:39.773   02 Jun 2027 12:10:31.187            51.414                  Delhi          1606.688
       158   02 Jun 2027 12:15:30.527   02 Jun 2027 12:16:15.398            44.871                Novosib          1402.219
       159   02 Jun 2027 12:16:49.346   02 Jun 2027 12:17:13.537            24.191                Novosib           755.969
       160   02 Jun 2027 12:17:49.939   02 Jun 2027 12:18:24.643            34.704                Novosib          1084.500
       161   02 Jun 2027 12:19:32.988   02 Jun 2027 12:20:36.353            63.365                Novosib          1980.156
       162   02 Jun 2027 13:51:50.448   02 Jun 2027 13:55:47.814           237.366                 Moscow          7417.688
       163   02 Jun 2027 13:55:56.462   02 Jun 2027 13:58:13.522           137.060              Murmansk1          4283.125
       164   02 Jun 2027 13:59:34.899   02 Jun 2027 13:59:39.771             4.872                Norilsk           152.250
       165   02 Jun 2027 14:00:33.277   02 Jun 2027 14:01:08.600            35.323                Norilsk          1103.844
       166   02 Jun 2027 14:02:40.066   02 Jun 2027 14:03:08.501            28.435                Norilsk           888.594
       167   02 Jun 2027 15:06:18.070   02 Jun 2027 15:09:20.573           182.503               CapeTown          5703.219
       168   02 Jun 2027 15:11:55.081   02 Jun 2027 15:12:07.947            12.866               CapeTown           402.063
       169   02 Jun 2027 15:16:48.298   02 Jun 2027 15:17:00.337            12.039               CapeTown           376.219
       170   02 Jun 2027 15:29:22.839   02 Jun 2027 15:30:09.514            46.675                 Moscow          1458.594
       171   02 Jun 2027 15:32:43.304   02 Jun 2027 15:32:52.954             9.650              Murmansk2           301.562
       172   02 Jun 2027 15:33:01.639   02 Jun 2027 15:33:19.016            17.377              Murmansk2           543.031
       173   02 Jun 2027 15:36:54.169   02 Jun 2027 15:37:06.932            12.763              Murmansk1           398.844
       174   02 Jun 2027 15:46:19.283   02 Jun 2027 15:48:26.411           127.128                Anadyr2          3972.750
       175   02 Jun 2027 15:48:55.806   02 Jun 2027 15:49:57.199            61.393                Anadyr2          1918.531
       176   02 Jun 2027 16:43:24.336   02 Jun 2027 16:43:49.026            24.690               CapeTown           771.563
       177   02 Jun 2027 16:49:50.969   02 Jun 2027 16:50:17.509            26.540               CapeTown           829.375
       178   02 Jun 2027 17:11:55.937   02 Jun 2027 17:13:43.841           107.904              Murmansk2          3372.000
       179   02 Jun 2027 17:14:42.145   02 Jun 2027 17:15:08.835            26.690              Murmansk2           834.062
       180   02 Jun 2027 17:16:14.387   02 Jun 2027 17:16:42.601            28.214              Murmansk1           881.688
       181   02 Jun 2027 17:21:54.209   02 Jun 2027 17:22:54.635            60.426                Anadyr1          1888.312
       182   02 Jun 2027 17:23:03.964   02 Jun 2027 17:23:22.896            18.932                Anadyr2           591.625
       183   02 Jun 2027 17:24:48.298   02 Jun 2027 17:25:15.054            26.756                Anadyr2           836.125
       184   02 Jun 2027 17:25:58.548   02 Jun 2027 17:26:12.154            13.606                Anadyr1           425.187
       185   02 Jun 2027 17:26:25.663   02 Jun 2027 17:27:52.187            86.524               Magadan2          2703.875
       186   02 Jun 2027 17:27:52.187   02 Jun 2027 17:28:17.109            24.922               Magadan1           778.813
       187   02 Jun 2027 18:57:49.322   02 Jun 2027 18:59:53.982           124.660                Anadyr1          3895.625
       188   02 Jun 2027 19:00:09.785   02 Jun 2027 19:03:39.591           209.806               Magadan1          6556.438
       189   02 Jun 2027 19:04:21.210   02 Jun 2027 19:04:48.214            27.004               Magadan1           843.875
       190   02 Jun 2027 19:07:08.456   02 Jun 2027 19:07:36.015            27.559               Magadan1           861.219
       191   02 Jun 2027 19:54:57.107   02 Jun 2027 19:56:50.706           113.599            RioGallegos          3549.969
       192   02 Jun 2027 20:33:39.806   02 Jun 2027 20:34:08.175            28.369                Anadyr1           886.531
       193   02 Jun 2027 20:34:53.507   02 Jun 2027 20:35:47.151            53.644                Anadyr2          1676.375
       194   02 Jun 2027 20:35:52.085   02 Jun 2027 20:38:52.317           180.232                Norilsk          5632.250
       195   02 Jun 2027 20:39:02.730   02 Jun 2027 20:39:33.325            30.595                Norilsk           956.094
       196   02 Jun 2027 20:41:02.329   02 Jun 2027 20:41:47.027            44.698                Irkutsk          1396.812
       197   02 Jun 2027 20:43:35.827   02 Jun 2027 20:44:04.880            29.053                Irkutsk           907.906
       198   02 Jun 2027 20:44:26.668   02 Jun 2027 20:44:43.310            16.642                Irkutsk           520.063
       199   02 Jun 2027 20:45:44.673   02 Jun 2027 20:46:50.742            66.069                Irkutsk          2064.656
       200   02 Jun 2027 20:47:27.820   02 Jun 2027 20:47:33.767             5.947                Irkutsk           185.844
       201   02 Jun 2027 20:56:30.658   02 Jun 2027 20:58:18.840           108.182                Sumatra          3380.687
       202   02 Jun 2027 20:59:51.322   02 Jun 2027 21:01:18.021            86.699                Sumatra          2709.344
       203   02 Jun 2027 22:11:33.443   02 Jun 2027 22:13:02.845            89.402                Norilsk          2793.813
       204   02 Jun 2027 22:15:22.594   02 Jun 2027 22:15:38.495            15.901               Magadan2           496.906
       205   02 Jun 2027 22:16:20.057   02 Jun 2027 22:17:37.665            77.608                Novosib          2425.250
       206   02 Jun 2027 22:21:25.289   02 Jun 2027 22:23:10.178           104.889                Novosib          3277.781
       207   02 Jun 2027 22:28:06.755   02 Jun 2027 22:28:20.475            13.720                  Delhi           428.750
       208   02 Jun 2027 22:38:11.995   02 Jun 2027 22:38:17.633             5.638                Sumatra           176.187
       209   02 Jun 2027 23:43:15.558   02 Jun 2027 23:45:17.373           121.815                Anadyr1          3806.719
       210   02 Jun 2027 23:47:33.361   02 Jun 2027 23:47:51.616            18.255                Norilsk           570.469
       211   02 Jun 2027 23:48:09.120   02 Jun 2027 23:49:29.962            80.842               Magadan1          2526.313
       212   02 Jun 2027 23:50:45.240   02 Jun 2027 23:52:51.953           126.713              Murmansk1          3959.781
       213   02 Jun 2027 23:52:51.953   02 Jun 2027 23:54:02.461            70.508              Murmansk2          2203.375
       214   02 Jun 2027 23:58:44.725   02 Jun 2027 23:59:19.542            34.817                  Delhi          1088.031
       215   03 Jun 2027 00:04:19.180   03 Jun 2027 00:04:45.734            26.554                  Delhi           829.813
       216   03 Jun 2027 00:07:07.836   03 Jun 2027 00:07:29.668            21.832                  Delhi           682.250
       217   03 Jun 2027 00:40:23.737   03 Jun 2027 00:41:08.746            45.009            RioGallegos          1406.531
       218   03 Jun 2027 00:43:36.617   03 Jun 2027 00:44:44.091            67.474            RioGallegos          2108.562
       219   03 Jun 2027 01:16:34.544   03 Jun 2027 01:16:56.792            22.248                Anadyr2           695.250
       220   03 Jun 2027 01:17:47.593   03 Jun 2027 01:18:08.674            21.081                Anadyr1           658.781
       221   03 Jun 2027 01:18:40.417   03 Jun 2027 01:19:09.101            28.684                Anadyr2           896.375
       222   03 Jun 2027 01:19:15.150   03 Jun 2027 01:19:20.692             5.542                Anadyr2           173.187
       223   03 Jun 2027 01:19:20.692   03 Jun 2027 01:19:25.264             4.572                Anadyr1           142.875
       224   03 Jun 2027 01:22:42.474   03 Jun 2027 01:24:58.000           135.526               Magadan2          4235.187
       225   03 Jun 2027 01:25:45.156   03 Jun 2027 01:27:52.001           126.845              Murmansk1          3963.906
       226   03 Jun 2027 01:29:40.660   03 Jun 2027 01:30:42.167            61.507                 Moscow          1922.094
       227   03 Jun 2027 01:38:48.766   03 Jun 2027 01:39:16.522            27.756                  Delhi           867.375
       228   03 Jun 2027 01:56:20.125   03 Jun 2027 01:58:09.681           109.556               CapeTown          3423.625
       229   03 Jun 2027 02:50:18.436   03 Jun 2027 02:51:42.308            83.872                Anadyr2          2621.000
       230   03 Jun 2027 02:52:39.537   03 Jun 2027 02:52:51.511            11.974                Anadyr1           374.188
       231   03 Jun 2027 02:54:25.104   03 Jun 2027 02:55:42.847            77.743               Magadan1          2429.469
       232   03 Jun 2027 02:59:49.792   03 Jun 2027 03:00:13.972            24.180                Norilsk           755.625
       233   03 Jun 2027 03:08:19.872   03 Jun 2027 03:10:16.165           116.293                Norilsk          3634.156
       234   03 Jun 2027 03:10:34.989   03 Jun 2027 03:10:54.069            19.080                Norilsk           596.250
       235   03 Jun 2027 03:11:05.185   03 Jun 2027 03:11:07.533             2.348              Murmansk2            73.375
       236   03 Jun 2027 03:11:13.511   03 Jun 2027 03:11:19.133             5.622                Novosib           175.687
       237   03 Jun 2027 03:12:00.539   03 Jun 2027 03:15:38.390           217.851                 Moscow          6807.844
       238   03 Jun 2027 03:28:46.700   03 Jun 2027 03:31:41.428           174.728               CapeTown          5460.250
       239   03 Jun 2027 04:25:30.138   03 Jun 2027 04:28:42.342           192.204                Anadyr1          6006.375
       240   03 Jun 2027 04:31:59.584   03 Jun 2027 04:34:08.807           129.223               Magadan1          4038.219
       241   03 Jun 2027 04:34:08.807   03 Jun 2027 04:35:52.639           103.832               Magadan2          3244.750
       242   03 Jun 2027 06:10:21.644   03 Jun 2027 06:10:25.745             4.101               Magadan2           128.156
       243   03 Jun 2027 06:10:31.377   03 Jun 2027 06:12:02.778            91.401                Anadyr2          2856.281
       244   03 Jun 2027 06:12:06.224   03 Jun 2027 06:12:09.787             3.563               Magadan1           111.344
       245   03 Jun 2027 07:42:25.055   03 Jun 2027 07:42:35.674            10.619               Magadan2           331.844
       246   03 Jun 2027 07:43:26.567   03 Jun 2027 07:43:44.864            18.297               Magadan2           571.781
       247   03 Jun 2027 07:43:50.325   03 Jun 2027 07:44:27.113            36.788               Magadan1          1149.625
       248   03 Jun 2027 07:44:32.527   03 Jun 2027 07:44:59.495            26.968               Magadan2           842.750
       249   03 Jun 2027 07:45:21.125   03 Jun 2027 07:45:50.628            29.503                Anadyr2           921.969
       250   03 Jun 2027 07:46:06.350   03 Jun 2027 07:46:30.581            24.231               Magadan1           757.219
       251   03 Jun 2027 07:46:42.711   03 Jun 2027 07:47:11.190            28.479               Magadan1           889.969
       252   03 Jun 2027 07:47:19.541   03 Jun 2027 07:47:57.328            37.787               Magadan1          1180.844
       253   03 Jun 2027 07:48:12.872   03 Jun 2027 07:48:17.260             4.388               Magadan1           137.125
       254   03 Jun 2027 07:48:17.260   03 Jun 2027 07:48:22.341             5.081               Magadan2           158.781
       255   03 Jun 2027 07:48:23.225   03 Jun 2027 07:48:57.092            33.867                Anadyr2          1058.344
       256   03 Jun 2027 07:48:58.465   03 Jun 2027 07:49:45.274            46.809               Magadan2          1462.781
       257   03 Jun 2027 08:24:48.493   03 Jun 2027 08:25:14.578            26.085            RioGallegos           815.156
       258   03 Jun 2027 09:01:57.104   03 Jun 2027 09:04:04.725           127.621                Sumatra          3988.156
       259   03 Jun 2027 09:20:18.055   03 Jun 2027 09:20:58.469            40.414               Magadan2          1262.938
       260   03 Jun 2027 09:21:01.582   03 Jun 2027 09:22:28.999            87.417               Magadan2          2731.781
       261   03 Jun 2027 09:23:44.495   03 Jun 2027 09:23:49.038             4.543                Irkutsk           141.969
       262   03 Jun 2027 09:23:54.692   03 Jun 2027 09:24:53.210            58.518                Irkutsk          1828.688
       263   03 Jun 2027 09:25:06.000   03 Jun 2027 09:25:17.054            11.054                Irkutsk           345.437
       264   03 Jun 2027 09:25:21.989   03 Jun 2027 09:25:25.716             3.727                Novosib           116.469
       265   03 Jun 2027 09:25:38.304   03 Jun 2027 09:25:43.104             4.800                Irkutsk           150.000
       266   03 Jun 2027 10:00:52.728   03 Jun 2027 10:01:42.587            49.859            RioGallegos          1558.094
       267   03 Jun 2027 10:03:16.742   03 Jun 2027 10:03:29.312            12.570            RioGallegos           392.813
       268   03 Jun 2027 10:10:20.103   03 Jun 2027 10:10:25.128             5.025            RioGallegos           157.031
       269   03 Jun 2027 10:35:20.346   03 Jun 2027 10:37:39.815           139.469                Sumatra          4358.406
       270   03 Jun 2027 10:55:51.439   03 Jun 2027 10:55:52.834             1.395                  Delhi            43.594
       271   03 Jun 2027 10:57:27.274   03 Jun 2027 10:57:31.415             4.141                Novosib           129.406
       272   03 Jun 2027 10:57:59.868   03 Jun 2027 10:58:05.167             5.299                Irkutsk           165.594
       273   03 Jun 2027 10:58:57.355   03 Jun 2027 10:59:04.706             7.351                Novosib           229.719
       274   03 Jun 2027 10:59:05.923   03 Jun 2027 10:59:16.747            10.824                Norilsk           338.250
       275   03 Jun 2027 10:59:26.278   03 Jun 2027 10:59:45.074            18.796                Novosib           587.375
       276   03 Jun 2027 10:59:56.216   03 Jun 2027 11:00:10.244            14.028                Novosib           438.375
       277   03 Jun 2027 11:00:21.128   03 Jun 2027 11:00:57.004            35.876                Norilsk          1121.125
       278   03 Jun 2027 11:01:12.358   03 Jun 2027 11:01:35.184            22.826                Norilsk           713.312
       279   03 Jun 2027 11:43:16.916   03 Jun 2027 11:44:41.610            84.694            RioGallegos          2646.687
       280   03 Jun 2027 12:19:52.650   03 Jun 2027 12:20:47.139            54.489                  Delhi          1702.781
       281   03 Jun 2027 12:24:42.027   03 Jun 2027 12:24:51.076             9.049                  Delhi           282.781
       282   03 Jun 2027 12:27:58.372   03 Jun 2027 12:28:41.704            43.332                Novosib          1354.125
       283   03 Jun 2027 12:29:32.574   03 Jun 2027 12:29:56.402            23.828                Novosib           744.625
       284   03 Jun 2027 12:31:42.969   03 Jun 2027 12:32:52.970            70.001              Murmansk2          2187.531
       285   03 Jun 2027 12:33:58.490   03 Jun 2027 12:34:06.099             7.609                Norilsk           237.781
       286   03 Jun 2027 12:35:18.131   03 Jun 2027 12:35:48.812            30.681                Norilsk           958.781
       287   03 Jun 2027 14:03:52.461   03 Jun 2027 14:07:36.283           223.822                 Moscow          6994.437
       288   03 Jun 2027 14:07:43.935   03 Jun 2027 14:10:40.082           176.147              Murmansk2          5504.594
       289   03 Jun 2027 14:11:14.348   03 Jun 2027 14:11:26.964            12.616              Murmansk1           394.250
       290   03 Jun 2027 14:12:22.635   03 Jun 2027 14:13:10.251            47.616                Norilsk          1488.000
       291   03 Jun 2027 15:17:59.693   03 Jun 2027 15:21:21.273           201.580               CapeTown          6299.375
       292   03 Jun 2027 15:44:54.961   03 Jun 2027 15:45:01.983             7.022              Murmansk1           219.438
       293   03 Jun 2027 15:45:01.983   03 Jun 2027 15:45:43.862            41.879              Murmansk2          1308.719
       294   03 Jun 2027 15:48:33.678   03 Jun 2027 15:48:55.242            21.564              Murmansk1           673.875
       295   03 Jun 2027 15:49:25.928   03 Jun 2027 15:50:26.940            61.012              Murmansk2          1906.625
       296   03 Jun 2027 15:58:15.270   03 Jun 2027 15:58:47.837            32.567                Anadyr2          1017.719
       297   03 Jun 2027 15:58:56.997   03 Jun 2027 16:00:48.409           111.412                Anadyr1          3481.625
       298   03 Jun 2027 16:56:05.063   03 Jun 2027 16:57:54.887           109.824               CapeTown          3432.000
       299   03 Jun 2027 17:24:37.964   03 Jun 2027 17:24:54.498            16.534              Murmansk2           516.687
       300   03 Jun 2027 17:25:42.310   03 Jun 2027 17:26:43.718            61.408              Murmansk1          1919.000
       301   03 Jun 2027 17:28:12.660   03 Jun 2027 17:28:44.755            32.095              Murmansk1          1002.969
       302   03 Jun 2027 17:33:55.154   03 Jun 2027 17:34:46.819            51.665                Anadyr1          1614.531
       303   03 Jun 2027 17:35:24.836   03 Jun 2027 17:35:51.599            26.763                Anadyr1           836.344
       304   03 Jun 2027 17:36:58.963   03 Jun 2027 17:36:59.557             0.594               Magadan2            18.562
       305   03 Jun 2027 17:38:13.079   03 Jun 2027 17:38:18.531             5.452                Anadyr1           170.375
       306   03 Jun 2027 17:38:24.312   03 Jun 2027 17:40:19.367           115.055               Magadan2          3595.469
       307   03 Jun 2027 19:09:50.747   03 Jun 2027 19:11:53.276           122.529                Anadyr1          3829.031
       308   03 Jun 2027 19:11:53.682   03 Jun 2027 19:12:28.064            34.382                Anadyr2          1074.438
       309   03 Jun 2027 19:12:54.702   03 Jun 2027 19:13:33.875            39.173                Anadyr2          1224.156
       310   03 Jun 2027 19:13:35.361   03 Jun 2027 19:16:49.710           194.349               Magadan1          6073.406
       311   03 Jun 2027 19:24:33.107   03 Jun 2027 19:24:50.354            17.247               Magadan2           538.969
       312   03 Jun 2027 20:05:51.719   03 Jun 2027 20:08:30.049           158.330            RioGallegos          4947.813
       313   03 Jun 2027 20:09:52.316   03 Jun 2027 20:11:23.199            90.883            RioGallegos          2840.094
       314   03 Jun 2027 20:46:08.337   03 Jun 2027 20:46:56.899            48.562                Anadyr1          1517.563
       315   03 Jun 2027 20:47:37.223   03 Jun 2027 20:47:48.028            10.805                Anadyr1           337.656
       316   03 Jun 2027 20:47:48.695   03 Jun 2027 20:48:30.509            41.814                Norilsk          1306.687
       317   03 Jun 2027 20:49:44.428   03 Jun 2027 20:50:05.026            20.598               Magadan2           643.687
       318   03 Jun 2027 20:50:22.027   03 Jun 2027 20:51:00.288            38.261                Norilsk          1195.656
       319   03 Jun 2027 20:51:15.882   03 Jun 2027 20:51:32.647            16.765                Norilsk           523.906
       320   03 Jun 2027 20:52:40.079   03 Jun 2027 20:53:44.805            64.726                Irkutsk          2022.687
       321   03 Jun 2027 20:53:53.834   03 Jun 2027 20:54:38.154            44.320                Norilsk          1385.000
       322   03 Jun 2027 20:55:32.146   03 Jun 2027 20:55:54.303            22.157                Irkutsk           692.406
       323   03 Jun 2027 20:56:44.770   03 Jun 2027 20:57:45.326            60.556                Irkutsk          1892.375
       324   03 Jun 2027 21:07:29.737   03 Jun 2027 21:09:52.774           143.037                Sumatra          4469.906
       325   03 Jun 2027 22:24:29.429   03 Jun 2027 22:25:24.272            54.843                Norilsk          1713.844
       326   03 Jun 2027 22:25:48.192   03 Jun 2027 22:26:15.270            27.078               Magadan2           846.187
       327   03 Jun 2027 22:27:29.438   03 Jun 2027 22:28:46.133            76.695                Irkutsk          2396.719
       328   03 Jun 2027 22:29:07.097   03 Jun 2027 22:31:24.066           136.969                Novosib          4280.281
       329   03 Jun 2027 22:37:51.103   03 Jun 2027 22:39:33.242           102.139                  Delhi          3191.844
       330   03 Jun 2027 23:57:13.425   03 Jun 2027 23:57:31.498            18.073                Anadyr2           564.781
       331   03 Jun 2027 23:58:55.139   03 Jun 2027 23:59:26.443            31.304                Anadyr2           978.250
       332   03 Jun 2027 23:59:35.346   03 Jun 2027 23:59:53.022            17.676                Norilsk           552.375
       333   04 Jun 2027 00:00:08.787   04 Jun 2027 00:01:25.068            76.281               Magadan2          2383.781
       334   04 Jun 2027 00:01:25.068   04 Jun 2027 00:01:38.059            12.991               Magadan1           405.969
       335   04 Jun 2027 00:02:28.484   04 Jun 2027 00:06:02.525           214.041              Murmansk2          6688.781
       336   04 Jun 2027 00:14:49.367   04 Jun 2027 00:15:04.812            15.445                  Delhi           482.656
       337   04 Jun 2027 00:19:33.522   04 Jun 2027 00:19:46.657            13.135                  Delhi           410.469
       338   04 Jun 2027 00:20:38.020   04 Jun 2027 00:22:44.180           126.160                  Delhi          3942.500
       339   04 Jun 2027 01:28:16.365   04 Jun 2027 01:28:41.856            25.491                Anadyr1           796.594
       340   04 Jun 2027 01:29:13.695   04 Jun 2027 01:29:48.896            35.201                Anadyr2          1100.031
       341   04 Jun 2027 01:30:46.657   04 Jun 2027 01:31:19.697            33.040                Anadyr2          1032.500
       342   04 Jun 2027 01:34:17.084   04 Jun 2027 01:34:27.463            10.379               Magadan2           324.344
       343   04 Jun 2027 01:34:27.830   04 Jun 2027 01:36:10.984           103.154               Magadan1          3223.563
       344   04 Jun 2027 01:36:25.577   04 Jun 2027 01:37:35.396            69.819               Magadan2          2181.844
       345   04 Jun 2027 01:37:45.424   04 Jun 2027 01:38:35.657            50.233              Murmansk1          1569.781
       346   04 Jun 2027 01:38:42.874   04 Jun 2027 01:39:24.096            41.222              Murmansk2          1288.187
       347   04 Jun 2027 01:43:07.669   04 Jun 2027 01:44:43.286            95.617                 Moscow          2988.031
       348   04 Jun 2027 02:07:27.805   04 Jun 2027 02:08:22.163            54.358               CapeTown          1698.688
       349   04 Jun 2027 03:02:08.627   04 Jun 2027 03:02:22.002            13.375                Anadyr1           417.969
       350   04 Jun 2027 03:03:05.094   04 Jun 2027 03:03:22.063            16.969                Anadyr1           530.281
       351   04 Jun 2027 03:07:02.140   04 Jun 2027 03:08:01.678            59.538                Anadyr1          1860.562
       352   04 Jun 2027 03:23:57.637   04 Jun 2027 03:28:29.914           272.277                 Moscow          8508.656
       353   04 Jun 2027 03:40:47.575   04 Jun 2027 03:43:21.931           154.356               CapeTown          4823.625
       354   04 Jun 2027 04:37:34.225   04 Jun 2027 04:40:51.794           197.569                Anadyr2          6174.031
       355   04 Jun 2027 04:42:12.406   04 Jun 2027 04:43:18.517            66.111                Anadyr2          2065.969
       356   04 Jun 2027 04:43:30.049   04 Jun 2027 04:43:56.471            26.422               Magadan2           825.687
       357   04 Jun 2027 04:44:19.975   04 Jun 2027 04:48:11.375           231.400               Magadan2          7231.250
       358   04 Jun 2027 06:20:57.006   04 Jun 2027 06:21:39.334            42.328                Anadyr2          1322.750
       359   04 Jun 2027 06:21:44.269   04 Jun 2027 06:22:01.874            17.605                Anadyr1           550.156
       360   04 Jun 2027 06:22:01.874   04 Jun 2027 06:22:31.308            29.434                Anadyr2           919.812
       361   04 Jun 2027 06:22:45.432   04 Jun 2027 06:24:08.632            83.200               Magadan1          2600.000
       362   04 Jun 2027 07:55:28.252   04 Jun 2027 07:55:35.888             7.636               Magadan2           238.625
       363   04 Jun 2027 07:55:43.709   04 Jun 2027 07:55:43.839             0.130               Magadan2             4.063
       364   04 Jun 2027 07:55:43.839   04 Jun 2027 07:56:34.392            50.553               Magadan1          1579.781
       365   04 Jun 2027 07:56:45.868   04 Jun 2027 07:57:25.196            39.328                Anadyr1          1229.000
       366   04 Jun 2027 07:57:39.278   04 Jun 2027 07:58:53.316            74.038                Anadyr1          2313.687
       367   04 Jun 2027 07:59:05.596   04 Jun 2027 07:59:07.635             2.039               Magadan1            63.719
       368   04 Jun 2027 07:59:56.350   04 Jun 2027 08:00:07.404            11.054                Irkutsk           345.437
       369   04 Jun 2027 08:00:16.262   04 Jun 2027 08:00:18.234             1.972               Magadan1            61.625
       370   04 Jun 2027 08:00:20.299   04 Jun 2027 08:00:23.080             2.781                Anadyr2            86.906
       371   04 Jun 2027 08:00:31.808   04 Jun 2027 08:00:58.318            26.510              Murmansk1           828.438
       372   04 Jun 2027 08:01:10.869   04 Jun 2027 08:01:12.110             1.241               Magadan2            38.781
       373   04 Jun 2027 08:01:12.110   04 Jun 2027 08:01:38.948            26.838               Magadan1           838.688
       374   04 Jun 2027 08:03:48.793   04 Jun 2027 08:04:23.294            34.501              Murmansk2          1078.156
       375   04 Jun 2027 08:36:39.409   04 Jun 2027 08:36:58.505            19.096            RioGallegos           596.750
       376   04 Jun 2027 08:37:52.925   04 Jun 2027 08:38:33.903            40.978            RioGallegos          1280.563
       377   04 Jun 2027 09:13:06.864   04 Jun 2027 09:13:34.171            27.307                Sumatra           853.344
       378   04 Jun 2027 09:16:30.138   04 Jun 2027 09:17:54.604            84.466                Sumatra          2639.563
       379   04 Jun 2027 09:34:22.147   04 Jun 2027 09:35:13.464            51.317                Novosib          1603.656
       380   04 Jun 2027 09:35:46.144   04 Jun 2027 09:35:51.324             5.180                Irkutsk           161.875
       381   04 Jun 2027 09:35:55.129   04 Jun 2027 09:36:55.583            60.454                Novosib          1889.187
       382   04 Jun 2027 09:37:28.376   04 Jun 2027 09:37:40.104            11.728                Novosib           366.500
       383   04 Jun 2027 10:13:11.884   04 Jun 2027 10:13:58.746            46.862            RioGallegos          1464.438
       384   04 Jun 2027 10:15:53.639   04 Jun 2027 10:16:43.331            49.692            RioGallegos          1552.875
       385   04 Jun 2027 10:47:31.960   04 Jun 2027 10:48:00.392            28.432                Sumatra           888.500
       386   04 Jun 2027 10:56:16.961   04 Jun 2027 10:56:54.145            37.184                  Delhi          1162.000
       387   04 Jun 2027 11:10:54.902   04 Jun 2027 11:11:36.394            41.492                Irkutsk          1296.625
       388   04 Jun 2027 11:11:45.393   04 Jun 2027 11:12:59.002            73.609                Norilsk          2300.281
       389   04 Jun 2027 11:13:10.836   04 Jun 2027 11:13:25.307            14.471                Novosib           452.219
       390   04 Jun 2027 12:32:15.187   04 Jun 2027 12:34:37.353           142.166                  Delhi          4442.687
       391   04 Jun 2027 12:40:31.497   04 Jun 2027 12:41:59.102            87.605                Novosib          2737.656
       392   04 Jun 2027 12:44:10.068   04 Jun 2027 12:44:40.393            30.325                Novosib           947.656
       393   04 Jun 2027 12:44:54.333   04 Jun 2027 12:45:15.558            21.225              Murmansk2           663.281
       394   04 Jun 2027 12:45:25.370   04 Jun 2027 12:46:52.438            87.068                Norilsk          2720.875
       395   04 Jun 2027 14:15:57.453   04 Jun 2027 14:18:03.325           125.872                 Moscow          3933.500
       396   04 Jun 2027 14:19:11.134   04 Jun 2027 14:20:07.935            56.801                 Moscow          1775.031
       397   04 Jun 2027 14:20:52.545   04 Jun 2027 14:23:00.829           128.284              Murmansk1          4008.875
       398   04 Jun 2027 14:25:16.907   04 Jun 2027 14:26:00.312            43.405                Norilsk          1356.406
       399   04 Jun 2027 14:26:08.778   04 Jun 2027 14:26:33.808            25.030                Norilsk           782.188
       400   04 Jun 2027 14:28:53.816   04 Jun 2027 14:29:43.241            49.425                Norilsk          1544.531
       401   04 Jun 2027 14:36:24.672   04 Jun 2027 14:36:34.983            10.311                Anadyr1           322.219
       402   04 Jun 2027 14:36:47.996   04 Jun 2027 14:37:18.678            30.682                Anadyr1           958.812
       403   04 Jun 2027 14:38:17.507   04 Jun 2027 14:38:53.314            35.807                Anadyr1          1118.969
       404   04 Jun 2027 15:29:46.478   04 Jun 2027 15:30:18.009            31.531               CapeTown           985.344
       405   04 Jun 2027 15:31:21.063   04 Jun 2027 15:31:44.817            23.754               CapeTown           742.313
       406   04 Jun 2027 15:54:38.798   04 Jun 2027 15:54:42.976             4.178                 Moscow           130.562
       407   04 Jun 2027 15:55:31.412   04 Jun 2027 15:56:03.310            31.898                 Moscow           996.812
       408   04 Jun 2027 15:57:08.841   04 Jun 2027 15:58:39.178            90.337              Murmansk2          2823.031
       409   04 Jun 2027 16:01:26.312   04 Jun 2027 16:02:25.597            59.285              Murmansk1          1852.656
       410   04 Jun 2027 16:10:12.457   04 Jun 2027 16:10:49.188            36.731                Anadyr1          1147.844
       411   04 Jun 2027 16:10:50.490   04 Jun 2027 16:12:39.480           108.990                Anadyr2          3405.937
       412   04 Jun 2027 17:05:43.217   04 Jun 2027 17:06:41.477            58.260               CapeTown          1820.625
       413   04 Jun 2027 17:37:24.783   04 Jun 2027 17:40:09.774           164.991              Murmansk2          5155.969
       414   04 Jun 2027 17:40:46.845   04 Jun 2027 17:41:04.740            17.895              Murmansk1           559.219
       415   04 Jun 2027 17:45:56.297   04 Jun 2027 17:46:42.329            46.032                Anadyr1          1438.500
       416   04 Jun 2027 17:47:24.876   04 Jun 2027 17:48:01.467            36.591                Anadyr1          1143.469
       417   04 Jun 2027 17:48:48.843   04 Jun 2027 17:50:54.113           125.270               Magadan2          3914.687
       418   04 Jun 2027 17:52:19.188   04 Jun 2027 17:52:43.538            24.350               Magadan1           760.938
       419   04 Jun 2027 19:21:52.071   04 Jun 2027 19:25:41.382           229.311                Anadyr1          7165.969
       420   04 Jun 2027 19:26:01.223   04 Jun 2027 19:26:08.407             7.184                Anadyr2           224.500
       421   04 Jun 2027 19:26:13.904   04 Jun 2027 19:28:28.965           135.061               Magadan2          4220.656
       422   04 Jun 2027 19:28:50.679   04 Jun 2027 19:28:51.376             0.697               Magadan1            21.781
       423   04 Jun 2027 19:28:55.543   04 Jun 2027 19:29:16.209            20.666               Magadan2           645.813
       424   04 Jun 2027 19:31:25.331   04 Jun 2027 19:31:51.147            25.816               Magadan2           806.750
       425   04 Jun 2027 20:17:15.955   04 Jun 2027 20:20:14.863           178.908            RioGallegos          5590.875
       426   04 Jun 2027 20:23:42.070   04 Jun 2027 20:24:14.368            32.298            RioGallegos          1009.312
       427   04 Jun 2027 20:58:04.098   04 Jun 2027 20:59:31.569            87.471                Anadyr1          2733.469
       428   04 Jun 2027 21:00:07.091   04 Jun 2027 21:01:08.649            61.558               Magadan2          1923.688
       429   04 Jun 2027 21:01:34.407   04 Jun 2027 21:01:49.591            15.184                Norilsk           474.500
       430   04 Jun 2027 21:02:17.140   04 Jun 2027 21:03:03.100            45.960                Norilsk          1436.250
       431   04 Jun 2027 21:04:23.908   04 Jun 2027 21:05:43.726            79.818                Irkutsk          2494.312
       432   04 Jun 2027 21:07:25.393   04 Jun 2027 21:07:46.376            20.983                Irkutsk           655.719
       433   04 Jun 2027 21:18:47.515   04 Jun 2027 21:21:12.148           144.633                Sumatra          4519.781
       434   04 Jun 2027 21:23:24.272   04 Jun 2027 21:24:03.895            39.623                Sumatra          1238.219
       435   04 Jun 2027 22:36:13.901   04 Jun 2027 22:36:24.587            10.686               Magadan1           333.937
       436   04 Jun 2027 22:36:30.581   04 Jun 2027 22:37:43.629            73.048                Norilsk          2282.750
       437   04 Jun 2027 22:37:51.833   04 Jun 2027 22:38:12.107            20.274               Magadan2           633.562
       438   04 Jun 2027 22:39:29.551   04 Jun 2027 22:40:24.446            54.895                Irkutsk          1715.469
       439   04 Jun 2027 22:40:31.950   04 Jun 2027 22:43:16.548           164.598                Novosib          5143.687
       440   04 Jun 2027 22:48:53.107   04 Jun 2027 22:49:50.539            57.432                  Delhi          1794.750
       441   04 Jun 2027 22:54:00.632   04 Jun 2027 22:54:42.967            42.335                  Delhi          1322.969
       442   05 Jun 2027 00:06:41.580   05 Jun 2027 00:06:42.078             0.498                Anadyr1            15.563
       443   05 Jun 2027 00:07:23.827   05 Jun 2027 00:07:57.954            34.127                Anadyr2          1066.469
       444   05 Jun 2027 00:09:25.537   05 Jun 2027 00:09:32.737             7.200                Anadyr1           225.000
       445   05 Jun 2027 00:11:22.992   05 Jun 2027 00:11:25.470             2.478                Anadyr1            77.438
       446   05 Jun 2027 00:11:37.246   05 Jun 2027 00:11:54.715            17.469                Norilsk           545.906
       447   05 Jun 2027 00:12:07.168   05 Jun 2027 00:12:30.260            23.092               Magadan1           721.625
       448   05 Jun 2027 00:12:50.925   05 Jun 2027 00:13:37.721            46.796                Norilsk          1462.375
       449   05 Jun 2027 00:13:48.256   05 Jun 2027 00:14:37.263            49.007               Magadan2          1531.469
       450   05 Jun 2027 00:14:39.050   05 Jun 2027 00:18:57.676           258.626              Murmansk2          8082.062
       451   05 Jun 2027 00:32:08.475   05 Jun 2027 00:32:22.132            13.657                  Delhi           426.781
       452   05 Jun 2027 00:32:41.814   05 Jun 2027 00:33:53.923            72.109                  Delhi          2253.406
       453   05 Jun 2027 01:39:58.792   05 Jun 2027 01:41:11.877            73.085                Anadyr2          2283.906
       454   05 Jun 2027 01:41:11.877   05 Jun 2027 01:41:50.246            38.369                Anadyr1          1199.031
       455   05 Jun 2027 01:42:43.226   05 Jun 2027 01:43:10.510            27.284                Anadyr1           852.625
       456   05 Jun 2027 01:45:48.733   05 Jun 2027 01:46:51.853            63.120               Magadan1          1972.500
       457   05 Jun 2027 01:47:21.868   05 Jun 2027 01:47:53.215            31.347               Magadan1           979.594
       458   05 Jun 2027 01:48:11.444   05 Jun 2027 01:48:17.997             6.553               Magadan2           204.781
       459   05 Jun 2027 01:49:46.116   05 Jun 2027 01:50:37.094            50.978              Murmansk2          1593.062
       460   05 Jun 2027 01:50:56.181   05 Jun 2027 01:51:07.787            11.606              Murmansk1           362.687
       461   05 Jun 2027 01:51:34.603   05 Jun 2027 01:52:43.246            68.643                Novosib          2145.094
       462   05 Jun 2027 01:52:53.799   05 Jun 2027 01:53:16.210            22.411                Novosib           700.344
       463   05 Jun 2027 01:53:23.411   05 Jun 2027 01:53:52.499            29.088                 Moscow           909.000
       464   05 Jun 2027 01:59:47.414   05 Jun 2027 02:00:05.954            18.540                 Moscow           579.375
       465   05 Jun 2027 02:02:33.995   05 Jun 2027 02:02:49.770            15.775                  Delhi           492.969
       466   05 Jun 2027 02:05:09.390   05 Jun 2027 02:05:13.088             3.698                  Delhi           115.562
       467   05 Jun 2027 02:18:46.849   05 Jun 2027 02:19:03.059            16.210               CapeTown           506.562
       468   05 Jun 2027 02:20:05.636   05 Jun 2027 02:21:25.653            80.017               CapeTown          2500.531
       469   05 Jun 2027 03:16:28.199   05 Jun 2027 03:16:50.366            22.167                Anadyr2           692.719
       470   05 Jun 2027 03:25:52.430   05 Jun 2027 03:25:58.878             6.448               Magadan1           201.500
       471   05 Jun 2027 03:35:51.975   05 Jun 2027 03:40:05.875           253.900                 Moscow          7934.375
       472   05 Jun 2027 03:40:46.947   05 Jun 2027 03:40:56.420             9.473                 Moscow           296.031
       473   05 Jun 2027 03:52:53.564   05 Jun 2027 03:55:07.938           134.374               CapeTown          4199.188
       474   05 Jun 2027 03:55:37.576   05 Jun 2027 03:55:58.845            21.269               CapeTown           664.656
       475   05 Jun 2027 03:56:56.121   05 Jun 2027 03:57:19.468            23.347               CapeTown           729.594
       476   05 Jun 2027 03:57:57.581   05 Jun 2027 03:58:36.978            39.397               CapeTown          1231.156
       477   05 Jun 2027 04:04:34.894   05 Jun 2027 04:05:19.416            44.522               CapeTown          1391.313
       478   05 Jun 2027 04:49:40.361   05 Jun 2027 04:50:33.547            53.186                Anadyr1          1662.063
       479   05 Jun 2027 04:50:59.329   05 Jun 2027 04:51:11.237            11.908                Anadyr1           372.125
       480   05 Jun 2027 04:52:53.118   05 Jun 2027 04:53:17.120            24.002                Anadyr1           750.063
       481   05 Jun 2027 04:53:25.539   05 Jun 2027 04:53:41.264            15.725                Anadyr2           491.406
       482   05 Jun 2027 04:54:04.399   05 Jun 2027 04:54:46.903            42.504                Anadyr2          1328.250
