uniorb/output/strategy_4/Drop/Drop_KinoSat_110904.txt

KinoSat_110904
-------------------------
    Access    *     Start Time (UTCG)     *     Stop Time (UTCG)  *   Duration (s)        *       Station  *  Data (Mbytes)
         1   01 Jun 2027 03:41:48.622   01 Jun 2027 03:42:28.074            39.452                Anadyr1          1232.875
         2   01 Jun 2027 03:42:48.276   01 Jun 2027 03:43:19.873            31.597               Magadan1           987.406
         3   01 Jun 2027 03:43:45.719   01 Jun 2027 03:47:39.106           233.387                Anadyr2          7293.344
         4   01 Jun 2027 03:47:39.106   01 Jun 2027 03:47:44.407             5.301                Anadyr1           165.656
         5   01 Jun 2027 05:18:56.787   01 Jun 2027 05:21:09.431           132.644                Anadyr2          4145.125
         6   01 Jun 2027 06:54:15.642   01 Jun 2027 06:54:37.938            22.296                Norilsk           696.750
         7   01 Jun 2027 06:54:49.992   01 Jun 2027 06:57:46.877           176.885                Norilsk          5527.656
         8   01 Jun 2027 06:58:05.536   01 Jun 2027 06:58:28.109            22.573                Novosib           705.406
         9   01 Jun 2027 06:58:28.189   01 Jun 2027 06:58:47.529            19.340               Magadan2           604.375
        10   01 Jun 2027 06:58:53.664   01 Jun 2027 06:59:13.249            19.585                Norilsk           612.031
        11   01 Jun 2027 06:59:55.964   01 Jun 2027 07:00:10.264            14.300              Murmansk1           446.875
        12   01 Jun 2027 07:00:10.264   01 Jun 2027 07:00:45.716            35.452              Murmansk2          1107.875
        13   01 Jun 2027 07:01:02.514   01 Jun 2027 07:01:25.816            23.302              Murmansk2           728.187
        14   01 Jun 2027 07:33:47.119   01 Jun 2027 07:36:18.398           151.279            RioGallegos          4727.469
        15   01 Jun 2027 08:09:31.668   01 Jun 2027 08:12:24.289           172.621                Sumatra          5394.406
        16   01 Jun 2027 08:30:35.080   01 Jun 2027 08:31:05.391            30.311                Novosib           947.219
        17   01 Jun 2027 08:31:25.292   01 Jun 2027 08:31:48.887            23.595                Irkutsk           737.344
        18   01 Jun 2027 08:31:54.064   01 Jun 2027 08:33:01.004            66.940              Murmansk2          2091.875
        19   01 Jun 2027 08:33:08.726   01 Jun 2027 08:34:03.808            55.082              Murmansk2          1721.313
        20   01 Jun 2027 08:34:10.926   01 Jun 2027 08:35:18.147            67.221                Novosib          2100.656
        21   01 Jun 2027 09:11:06.479   01 Jun 2027 09:11:31.300            24.821            RioGallegos           775.656
        22   01 Jun 2027 09:12:29.459   01 Jun 2027 09:13:24.880            55.421            RioGallegos          1731.906
        23   01 Jun 2027 09:45:18.911   01 Jun 2027 09:46:18.223            59.312                Sumatra          1853.500
        24   01 Jun 2027 09:49:07.037   01 Jun 2027 09:49:23.397            16.360                Sumatra           511.250
        25   01 Jun 2027 09:53:07.433   01 Jun 2027 09:54:31.397            83.964                  Delhi          2623.875
        26   01 Jun 2027 09:55:20.504   01 Jun 2027 09:55:55.764            35.260                  Delhi          1101.875
        27   01 Jun 2027 10:07:05.267   01 Jun 2027 10:07:22.978            17.711                Irkutsk           553.469
        28   01 Jun 2027 10:08:18.936   01 Jun 2027 10:08:44.496            25.560                 Moscow           798.750
        29   01 Jun 2027 10:08:48.173   01 Jun 2027 10:09:54.090            65.917                Irkutsk          2059.906
        30   01 Jun 2027 10:10:28.669   01 Jun 2027 10:10:31.773             3.104                Norilsk            97.000
        31   01 Jun 2027 10:10:37.923   01 Jun 2027 10:11:37.026            59.103                Norilsk          1846.969
        32   01 Jun 2027 10:12:00.590   01 Jun 2027 10:13:20.168            79.578                 Moscow          2486.813
        33   01 Jun 2027 11:30:22.512   01 Jun 2027 11:32:51.071           148.559                  Delhi          4642.469
        34   01 Jun 2027 11:44:16.368   01 Jun 2027 11:44:18.168             1.800                Norilsk            56.250
        35   01 Jun 2027 11:44:20.726   01 Jun 2027 11:45:49.290            88.564              Murmansk1          2767.625
        36   01 Jun 2027 11:45:49.290   01 Jun 2027 11:45:58.049             8.759              Murmansk2           273.719
        37   01 Jun 2027 11:46:00.678   01 Jun 2027 11:46:19.799            19.121                Norilsk           597.531
        38   01 Jun 2027 11:46:23.470   01 Jun 2027 11:47:44.049            80.579              Murmansk1          2518.094
        39   01 Jun 2027 11:47:56.793   01 Jun 2027 11:49:01.906            65.113              Murmansk2          2034.781
        40   01 Jun 2027 11:51:49.807   01 Jun 2027 11:51:55.908             6.101                Norilsk           190.656
        41   01 Jun 2027 11:52:19.382   01 Jun 2027 11:52:28.240             8.858              Murmansk1           276.812
        42   01 Jun 2027 13:13:26.778   01 Jun 2027 13:14:54.773            87.995                 Moscow          2749.844
        43   01 Jun 2027 13:16:08.440   01 Jun 2027 13:17:29.453            81.013                 Moscow          2531.656
        44   01 Jun 2027 13:17:41.514   01 Jun 2027 13:21:33.089           231.575              Murmansk1          7236.719
        45   01 Jun 2027 13:24:05.776   01 Jun 2027 13:24:52.587            46.811              Murmansk2          1462.844
        46   01 Jun 2027 13:25:41.697   01 Jun 2027 13:26:20.717            39.020                Norilsk          1219.375
        47   01 Jun 2027 13:32:40.525   01 Jun 2027 13:36:02.376           201.851                Anadyr1          6307.844
        48   01 Jun 2027 13:36:06.017   01 Jun 2027 13:38:16.333           130.316                Anadyr2          4072.375
        49   01 Jun 2027 14:55:02.627   01 Jun 2027 14:57:38.813           156.186              Murmansk1          4880.812
        50   01 Jun 2027 15:03:23.557   01 Jun 2027 15:03:44.472            20.915              Murmansk2           653.594
        51   01 Jun 2027 15:04:09.273   01 Jun 2027 15:04:59.032            49.759              Murmansk2          1554.969
        52   01 Jun 2027 15:07:25.763   01 Jun 2027 15:08:24.880            59.117                Anadyr1          1847.406
        53   01 Jun 2027 15:08:29.774   01 Jun 2027 15:08:58.789            29.015                Anadyr2           906.719
        54   01 Jun 2027 15:09:36.656   01 Jun 2027 15:10:16.184            39.528                Anadyr1          1235.250
        55   01 Jun 2027 15:11:03.570   01 Jun 2027 15:11:25.610            22.040                Anadyr1           688.750
        56   01 Jun 2027 15:13:49.953   01 Jun 2027 15:13:57.528             7.575                Anadyr2           236.719
        57   01 Jun 2027 15:14:13.351   01 Jun 2027 15:15:29.681            76.330                Anadyr1          2385.312
        58   01 Jun 2027 15:17:16.254   01 Jun 2027 15:17:58.244            41.990                Anadyr1          1312.187
        59   01 Jun 2027 15:18:34.974   01 Jun 2027 15:18:52.672            17.698                Anadyr1           553.063
        60   01 Jun 2027 16:36:08.172   01 Jun 2027 16:38:14.665           126.493              Murmansk2          3952.906
        61   01 Jun 2027 16:38:14.665   01 Jun 2027 16:39:15.691            61.026              Murmansk1          1907.062
        62   01 Jun 2027 16:43:13.864   01 Jun 2027 16:44:25.121            71.257                Anadyr2          2226.781
        63   01 Jun 2027 16:45:23.209   01 Jun 2027 16:46:05.849            42.640                Anadyr2          1332.500
        64   01 Jun 2027 16:46:34.608   01 Jun 2027 16:48:34.093           119.485               Magadan2          3733.906
        65   01 Jun 2027 16:48:34.315   01 Jun 2027 16:49:44.460            70.145               Magadan1          2192.031
        66   01 Jun 2027 16:54:27.325   01 Jun 2027 16:55:24.440            57.115               Magadan2          1784.844
        67   01 Jun 2027 18:19:09.036   01 Jun 2027 18:22:48.939           219.903                Anadyr2          6871.969
        68   01 Jun 2027 18:23:09.573   01 Jun 2027 18:23:47.054            37.481               Magadan2          1171.281
        69   01 Jun 2027 18:24:04.096   01 Jun 2027 18:24:08.938             4.842                Norilsk           151.312
        70   01 Jun 2027 18:24:28.674   01 Jun 2027 18:24:43.394            14.720               Magadan2           460.000
        71   01 Jun 2027 18:25:16.678   01 Jun 2027 18:25:32.666            15.988               Magadan2           499.625
        72   01 Jun 2027 18:26:06.090   01 Jun 2027 18:26:49.957            43.867               Magadan2          1370.844
        73   01 Jun 2027 18:30:08.937   01 Jun 2027 18:30:13.960             5.023               Magadan2           156.969
        74   01 Jun 2027 18:30:57.325   01 Jun 2027 18:31:37.556            40.231               Magadan1          1257.219
        75   01 Jun 2027 18:32:37.577   01 Jun 2027 18:33:20.855            43.278               Magadan1          1352.437
        76   01 Jun 2027 19:13:57.871   01 Jun 2027 19:15:54.614           116.743            RioGallegos          3648.219
        77   01 Jun 2027 19:17:06.439   01 Jun 2027 19:17:25.697            19.258            RioGallegos           601.813
        78   01 Jun 2027 19:17:54.382   01 Jun 2027 19:20:20.148           145.766            RioGallegos          4555.188
        79   01 Jun 2027 19:56:33.608   01 Jun 2027 19:56:43.506             9.898                Anadyr1           309.313
        80   01 Jun 2027 19:57:01.650   01 Jun 2027 19:59:58.140           176.490                Norilsk          5515.312
        81   01 Jun 2027 20:01:02.587   01 Jun 2027 20:01:03.909             1.322                Norilsk            41.313
        82   01 Jun 2027 20:01:22.547   01 Jun 2027 20:02:31.848            69.301                Irkutsk          2165.656
        83   01 Jun 2027 20:03:26.182   01 Jun 2027 20:03:49.210            23.028                Irkutsk           719.625
        84   01 Jun 2027 20:04:20.606   01 Jun 2027 20:05:06.535            45.929                Irkutsk          1435.281
        85   01 Jun 2027 20:15:19.970   01 Jun 2027 20:18:47.131           207.161                Sumatra          6473.781
        86   01 Jun 2027 21:35:23.900   01 Jun 2027 21:35:50.238            26.338               Magadan1           823.063
        87   01 Jun 2027 21:36:13.850   01 Jun 2027 21:36:21.701             7.851               Magadan1           245.344
        88   01 Jun 2027 21:36:46.883   01 Jun 2027 21:37:55.448            68.565                Irkutsk          2142.656
        89   01 Jun 2027 21:38:40.555   01 Jun 2027 21:39:35.247            54.692                Novosib          1709.125
        90   01 Jun 2027 21:45:15.288   01 Jun 2027 21:48:27.621           192.333                  Delhi          6010.406
        91   01 Jun 2027 21:52:21.695   01 Jun 2027 21:52:22.380             0.685                  Delhi            21.406
        92   01 Jun 2027 21:53:12.015   01 Jun 2027 21:54:31.068            79.053                  Delhi          2470.406
        93   01 Jun 2027 23:08:55.383   01 Jun 2027 23:09:53.174            57.791                Norilsk          1805.969
        94   01 Jun 2027 23:09:53.403   01 Jun 2027 23:11:02.190            68.787               Magadan1          2149.594
        95   01 Jun 2027 23:11:25.062   01 Jun 2027 23:16:59.207           334.145              Murmansk2         10442.031
        96   01 Jun 2027 23:17:17.623   01 Jun 2027 23:17:57.906            40.283                 Moscow          1258.844
        97   01 Jun 2027 23:18:45.320   01 Jun 2027 23:19:37.062            51.742                 Moscow          1616.938
        98   02 Jun 2027 00:36:48.385   02 Jun 2027 00:36:55.117             6.732                Anadyr1           210.375
        99   02 Jun 2027 00:39:26.574   02 Jun 2027 00:40:07.263            40.689                Anadyr2          1271.531
       100   02 Jun 2027 00:42:15.365   02 Jun 2027 00:44:15.818           120.453               Magadan2          3764.156
       101   02 Jun 2027 00:44:56.190   02 Jun 2027 00:45:14.035            17.845               Magadan2           557.656
       102   02 Jun 2027 00:46:00.218   02 Jun 2027 00:46:23.440            23.222               Magadan2           725.687
       103   02 Jun 2027 00:47:03.599   02 Jun 2027 00:47:41.718            38.119              Murmansk2          1191.219
       104   02 Jun 2027 00:48:14.614   02 Jun 2027 00:50:03.685           109.071              Murmansk1          3408.469
       105   02 Jun 2027 00:50:15.252   02 Jun 2027 00:51:46.082            90.830                Novosib          2838.438
       106   02 Jun 2027 01:01:52.238   02 Jun 2027 01:02:14.640            22.402                 Moscow           700.063
       107   02 Jun 2027 01:15:15.090   02 Jun 2027 01:16:23.935            68.845               CapeTown          2151.406
       108   02 Jun 2027 01:21:23.816   02 Jun 2027 01:21:47.796            23.980               CapeTown           749.375
       109   02 Jun 2027 01:26:20.312   02 Jun 2027 01:26:37.018            16.706               CapeTown           522.063
       110   02 Jun 2027 02:11:05.954   02 Jun 2027 02:12:55.375           109.421                Anadyr1          3419.406
       111   02 Jun 2027 02:13:58.500   02 Jun 2027 02:15:21.468            82.968               Magadan2          2592.750
       112   02 Jun 2027 02:17:51.115   02 Jun 2027 02:17:54.583             3.468               Magadan2           108.375
       113   02 Jun 2027 02:19:16.756   02 Jun 2027 02:20:16.858            60.102               Magadan1          1878.187
       114   02 Jun 2027 02:23:01.328   02 Jun 2027 02:23:42.348            41.020              Murmansk1          1281.875
       115   02 Jun 2027 02:23:49.441   02 Jun 2027 02:24:16.216            26.775              Murmansk2           836.719
       116   02 Jun 2027 02:24:58.785   02 Jun 2027 02:25:08.533             9.748              Murmansk2           304.625
       117   02 Jun 2027 02:26:14.153   02 Jun 2027 02:27:03.850            49.697                 Moscow          1553.031
       118   02 Jun 2027 02:30:09.030   02 Jun 2027 02:31:05.507            56.477                 Moscow          1764.906
       119   02 Jun 2027 02:50:28.910   02 Jun 2027 02:50:51.049            22.139               CapeTown           691.844
       120   02 Jun 2027 02:52:17.529   02 Jun 2027 02:52:28.041            10.512               CapeTown           328.500
       121   02 Jun 2027 02:55:48.247   02 Jun 2027 02:56:15.581            27.334               CapeTown           854.187
       122   02 Jun 2027 03:53:34.866   02 Jun 2027 03:53:49.974            15.108                Anadyr1           472.125
       123   02 Jun 2027 03:53:50.552   02 Jun 2027 03:54:48.696            58.144               Magadan2          1817.000
       124   02 Jun 2027 03:55:18.445   02 Jun 2027 03:59:04.207           225.762               Magadan2          7055.063
       125   02 Jun 2027 03:59:15.369   02 Jun 2027 03:59:26.092            10.723                Anadyr2           335.094
       126   02 Jun 2027 03:59:26.092   02 Jun 2027 03:59:45.181            19.089                Anadyr1           596.531
       127   02 Jun 2027 05:31:47.507   02 Jun 2027 05:32:15.567            28.060               Magadan2           876.875
       128   02 Jun 2027 05:32:15.567   02 Jun 2027 05:33:07.688            52.121               Magadan1          1628.781
       129   02 Jun 2027 05:33:29.711   02 Jun 2027 05:33:52.982            23.271                Irkutsk           727.219
       130   02 Jun 2027 07:06:49.487   02 Jun 2027 07:07:13.267            23.780                Novosib           743.125
       131   02 Jun 2027 07:07:46.540   02 Jun 2027 07:08:33.913            47.373                Novosib          1480.406
       132   02 Jun 2027 07:08:34.988   02 Jun 2027 07:08:41.952             6.964                Irkutsk           217.625
       133   02 Jun 2027 07:09:07.640   02 Jun 2027 07:10:39.090            91.450               Magadan1          2857.812
       134   02 Jun 2027 07:11:12.714   02 Jun 2027 07:12:08.478            55.764                Novosib          1742.625
       135   02 Jun 2027 07:16:07.664   02 Jun 2027 07:17:40.899            93.235              Murmansk1          2913.594
       136   02 Jun 2027 07:54:58.477   02 Jun 2027 07:55:22.219            23.742            RioGallegos           741.937
       137   02 Jun 2027 07:56:00.688   02 Jun 2027 07:57:01.219            60.531            RioGallegos          1891.594
       138   02 Jun 2027 08:27:55.285   02 Jun 2027 08:29:16.029            80.744                Sumatra          2523.250
       139   02 Jun 2027 08:30:32.655   02 Jun 2027 08:31:43.686            71.031                Sumatra          2219.719
       140   02 Jun 2027 08:43:25.033   02 Jun 2027 08:44:00.591            35.558                Irkutsk          1111.188
       141   02 Jun 2027 08:44:51.202   02 Jun 2027 08:47:02.437           131.235                Irkutsk          4101.094
       142   02 Jun 2027 09:24:49.793   02 Jun 2027 09:25:22.324            32.531            RioGallegos          1016.594
       143   02 Jun 2027 09:27:05.039   02 Jun 2027 09:27:29.043            24.004            RioGallegos           750.125
       144   02 Jun 2027 09:28:01.921   02 Jun 2027 09:28:02.407             0.486            RioGallegos            15.187
       145   02 Jun 2027 09:57:50.934   02 Jun 2027 10:00:43.431           172.497                Sumatra          5390.531
       146   02 Jun 2027 10:01:27.199   02 Jun 2027 10:02:37.421            70.222                Sumatra          2194.438
       147   02 Jun 2027 10:18:54.325   02 Jun 2027 10:19:16.521            22.196                Novosib           693.625
       148   02 Jun 2027 10:19:37.922   02 Jun 2027 10:20:37.100            59.178                Irkutsk          1849.313
       149   02 Jun 2027 10:20:56.608   02 Jun 2027 10:21:12.205            15.597                Norilsk           487.406
       150   02 Jun 2027 10:21:43.683   02 Jun 2027 10:22:03.168            19.485                Novosib           608.906
       151   02 Jun 2027 10:22:11.348   02 Jun 2027 10:22:24.413            13.065                Novosib           408.281
       152   02 Jun 2027 10:22:33.175   02 Jun 2027 10:22:57.872            24.697                Novosib           771.781
       153   02 Jun 2027 11:43:24.512   02 Jun 2027 11:45:34.226           129.714                  Delhi          4053.563
       154   02 Jun 2027 11:50:52.727   02 Jun 2027 11:51:27.494            34.767                  Delhi          1086.469
       155   02 Jun 2027 11:57:49.214   02 Jun 2027 11:57:52.675             3.461              Murmansk1           108.156
       156   02 Jun 2027 11:57:53.614   02 Jun 2027 11:58:24.210            30.596              Murmansk1           956.125
       157   02 Jun 2027 11:58:29.244   02 Jun 2027 11:58:37.218             7.974              Murmansk1           249.187
       158   02 Jun 2027 11:58:44.506   02 Jun 2027 11:59:03.961            19.455              Murmansk1           607.969
       159   02 Jun 2027 11:59:34.469   02 Jun 2027 11:59:50.703            16.234                Norilsk           507.313
       160   02 Jun 2027 12:00:58.543   02 Jun 2027 12:01:51.395            52.852                Norilsk          1651.625
       161   02 Jun 2027 13:06:19.761   02 Jun 2027 13:08:05.065           105.304               CapeTown          3290.750
       162   02 Jun 2027 13:08:56.213   02 Jun 2027 13:09:34.510            38.297               CapeTown          1196.781
       163   02 Jun 2027 13:10:15.124   02 Jun 2027 13:11:14.526            59.402               CapeTown          1856.313
       164   02 Jun 2027 13:25:39.856   02 Jun 2027 13:26:19.568            39.712                 Moscow          1241.000
       165   02 Jun 2027 13:26:29.478   02 Jun 2027 13:26:54.125            24.647                 Moscow           770.219
       166   02 Jun 2027 13:29:07.936   02 Jun 2027 13:30:42.358            94.422              Murmansk2          2950.687
       167   02 Jun 2027 13:31:02.306   02 Jun 2027 13:31:29.200            26.894              Murmansk2           840.438
       168   02 Jun 2027 13:33:42.070   02 Jun 2027 13:33:48.849             6.779              Murmansk2           211.844
       169   02 Jun 2027 13:34:19.124   02 Jun 2027 13:34:36.178            17.054              Murmansk2           532.937
       170   02 Jun 2027 13:36:07.245   02 Jun 2027 13:36:20.361            13.116              Murmansk2           409.875
       171   02 Jun 2027 13:37:08.138   02 Jun 2027 13:37:36.595            28.457              Murmansk1           889.281
       172   02 Jun 2027 13:38:55.973   02 Jun 2027 13:39:11.939            15.966              Murmansk1           498.937
       173   02 Jun 2027 13:40:17.531   02 Jun 2027 13:40:26.636             9.105              Murmansk1           284.531
       174   02 Jun 2027 13:41:30.346   02 Jun 2027 13:41:37.610             7.264              Murmansk2           227.000
       175   02 Jun 2027 13:44:21.593   02 Jun 2027 13:46:27.033           125.440                Anadyr1          3920.000
       176   02 Jun 2027 13:47:09.507   02 Jun 2027 13:47:55.317            45.810                Anadyr2          1431.562
       177   02 Jun 2027 13:48:27.741   02 Jun 2027 13:48:57.185            29.444                Anadyr1           920.125
       178   02 Jun 2027 13:50:19.946   02 Jun 2027 13:50:45.744            25.798                Anadyr1           806.187
       179   02 Jun 2027 14:47:08.590   02 Jun 2027 14:47:16.803             8.213               CapeTown           256.656
       180   02 Jun 2027 15:07:30.348   02 Jun 2027 15:08:10.086            39.738              Murmansk2          1241.812
       181   02 Jun 2027 15:09:40.297   02 Jun 2027 15:09:47.757             7.460              Murmansk2           233.125
       182   02 Jun 2027 15:09:56.038   02 Jun 2027 15:11:37.087           101.049              Murmansk1          3157.781
       183   02 Jun 2027 15:19:24.835   02 Jun 2027 15:21:07.888           103.053                Anadyr1          3220.406
       184   02 Jun 2027 15:21:17.942   02 Jun 2027 15:21:37.706            19.764                Anadyr1           617.625
       185   02 Jun 2027 15:26:24.266   02 Jun 2027 15:26:42.120            17.854                Anadyr2           557.938
       186   02 Jun 2027 15:30:19.559   02 Jun 2027 15:30:41.663            22.104                Anadyr1           690.750
       187   02 Jun 2027 15:30:48.956   02 Jun 2027 15:30:51.408             2.452                Anadyr1            76.625
       188   02 Jun 2027 15:31:12.968   02 Jun 2027 15:31:13.447             0.479                Anadyr2            14.969
       189   02 Jun 2027 16:49:24.982   02 Jun 2027 16:51:48.011           143.029              Murmansk1          4469.656
       190   02 Jun 2027 16:55:15.204   02 Jun 2027 16:58:11.817           176.613                Anadyr1          5519.156
       191   02 Jun 2027 16:58:16.021   02 Jun 2027 16:59:16.346            60.325               Magadan1          1885.156
       192   02 Jun 2027 16:59:16.346   02 Jun 2027 16:59:50.352            34.006               Magadan2          1062.688
       193   02 Jun 2027 17:02:13.055   02 Jun 2027 17:02:31.074            18.019               Magadan2           563.094
       194   02 Jun 2027 17:03:57.771   02 Jun 2027 17:04:16.863            19.092               Magadan2           596.625
       195   02 Jun 2027 17:04:36.694   02 Jun 2027 17:04:45.516             8.822               Magadan2           275.688
       196   02 Jun 2027 17:04:54.942   02 Jun 2027 17:06:09.360            74.418               Magadan2          2325.562
       197   02 Jun 2027 18:31:09.785   02 Jun 2027 18:32:53.019           103.234                Anadyr2          3226.062
       198   02 Jun 2027 18:33:13.963   02 Jun 2027 18:34:50.405            96.442                Anadyr1          3013.812
       199   02 Jun 2027 18:34:50.443   02 Jun 2027 18:35:41.034            50.591               Magadan2          1580.969
       200   02 Jun 2027 18:36:04.018   02 Jun 2027 18:37:39.101            95.083                Norilsk          2971.344
       201   02 Jun 2027 19:25:42.870   02 Jun 2027 19:29:19.068           216.198            RioGallegos          6756.188
       202   02 Jun 2027 20:07:45.216   02 Jun 2027 20:08:43.234            58.018                Anadyr1          1813.063
       203   02 Jun 2027 20:09:01.587   02 Jun 2027 20:11:09.676           128.089                Norilsk          4002.781
       204   02 Jun 2027 20:13:14.682   02 Jun 2027 20:14:30.047            75.365                Irkutsk          2355.156
       205   02 Jun 2027 20:15:32.138   02 Jun 2027 20:18:02.548           150.410                Novosib          4700.313
       206   02 Jun 2027 20:27:02.157   02 Jun 2027 20:29:33.548           151.391                Sumatra          4730.969
       207   02 Jun 2027 21:46:13.107   02 Jun 2027 21:46:37.361            24.254                Norilsk           757.937
       208   02 Jun 2027 21:47:39.136   02 Jun 2027 21:47:59.069            19.933                Norilsk           622.906
       209   02 Jun 2027 21:48:49.036   02 Jun 2027 21:49:38.372            49.336                Irkutsk          1541.750
       210   02 Jun 2027 21:50:22.355   02 Jun 2027 21:51:55.997            93.642                Novosib          2926.312
       211   02 Jun 2027 21:56:52.542   02 Jun 2027 22:00:19.645           207.103                  Delhi          6471.969
       212   02 Jun 2027 23:16:43.483   02 Jun 2027 23:17:27.172            43.689                Anadyr1          1365.281
       213   02 Jun 2027 23:20:56.836   02 Jun 2027 23:22:37.189           100.353                Norilsk          3136.031
       214   02 Jun 2027 23:23:17.845   02 Jun 2027 23:24:08.675            50.830               Magadan1          1588.437
       215   02 Jun 2027 23:24:43.915   02 Jun 2027 23:25:19.837            35.922                Novosib          1122.563
       216   02 Jun 2027 23:25:29.445   02 Jun 2027 23:27:28.547           119.102              Murmansk2          3721.937
       217   02 Jun 2027 23:28:24.073   02 Jun 2027 23:29:29.879            65.806                 Moscow          2056.437
       218   02 Jun 2027 23:33:25.474   02 Jun 2027 23:33:46.436            20.962                 Moscow           655.063
       219   02 Jun 2027 23:33:55.085   02 Jun 2027 23:34:28.395            33.310                 Moscow          1040.937
       220   03 Jun 2027 00:48:32.985   03 Jun 2027 00:48:34.661             1.676                Anadyr2            52.375
       221   03 Jun 2027 00:50:25.439   03 Jun 2027 00:50:51.840            26.401                Anadyr1           825.031
       222   03 Jun 2027 00:51:17.805   03 Jun 2027 00:51:22.827             5.022                Anadyr2           156.938
       223   03 Jun 2027 00:53:18.532   03 Jun 2027 00:54:15.133            56.601                Anadyr2          1768.781
       224   03 Jun 2027 00:54:56.331   03 Jun 2027 00:55:34.428            38.097               Magadan2          1190.531
       225   03 Jun 2027 00:56:14.796   03 Jun 2027 00:56:57.220            42.424               Magadan1          1325.750
       226   03 Jun 2027 00:57:30.199   03 Jun 2027 00:58:03.073            32.874               Magadan1          1027.313
       227   03 Jun 2027 00:59:04.859   03 Jun 2027 00:59:29.759            24.900              Murmansk2           778.125
       228   03 Jun 2027 00:59:46.436   03 Jun 2027 01:01:15.704            89.268              Murmansk1          2789.625
       229   03 Jun 2027 01:01:21.301   03 Jun 2027 01:03:10.316           109.015              Murmansk1          3406.719
       230   03 Jun 2027 01:26:52.833   03 Jun 2027 01:28:04.048            71.215               CapeTown          2225.469
       231   03 Jun 2027 01:34:12.462   03 Jun 2027 01:34:35.470            23.008               CapeTown           719.000
       232   03 Jun 2027 02:23:01.725   03 Jun 2027 02:23:58.709            56.984                Anadyr2          1780.750
       233   03 Jun 2027 02:24:10.701   03 Jun 2027 02:24:20.341             9.640                Anadyr2           301.250
       234   03 Jun 2027 02:24:56.576   03 Jun 2027 02:25:15.197            18.621                Anadyr2           581.906
       235   03 Jun 2027 02:25:33.027   03 Jun 2027 02:26:00.394            27.367               Magadan1           855.219
       236   03 Jun 2027 02:26:12.041   03 Jun 2027 02:26:57.243            45.202               Magadan2          1412.562
       237   03 Jun 2027 02:30:45.491   03 Jun 2027 02:31:10.977            25.486               Magadan1           796.438
       238   03 Jun 2027 02:31:18.979   03 Jun 2027 02:32:01.430            42.451               Magadan2          1326.594
       239   03 Jun 2027 02:35:02.956   03 Jun 2027 02:36:22.736            79.780              Murmansk1          2493.125
       240   03 Jun 2027 02:38:16.808   03 Jun 2027 02:39:02.335            45.527                 Moscow          1422.719
       241   03 Jun 2027 02:39:50.899   03 Jun 2027 02:40:14.447            23.548                Novosib           735.875
       242   03 Jun 2027 02:44:26.519   03 Jun 2027 02:44:41.605            15.086                 Moscow           471.438
       243   03 Jun 2027 02:48:17.487   03 Jun 2027 02:48:46.450            28.963                 Moscow           905.094
       244   03 Jun 2027 03:02:49.555   03 Jun 2027 03:03:02.062            12.507               CapeTown           390.844
       245   03 Jun 2027 03:04:11.020   03 Jun 2027 03:04:55.378            44.358               CapeTown          1386.188
       246   03 Jun 2027 03:13:16.483   03 Jun 2027 03:13:25.239             8.756               CapeTown           273.625
       247   03 Jun 2027 04:04:33.759   03 Jun 2027 04:06:51.582           137.823               Magadan1          4306.969
       248   03 Jun 2027 04:06:57.678   03 Jun 2027 04:06:59.314             1.636               Magadan2            51.125
       249   03 Jun 2027 04:07:20.053   03 Jun 2027 04:08:11.170            51.117               Magadan2          1597.406
       250   03 Jun 2027 04:08:21.971   03 Jun 2027 04:11:45.676           203.705                Anadyr2          6365.781
       251   03 Jun 2027 04:52:53.413   03 Jun 2027 04:54:14.428            81.015            RioGallegos          2531.719
       252   03 Jun 2027 05:41:08.400   03 Jun 2027 05:42:45.889            97.489                Irkutsk          3046.531
       253   03 Jun 2027 05:43:59.271   03 Jun 2027 05:44:26.267            26.996                Irkutsk           843.625
       254   03 Jun 2027 05:45:18.034   03 Jun 2027 05:45:31.932            13.898                Anadyr1           434.312
       255   03 Jun 2027 05:45:31.932   03 Jun 2027 05:45:57.754            25.822                Anadyr2           806.938
       256   03 Jun 2027 05:46:07.776   03 Jun 2027 05:46:11.009             3.233                Irkutsk           101.031
       257   03 Jun 2027 05:46:56.592   03 Jun 2027 05:47:21.749            25.157               Magadan2           786.156
       258   03 Jun 2027 07:18:08.363   03 Jun 2027 07:18:27.488            19.125               Magadan1           597.656
       259   03 Jun 2027 07:18:45.954   03 Jun 2027 07:18:50.087             4.133               Magadan2           129.156
       260   03 Jun 2027 07:18:50.087   03 Jun 2027 07:19:22.163            32.076               Magadan1          1002.375
       261   03 Jun 2027 07:19:30.431   03 Jun 2027 07:19:57.086            26.655               Magadan2           832.969
       262   03 Jun 2027 07:20:15.403   03 Jun 2027 07:21:06.911            51.508               Magadan2          1609.625
       263   03 Jun 2027 07:21:06.911   03 Jun 2027 07:21:32.054            25.143               Magadan1           785.719
       264   03 Jun 2027 07:21:47.425   03 Jun 2027 07:22:10.491            23.066               Magadan1           720.813
       265   03 Jun 2027 07:22:10.491   03 Jun 2027 07:22:27.800            17.309               Magadan2           540.906
       266   03 Jun 2027 07:25:41.234   03 Jun 2027 07:25:57.650            16.416                Norilsk           513.000
       267   03 Jun 2027 07:57:48.461   03 Jun 2027 07:58:17.007            28.546            RioGallegos           892.062
       268   03 Jun 2027 07:59:25.421   03 Jun 2027 07:59:51.163            25.742            RioGallegos           804.438
       269   03 Jun 2027 08:32:55.751   03 Jun 2027 08:34:05.954            70.203                Sumatra          2193.844
       270   03 Jun 2027 08:36:46.190   03 Jun 2027 08:36:47.993             1.803                Sumatra            56.344
       271   03 Jun 2027 08:53:18.576   03 Jun 2027 08:53:39.800            21.224                Irkutsk           663.250
       272   03 Jun 2027 08:53:56.999   03 Jun 2027 08:54:20.151            23.152                Irkutsk           723.500
       273   03 Jun 2027 08:54:32.327   03 Jun 2027 08:55:17.052            44.725                Norilsk          1397.656
       274   03 Jun 2027 08:55:43.470   03 Jun 2027 08:56:06.416            22.946                Norilsk           717.062
       275   03 Jun 2027 08:56:11.305   03 Jun 2027 08:56:43.628            32.323                Norilsk          1010.094
       276   03 Jun 2027 08:56:55.422   03 Jun 2027 08:56:56.716             1.294                Irkutsk            40.438
       277   03 Jun 2027 08:56:58.238   03 Jun 2027 08:57:03.560             5.322                Irkutsk           166.313
       278   03 Jun 2027 08:57:32.160   03 Jun 2027 08:58:42.082            69.922                Irkutsk          2185.062
       279   03 Jun 2027 09:36:42.266   03 Jun 2027 09:37:22.844            40.578            RioGallegos          1268.062
       280   03 Jun 2027 10:10:37.038   03 Jun 2027 10:12:39.143           122.105                Sumatra          3815.781
       281   03 Jun 2027 10:32:05.804   03 Jun 2027 10:32:25.368            19.564                Novosib           611.375
       282   03 Jun 2027 10:32:27.259   03 Jun 2027 10:32:53.782            26.523                Norilsk           828.844
       283   03 Jun 2027 10:33:13.556   03 Jun 2027 10:33:22.025             8.469                Norilsk           264.656
       284   03 Jun 2027 10:33:25.093   03 Jun 2027 10:34:04.587            39.494                Norilsk          1234.187
       285   03 Jun 2027 10:34:12.587   03 Jun 2027 10:34:20.529             7.942                Novosib           248.188
       286   03 Jun 2027 10:34:27.007   03 Jun 2027 10:34:45.617            18.610                Novosib           581.563
       287   03 Jun 2027 11:56:23.947   03 Jun 2027 11:59:40.993           197.046                  Delhi          6157.687
       288   03 Jun 2027 13:17:10.667   03 Jun 2027 13:18:51.470           100.803               CapeTown          3150.094
       289   03 Jun 2027 13:20:26.736   03 Jun 2027 13:21:00.207            33.471               CapeTown          1045.969
       290   03 Jun 2027 13:22:23.434   03 Jun 2027 13:24:40.610           137.176               CapeTown          4286.750
       291   03 Jun 2027 13:41:52.744   03 Jun 2027 13:42:25.929            33.185              Murmansk2          1037.031
       292   03 Jun 2027 13:44:03.443   03 Jun 2027 13:44:37.209            33.766              Murmansk2          1055.188
       293   03 Jun 2027 13:46:06.730   03 Jun 2027 13:46:56.341            49.611              Murmansk2          1550.344
       294   03 Jun 2027 13:52:18.026   03 Jun 2027 13:52:48.750            30.724              Murmansk1           960.125
       295   03 Jun 2027 13:56:08.773   03 Jun 2027 13:59:46.190           217.417                Anadyr1          6794.281
       296   03 Jun 2027 15:20:00.762   03 Jun 2027 15:20:57.811            57.049              Murmansk2          1782.781
       297   03 Jun 2027 15:21:57.768   03 Jun 2027 15:21:58.880             1.112              Murmansk2            34.750
       298   03 Jun 2027 15:23:38.973   03 Jun 2027 15:25:34.258           115.285              Murmansk2          3602.656
       299   03 Jun 2027 15:31:24.453   03 Jun 2027 15:32:19.809            55.356                Anadyr1          1729.875
       300   03 Jun 2027 15:32:56.548   03 Jun 2027 15:32:58.660             2.112                Anadyr2            66.000
       301   03 Jun 2027 15:33:15.746   03 Jun 2027 15:33:18.805             3.059                Anadyr2            95.594
       302   03 Jun 2027 15:33:41.672   03 Jun 2027 15:34:18.798            37.126                Anadyr1          1160.187
       303   03 Jun 2027 15:35:51.949   03 Jun 2027 15:36:47.321            55.372               Magadan1          1730.375
       304   03 Jun 2027 15:36:59.197   03 Jun 2027 15:38:39.742           100.545               Magadan2          3142.031
       305   03 Jun 2027 15:39:13.262   03 Jun 2027 15:40:22.430            69.168               Magadan1          2161.500
       306   03 Jun 2027 17:07:16.595   03 Jun 2027 17:08:22.668            66.073                Anadyr2          2064.781
       307   03 Jun 2027 17:08:32.696   03 Jun 2027 17:08:50.863            18.167                Anadyr1           567.719
       308   03 Jun 2027 17:09:45.453   03 Jun 2027 17:11:26.121           100.668               Magadan1          3145.875
       309   03 Jun 2027 17:11:40.712   03 Jun 2027 17:11:52.902            12.190               Magadan2           380.938
       310   03 Jun 2027 17:11:55.998   03 Jun 2027 17:13:41.544           105.546               Magadan1          3298.313
       311   03 Jun 2027 18:43:10.288   03 Jun 2027 18:46:21.702           191.414                Anadyr2          5981.687
       312   03 Jun 2027 18:46:25.340   03 Jun 2027 18:47:44.016            78.676               Magadan2          2458.625
       313   03 Jun 2027 18:48:04.437   03 Jun 2027 18:48:37.295            32.858                Norilsk          1026.812
       314   03 Jun 2027 18:52:54.818   03 Jun 2027 18:54:51.694           116.876                Irkutsk          3652.375
       315   03 Jun 2027 19:37:31.621   03 Jun 2027 19:39:36.293           124.672            RioGallegos          3896.000
       316   03 Jun 2027 19:40:47.141   03 Jun 2027 19:40:52.093             4.952            RioGallegos           154.750
       317   03 Jun 2027 20:21:02.039   03 Jun 2027 20:22:52.439           110.400                Norilsk          3450.000
       318   03 Jun 2027 20:23:42.833   03 Jun 2027 20:24:04.151            21.318               Magadan1           666.188
       319   03 Jun 2027 20:24:38.154   03 Jun 2027 20:24:42.007             3.853               Magadan1           120.406
       320   03 Jun 2027 20:25:06.340   03 Jun 2027 20:25:22.705            16.365                Norilsk           511.406
       321   03 Jun 2027 20:25:54.011   03 Jun 2027 20:26:04.532            10.521               Magadan2           328.781
       322   03 Jun 2027 20:26:11.617   03 Jun 2027 20:26:40.279            28.662                Norilsk           895.688
       323   03 Jun 2027 20:26:45.802   03 Jun 2027 20:29:25.205           159.403                Novosib          4981.344
       324   03 Jun 2027 20:29:47.442   03 Jun 2027 20:30:27.374            39.932                Novosib          1247.875
       325   03 Jun 2027 20:32:25.983   03 Jun 2027 20:33:11.910            45.927                Novosib          1435.219
       326   03 Jun 2027 20:38:50.877   03 Jun 2027 20:39:56.803            65.926                Sumatra          2060.188
       327   03 Jun 2027 20:41:26.961   03 Jun 2027 20:41:46.454            19.493                Sumatra           609.156
       328   03 Jun 2027 20:42:19.917   03 Jun 2027 20:42:29.270             9.353                Sumatra           292.281
       329   03 Jun 2027 20:49:12.815   03 Jun 2027 20:50:14.609            61.794                Sumatra          1931.063
       330   03 Jun 2027 21:57:36.425   03 Jun 2027 21:58:20.837            44.412               Magadan1          1387.875
       331   03 Jun 2027 22:00:51.966   03 Jun 2027 22:01:28.593            36.627                Irkutsk          1144.594
       332   03 Jun 2027 22:02:47.370   03 Jun 2027 22:04:10.840            83.470                Novosib          2608.437
       333   03 Jun 2027 22:08:36.159   03 Jun 2027 22:12:15.408           219.249                  Delhi          6851.531
       334   03 Jun 2027 23:28:32.501   03 Jun 2027 23:28:44.664            12.163                Anadyr2           380.094
       335   03 Jun 2027 23:29:27.462   03 Jun 2027 23:29:34.191             6.729                Anadyr2           210.281
       336   03 Jun 2027 23:32:55.715   03 Jun 2027 23:33:59.699            63.984               Magadan1          1999.500
       337   03 Jun 2027 23:33:59.699   03 Jun 2027 23:34:47.704            48.005               Magadan2          1500.156
       338   03 Jun 2027 23:35:18.761   03 Jun 2027 23:39:57.476           278.715              Murmansk1          8709.844
       339   03 Jun 2027 23:40:43.853   03 Jun 2027 23:41:27.706            43.853                 Moscow          1370.406
       340   03 Jun 2027 23:45:05.173   03 Jun 2027 23:45:29.361            24.188                 Moscow           755.875
       341   03 Jun 2027 23:46:03.452   03 Jun 2027 23:46:47.592            44.140                 Moscow          1379.375
       342   04 Jun 2027 01:03:09.084   04 Jun 2027 01:03:18.284             9.200                Anadyr2           287.500
       343   04 Jun 2027 01:05:11.522   04 Jun 2027 01:06:27.959            76.437               Magadan2          2388.656
       344   04 Jun 2027 01:07:16.739   04 Jun 2027 01:07:44.093            27.354               Magadan1           854.813
       345   04 Jun 2027 01:08:43.930   04 Jun 2027 01:08:47.808             3.878                Norilsk           121.188
       346   04 Jun 2027 01:08:56.549   04 Jun 2027 01:09:16.344            19.795               Magadan1           618.594
       347   04 Jun 2027 01:11:06.300   04 Jun 2027 01:13:24.720           138.420              Murmansk2          4325.625
       348   04 Jun 2027 01:13:32.630   04 Jun 2027 01:13:44.099            11.469              Murmansk2           358.406
       349   04 Jun 2027 01:15:05.254   04 Jun 2027 01:15:11.993             6.739              Murmansk1           210.594
       350   04 Jun 2027 01:16:04.241   04 Jun 2027 01:16:33.867            29.626                 Moscow           925.813
       351   04 Jun 2027 01:17:22.294   04 Jun 2027 01:17:24.137             1.843                 Moscow            57.594
       352   04 Jun 2027 01:17:38.138   04 Jun 2027 01:17:56.944            18.806                 Moscow           587.688
       353   04 Jun 2027 01:22:07.312   04 Jun 2027 01:22:22.741            15.429                 Moscow           482.156
       354   04 Jun 2027 01:26:02.360   04 Jun 2027 01:26:34.674            32.314                 Moscow          1009.813
       355   04 Jun 2027 01:38:36.248   04 Jun 2027 01:39:11.296            35.048               CapeTown          1095.250
       356   04 Jun 2027 01:46:00.835   04 Jun 2027 01:46:31.152            30.317               CapeTown           947.406
       357   04 Jun 2027 01:49:57.810   04 Jun 2027 01:50:57.073            59.263               CapeTown          1851.969
       358   04 Jun 2027 02:34:59.238   04 Jun 2027 02:35:34.119            34.881                Anadyr2          1090.031
       359   04 Jun 2027 02:35:57.981   04 Jun 2027 02:36:11.018            13.037                Anadyr2           407.406
       360   04 Jun 2027 02:36:27.306   04 Jun 2027 02:36:57.646            30.340                Anadyr2           948.125
       361   04 Jun 2027 02:37:09.165   04 Jun 2027 02:37:12.870             3.705               Magadan1           115.781
       362   04 Jun 2027 02:37:47.640   04 Jun 2027 02:38:25.248            37.608               Magadan2          1175.250
       363   04 Jun 2027 02:39:43.203   04 Jun 2027 02:40:06.666            23.463               Magadan2           733.219
       364   04 Jun 2027 02:42:24.396   04 Jun 2027 02:43:21.437            57.041               Magadan1          1782.531
       365   04 Jun 2027 02:47:04.488   04 Jun 2027 02:48:01.789            57.301              Murmansk2          1790.656
       366   04 Jun 2027 02:48:34.876   04 Jun 2027 02:48:44.964            10.088              Murmansk2           315.250
       367   04 Jun 2027 02:50:19.961   04 Jun 2027 02:51:14.155            54.194                 Moscow          1693.563
       368   04 Jun 2027 02:55:16.503   04 Jun 2027 02:55:30.368            13.865                 Moscow           433.281
       369   04 Jun 2027 02:57:24.073   04 Jun 2027 02:58:47.701            83.628                 Moscow          2613.375
       370   04 Jun 2027 04:15:55.443   04 Jun 2027 04:16:15.427            19.984                Anadyr1           624.500
       371   04 Jun 2027 04:16:29.504   04 Jun 2027 04:16:37.435             7.931                Anadyr1           247.844
       372   04 Jun 2027 04:16:47.553   04 Jun 2027 04:18:27.158            99.605               Magadan2          3112.656
       373   04 Jun 2027 04:18:27.158   04 Jun 2027 04:18:57.014            29.856               Magadan1           933.000
       374   04 Jun 2027 04:19:20.000   04 Jun 2027 04:20:56.045            96.045               Magadan1          3001.406
       375   04 Jun 2027 04:21:02.474   04 Jun 2027 04:21:12.659            10.185               Magadan1           318.281
       376   04 Jun 2027 04:21:22.605   04 Jun 2027 04:21:58.100            35.495                Anadyr1          1109.219
       377   04 Jun 2027 04:22:10.218   04 Jun 2027 04:22:43.622            33.404               Magadan1          1043.875
       378   04 Jun 2027 05:52:34.543   04 Jun 2027 05:53:14.194            39.651                Irkutsk          1239.094
       379   04 Jun 2027 05:53:41.228   04 Jun 2027 05:53:46.837             5.609                Irkutsk           175.281
       380   04 Jun 2027 05:54:01.285   04 Jun 2027 05:54:15.826            14.541                Irkutsk           454.406
       381   04 Jun 2027 05:54:27.552   04 Jun 2027 05:55:21.134            53.582               Magadan2          1674.437
       382   04 Jun 2027 05:55:23.969   04 Jun 2027 05:55:54.843            30.874                Anadyr1           964.813
       383   04 Jun 2027 05:56:21.586   04 Jun 2027 05:57:04.388            42.802                Irkutsk          1337.563
       384   04 Jun 2027 05:57:08.435   04 Jun 2027 05:57:31.797            23.362                Anadyr1           730.062
       385   04 Jun 2027 05:59:16.593   04 Jun 2027 05:59:17.731             1.138               Magadan2            35.563
       386   04 Jun 2027 07:29:43.659   04 Jun 2027 07:30:27.728            44.069               Magadan2          1377.156
       387   04 Jun 2027 07:30:42.222   04 Jun 2027 07:30:49.683             7.461               Magadan2           233.156
       388   04 Jun 2027 07:31:25.566   04 Jun 2027 07:32:02.880            37.314               Magadan2          1166.062
       389   04 Jun 2027 07:33:04.032   04 Jun 2027 07:33:21.875            17.843                Norilsk           557.594
       390   04 Jun 2027 07:33:29.940   04 Jun 2027 07:33:34.855             4.915               Magadan1           153.594
       391   04 Jun 2027 07:33:57.159   04 Jun 2027 07:34:06.840             9.681               Magadan2           302.531
       392   04 Jun 2027 07:35:03.120   04 Jun 2027 07:35:52.875            49.755              Murmansk2          1554.844
       393   04 Jun 2027 08:12:23.764   04 Jun 2027 08:13:04.876            41.112            RioGallegos          1284.750
       394   04 Jun 2027 08:44:47.469   04 Jun 2027 08:45:45.811            58.342                Sumatra          1823.188
       395   04 Jun 2027 09:06:14.325   04 Jun 2027 09:06:18.005             3.680                Novosib           115.000
       396   04 Jun 2027 09:07:09.117   04 Jun 2027 09:08:13.208            64.091                Irkutsk          2002.844
       397   04 Jun 2027 09:08:29.533   04 Jun 2027 09:08:42.318            12.785                Irkutsk           399.531
       398   04 Jun 2027 09:08:44.320   04 Jun 2027 09:08:58.885            14.565                Irkutsk           455.156
       399   04 Jun 2027 09:09:32.848   04 Jun 2027 09:09:42.044             9.196                Irkutsk           287.375
       400   04 Jun 2027 09:10:10.963   04 Jun 2027 09:10:48.893            37.930                Irkutsk          1185.313
       401   04 Jun 2027 09:49:06.835   04 Jun 2027 09:49:26.739            19.904            RioGallegos           622.000
       402   04 Jun 2027 09:50:27.896   04 Jun 2027 09:50:52.686            24.790            RioGallegos           774.688
       403   04 Jun 2027 09:52:41.426   04 Jun 2027 09:53:10.308            28.882            RioGallegos           902.562
       404   04 Jun 2027 10:23:50.178   04 Jun 2027 10:24:27.587            37.409                Sumatra          1169.031
       405   04 Jun 2027 10:28:56.062   04 Jun 2027 10:29:11.179            15.117                  Delhi           472.406
       406   04 Jun 2027 10:31:18.787   04 Jun 2027 10:31:28.367             9.580                  Delhi           299.375
       407   04 Jun 2027 10:33:26.543   04 Jun 2027 10:33:32.114             5.571                  Delhi           174.094
       408   04 Jun 2027 10:44:33.681   04 Jun 2027 10:44:34.681             1.000                Novosib            31.250
       409   04 Jun 2027 10:45:37.757   04 Jun 2027 10:45:39.803             2.046                Norilsk            63.938
       410   04 Jun 2027 10:45:43.291   04 Jun 2027 10:46:03.476            20.185                Novosib           630.781
       411   04 Jun 2027 10:46:06.414   04 Jun 2027 10:46:23.559            17.145                Norilsk           535.781
       412   04 Jun 2027 10:46:29.073   04 Jun 2027 10:47:05.355            36.282                Novosib          1133.813
       413   04 Jun 2027 12:11:21.399   04 Jun 2027 12:11:46.255            24.856                  Delhi           776.750
       414   04 Jun 2027 12:18:44.823   04 Jun 2027 12:20:32.434           107.611                Novosib          3362.844
       415   04 Jun 2027 12:21:13.880   04 Jun 2027 12:22:54.327           100.447                Norilsk          3138.969
       416   04 Jun 2027 13:28:28.551   04 Jun 2027 13:31:26.140           177.589               CapeTown          5549.656
       417   04 Jun 2027 13:34:34.971   04 Jun 2027 13:35:09.176            34.205               CapeTown          1068.906
       418   04 Jun 2027 13:53:34.712   04 Jun 2027 13:54:43.549            68.837              Murmansk1          2151.156
       419   04 Jun 2027 13:55:12.941   04 Jun 2027 13:56:05.033            52.092              Murmansk1          1627.875
       420   04 Jun 2027 13:56:34.275   04 Jun 2027 13:57:16.967            42.692              Murmansk1          1334.125
       421   04 Jun 2027 14:00:09.668   04 Jun 2027 14:00:10.956             1.288              Murmansk1            40.250
       422   04 Jun 2027 14:00:42.765   04 Jun 2027 14:01:40.907            58.142              Murmansk2          1816.938
       423   04 Jun 2027 14:07:59.655   04 Jun 2027 14:10:26.664           147.009                Anadyr1          4594.031
       424   04 Jun 2027 14:10:39.962   04 Jun 2027 14:11:23.456            43.494                Anadyr2          1359.188
       425   04 Jun 2027 15:13:38.102   04 Jun 2027 15:14:16.347            38.245               CapeTown          1195.156
       426   04 Jun 2027 15:32:34.101   04 Jun 2027 15:33:42.641            68.540              Murmansk1          2141.875
       427   04 Jun 2027 15:35:01.990   04 Jun 2027 15:35:40.797            38.807              Murmansk2          1212.719
       428   04 Jun 2027 15:39:49.043   04 Jun 2027 15:41:26.367            97.324              Murmansk1          3041.375
       429   04 Jun 2027 15:44:14.682   04 Jun 2027 15:45:14.605            59.923                Anadyr1          1872.594
       430   04 Jun 2027 15:47:15.013   04 Jun 2027 15:50:27.303           192.290               Magadan2          6009.063
       431   04 Jun 2027 15:52:36.481   04 Jun 2027 15:53:35.530            59.049               Magadan1          1845.281
       432   04 Jun 2027 17:19:18.000   04 Jun 2027 17:20:41.956            83.956                Anadyr1          2623.625
       433   04 Jun 2027 17:21:15.328   04 Jun 2027 17:21:16.328             1.000                Anadyr2            31.250
       434   04 Jun 2027 17:21:42.916   04 Jun 2027 17:23:19.496            96.580               Magadan1          3018.125
       435   04 Jun 2027 17:28:42.088   04 Jun 2027 17:28:48.099             6.011               Magadan2           187.844
       436   04 Jun 2027 17:28:48.099   04 Jun 2027 17:28:58.241            10.142               Magadan1           316.938
       437   04 Jun 2027 17:32:31.828   04 Jun 2027 17:32:35.348             3.520               Magadan1           110.000
       438   04 Jun 2027 17:33:09.259   04 Jun 2027 17:33:31.576            22.317               Magadan1           697.406
       439   04 Jun 2027 17:33:49.360   04 Jun 2027 17:33:50.012             0.652               Magadan1            20.375
       440   04 Jun 2027 18:55:10.496   04 Jun 2027 18:58:58.373           227.877                Anadyr2          7121.156
       441   04 Jun 2027 18:59:18.597   04 Jun 2027 19:01:20.623           122.026                Norilsk          3813.313
       442   04 Jun 2027 19:02:39.840   04 Jun 2027 19:03:33.603            53.763                Norilsk          1680.094
       443   04 Jun 2027 19:04:06.476   04 Jun 2027 19:06:05.826           119.350                Irkutsk          3729.687
       444   04 Jun 2027 19:08:06.536   04 Jun 2027 19:08:22.322            15.786                Irkutsk           493.312
       445   04 Jun 2027 19:49:47.636   04 Jun 2027 19:50:55.778            68.142            RioGallegos          2129.437
       446   04 Jun 2027 20:32:07.428   04 Jun 2027 20:32:41.304            33.876                Anadyr1          1058.625
       447   04 Jun 2027 20:33:02.893   04 Jun 2027 20:33:28.408            25.515                Norilsk           797.344
       448   04 Jun 2027 20:33:34.522   04 Jun 2027 20:34:15.788            41.266               Magadan2          1289.563
       449   04 Jun 2027 20:34:15.788   04 Jun 2027 20:34:19.372             3.584               Magadan1           112.000
       450   04 Jun 2027 20:34:27.596   04 Jun 2027 20:34:59.431            31.835               Magadan1           994.844
       451   04 Jun 2027 20:37:04.760   04 Jun 2027 20:38:52.835           108.075                Irkutsk          3377.344
       452   04 Jun 2027 20:39:13.574   04 Jun 2027 20:41:36.144           142.570                Novosib          4455.312
       453   04 Jun 2027 20:43:59.448   04 Jun 2027 20:44:16.378            16.930                Novosib           529.062
       454   04 Jun 2027 20:44:34.582   04 Jun 2027 20:45:23.777            49.195                Novosib          1537.344
       455   04 Jun 2027 20:51:32.773   04 Jun 2027 20:52:19.789            47.016                Sumatra          1469.250
       456   04 Jun 2027 20:59:14.193   04 Jun 2027 21:00:19.710            65.517                Sumatra          2047.406
       457   04 Jun 2027 22:09:37.753   04 Jun 2027 22:10:50.956            73.203               Magadan1          2287.594
       458   04 Jun 2027 22:12:54.692   04 Jun 2027 22:14:46.439           111.747                Novosib          3492.094
       459   04 Jun 2027 22:20:24.760   04 Jun 2027 22:21:49.211            84.451                  Delhi          2639.094
       460   04 Jun 2027 22:21:57.601   04 Jun 2027 22:23:01.819            64.218                  Delhi          2006.812
       461   04 Jun 2027 23:44:13.383   04 Jun 2027 23:44:30.871            17.488                Anadyr2           546.500
       462   04 Jun 2027 23:44:40.409   04 Jun 2027 23:45:31.578            51.169               Magadan1          1599.031
       463   04 Jun 2027 23:46:14.343   04 Jun 2027 23:47:03.339            48.996               Magadan1          1531.125
       464   04 Jun 2027 23:47:17.300   04 Jun 2027 23:51:17.893           240.593              Murmansk2          7518.531
       465   04 Jun 2027 23:51:32.505   04 Jun 2027 23:52:46.464            73.959                 Moscow          2311.219
       466   04 Jun 2027 23:53:37.724   04 Jun 2027 23:53:42.870             5.146                 Moscow           160.812
       467   04 Jun 2027 23:55:49.242   04 Jun 2027 23:57:33.719           104.477                 Moscow          3264.906
       468   05 Jun 2027 00:19:41.988   05 Jun 2027 00:20:42.385            60.397               CapeTown          1887.406
       469   05 Jun 2027 00:22:32.457   05 Jun 2027 00:23:19.838            47.381               CapeTown          1480.656
       470   05 Jun 2027 01:16:39.640   05 Jun 2027 01:17:38.937            59.297               Magadan1          1853.031
       471   05 Jun 2027 01:20:27.320   05 Jun 2027 01:20:55.193            27.873               Magadan2           871.031
       472   05 Jun 2027 01:23:07.862   05 Jun 2027 01:24:11.080            63.218              Murmansk1          1975.562
       473   05 Jun 2027 01:24:11.080   05 Jun 2027 01:24:49.906            38.826              Murmansk2          1213.313
       474   05 Jun 2027 01:25:19.940   05 Jun 2027 01:25:56.331            36.391                Novosib          1137.219
       475   05 Jun 2027 01:28:14.483   05 Jun 2027 01:28:26.594            12.111                 Moscow           378.469
       476   05 Jun 2027 01:29:10.790   05 Jun 2027 01:29:25.899            15.109                 Moscow           472.156
       477   05 Jun 2027 01:30:26.445   05 Jun 2027 01:31:18.420            51.975                 Moscow          1624.219
       478   05 Jun 2027 01:50:24.911   05 Jun 2027 01:51:53.968            89.057               CapeTown          2783.031
       479   05 Jun 2027 02:46:58.561   05 Jun 2027 02:48:58.544           119.983                Anadyr2          3749.469
       480   05 Jun 2027 02:49:34.283   05 Jun 2027 02:49:53.801            19.518               Magadan2           609.937
       481   05 Jun 2027 02:51:12.052   05 Jun 2027 02:51:26.572            14.520               Magadan2           453.750
       482   05 Jun 2027 02:52:16.947   05 Jun 2027 02:52:57.975            41.028               Magadan1          1282.125
