uniorb/output/strategy_4/Drop/Drop_KinoSat_111109.txt

KinoSat_111109
-------------------------
    Access    *     Start Time (UTCG)     *     Stop Time (UTCG)  *   Duration (s)        *       Station  *  Data (Mbytes)
         1   01 Jun 2027 03:00:02.111   01 Jun 2027 03:00:47.489            45.378                 Moscow          1055.500
         2   01 Jun 2027 03:01:08.841   01 Jun 2027 03:01:21.229            12.388                 Moscow           387.125
         3   01 Jun 2027 03:01:36.061   01 Jun 2027 03:01:51.327            15.266                 Moscow           477.062
         4   01 Jun 2027 03:02:16.045   01 Jun 2027 03:03:14.715            58.670                 Moscow          1833.438
         5   01 Jun 2027 03:18:10.072   01 Jun 2027 03:20:35.886           145.814               CapeTown          4556.687
         6   01 Jun 2027 04:22:04.633   01 Jun 2027 04:22:37.746            33.113               Magadan2          1034.781
         7   01 Jun 2027 04:22:43.954   01 Jun 2027 04:24:22.622            98.668                Anadyr1          3083.375
         8   01 Jun 2027 04:24:22.622   01 Jun 2027 04:24:23.920             1.298                Anadyr2            40.563
         9   01 Jun 2027 04:24:28.411   01 Jun 2027 04:25:48.191            79.780               Magadan1          2493.125
        10   01 Jun 2027 04:26:27.120   01 Jun 2027 04:26:28.654             1.534                Anadyr2            47.937
        11   01 Jun 2027 05:58:38.593   01 Jun 2027 05:59:21.899            43.306                Irkutsk          1353.313
        12   01 Jun 2027 06:00:16.963   01 Jun 2027 06:01:56.497            99.534                Anadyr2          3110.437
        13   01 Jun 2027 06:01:56.497   01 Jun 2027 06:02:12.813            16.316                Anadyr1           509.875
        14   01 Jun 2027 06:42:24.710   01 Jun 2027 06:43:27.791            63.081            RioGallegos          1971.281
        15   01 Jun 2027 07:33:39.679   01 Jun 2027 07:34:34.633            54.954                Norilsk          1717.312
        16   01 Jun 2027 07:34:34.810   01 Jun 2027 07:37:28.246           173.436                Anadyr1          5419.875
        17   01 Jun 2027 07:37:28.334   01 Jun 2027 07:38:18.255            49.921                Irkutsk          1560.031
        18   01 Jun 2027 07:38:28.861   01 Jun 2027 07:38:51.985            23.124                Irkutsk           722.625
        19   01 Jun 2027 07:38:57.762   01 Jun 2027 07:39:01.379             3.617               Magadan1           113.031
        20   01 Jun 2027 07:39:58.051   01 Jun 2027 07:41:35.807            97.756              Murmansk1          3054.875
        21   01 Jun 2027 07:45:11.503   01 Jun 2027 07:45:49.858            38.355              Murmansk2          1198.594
        22   01 Jun 2027 08:13:58.860   01 Jun 2027 08:15:22.735            83.875            RioGallegos          2621.094
        23   01 Jun 2027 08:15:54.272   01 Jun 2027 08:16:53.116            58.844            RioGallegos          1838.875
        24   01 Jun 2027 08:50:17.449   01 Jun 2027 08:51:15.908            58.459                Sumatra          1826.844
        25   01 Jun 2027 09:10:58.705   01 Jun 2027 09:15:08.923           250.218                Irkutsk          7819.313
        26   01 Jun 2027 09:15:31.097   01 Jun 2027 09:16:32.803            61.706                Novosib          1928.313
        27   01 Jun 2027 10:47:58.794   01 Jun 2027 10:48:47.110            48.316                Novosib          1509.875
        28   01 Jun 2027 10:48:49.807   01 Jun 2027 10:50:00.441            70.634              Murmansk2          2207.313
        29   01 Jun 2027 10:50:02.591   01 Jun 2027 10:50:16.478            13.887                Irkutsk           433.969
        30   01 Jun 2027 10:50:25.687   01 Jun 2027 10:50:44.399            18.712                Novosib           584.750
        31   01 Jun 2027 10:50:46.370   01 Jun 2027 10:51:26.461            40.091              Murmansk2          1252.844
        32   01 Jun 2027 12:09:44.016   01 Jun 2027 12:14:54.363           310.347                  Delhi          9698.344
        33   01 Jun 2027 12:18:02.995   01 Jun 2027 12:18:16.245            13.250                Novosib           414.062
        34   01 Jun 2027 12:18:35.890   01 Jun 2027 12:19:15.828            39.938                Novosib          1248.063
        35   01 Jun 2027 12:20:45.782   01 Jun 2027 12:22:55.283           129.501                Novosib          4046.906
        36   01 Jun 2027 12:26:31.452   01 Jun 2027 12:28:12.721           101.269                Norilsk          3164.656
        37   01 Jun 2027 13:53:20.713   01 Jun 2027 13:55:18.934           118.221                 Moscow          3694.406
        38   01 Jun 2027 13:56:32.511   01 Jun 2027 13:57:41.261            68.750                 Moscow          2148.438
        39   01 Jun 2027 13:58:14.928   01 Jun 2027 13:58:38.769            23.841              Murmansk1           745.031
        40   01 Jun 2027 13:58:50.766   01 Jun 2027 14:00:56.878           126.112              Murmansk2          3941.000
        41   01 Jun 2027 14:02:55.287   01 Jun 2027 14:04:31.794            96.507                Norilsk          3015.844
        42   01 Jun 2027 14:05:07.883   01 Jun 2027 14:06:08.788            60.905                Norilsk          1903.281
        43   01 Jun 2027 14:13:29.648   01 Jun 2027 14:14:03.921            34.273                Anadyr2          1071.031
        44   01 Jun 2027 14:15:24.047   01 Jun 2027 14:16:38.280            74.233                Anadyr1          2319.781
        45   01 Jun 2027 15:07:05.104   01 Jun 2027 15:08:14.915            69.811               CapeTown          2181.594
        46   01 Jun 2027 15:34:36.582   01 Jun 2027 15:35:22.634            46.052              Murmansk2          1439.125
        47   01 Jun 2027 15:36:00.638   01 Jun 2027 15:37:17.651            77.013              Murmansk2          2406.656
        48   01 Jun 2027 15:47:33.419   01 Jun 2027 15:49:45.667           132.248                Anadyr2          4132.750
        49   01 Jun 2027 16:43:08.346   01 Jun 2027 16:44:36.507            88.161               CapeTown          2755.031
        50   01 Jun 2027 16:47:33.992   01 Jun 2027 16:48:36.191            62.199               CapeTown          1943.719
        51   01 Jun 2027 17:15:00.277   01 Jun 2027 17:19:17.251           256.974              Murmansk1          8030.437
        52   01 Jun 2027 17:23:18.047   01 Jun 2027 17:23:57.275            39.228                Anadyr2          1225.875
        53   01 Jun 2027 17:25:17.933   01 Jun 2027 17:25:33.791            15.858                Anadyr1           495.563
        54   01 Jun 2027 17:26:08.176   01 Jun 2027 17:28:18.520           130.344               Magadan1          4073.250
        55   01 Jun 2027 18:59:13.711   01 Jun 2027 19:02:51.414           217.703                Anadyr1          6803.219
        56   01 Jun 2027 19:02:55.288   01 Jun 2027 19:05:48.145           172.857               Magadan2          5401.781
        57   01 Jun 2027 19:08:43.996   01 Jun 2027 19:09:16.241            32.245               Magadan1          1007.656
        58   01 Jun 2027 19:54:30.267   01 Jun 2027 19:57:35.793           185.526            RioGallegos          5797.687
        59   01 Jun 2027 20:01:09.495   01 Jun 2027 20:01:21.280            11.785            RioGallegos           368.281
        60   01 Jun 2027 20:34:58.841   01 Jun 2027 20:35:28.332            29.491                Anadyr2           921.594
        61   01 Jun 2027 20:37:29.081   01 Jun 2027 20:39:03.886            94.805               Magadan2          2962.656
        62   01 Jun 2027 20:39:03.886   01 Jun 2027 20:40:01.639            57.753               Magadan1          1804.781
        63   01 Jun 2027 20:40:21.868   01 Jun 2027 20:40:58.301            36.433                Norilsk          1138.531
        64   01 Jun 2027 20:41:41.879   01 Jun 2027 20:44:34.868           172.989                Irkutsk          5405.906
        65   01 Jun 2027 20:55:59.722   01 Jun 2027 20:58:54.897           175.175                Sumatra          5474.219
        66   01 Jun 2027 22:13:23.986   01 Jun 2027 22:14:19.568            55.582                Norilsk          1736.938
        67   01 Jun 2027 22:14:48.607   01 Jun 2027 22:15:09.781            21.174                Norilsk           661.688
        68   01 Jun 2027 22:16:47.897   01 Jun 2027 22:17:00.249            12.352               Magadan2           386.000
        69   01 Jun 2027 22:17:06.890   01 Jun 2027 22:17:39.144            32.254                Irkutsk          1007.937
        70   01 Jun 2027 22:17:53.924   01 Jun 2027 22:18:59.791            65.867                Novosib          2058.344
        71   01 Jun 2027 22:20:52.396   01 Jun 2027 22:20:55.414             3.018                Novosib            94.313
        72   01 Jun 2027 22:23:11.623   01 Jun 2027 22:24:24.420            72.797                Novosib          2274.906
        73   01 Jun 2027 22:26:02.978   01 Jun 2027 22:28:43.738           160.760                  Delhi          5023.750
        74   01 Jun 2027 23:45:02.844   01 Jun 2027 23:45:22.807            19.963                Anadyr2           623.844
        75   01 Jun 2027 23:46:27.353   01 Jun 2027 23:46:45.067            17.714                Anadyr1           553.562
        76   01 Jun 2027 23:48:59.122   01 Jun 2027 23:49:11.509            12.387                Norilsk           387.094
        77   01 Jun 2027 23:49:27.194   01 Jun 2027 23:49:47.970            20.776               Magadan2           649.250
        78   01 Jun 2027 23:50:13.175   01 Jun 2027 23:50:34.853            21.678                Norilsk           677.437
        79   01 Jun 2027 23:50:38.062   01 Jun 2027 23:51:30.021            51.959               Magadan2          1623.719
        80   01 Jun 2027 23:51:37.806   01 Jun 2027 23:56:21.625           283.819              Murmansk1          8869.344
        81   02 Jun 2027 00:42:33.070   02 Jun 2027 00:43:07.442            34.372            RioGallegos          1074.125
        82   02 Jun 2027 00:45:58.458   02 Jun 2027 00:46:24.247            25.789            RioGallegos           805.906
        83   02 Jun 2027 01:17:15.400   02 Jun 2027 01:17:36.248            20.848                Anadyr1           651.500
        84   02 Jun 2027 01:17:53.163   02 Jun 2027 01:18:17.772            24.609                Anadyr2           769.031
        85   02 Jun 2027 01:18:30.241   02 Jun 2027 01:18:58.520            28.279                Anadyr1           883.719
        86   02 Jun 2027 01:19:39.606   02 Jun 2027 01:20:25.447            45.841                Anadyr1          1432.531
        87   02 Jun 2027 01:23:01.407   02 Jun 2027 01:24:56.799           115.392               Magadan2          3606.000
        88   02 Jun 2027 01:25:42.313   02 Jun 2027 01:26:44.029            61.716               Magadan2          1928.625
        89   02 Jun 2027 01:27:07.884   02 Jun 2027 01:28:35.329            87.445              Murmansk2          2732.656
        90   02 Jun 2027 01:29:09.036   02 Jun 2027 01:30:36.624            87.588              Murmansk2          2737.125
        91   02 Jun 2027 01:55:58.622   02 Jun 2027 01:56:40.043            41.421               CapeTown          1294.406
        92   02 Jun 2027 02:01:05.579   02 Jun 2027 02:02:11.150            65.571               CapeTown          2049.094
        93   02 Jun 2027 02:51:19.651   02 Jun 2027 02:53:27.213           127.562                Anadyr1          3986.312
        94   02 Jun 2027 02:55:16.487   02 Jun 2027 02:56:17.848            61.361               Magadan1          1917.531
        95   02 Jun 2027 02:59:41.526   02 Jun 2027 03:00:19.390            37.864               Magadan1          1183.250
        96   02 Jun 2027 03:11:29.667   02 Jun 2027 03:12:15.888            46.221              Murmansk1          1444.406
        97   02 Jun 2027 03:12:15.888   02 Jun 2027 03:12:31.938            16.050              Murmansk2           501.562
        98   02 Jun 2027 03:12:38.920   02 Jun 2027 03:12:57.765            18.845              Murmansk2           588.906
        99   02 Jun 2027 03:13:03.400   02 Jun 2027 03:13:49.960            46.560              Murmansk1          1455.000
       100   02 Jun 2027 03:13:49.960   02 Jun 2027 03:14:19.308            29.348              Murmansk2           917.125
       101   02 Jun 2027 04:27:03.759   02 Jun 2027 04:27:52.389            48.630                Anadyr2          1519.687
       102   02 Jun 2027 04:27:53.529   02 Jun 2027 04:28:14.092            20.563               Magadan1           642.594
       103   02 Jun 2027 04:28:14.092   02 Jun 2027 04:29:00.083            45.991               Magadan2          1437.219
       104   02 Jun 2027 04:33:19.445   02 Jun 2027 04:36:00.075           160.630                Anadyr2          5019.688
       105   02 Jun 2027 04:36:23.414   02 Jun 2027 04:36:56.017            32.603               Magadan2          1018.844
       106   02 Jun 2027 06:12:55.437   02 Jun 2027 06:13:24.919            29.482                Irkutsk           921.313
       107   02 Jun 2027 07:47:20.341   02 Jun 2027 07:47:55.029            34.688               Magadan1          1084.000
       108   02 Jun 2027 07:48:03.261   02 Jun 2027 07:50:23.151           139.890               Magadan2          4371.563
       109   02 Jun 2027 07:50:45.107   02 Jun 2027 07:50:55.622            10.515               Magadan2           328.594
       110   02 Jun 2027 09:01:44.641   02 Jun 2027 09:02:12.620            27.979                Sumatra           874.344
       111   02 Jun 2027 09:02:58.186   02 Jun 2027 09:03:31.082            32.896                Sumatra          1028.000
       112   02 Jun 2027 09:22:43.176   02 Jun 2027 09:22:48.523             5.347                Irkutsk           167.094
       113   02 Jun 2027 09:22:58.616   02 Jun 2027 09:23:12.680            14.064                Irkutsk           439.500
       114   02 Jun 2027 09:23:19.701   02 Jun 2027 09:23:43.490            23.789                Irkutsk           743.406
       115   02 Jun 2027 09:23:55.729   02 Jun 2027 09:26:00.733           125.004                Irkutsk          3906.375
       116   02 Jun 2027 09:26:13.114   02 Jun 2027 09:26:57.553            44.439                Irkutsk          1388.719
       117   02 Jun 2027 09:29:35.647   02 Jun 2027 09:30:05.643            29.996                Norilsk           937.375
       118   02 Jun 2027 10:03:04.461   02 Jun 2027 10:03:53.470            49.009            RioGallegos          1531.531
       119   02 Jun 2027 10:37:17.939   02 Jun 2027 10:38:39.187            81.248                Sumatra          2539.000
       120   02 Jun 2027 10:46:21.213   02 Jun 2027 10:47:58.156            96.943                  Delhi          3029.469
       121   02 Jun 2027 10:58:47.855   02 Jun 2027 10:59:34.788            46.933                Irkutsk          1466.656
       122   02 Jun 2027 10:59:41.038   02 Jun 2027 11:00:07.798            26.760                Irkutsk           836.250
       123   02 Jun 2027 11:00:26.329   02 Jun 2027 11:00:27.691             1.362                Norilsk            42.562
       124   02 Jun 2027 11:00:46.628   02 Jun 2027 11:00:48.495             1.867                Novosib            58.344
       125   02 Jun 2027 11:01:08.920   02 Jun 2027 11:01:33.428            24.508                Novosib           765.875
       126   02 Jun 2027 11:02:12.488   02 Jun 2027 11:02:33.056            20.568                Novosib           642.750
       127   02 Jun 2027 11:02:48.004   02 Jun 2027 11:02:53.159             5.155                Novosib           161.094
       128   02 Jun 2027 12:22:17.428   02 Jun 2027 12:25:15.766           178.338                  Delhi          5573.062
       129   02 Jun 2027 12:30:44.384   02 Jun 2027 12:31:50.501            66.117                Novosib          2066.156
       130   02 Jun 2027 12:32:54.105   02 Jun 2027 12:34:26.666            92.561              Murmansk2          2892.531
       131   02 Jun 2027 12:41:20.639   02 Jun 2027 12:41:44.981            24.342                Norilsk           760.688
       132   02 Jun 2027 14:05:29.628   02 Jun 2027 14:07:15.810           106.182                 Moscow          3318.187
       133   02 Jun 2027 14:09:00.612   02 Jun 2027 14:13:10.090           249.478              Murmansk1          7796.187
       134   02 Jun 2027 14:14:43.229   02 Jun 2027 14:15:25.228            41.999              Murmansk2          1312.469
       135   02 Jun 2027 14:16:07.307   02 Jun 2027 14:17:59.002           111.695                Norilsk          3490.469
       136   02 Jun 2027 14:24:52.118   02 Jun 2027 14:26:01.483            69.365                Anadyr1          2167.656
       137   02 Jun 2027 14:26:26.716   02 Jun 2027 14:27:10.888            44.172                Anadyr2          1380.375
       138   02 Jun 2027 15:44:53.949   02 Jun 2027 15:45:28.522            34.573                 Moscow          1080.406
       139   02 Jun 2027 15:47:01.178   02 Jun 2027 15:47:38.341            37.163              Murmansk2          1161.344
       140   02 Jun 2027 15:48:19.172   02 Jun 2027 15:49:53.875            94.703              Murmansk1          2959.469
       141   02 Jun 2027 15:59:31.709   02 Jun 2027 16:00:55.772            84.063                Anadyr1          2626.969
       142   02 Jun 2027 16:00:55.772   02 Jun 2027 16:01:00.762             4.990                Anadyr2           155.938
       143   02 Jun 2027 16:04:30.061   02 Jun 2027 16:05:01.417            31.356                Anadyr2           979.875
       144   02 Jun 2027 16:05:57.698   02 Jun 2027 16:06:02.839             5.141                Anadyr1           160.656
       145   02 Jun 2027 16:07:52.330   02 Jun 2027 16:07:52.502             0.172                Anadyr2             5.375
       146   02 Jun 2027 16:55:25.304   02 Jun 2027 16:56:06.810            41.506               CapeTown          1297.063
       147   02 Jun 2027 16:58:47.492   02 Jun 2027 16:58:55.711             8.219               CapeTown           256.844
       148   02 Jun 2027 16:59:48.827   02 Jun 2027 16:59:58.891            10.064               CapeTown           314.500
       149   02 Jun 2027 17:27:55.964   02 Jun 2027 17:31:42.221           226.257              Murmansk1          7070.531
       150   02 Jun 2027 17:35:19.337   02 Jun 2027 17:35:48.905            29.568                Anadyr1           924.000
       151   02 Jun 2027 17:35:48.905   02 Jun 2027 17:35:53.467             4.562                Anadyr2           142.562
       152   02 Jun 2027 17:36:13.511   02 Jun 2027 17:36:30.119            16.608                Anadyr2           519.000
       153   02 Jun 2027 17:36:51.662   02 Jun 2027 17:37:18.409            26.747                Anadyr1           835.844
       154   02 Jun 2027 17:38:01.132   02 Jun 2027 17:39:50.141           109.009               Magadan2          3406.531
       155   02 Jun 2027 19:11:14.798   02 Jun 2027 19:13:13.011           118.213                Anadyr1          3694.156
       156   02 Jun 2027 19:13:26.139   02 Jun 2027 19:15:07.315           101.176                Anadyr2          3161.750
       157   02 Jun 2027 19:15:08.157   02 Jun 2027 19:17:31.674           143.517               Magadan2          4484.906
       158   02 Jun 2027 19:21:38.077   02 Jun 2027 19:21:43.971             5.894               Magadan1           184.187
       159   02 Jun 2027 19:22:22.835   02 Jun 2027 19:23:16.172            53.337               Magadan1          1666.781
       160   02 Jun 2027 20:06:08.184   02 Jun 2027 20:09:07.021           178.837            RioGallegos          5588.656
       161   02 Jun 2027 20:09:16.629   02 Jun 2027 20:09:25.514             8.885            RioGallegos           277.656
       162   02 Jun 2027 20:10:34.460   02 Jun 2027 20:10:58.701            24.241            RioGallegos           757.531
       163   02 Jun 2027 20:11:35.493   02 Jun 2027 20:12:37.514            62.021            RioGallegos          1938.156
       164   02 Jun 2027 20:49:07.177   02 Jun 2027 20:52:13.378           186.201                Norilsk          5818.781
       165   02 Jun 2027 20:53:30.668   02 Jun 2027 20:54:16.925            46.257                Irkutsk          1445.531
       166   02 Jun 2027 20:54:29.284   02 Jun 2027 20:55:19.639            50.355                Irkutsk          1573.594
       167   02 Jun 2027 21:07:31.839   02 Jun 2027 21:09:41.373           129.534                Sumatra          4047.937
       168   02 Jun 2027 22:25:00.828   02 Jun 2027 22:25:26.180            25.352                Norilsk           792.250
       169   02 Jun 2027 22:25:38.269   02 Jun 2027 22:27:04.570            86.301               Magadan2          2696.906
       170   02 Jun 2027 22:27:52.915   02 Jun 2027 22:28:03.121            10.206               Magadan1           318.938
       171   02 Jun 2027 22:28:21.986   02 Jun 2027 22:28:40.473            18.487               Magadan1           577.719
       172   02 Jun 2027 22:28:52.321   02 Jun 2027 22:29:11.554            19.233                Irkutsk           601.031
       173   02 Jun 2027 22:29:46.432   02 Jun 2027 22:30:51.954            65.522                Novosib          2047.562
       174   02 Jun 2027 22:31:34.512   02 Jun 2027 22:32:12.774            38.262                Novosib          1195.688
       175   02 Jun 2027 22:34:30.647   02 Jun 2027 22:34:51.065            20.418                Novosib           638.062
       176   02 Jun 2027 22:37:28.414   02 Jun 2027 22:40:29.008           180.594                  Delhi          5643.563
       177   02 Jun 2027 23:58:00.285   02 Jun 2027 23:58:08.697             8.412                Anadyr2           262.875
       178   02 Jun 2027 23:58:28.079   02 Jun 2027 23:58:41.817            13.738                Anadyr2           429.313
       179   03 Jun 2027 00:01:00.826   03 Jun 2027 00:02:56.527           115.701                Norilsk          3615.656
       180   03 Jun 2027 00:03:07.972   03 Jun 2027 00:03:17.611             9.639               Magadan2           301.219
       181   03 Jun 2027 00:03:31.608   03 Jun 2027 00:05:36.760           125.152              Murmansk1          3911.000
       182   03 Jun 2027 00:06:33.737   03 Jun 2027 00:07:10.103            36.366              Murmansk2          1136.437
       183   03 Jun 2027 00:09:47.388   03 Jun 2027 00:11:42.881           115.493                 Moscow          3609.156
       184   03 Jun 2027 00:55:12.679   03 Jun 2027 00:55:29.892            17.213            RioGallegos           537.906
       185   03 Jun 2027 00:56:09.120   03 Jun 2027 00:57:06.172            57.052            RioGallegos          1782.875
       186   03 Jun 2027 01:28:58.807   03 Jun 2027 01:29:35.514            36.707                Anadyr2          1147.094
       187   03 Jun 2027 01:30:25.762   03 Jun 2027 01:30:52.576            26.814                Anadyr1           837.937
       188   03 Jun 2027 01:31:40.920   03 Jun 2027 01:32:26.926            46.006                Anadyr1          1437.687
       189   03 Jun 2027 01:34:30.698   03 Jun 2027 01:35:20.179            49.481               Magadan1          1546.281
       190   03 Jun 2027 01:35:21.709   03 Jun 2027 01:36:28.994            67.285               Magadan2          2102.656
       191   03 Jun 2027 01:39:08.933   03 Jun 2027 01:40:05.507            56.574              Murmansk2          1767.937
       192   03 Jun 2027 01:40:20.764   03 Jun 2027 01:41:16.468            55.704              Murmansk1          1740.750
       193   03 Jun 2027 01:42:04.439   03 Jun 2027 01:44:17.771           133.332                Novosib          4166.625
       194   03 Jun 2027 02:08:14.536   03 Jun 2027 02:08:48.949            34.413               CapeTown          1075.406
       195   03 Jun 2027 02:16:43.043   03 Jun 2027 02:17:23.502            40.459               CapeTown          1264.344
       196   03 Jun 2027 03:03:13.333   03 Jun 2027 03:04:36.506            83.173                Anadyr1          2599.156
       197   03 Jun 2027 03:08:19.404   03 Jun 2027 03:08:43.188            23.784                Anadyr1           743.250
       198   03 Jun 2027 03:23:59.461   03 Jun 2027 03:24:24.250            24.789              Murmansk1           774.656
       199   03 Jun 2027 03:24:42.547   03 Jun 2027 03:25:46.254            63.707              Murmansk1          1990.844
       200   03 Jun 2027 04:39:19.073   03 Jun 2027 04:39:56.423            37.350               Magadan1          1167.188
       201   03 Jun 2027 04:39:56.423   03 Jun 2027 04:40:53.777            57.354               Magadan2          1792.312
       202   03 Jun 2027 04:45:23.515   03 Jun 2027 04:45:36.513            12.998               Magadan2           406.188
       203   03 Jun 2027 04:45:45.125   03 Jun 2027 04:47:36.694           111.569               Magadan2          3486.531
       204   03 Jun 2027 04:47:46.340   03 Jun 2027 04:50:42.689           176.349               Magadan1          5510.906
       205   03 Jun 2027 06:23:07.055   03 Jun 2027 06:23:22.173            15.118                Anadyr2           472.438
       206   03 Jun 2027 06:23:31.448   03 Jun 2027 06:23:40.691             9.243               Magadan2           288.844
       207   03 Jun 2027 06:23:40.691   03 Jun 2027 06:23:51.558            10.867               Magadan1           339.594
       208   03 Jun 2027 06:24:19.919   03 Jun 2027 06:25:04.644            44.725               Magadan1          1397.656
       209   03 Jun 2027 06:25:58.112   03 Jun 2027 06:26:16.075            17.963                Anadyr2           561.344
       210   03 Jun 2027 07:56:42.466   03 Jun 2027 07:56:43.274             0.808               Magadan1            25.250
       211   03 Jun 2027 07:57:51.846   03 Jun 2027 07:57:52.410             0.564               Magadan2            17.625
       212   03 Jun 2027 07:57:52.410   03 Jun 2027 07:58:35.735            43.325               Magadan1          1353.906
       213   03 Jun 2027 07:58:42.454   03 Jun 2027 07:59:16.021            33.567               Magadan1          1048.969
       214   03 Jun 2027 07:59:24.940   03 Jun 2027 07:59:57.409            32.469               Magadan1          1014.656
       215   03 Jun 2027 08:00:24.405   03 Jun 2027 08:01:33.855            69.450               Magadan2          2170.312
       216   03 Jun 2027 08:01:49.174   03 Jun 2027 08:02:40.191            51.017               Magadan2          1594.281
       217   03 Jun 2027 08:06:36.418   03 Jun 2027 08:07:01.166            24.748              Murmansk2           773.375
       218   03 Jun 2027 08:37:51.989   03 Jun 2027 08:38:21.687            29.698            RioGallegos           928.063
       219   03 Jun 2027 08:41:09.601   03 Jun 2027 08:41:41.475            31.874            RioGallegos           996.063
       220   03 Jun 2027 09:13:21.070   03 Jun 2027 09:13:31.206            10.136                Sumatra           316.750
       221   03 Jun 2027 09:14:09.879   03 Jun 2027 09:15:24.737            74.858                Sumatra          2339.312
       222   03 Jun 2027 09:34:30.745   03 Jun 2027 09:35:01.168            30.423                Irkutsk           950.719
       223   03 Jun 2027 09:35:44.189   03 Jun 2027 09:36:43.575            59.386                Novosib          1855.813
       224   03 Jun 2027 09:37:02.007   03 Jun 2027 09:37:18.218            16.211                Irkutsk           506.594
       225   03 Jun 2027 09:37:31.265   03 Jun 2027 09:37:48.116            16.851                Novosib           526.594
       226   03 Jun 2027 09:37:55.524   03 Jun 2027 09:38:33.895            38.371                Irkutsk          1199.094
       227   03 Jun 2027 10:15:35.198   03 Jun 2027 10:16:05.228            30.030            RioGallegos           938.438
       228   03 Jun 2027 10:49:47.189   03 Jun 2027 10:50:21.913            34.724                Sumatra          1085.125
       229   03 Jun 2027 10:50:43.570   03 Jun 2027 10:50:48.167             4.597                Sumatra           143.656
       230   03 Jun 2027 10:55:23.718   03 Jun 2027 10:56:21.475            57.757                Sumatra          1804.906
       231   03 Jun 2027 10:57:06.159   03 Jun 2027 10:57:49.429            43.270                  Delhi          1352.188
       232   03 Jun 2027 11:12:53.206   03 Jun 2027 11:13:39.508            46.302                Novosib          1446.938
       233   03 Jun 2027 11:14:23.443   03 Jun 2027 11:14:25.487             2.044                Novosib            63.875
       234   03 Jun 2027 11:14:36.003   03 Jun 2027 11:14:51.115            15.112                Novosib           472.250
       235   03 Jun 2027 12:35:02.763   03 Jun 2027 12:37:05.308           122.545                  Delhi          3829.531
       236   03 Jun 2027 12:37:54.899   03 Jun 2027 12:38:34.874            39.975                  Delhi          1249.219
       237   03 Jun 2027 12:43:34.575   03 Jun 2027 12:45:18.165           103.590                Novosib          3237.188
       238   03 Jun 2027 12:46:24.442   03 Jun 2027 12:46:28.277             3.835              Murmansk1           119.844
       239   03 Jun 2027 12:46:42.849   03 Jun 2027 12:47:00.927            18.078              Murmansk1           564.937
       240   03 Jun 2027 12:47:01.632   03 Jun 2027 12:47:15.882            14.250                Norilsk           445.313
       241   03 Jun 2027 12:47:35.121   03 Jun 2027 12:48:09.843            34.722              Murmansk2          1085.062
       242   03 Jun 2027 12:50:32.690   03 Jun 2027 12:50:34.001             1.311                Norilsk            40.969
       243   03 Jun 2027 13:58:54.818   03 Jun 2027 14:00:15.323            80.505               CapeTown          2515.781
       244   03 Jun 2027 14:01:33.205   03 Jun 2027 14:01:58.920            25.715               CapeTown           803.594
       245   03 Jun 2027 14:17:41.841   03 Jun 2027 14:19:15.512            93.671                 Moscow          2927.219
       246   03 Jun 2027 14:21:10.743   03 Jun 2027 14:23:52.569           161.826              Murmansk2          5057.063
       247   03 Jun 2027 14:24:17.825   03 Jun 2027 14:24:25.264             7.439              Murmansk2           232.469
       248   03 Jun 2027 14:36:31.041   03 Jun 2027 14:39:23.872           172.831                Anadyr1          5400.969
       249   03 Jun 2027 14:40:36.951   03 Jun 2027 14:40:44.110             7.159                Anadyr2           223.719
       250   03 Jun 2027 14:41:09.883   03 Jun 2027 14:42:04.735            54.852                Anadyr2          1714.125
       251   03 Jun 2027 15:57:54.023   03 Jun 2027 15:58:51.263            57.240                 Moscow          1788.750
       252   03 Jun 2027 15:59:28.258   03 Jun 2027 16:00:17.044            48.786              Murmansk1          1524.563
       253   03 Jun 2027 16:00:21.204   03 Jun 2027 16:01:05.555            44.351              Murmansk2          1385.969
       254   03 Jun 2027 16:04:06.857   03 Jun 2027 16:04:31.613            24.756              Murmansk2           773.625
       255   03 Jun 2027 16:11:30.705   03 Jun 2027 16:13:43.030           132.325                Anadyr2          4135.156
       256   03 Jun 2027 17:07:47.562   03 Jun 2027 17:08:48.955            61.393               CapeTown          1918.531
       257   03 Jun 2027 17:09:39.052   03 Jun 2027 17:09:46.819             7.767               CapeTown           242.719
       258   03 Jun 2027 17:41:05.136   03 Jun 2027 17:44:16.034           190.898              Murmansk2          5965.563
       259   03 Jun 2027 17:47:20.733   03 Jun 2027 17:49:43.053           142.320                Anadyr1          4447.500
       260   03 Jun 2027 17:49:55.883   03 Jun 2027 17:51:15.214            79.331               Magadan1          2479.094
       261   03 Jun 2027 17:57:44.981   03 Jun 2027 17:58:57.194            72.213               Magadan2          2256.656
       262   03 Jun 2027 19:23:15.685   03 Jun 2027 19:27:19.867           244.182                Anadyr2          7630.688
       263   03 Jun 2027 19:27:29.674   03 Jun 2027 19:28:51.973            82.299               Magadan2          2571.844
       264   03 Jun 2027 19:28:52.440   03 Jun 2027 19:29:28.061            35.621                Norilsk          1113.156
       265   03 Jun 2027 20:17:52.052   03 Jun 2027 20:21:09.236           197.184            RioGallegos          6162.000
       266   03 Jun 2027 20:59:00.052   03 Jun 2027 20:59:31.530            31.478                Anadyr2           983.688
       267   03 Jun 2027 21:01:34.442   03 Jun 2027 21:03:44.657           130.215               Magadan2          4069.219
       268   03 Jun 2027 21:04:05.534   03 Jun 2027 21:04:06.448             0.914               Magadan2            28.563
       269   03 Jun 2027 21:04:25.745   03 Jun 2027 21:04:56.630            30.885               Magadan2           965.156
       270   03 Jun 2027 21:05:22.256   03 Jun 2027 21:06:25.900            63.644                Irkutsk          1988.875
       271   03 Jun 2027 21:07:56.366   03 Jun 2027 21:08:23.601            27.235                Novosib           851.094
       272   03 Jun 2027 21:09:27.426   03 Jun 2027 21:10:28.015            60.589                Novosib          1893.406
       273   03 Jun 2027 21:14:28.969   03 Jun 2027 21:14:51.599            22.630                Irkutsk           707.188
       274   03 Jun 2027 21:19:12.139   03 Jun 2027 21:21:34.795           142.656                Sumatra          4458.000
       275   03 Jun 2027 22:37:02.818   03 Jun 2027 22:37:29.425            26.607                Norilsk           831.469
       276   03 Jun 2027 22:37:33.876   03 Jun 2027 22:38:15.167            41.291                Anadyr2          1290.344
       277   03 Jun 2027 22:38:50.033   03 Jun 2027 22:38:58.485             8.452                Norilsk           264.125
       278   03 Jun 2027 22:39:04.139   03 Jun 2027 22:39:47.920            43.781               Magadan2          1368.156
       279   03 Jun 2027 22:40:49.996   03 Jun 2027 22:40:58.891             8.895                Norilsk           277.969
       280   03 Jun 2027 22:41:06.609   03 Jun 2027 22:43:10.810           124.201                Novosib          3881.281
       281   03 Jun 2027 22:43:15.477   03 Jun 2027 22:43:29.050            13.573                Novosib           424.156
       282   03 Jun 2027 22:47:39.195   03 Jun 2027 22:47:42.667             3.472                Novosib           108.500
       283   03 Jun 2027 22:49:03.681   03 Jun 2027 22:51:25.166           141.485                  Delhi          4421.406
       284   04 Jun 2027 00:07:20.916   04 Jun 2027 00:07:31.216            10.300                Anadyr1           321.875
       285   04 Jun 2027 00:07:47.061   04 Jun 2027 00:08:35.347            48.286                Anadyr2          1508.937
       286   04 Jun 2027 00:08:58.316   04 Jun 2027 00:09:00.142             1.826                Anadyr1            57.063
       287   04 Jun 2027 00:09:48.384   04 Jun 2027 00:10:10.361            21.977                Anadyr1           686.781
       288   04 Jun 2027 00:13:02.397   04 Jun 2027 00:13:15.437            13.040                Norilsk           407.500
       289   04 Jun 2027 00:13:16.470   04 Jun 2027 00:16:11.251           174.781               Magadan1          5461.906
       290   04 Jun 2027 00:16:31.875   04 Jun 2027 00:17:37.769            65.894              Murmansk1          2059.187
       291   04 Jun 2027 00:18:26.220   04 Jun 2027 00:19:08.667            42.447              Murmansk1          1326.469
       292   04 Jun 2027 00:20:40.131   04 Jun 2027 00:22:19.052            98.921                 Moscow          3091.281
       293   04 Jun 2027 00:24:03.202   04 Jun 2027 00:24:10.822             7.620                 Moscow           238.125
       294   04 Jun 2027 00:24:59.431   04 Jun 2027 00:25:05.663             6.232                 Moscow           194.750
       295   04 Jun 2027 01:40:43.148   04 Jun 2027 01:42:19.611            96.463                Anadyr2          3014.469
       296   04 Jun 2027 01:42:19.611   04 Jun 2027 01:42:58.724            39.113                Anadyr1          1222.281
       297   04 Jun 2027 01:43:27.169   04 Jun 2027 01:43:42.176            15.007                Anadyr2           468.969
       298   04 Jun 2027 01:43:43.984   04 Jun 2027 01:43:58.734            14.750                Anadyr2           460.937
       299   04 Jun 2027 01:45:58.973   04 Jun 2027 01:47:08.282            69.309               Magadan1          2165.906
       300   04 Jun 2027 01:47:13.157   04 Jun 2027 01:47:28.128            14.971               Magadan2           467.844
       301   04 Jun 2027 01:48:31.663   04 Jun 2027 01:49:03.393            31.730               Magadan2           991.562
       302   04 Jun 2027 01:51:10.221   04 Jun 2027 01:53:09.854           119.633              Murmansk1          3738.531
       303   04 Jun 2027 01:53:19.461   04 Jun 2027 01:53:46.388            26.927                Novosib           841.469
       304   04 Jun 2027 01:54:34.552   04 Jun 2027 01:55:28.398            53.846                 Moscow          1682.688
       305   04 Jun 2027 01:59:59.847   04 Jun 2027 02:00:28.818            28.971                 Moscow           905.344
       306   04 Jun 2027 02:19:04.226   04 Jun 2027 02:19:49.115            44.889               CapeTown          1402.781
       307   04 Jun 2027 02:23:39.272   04 Jun 2027 02:23:46.176             6.904               CapeTown           215.750
       308   04 Jun 2027 02:25:22.547   04 Jun 2027 02:25:35.556            13.009               CapeTown           406.531
       309   04 Jun 2027 02:29:22.960   04 Jun 2027 02:30:51.676            88.716               CapeTown          2772.375
       310   04 Jun 2027 03:22:29.840   04 Jun 2027 03:23:40.028            70.188                Anadyr1          2193.375
       311   04 Jun 2027 03:23:40.028   04 Jun 2027 03:23:51.596            11.568                Anadyr2           361.500
       312   04 Jun 2027 03:37:55.786   04 Jun 2027 03:38:38.979            43.193              Murmansk2          1349.781
       313   04 Jun 2027 03:39:17.093   04 Jun 2027 03:39:56.934            39.841              Murmansk2          1245.031
       314   04 Jun 2027 04:57:31.725   04 Jun 2027 04:58:36.858            65.133                Anadyr2          2035.406
       315   04 Jun 2027 04:58:45.116   04 Jun 2027 05:03:15.820           270.704                Anadyr2          8459.500
       316   04 Jun 2027 06:34:12.869   04 Jun 2027 06:34:31.509            18.640               Magadan1           582.500
       317   04 Jun 2027 06:34:31.509   04 Jun 2027 06:35:03.365            31.856               Magadan2           995.500
       318   04 Jun 2027 06:35:04.430   04 Jun 2027 06:35:38.992            34.562                Anadyr2          1080.063
       319   04 Jun 2027 06:35:38.992   04 Jun 2027 06:36:20.007            41.015                Anadyr1          1281.719
       320   04 Jun 2027 06:36:30.098   04 Jun 2027 06:37:18.488            48.390               Magadan2          1512.187
       321   04 Jun 2027 06:37:58.425   04 Jun 2027 06:38:17.886            19.461                Anadyr2           608.156
       322   04 Jun 2027 08:08:25.114   04 Jun 2027 08:08:40.789            15.675               Magadan1           489.844
       323   04 Jun 2027 08:09:53.035   04 Jun 2027 08:10:20.795            27.760               Magadan1           867.500
       324   04 Jun 2027 08:11:05.123   04 Jun 2027 08:11:34.194            29.071               Magadan1           908.469
       325   04 Jun 2027 08:11:59.544   04 Jun 2027 08:12:28.507            28.963               Magadan1           905.094
       326   04 Jun 2027 08:13:33.091   04 Jun 2027 08:13:52.211            19.120               Magadan1           597.500
       327   04 Jun 2027 08:14:34.781   04 Jun 2027 08:14:37.608             2.827               Magadan2            88.344
       328   04 Jun 2027 08:19:02.801   04 Jun 2027 08:19:05.228             2.427              Murmansk2            75.844
       329   04 Jun 2027 08:19:28.038   04 Jun 2027 08:19:54.766            26.728              Murmansk2           835.250
       330   04 Jun 2027 08:49:53.454   04 Jun 2027 08:50:24.390            30.936            RioGallegos           966.750
       331   04 Jun 2027 08:53:33.265   04 Jun 2027 08:54:03.945            30.680            RioGallegos           958.750
       332   04 Jun 2027 09:25:04.899   04 Jun 2027 09:25:17.284            12.385                Sumatra           387.031
       333   04 Jun 2027 09:26:01.415   04 Jun 2027 09:27:22.267            80.852                Sumatra          2526.625
       334   04 Jun 2027 09:47:04.608   04 Jun 2027 09:47:16.886            12.278                Novosib           383.687
       335   04 Jun 2027 09:47:18.596   04 Jun 2027 09:47:44.245            25.649                Norilsk           801.531
       336   04 Jun 2027 09:48:01.582   04 Jun 2027 09:48:48.022            46.440                Novosib          1451.250
       337   04 Jun 2027 09:48:52.525   04 Jun 2027 09:49:22.393            29.868                Irkutsk           933.375
       338   04 Jun 2027 09:49:26.952   04 Jun 2027 09:49:53.433            26.481                Irkutsk           827.531
       339   04 Jun 2027 09:50:06.286   04 Jun 2027 09:50:19.430            13.144                Novosib           410.750
       340   04 Jun 2027 09:52:15.594   04 Jun 2027 09:52:18.184             2.590                Novosib            80.937
       341   04 Jun 2027 10:28:12.588   04 Jun 2027 10:28:20.965             8.377            RioGallegos           261.781
       342   04 Jun 2027 10:29:03.760   04 Jun 2027 10:29:52.734            48.974            RioGallegos          1530.438
       343   04 Jun 2027 11:02:28.955   04 Jun 2027 11:02:47.058            18.103                Sumatra           565.719
       344   04 Jun 2027 11:03:04.963   04 Jun 2027 11:05:03.965           119.002                Sumatra          3718.812
       345   04 Jun 2027 11:24:11.792   04 Jun 2027 11:25:08.506            56.714                Irkutsk          1772.313
       346   04 Jun 2027 11:25:38.693   04 Jun 2027 11:26:30.127            51.434                Norilsk          1607.312
       347   04 Jun 2027 11:26:48.381   04 Jun 2027 11:27:06.482            18.101                Norilsk           565.656
       348   04 Jun 2027 12:48:07.090   04 Jun 2027 12:49:00.285            53.195                  Delhi          1662.344
       349   04 Jun 2027 12:49:41.266   04 Jun 2027 12:52:02.420           141.154                  Delhi          4411.063
       350   04 Jun 2027 12:57:21.346   04 Jun 2027 12:58:59.453            98.107                Novosib          3065.844
       351   04 Jun 2027 12:59:24.507   04 Jun 2027 12:59:25.561             1.054                Norilsk            32.938
       352   04 Jun 2027 13:02:34.859   04 Jun 2027 13:03:10.577            35.718                Norilsk          1116.187
       353   04 Jun 2027 14:09:30.860   04 Jun 2027 14:11:48.848           137.988               CapeTown          4312.125
       354   04 Jun 2027 14:14:01.603   04 Jun 2027 14:15:04.254            62.651               CapeTown          1957.844
       355   04 Jun 2027 14:33:22.715   04 Jun 2027 14:34:45.665            82.950              Murmansk2          2592.188
       356   04 Jun 2027 14:34:45.665   04 Jun 2027 14:36:09.116            83.451              Murmansk1          2607.844
       357   04 Jun 2027 14:48:17.083   04 Jun 2027 14:50:02.374           105.291                Anadyr2          3290.344
       358   04 Jun 2027 14:51:21.062   04 Jun 2027 14:51:57.396            36.334                Anadyr2          1135.438
       359   04 Jun 2027 14:52:45.043   04 Jun 2027 14:53:11.191            26.148                Anadyr2           817.125
       360   04 Jun 2027 15:43:40.736   04 Jun 2027 15:45:21.587           100.851               CapeTown          3151.594
       361   04 Jun 2027 16:11:57.982   04 Jun 2027 16:13:01.290            63.308              Murmansk1          1978.375
       362   04 Jun 2027 16:15:47.607   04 Jun 2027 16:16:08.841            21.234              Murmansk2           663.563
       363   04 Jun 2027 16:19:53.809   04 Jun 2027 16:20:02.814             9.005              Murmansk2           281.406
       364   04 Jun 2027 16:23:30.272   04 Jun 2027 16:25:39.337           129.065                Anadyr1          4033.281
       365   04 Jun 2027 16:25:42.771   04 Jun 2027 16:25:49.276             6.505                Anadyr2           203.281
       366   04 Jun 2027 16:28:11.365   04 Jun 2027 16:30:43.166           151.801               Magadan1          4743.781
       367   04 Jun 2027 16:31:02.000   04 Jun 2027 16:31:12.401            10.401               Magadan2           325.031
       368   04 Jun 2027 16:31:22.908   04 Jun 2027 16:32:04.552            41.644               Magadan2          1301.375
       369   04 Jun 2027 17:59:22.194   04 Jun 2027 18:03:16.720           234.526                Anadyr1          7328.938
       370   04 Jun 2027 18:03:21.324   04 Jun 2027 18:05:44.375           143.051               Magadan1          4470.344
       371   04 Jun 2027 19:35:16.338   04 Jun 2027 19:39:07.227           230.889                Anadyr1          7215.281
       372   04 Jun 2027 19:39:35.771   04 Jun 2027 19:41:21.167           105.396                Norilsk          3293.625
       373   04 Jun 2027 19:41:54.919   04 Jun 2027 19:42:08.329            13.410               Magadan2           419.063
       374   04 Jun 2027 19:42:28.881   04 Jun 2027 19:42:33.362             4.481                Norilsk           140.031
       375   04 Jun 2027 19:42:34.808   04 Jun 2027 19:42:50.764            15.956               Magadan2           498.625
       376   04 Jun 2027 19:44:24.480   04 Jun 2027 19:44:34.823            10.343               Magadan1           323.219
       377   04 Jun 2027 19:45:12.118   04 Jun 2027 19:45:20.331             8.213               Magadan2           256.656
       378   04 Jun 2027 20:29:40.006   04 Jun 2027 20:32:55.724           195.718            RioGallegos          6116.188
       379   04 Jun 2027 20:39:51.043   04 Jun 2027 20:40:07.737            16.694            RioGallegos           521.688
       380   04 Jun 2027 21:11:16.464   04 Jun 2027 21:13:04.128           107.664                Anadyr2          3364.500
       381   04 Jun 2027 21:13:37.249   04 Jun 2027 21:14:50.553            73.304               Magadan2          2290.750
       382   04 Jun 2027 21:14:50.553   04 Jun 2027 21:15:28.521            37.968               Magadan1          1186.500
       383   04 Jun 2027 21:15:31.705   04 Jun 2027 21:15:56.776            25.071                Norilsk           783.469
       384   04 Jun 2027 21:17:16.040   04 Jun 2027 21:18:33.697            77.657                Irkutsk          2426.781
       385   04 Jun 2027 21:19:00.800   04 Jun 2027 21:20:11.127            70.327                Novosib          2197.719
       386   04 Jun 2027 21:30:59.243   04 Jun 2027 21:31:54.916            55.673                Sumatra          1739.781
       387   04 Jun 2027 21:32:47.099   04 Jun 2027 21:33:49.571            62.472                Sumatra          1952.250
       388   04 Jun 2027 22:45:31.443   04 Jun 2027 22:45:38.883             7.440                Anadyr2           232.500
       389   04 Jun 2027 22:46:19.150   04 Jun 2027 22:47:16.724            57.574                Anadyr1          1799.187
       390   04 Jun 2027 22:49:04.842   04 Jun 2027 22:49:23.754            18.912                Norilsk           591.000
       391   04 Jun 2027 22:49:42.569   04 Jun 2027 22:50:32.521            49.952               Magadan2          1561.000
       392   04 Jun 2027 22:50:50.255   04 Jun 2027 22:51:14.669            24.414               Magadan2           762.938
       393   04 Jun 2027 22:52:54.929   04 Jun 2027 22:53:00.848             5.919                Norilsk           184.969
       394   04 Jun 2027 22:53:03.242   04 Jun 2027 22:54:18.699            75.457                Novosib          2358.031
       395   04 Jun 2027 22:55:34.865   04 Jun 2027 22:55:51.325            16.460                Novosib           514.375
       396   04 Jun 2027 22:56:09.607   04 Jun 2027 22:58:28.071           138.464                Novosib          4327.000
       397   04 Jun 2027 23:01:44.220   04 Jun 2027 23:02:40.449            56.229                  Delhi          1757.156
       398   05 Jun 2027 00:19:01.977   05 Jun 2027 00:19:17.034            15.057                Anadyr2           470.531
       399   05 Jun 2027 00:20:44.408   05 Jun 2027 00:21:17.802            33.394                Anadyr1          1043.563
       400   05 Jun 2027 00:21:52.071   05 Jun 2027 00:22:04.216            12.145                Anadyr2           379.531
       401   05 Jun 2027 00:24:36.907   05 Jun 2027 00:24:52.882            15.975                Anadyr1           499.219
       402   05 Jun 2027 00:24:52.882   05 Jun 2027 00:25:01.686             8.804                Anadyr2           275.125
       403   05 Jun 2027 00:25:03.794   05 Jun 2027 00:25:53.640            49.846                Norilsk          1557.687
       404   05 Jun 2027 00:26:03.053   05 Jun 2027 00:27:58.946           115.893               Magadan2          3621.656
       405   05 Jun 2027 00:28:33.544   05 Jun 2027 00:30:17.723           104.179              Murmansk1          3255.594
       406   05 Jun 2027 00:31:05.461   05 Jun 2027 00:31:14.075             8.614              Murmansk1           269.188
       407   05 Jun 2027 00:32:05.718   05 Jun 2027 00:35:03.664           177.946                 Moscow          5560.813
       408   05 Jun 2027 01:52:28.545   05 Jun 2027 01:53:04.412            35.867                Anadyr2          1120.844
       409   05 Jun 2027 01:53:35.629   05 Jun 2027 01:54:11.162            35.533                Anadyr1          1110.406
       410   05 Jun 2027 01:54:11.162   05 Jun 2027 01:54:31.058            19.896                Anadyr2           621.750
       411   05 Jun 2027 01:54:58.179   05 Jun 2027 01:55:35.750            37.571                Anadyr2          1174.094
       412   05 Jun 2027 01:57:26.850   05 Jun 2027 01:58:44.602            77.752               Magadan2          2429.750
       413   05 Jun 2027 01:59:47.918   05 Jun 2027 01:59:56.051             8.133               Magadan1           254.156
       414   05 Jun 2027 02:00:50.403   05 Jun 2027 02:00:50.537             0.134                Norilsk             4.187
       415   05 Jun 2027 02:00:58.047   05 Jun 2027 02:01:18.289            20.242                Norilsk           632.563
       416   05 Jun 2027 02:02:41.115   05 Jun 2027 02:02:55.065            13.950                Norilsk           435.937
       417   05 Jun 2027 02:03:11.702   05 Jun 2027 02:04:29.299            77.597              Murmansk1          2424.906
       418   05 Jun 2027 02:05:16.337   05 Jun 2027 02:05:42.438            26.101                Novosib           815.656
       419   05 Jun 2027 02:06:32.125   05 Jun 2027 02:07:25.545            53.420                 Moscow          1669.375
       420   05 Jun 2027 02:11:53.882   05 Jun 2027 02:12:03.060             9.178                 Moscow           286.813
       421   05 Jun 2027 02:14:36.243   05 Jun 2027 02:14:44.523             8.280                 Moscow           258.750
       422   05 Jun 2027 02:16:02.645   05 Jun 2027 02:16:05.383             2.738                 Moscow            85.563
       423   05 Jun 2027 02:18:56.065   05 Jun 2027 02:19:03.200             7.135                 Moscow           222.969
       424   05 Jun 2027 02:30:46.181   05 Jun 2027 02:31:48.004            61.823               CapeTown          1931.969
       425   05 Jun 2027 02:37:26.675   05 Jun 2027 02:38:22.164            55.489               CapeTown          1734.031
       426   05 Jun 2027 03:33:50.810   05 Jun 2027 03:34:48.449            57.639               Magadan2          1801.219
       427   05 Jun 2027 03:34:51.676   05 Jun 2027 03:36:08.330            76.654                Anadyr2          2395.437
       428   05 Jun 2027 03:36:38.653   05 Jun 2027 03:36:54.965            16.312               Magadan1           509.750
       429   05 Jun 2027 03:36:54.965   05 Jun 2027 03:37:28.035            33.070               Magadan2          1033.438
       430   05 Jun 2027 03:39:41.119   05 Jun 2027 03:39:58.871            17.752                Anadyr1           554.750
       431   05 Jun 2027 05:10:07.778   05 Jun 2027 05:15:42.595           334.817                Anadyr2         10463.031
       432   05 Jun 2027 06:45:40.753   05 Jun 2027 06:45:56.015            15.262               Magadan2           476.937
       433   05 Jun 2027 06:45:58.054   05 Jun 2027 06:46:28.008            29.954               Magadan2           936.062
       434   05 Jun 2027 06:46:28.008   05 Jun 2027 06:46:34.942             6.934               Magadan1           216.687
       435   05 Jun 2027 06:46:51.208   05 Jun 2027 06:47:40.894            49.686               Magadan1          1552.688
       436   05 Jun 2027 06:47:40.894   05 Jun 2027 06:47:57.996            17.102               Magadan2           534.438
       437   05 Jun 2027 06:48:24.006   05 Jun 2027 06:48:51.636            27.630                Anadyr2           863.438
       438   05 Jun 2027 06:49:06.466   05 Jun 2027 06:49:25.653            19.187               Magadan2           599.594
       439   05 Jun 2027 06:49:44.316   05 Jun 2027 06:49:47.378             3.062               Magadan2            95.687
       440   05 Jun 2027 06:49:58.294   05 Jun 2027 06:50:50.834            52.540                Anadyr1          1641.875
       441   05 Jun 2027 08:20:41.536   05 Jun 2027 08:21:53.150            71.614               Magadan2          2237.938
       442   05 Jun 2027 08:22:54.420   05 Jun 2027 08:23:05.164            10.744               Magadan1           335.750
       443   05 Jun 2027 08:23:05.164   05 Jun 2027 08:23:15.216            10.052               Magadan2           314.125
       444   05 Jun 2027 08:24:01.388   05 Jun 2027 08:24:35.240            33.852               Magadan1          1057.875
       445   05 Jun 2027 08:24:51.192   05 Jun 2027 08:25:36.382            45.190                Irkutsk          1412.188
       446   05 Jun 2027 08:25:55.102   05 Jun 2027 08:26:23.625            28.523               Magadan1           891.344
       447   05 Jun 2027 08:28:05.841   05 Jun 2027 08:28:11.100             5.259                Novosib           164.344
       448   05 Jun 2027 09:01:58.320   05 Jun 2027 09:03:08.564            70.244            RioGallegos          2195.125
       449   05 Jun 2027 09:36:55.090   05 Jun 2027 09:39:13.333           138.243                Sumatra          4320.094
       450   05 Jun 2027 09:58:15.128   05 Jun 2027 09:59:21.191            66.063                Irkutsk          2064.469
       451   05 Jun 2027 09:59:26.703   05 Jun 2027 09:59:37.249            10.546                Norilsk           329.562
       452   05 Jun 2027 09:59:38.355   05 Jun 2027 09:59:55.869            17.514                Norilsk           547.312
       453   05 Jun 2027 09:59:57.574   05 Jun 2027 10:00:17.001            19.427                Novosib           607.094
       454   05 Jun 2027 10:00:30.684   05 Jun 2027 10:00:34.281             3.597                Irkutsk           112.406
       455   05 Jun 2027 10:00:39.924   05 Jun 2027 10:00:43.277             3.353                Irkutsk           104.781
       456   05 Jun 2027 10:00:49.747   05 Jun 2027 10:01:08.759            19.012                Irkutsk           594.125
       457   05 Jun 2027 10:01:18.822   05 Jun 2027 10:01:21.394             2.572                Novosib            80.375
       458   05 Jun 2027 10:01:25.799   05 Jun 2027 10:01:54.524            28.725                Irkutsk           897.656
       459   05 Jun 2027 10:02:14.505   05 Jun 2027 10:02:17.757             3.252                Norilsk           101.625
       460   05 Jun 2027 10:02:27.543   05 Jun 2027 10:03:04.269            36.726                Irkutsk          1147.688
       461   05 Jun 2027 10:41:27.093   05 Jun 2027 10:41:57.742            30.649            RioGallegos           957.781
       462   05 Jun 2027 11:15:32.536   05 Jun 2027 11:16:54.368            81.832                Sumatra          2557.250
       463   05 Jun 2027 11:29:56.607   05 Jun 2027 11:30:09.049            12.442                  Delhi           388.813
       464   05 Jun 2027 11:35:09.227   05 Jun 2027 11:35:29.955            20.728                Novosib           647.750
       465   05 Jun 2027 11:35:37.156   05 Jun 2027 11:36:04.223            27.067                Novosib           845.844
       466   05 Jun 2027 11:37:04.566   05 Jun 2027 11:38:02.071            57.505                Novosib          1797.031
       467   05 Jun 2027 11:38:09.739   05 Jun 2027 11:38:20.899            11.160                Novosib           348.750
       468   05 Jun 2027 11:38:31.495   05 Jun 2027 11:38:36.226             4.731                Norilsk           147.844
       469   05 Jun 2027 11:38:41.292   05 Jun 2027 11:38:55.766            14.474                Novosib           452.313
       470   05 Jun 2027 13:01:59.727   05 Jun 2027 13:05:03.727           184.000                  Delhi          5750.000
       471   05 Jun 2027 13:08:21.709   05 Jun 2027 13:08:31.085             9.376                 Moscow           293.000
       472   05 Jun 2027 13:08:50.998   05 Jun 2027 13:09:13.159            22.161              Murmansk2           692.531
       473   05 Jun 2027 13:09:59.120   05 Jun 2027 13:11:23.312            84.192              Murmansk2          2631.000
       474   05 Jun 2027 13:12:01.480   05 Jun 2027 13:12:30.964            29.484                Norilsk           921.375
       475   05 Jun 2027 13:12:50.317   05 Jun 2027 13:13:45.859            55.542                Norilsk          1735.687
       476   05 Jun 2027 14:20:43.869   05 Jun 2027 14:23:29.606           165.737               CapeTown          5179.281
       477   05 Jun 2027 14:26:41.835   05 Jun 2027 14:26:57.013            15.178               CapeTown           474.312
       478   05 Jun 2027 14:45:36.598   05 Jun 2027 14:46:24.906            48.308              Murmansk2          1509.625
       479   05 Jun 2027 14:46:27.861   05 Jun 2027 14:48:10.814           102.953              Murmansk1          3217.281
       480   05 Jun 2027 15:00:07.270   05 Jun 2027 15:00:48.024            40.754                Anadyr2          1273.563
       481   05 Jun 2027 15:01:48.337   05 Jun 2027 15:02:52.095            63.758                Anadyr1          1992.438
       482   05 Jun 2027 15:03:16.527   05 Jun 2027 15:03:58.643            42.116                Anadyr2          1316.125
