uniorb/output/strategy_4/Drop/Drop_KinoSat_111707.txt

KinoSat_111707
-------------------------
    Access    *     Start Time (UTCG)     *     Stop Time (UTCG)  *   Duration (s)        *       Station  *  Data (Mbytes)
         1   01 Jun 2027 04:30:44.718   01 Jun 2027 04:31:48.406            63.688                Norilsk          1990.250
         2   01 Jun 2027 04:32:07.166   01 Jun 2027 04:34:08.218           121.052                 Moscow          3782.875
         3   01 Jun 2027 04:34:10.522   01 Jun 2027 04:35:10.012            59.490                Novosib          1859.062
         4   01 Jun 2027 04:35:20.959   01 Jun 2027 04:35:29.865             8.906              Murmansk1           278.312
         5   01 Jun 2027 04:36:06.208   01 Jun 2027 04:39:13.276           187.068                 Moscow          5845.875
         6   01 Jun 2027 04:51:18.294   01 Jun 2027 04:55:22.512           244.218               CapeTown          7631.812
         7   01 Jun 2027 04:56:59.597   01 Jun 2027 04:58:08.855            69.258               CapeTown          2164.312
         8   01 Jun 2027 06:06:52.389   01 Jun 2027 06:07:42.508            50.119                Norilsk          1566.219
         9   01 Jun 2027 06:07:53.337   01 Jun 2027 06:09:59.453           126.116                 Moscow          3941.125
        10   01 Jun 2027 06:10:09.506   01 Jun 2027 06:10:41.527            32.021              Murmansk2          1000.656
        11   01 Jun 2027 06:10:58.123   01 Jun 2027 06:12:25.388            87.265              Murmansk2          2727.031
        12   01 Jun 2027 06:27:14.718   01 Jun 2027 06:28:01.537            46.819               CapeTown          1463.094
        13   01 Jun 2027 06:29:21.495   01 Jun 2027 06:31:42.775           141.280               CapeTown          4415.000
        14   01 Jun 2027 07:31:17.286   01 Jun 2027 07:31:38.252            20.966                Norilsk           655.187
        15   01 Jun 2027 07:31:41.469   01 Jun 2027 07:35:52.443           250.974               Magadan2          7842.938
        16   01 Jun 2027 07:37:06.188   01 Jun 2027 07:38:10.105            63.917              Murmansk1          1997.406
        17   01 Jun 2027 09:05:34.825   01 Jun 2027 09:07:42.508           127.683                Anadyr1          3990.094
        18   01 Jun 2027 09:08:07.106   01 Jun 2027 09:08:14.060             6.954                Anadyr2           217.313
        19   01 Jun 2027 09:08:32.210   01 Jun 2027 09:09:07.707            35.497                Anadyr2          1109.281
        20   01 Jun 2027 09:09:49.899   01 Jun 2027 09:11:47.707           117.808               Magadan1          3681.500
        21   01 Jun 2027 10:42:34.793   01 Jun 2027 10:46:55.714           260.921               Magadan2          8153.781
        22   01 Jun 2027 13:00:42.490   01 Jun 2027 13:03:10.987           148.497            RioGallegos          4640.531
        23   01 Jun 2027 13:06:42.492   01 Jun 2027 13:06:42.861             0.369            RioGallegos            11.531
        24   01 Jun 2027 13:35:03.522   01 Jun 2027 13:37:58.921           175.399                Sumatra          5481.219
        25   01 Jun 2027 13:50:52.087   01 Jun 2027 13:54:44.019           231.932                Irkutsk          7247.875
        26   01 Jun 2027 13:57:17.092   01 Jun 2027 13:57:30.161            13.069                Irkutsk           408.406
        27   01 Jun 2027 15:20:48.729   01 Jun 2027 15:24:54.474           245.745                  Delhi          7679.531
        28   01 Jun 2027 15:24:58.485   01 Jun 2027 15:25:02.053             3.568                  Delhi           111.500
        29   01 Jun 2027 15:29:15.340   01 Jun 2027 15:33:23.564           248.224                Novosib          7757.000
        30   01 Jun 2027 15:34:41.835   01 Jun 2027 15:34:45.358             3.523                Novosib           110.094
        31   01 Jun 2027 18:15:09.741   01 Jun 2027 18:15:43.091            33.350               CapeTown          1042.188
        32   01 Jun 2027 18:20:26.798   01 Jun 2027 18:21:02.204            35.406               CapeTown          1106.437
        33   01 Jun 2027 18:27:32.703   01 Jun 2027 18:27:37.223             4.520               CapeTown           141.250
        34   01 Jun 2027 18:44:02.680   01 Jun 2027 18:47:27.608           204.928                 Moscow          6404.000
        35   01 Jun 2027 18:48:00.907   01 Jun 2027 18:49:37.361            96.454              Murmansk2          3014.187
        36   01 Jun 2027 18:49:46.273   01 Jun 2027 18:50:12.330            26.057              Murmansk2           814.281
        37   01 Jun 2027 19:00:26.059   01 Jun 2027 19:00:45.012            18.953               Magadan1           592.281
        38   01 Jun 2027 19:01:07.980   01 Jun 2027 19:01:56.928            48.948               Magadan2          1529.625
        39   01 Jun 2027 19:52:48.921   01 Jun 2027 19:53:19.543            30.622               CapeTown           956.937
        40   01 Jun 2027 19:55:40.268   01 Jun 2027 19:57:49.858           129.590               CapeTown          4049.688
        41   01 Jun 2027 20:31:42.086   01 Jun 2027 20:32:24.619            42.533                Anadyr1          1329.156
        42   01 Jun 2027 20:32:40.042   01 Jun 2027 20:32:56.089            16.047                Anadyr2           501.469
        43   01 Jun 2027 20:33:01.142   01 Jun 2027 20:33:03.977             2.835                Anadyr1            88.594
        44   01 Jun 2027 20:33:24.595   01 Jun 2027 20:34:58.841            94.246                Anadyr2          2945.187
        45   01 Jun 2027 20:35:02.172   01 Jun 2027 20:36:01.633            59.461               Magadan1          1858.156
        46   01 Jun 2027 20:36:01.633   01 Jun 2027 20:36:07.036             5.403               Magadan2           168.844
        47   01 Jun 2027 20:36:27.848   01 Jun 2027 20:37:13.645            45.797               Magadan2          1431.156
        48   01 Jun 2027 20:37:51.103   01 Jun 2027 20:38:56.173            65.070               Magadan1          2033.438
        49   01 Jun 2027 22:07:36.715   01 Jun 2027 22:11:19.457           222.742                Anadyr2          6960.687
        50   01 Jun 2027 22:11:19.846   01 Jun 2027 22:13:23.986           124.140                Norilsk          3879.375
        51   01 Jun 2027 22:13:53.767   01 Jun 2027 22:14:37.497            43.730               Magadan2          1366.563
        52   01 Jun 2027 22:15:55.804   01 Jun 2027 22:16:47.897            52.093               Magadan2          1627.906
        53   01 Jun 2027 22:17:39.144   01 Jun 2027 22:18:41.302            62.158                Irkutsk          1942.438
        54   01 Jun 2027 23:01:55.556   01 Jun 2027 23:03:45.368           109.812            RioGallegos          3431.625
        55   01 Jun 2027 23:05:03.969   01 Jun 2027 23:05:13.190             9.221            RioGallegos           288.156
        56   01 Jun 2027 23:43:10.950   01 Jun 2027 23:46:13.470           182.520                Anadyr1          5703.750
        57   01 Jun 2027 23:46:40.175   01 Jun 2027 23:47:07.271            27.096                Norilsk           846.750
        58   01 Jun 2027 23:47:16.986   01 Jun 2027 23:47:46.286            29.300               Magadan2           915.625
        59   01 Jun 2027 23:48:31.298   01 Jun 2027 23:49:19.406            48.108               Magadan1          1503.375
        60   01 Jun 2027 23:49:33.338   01 Jun 2027 23:50:59.092            85.754                Irkutsk          2679.813
        61   01 Jun 2027 23:51:07.037   01 Jun 2027 23:52:04.930            57.893                Novosib          1809.156
        62   01 Jun 2027 23:53:45.642   01 Jun 2027 23:53:54.574             8.932                Novosib           279.125
        63   02 Jun 2027 00:03:16.116   02 Jun 2027 00:03:56.258            40.142                Sumatra          1254.437
        64   02 Jun 2027 00:06:11.841   02 Jun 2027 00:06:25.403            13.562                Sumatra           423.812
        65   02 Jun 2027 00:06:48.550   02 Jun 2027 00:06:51.326             2.776                Sumatra            86.750
        66   02 Jun 2027 00:09:24.534   02 Jun 2027 00:09:26.859             2.325                Sumatra            72.656
        67   02 Jun 2027 00:11:05.854   02 Jun 2027 00:11:37.031            31.177                Sumatra           974.281
        68   02 Jun 2027 00:11:57.037   02 Jun 2027 00:12:45.977            48.940                Sumatra          1529.375
        69   02 Jun 2027 00:40:56.640   02 Jun 2027 00:41:10.010            13.370            RioGallegos           417.813
        70   02 Jun 2027 00:45:09.840   02 Jun 2027 00:45:58.458            48.618            RioGallegos          1519.312
        71   02 Jun 2027 01:17:49.315   02 Jun 2027 01:17:53.163             3.848                Anadyr2           120.250
        72   02 Jun 2027 01:18:17.772   02 Jun 2027 01:19:39.606            81.834                Anadyr2          2557.312
        73   02 Jun 2027 01:20:02.186   02 Jun 2027 01:20:33.515            31.329                Anadyr2           979.031
        74   02 Jun 2027 01:21:24.353   02 Jun 2027 01:23:07.414           103.061                Norilsk          3220.656
        75   02 Jun 2027 01:25:17.908   02 Jun 2027 01:27:11.868           113.960                Irkutsk          3561.250
        76   02 Jun 2027 01:27:54.983   02 Jun 2027 01:27:59.368             4.385                Novosib           137.031
        77   02 Jun 2027 01:28:19.217   02 Jun 2027 01:28:57.272            38.055                Novosib          1189.219
        78   02 Jun 2027 01:33:00.756   02 Jun 2027 01:33:27.754            26.998                  Delhi           843.687
        79   02 Jun 2027 01:33:40.256   02 Jun 2027 01:34:22.368            42.112                  Delhi          1316.000
        80   02 Jun 2027 01:41:35.628   02 Jun 2027 01:43:53.575           137.947                Sumatra          4310.844
        81   02 Jun 2027 02:15:21.438   02 Jun 2027 02:16:53.172            91.734            RioGallegos          2866.688
        82   02 Jun 2027 02:56:42.100   02 Jun 2027 02:57:19.235            37.135                Anadyr2          1160.469
        83   02 Jun 2027 02:57:23.757   02 Jun 2027 02:58:12.511            48.754                Norilsk          1523.562
        84   02 Jun 2027 02:59:41.762   02 Jun 2027 03:00:43.765            62.003              Murmansk2          1937.594
        85   02 Jun 2027 03:02:36.613   02 Jun 2027 03:03:28.688            52.075                Norilsk          1627.344
        86   02 Jun 2027 03:03:29.098   02 Jun 2027 03:04:49.105            80.007                Novosib          2500.219
        87   02 Jun 2027 03:04:54.148   02 Jun 2027 03:05:41.652            47.504                 Moscow          1484.500
        88   02 Jun 2027 03:05:55.703   02 Jun 2027 03:06:32.834            37.131                Norilsk          1160.344
        89   02 Jun 2027 03:06:40.545   02 Jun 2027 03:06:57.881            17.336                Novosib           541.750
        90   02 Jun 2027 03:07:06.069   02 Jun 2027 03:07:36.341            30.272              Murmansk1           946.000
        91   02 Jun 2027 03:07:51.752   02 Jun 2027 03:08:07.468            15.716                Norilsk           491.125
        92   02 Jun 2027 03:08:07.615   02 Jun 2027 03:08:56.347            48.732                Irkutsk          1522.875
        93   02 Jun 2027 03:08:58.727   02 Jun 2027 03:10:53.023           114.296                  Delhi          3571.750
        94   02 Jun 2027 04:42:43.620   02 Jun 2027 04:43:27.059            43.439                Norilsk          1357.469
        95   02 Jun 2027 04:43:32.369   02 Jun 2027 04:44:03.046            30.677                Novosib           958.656
        96   02 Jun 2027 04:44:08.866   02 Jun 2027 04:44:45.031            36.165                Norilsk          1130.156
        97   02 Jun 2027 04:45:47.150   02 Jun 2027 04:46:30.603            43.453                 Moscow          1357.906
        98   02 Jun 2027 04:46:40.420   02 Jun 2027 04:46:46.212             5.792                 Moscow           181.000
        99   02 Jun 2027 04:46:54.814   02 Jun 2027 04:48:10.966            76.152                 Moscow          2379.750
       100   02 Jun 2027 05:03:01.820   02 Jun 2027 05:04:45.294           103.474               CapeTown          3233.562
       101   02 Jun 2027 05:59:24.903   02 Jun 2027 06:03:43.818           258.915                Anadyr2          8091.094
       102   02 Jun 2027 06:06:29.319   02 Jun 2027 06:07:48.202            78.883                Anadyr2          2465.094
       103   02 Jun 2027 07:40:52.823   02 Jun 2027 07:42:20.066            87.243                Anadyr2          2726.344
       104   02 Jun 2027 07:43:26.913   02 Jun 2027 07:45:47.711           140.798                Anadyr1          4399.937
       105   02 Jun 2027 07:46:36.319   02 Jun 2027 07:46:59.212            22.893                Anadyr2           715.406
       106   02 Jun 2027 09:18:36.183   02 Jun 2027 09:20:21.986           105.803               Magadan1          3306.344
       107   02 Jun 2027 09:20:45.790   02 Jun 2027 09:21:29.889            44.099                Novosib          1378.094
       108   02 Jun 2027 09:21:38.928   02 Jun 2027 09:22:33.515            54.587                Irkutsk          1705.844
       109   02 Jun 2027 09:22:56.023   02 Jun 2027 09:23:32.977            36.954                Anadyr1          1154.813
       110   02 Jun 2027 10:52:11.109   02 Jun 2027 10:52:21.381            10.272               Magadan1           321.000
       111   02 Jun 2027 10:53:48.158   02 Jun 2027 10:54:16.332            28.174                Irkutsk           880.437
       112   02 Jun 2027 10:55:23.427   02 Jun 2027 10:57:05.158           101.731               Magadan2          3179.094
       113   02 Jun 2027 10:57:25.890   02 Jun 2027 10:57:29.996             4.106                Novosib           128.313
       114   02 Jun 2027 10:57:33.699   02 Jun 2027 10:58:47.381            73.682                Irkutsk          2302.562
       115   02 Jun 2027 10:59:09.369   02 Jun 2027 10:59:34.287            24.918                Norilsk           778.688
       116   02 Jun 2027 11:34:19.762   02 Jun 2027 11:35:08.576            48.814            RioGallegos          1525.437
       117   02 Jun 2027 11:42:18.186   02 Jun 2027 11:43:03.074            44.888            RioGallegos          1402.750
       118   02 Jun 2027 12:09:12.903   02 Jun 2027 12:09:49.162            36.259                Sumatra          1133.094
       119   02 Jun 2027 12:23:07.057   02 Jun 2027 12:24:37.035            89.978                Irkutsk          2811.812
       120   02 Jun 2027 12:25:09.496   02 Jun 2027 12:26:13.304            63.808                Novosib          1994.000
       121   02 Jun 2027 12:28:54.340   02 Jun 2027 12:29:31.978            37.638                Norilsk          1176.187
       122   02 Jun 2027 12:41:50.049   02 Jun 2027 12:41:51.890             1.841              Murmansk1            57.531
       123   02 Jun 2027 12:41:54.929   02 Jun 2027 12:42:26.521            31.592              Murmansk1           987.250
       124   02 Jun 2027 13:13:31.308   02 Jun 2027 13:14:38.533            67.225            RioGallegos          2100.781
       125   02 Jun 2027 13:48:18.139   02 Jun 2027 13:52:23.227           245.088                Sumatra          7659.000
       126   02 Jun 2027 14:00:55.024   02 Jun 2027 14:01:27.920            32.896                Novosib          1028.000
       127   02 Jun 2027 14:04:15.155   02 Jun 2027 14:06:25.739           130.584                Irkutsk          4080.750
       128   02 Jun 2027 15:35:37.528   02 Jun 2027 15:36:23.554            46.026                  Delhi          1438.313
       129   02 Jun 2027 15:37:49.178   02 Jun 2027 15:38:45.134            55.956                 Moscow          1748.625
       130   02 Jun 2027 15:38:57.264   02 Jun 2027 15:39:55.413            58.149                 Moscow          1817.156
       131   02 Jun 2027 15:41:02.887   02 Jun 2027 15:41:11.558             8.671                 Moscow           270.969
       132   02 Jun 2027 15:42:07.532   02 Jun 2027 15:43:30.398            82.866              Murmansk2          2589.562
       133   02 Jun 2027 15:43:46.511   02 Jun 2027 15:45:13.374            86.863                Novosib          2714.469
       134   02 Jun 2027 15:46:51.728   02 Jun 2027 15:47:21.879            30.151                Norilsk           942.219
       135   02 Jun 2027 15:47:37.563   02 Jun 2027 15:48:21.217            43.654                Norilsk          1364.187
       136   02 Jun 2027 15:49:35.913   02 Jun 2027 15:49:56.284            20.371                Norilsk           636.594
       137   02 Jun 2027 16:52:51.956   02 Jun 2027 16:53:42.468            50.512               CapeTown          1578.500
       138   02 Jun 2027 17:01:44.676   02 Jun 2027 17:02:02.745            18.069               CapeTown           564.656
       139   02 Jun 2027 17:14:42.339   02 Jun 2027 17:15:00.252            17.913                 Moscow           559.781
       140   02 Jun 2027 17:16:44.617   02 Jun 2027 17:18:54.435           129.818                 Moscow          4056.812
       141   02 Jun 2027 17:25:47.503   02 Jun 2027 17:26:18.568            31.065              Murmansk2           970.781
       142   02 Jun 2027 17:32:22.511   02 Jun 2027 17:33:29.312            66.801                Anadyr2          2087.531
       143   02 Jun 2027 17:35:48.905   02 Jun 2027 17:36:13.511            24.606                Anadyr1           768.938
       144   02 Jun 2027 17:37:21.924   02 Jun 2027 17:38:08.555            46.631                Anadyr2          1457.219
       145   02 Jun 2027 18:27:11.903   02 Jun 2027 18:29:24.175           132.272               CapeTown          4133.500
       146   02 Jun 2027 18:56:58.189   02 Jun 2027 18:57:33.211            35.022              Murmansk1          1094.437
       147   02 Jun 2027 18:58:23.916   02 Jun 2027 19:01:25.111           181.195              Murmansk2          5662.344
       148   02 Jun 2027 19:11:36.173   02 Jun 2027 19:11:58.983            22.810               Magadan1           712.812
       149   02 Jun 2027 19:12:39.667   02 Jun 2027 19:13:35.218            55.551               Magadan1          1735.969
       150   02 Jun 2027 19:15:52.478   02 Jun 2027 19:16:47.963            55.485               Magadan1          1733.906
       151   02 Jun 2027 20:07:19.867   02 Jun 2027 20:08:58.125            98.258               CapeTown          3070.563
       152   02 Jun 2027 20:43:43.893   02 Jun 2027 20:45:13.745            89.852                Anadyr2          2807.875
       153   02 Jun 2027 20:45:19.342   02 Jun 2027 20:45:22.239             2.897                Anadyr1            90.531
       154   02 Jun 2027 20:45:39.513   02 Jun 2027 20:47:29.981           110.468                Anadyr2          3452.125
       155   02 Jun 2027 20:47:43.415   02 Jun 2027 20:48:52.821            69.406               Magadan2          2168.938
       156   02 Jun 2027 20:49:38.866   02 Jun 2027 20:50:32.686            53.820               Magadan1          1681.875
       157   02 Jun 2027 22:19:37.313   02 Jun 2027 22:21:36.150           118.837                Anadyr1          3713.656
       158   02 Jun 2027 22:21:42.969   02 Jun 2027 22:23:19.073            96.104                Anadyr2          3003.250
       159   02 Jun 2027 22:23:20.873   02 Jun 2027 22:25:00.828            99.955                Norilsk          3123.594
       160   02 Jun 2027 22:25:11.445   02 Jun 2027 22:26:10.740            59.295               Magadan1          1852.969
       161   02 Jun 2027 22:27:04.570   02 Jun 2027 22:27:34.065            29.495               Magadan1           921.719
       162   02 Jun 2027 22:27:47.032   02 Jun 2027 22:28:52.321            65.289                Irkutsk          2040.281
       163   02 Jun 2027 22:29:51.567   02 Jun 2027 22:29:59.147             7.580                Irkutsk           236.875
       164   02 Jun 2027 23:13:47.623   02 Jun 2027 23:14:53.662            66.039            RioGallegos          2063.719
       165   02 Jun 2027 23:18:52.880   02 Jun 2027 23:19:51.540            58.660            RioGallegos          1833.125
       166   02 Jun 2027 23:23:17.199   02 Jun 2027 23:23:28.907            11.708            RioGallegos           365.875
       167   02 Jun 2027 23:55:06.776   02 Jun 2027 23:57:54.297           167.521                Anadyr2          5235.031
       168   02 Jun 2027 23:58:01.755   02 Jun 2027 23:58:34.526            32.771               Magadan2          1024.094
       169   02 Jun 2027 23:58:39.216   02 Jun 2027 23:59:09.441            30.225                Norilsk           944.531
       170   02 Jun 2027 23:59:17.360   02 Jun 2027 23:59:23.892             6.532               Magadan1           204.125
       171   02 Jun 2027 23:59:37.131   03 Jun 2027 00:00:03.798            26.667               Magadan1           833.344
       172   03 Jun 2027 00:01:10.331   03 Jun 2027 00:01:19.036             8.705               Magadan1           272.031
       173   03 Jun 2027 00:01:29.687   03 Jun 2027 00:02:00.910            31.223                Irkutsk           975.719
       174   03 Jun 2027 00:02:33.864   03 Jun 2027 00:03:01.715            27.851                Irkutsk           870.344
       175   03 Jun 2027 00:03:54.886   03 Jun 2027 00:04:12.228            17.342                Novosib           541.937
       176   03 Jun 2027 00:05:11.213   03 Jun 2027 00:05:42.268            31.055                Novosib           970.469
       177   03 Jun 2027 00:06:16.663   03 Jun 2027 00:08:19.117           122.454                Irkutsk          3826.688
       178   03 Jun 2027 00:15:11.133   03 Jun 2027 00:15:40.366            29.233                Sumatra           913.531
       179   03 Jun 2027 00:23:20.570   03 Jun 2027 00:23:54.618            34.048                Sumatra          1064.000
       180   03 Jun 2027 00:53:14.803   03 Jun 2027 00:54:24.226            69.423            RioGallegos          2169.469
       181   03 Jun 2027 01:29:35.514   03 Jun 2027 01:30:25.762            50.248                Anadyr2          1570.250
       182   03 Jun 2027 01:30:52.576   03 Jun 2027 01:31:40.920            48.344                Anadyr1          1510.750
       183   03 Jun 2027 01:33:26.713   03 Jun 2027 01:35:09.042           102.329                Norilsk          3197.781
       184   03 Jun 2027 01:35:10.490   03 Jun 2027 01:35:21.709            11.219               Magadan2           350.594
       185   03 Jun 2027 01:37:07.074   03 Jun 2027 01:37:43.678            36.604               Magadan2          1143.875
       186   03 Jun 2027 01:38:13.074   03 Jun 2027 01:39:49.018            95.944                Novosib          2998.250
       187   03 Jun 2027 01:40:14.204   03 Jun 2027 01:40:19.293             5.089                Novosib           159.031
       188   03 Jun 2027 01:41:59.637   03 Jun 2027 01:42:19.445            19.808                Irkutsk           619.000
       189   03 Jun 2027 01:42:30.852   03 Jun 2027 01:43:05.893            35.041                Irkutsk          1095.031
       190   03 Jun 2027 01:47:03.877   03 Jun 2027 01:47:27.906            24.029                  Delhi           750.906
       191   03 Jun 2027 01:50:59.693   03 Jun 2027 01:51:33.867            34.174                  Delhi          1067.937
       192   03 Jun 2027 01:55:24.740   03 Jun 2027 01:58:10.378           165.638                Sumatra          5176.188
       193   03 Jun 2027 02:33:00.435   03 Jun 2027 02:34:37.782            97.347            RioGallegos          3042.094
       194   03 Jun 2027 03:16:06.497   03 Jun 2027 03:16:15.514             9.017                Norilsk           281.781
       195   03 Jun 2027 03:16:17.599   03 Jun 2027 03:16:51.231            33.632                Norilsk          1051.000
       196   03 Jun 2027 03:16:56.639   03 Jun 2027 03:18:42.866           106.227                Irkutsk          3319.594
       197   03 Jun 2027 03:19:07.351   03 Jun 2027 03:19:50.153            42.802              Murmansk2          1337.563
       198   03 Jun 2027 03:20:23.923   03 Jun 2027 03:20:44.789            20.866                Irkutsk           652.062
       199   03 Jun 2027 03:21:24.452   03 Jun 2027 03:22:05.185            40.733                Novosib          1272.906
       200   03 Jun 2027 03:22:09.208   03 Jun 2027 03:22:53.991            44.783                Novosib          1399.469
       201   03 Jun 2027 03:25:36.579   03 Jun 2027 03:26:19.297            42.718                  Delhi          1334.937
       202   03 Jun 2027 04:36:31.878   03 Jun 2027 04:37:12.838            40.960                Anadyr1          1280.000
       203   03 Jun 2027 04:54:55.932   03 Jun 2027 04:55:25.277            29.345                Novosib           917.031
       204   03 Jun 2027 04:55:36.819   03 Jun 2027 04:56:54.810            77.991                Novosib          2437.219
       205   03 Jun 2027 04:57:51.704   03 Jun 2027 04:57:59.743             8.039                 Moscow           251.219
       206   03 Jun 2027 04:58:00.906   03 Jun 2027 04:58:04.172             3.266                Novosib           102.063
       207   03 Jun 2027 04:58:16.786   03 Jun 2027 04:58:18.698             1.912                 Moscow            59.750
       208   03 Jun 2027 04:58:58.842   03 Jun 2027 04:59:23.096            24.254                 Moscow           757.937
       209   03 Jun 2027 04:59:27.432   03 Jun 2027 04:59:33.633             6.201                 Moscow           193.781
       210   03 Jun 2027 05:00:16.245   03 Jun 2027 05:00:24.092             7.847                 Moscow           245.219
       211   03 Jun 2027 05:01:07.961   03 Jun 2027 05:01:31.924            23.963                 Moscow           748.844
       212   03 Jun 2027 05:14:50.684   03 Jun 2027 05:17:07.963           137.279               CapeTown          4289.969
       213   03 Jun 2027 06:11:24.447   03 Jun 2027 06:12:02.778            38.331                Anadyr1          1197.844
       214   03 Jun 2027 06:17:38.180   03 Jun 2027 06:17:55.199            17.019                Anadyr1           531.844
       215   03 Jun 2027 06:17:55.199   03 Jun 2027 06:18:30.986            35.787                Anadyr2          1118.344
       216   03 Jun 2027 06:18:56.333   03 Jun 2027 06:19:01.221             4.888               Magadan2           152.750
       217   03 Jun 2027 06:19:11.549   03 Jun 2027 06:20:05.764            54.215                Anadyr1          1694.219
       218   03 Jun 2027 06:21:42.302   03 Jun 2027 06:21:52.587            10.285               Magadan2           321.406
       219   03 Jun 2027 06:31:00.085   03 Jun 2027 06:31:00.457             0.372              Murmansk1            11.625
       220   03 Jun 2027 06:31:05.796   03 Jun 2027 06:31:22.343            16.547              Murmansk1           517.094
       221   03 Jun 2027 06:52:20.791   03 Jun 2027 06:52:47.805            27.014               CapeTown           844.187
       222   03 Jun 2027 06:55:05.786   03 Jun 2027 06:57:15.087           129.301               CapeTown          4040.656
       223   03 Jun 2027 07:51:59.629   03 Jun 2027 07:52:12.457            12.828               Magadan2           400.875
       224   03 Jun 2027 07:52:37.137   03 Jun 2027 07:53:41.462            64.325                Anadyr2          2010.156
       225   03 Jun 2027 07:54:08.343   03 Jun 2027 07:55:03.032            54.689               Magadan2          1709.031
       226   03 Jun 2027 07:55:16.343   03 Jun 2027 07:56:27.386            71.043                Anadyr1          2220.094
       227   03 Jun 2027 07:56:42.466   03 Jun 2027 07:56:43.274             0.808               Magadan2            25.250
       228   03 Jun 2027 07:57:36.590   03 Jun 2027 07:58:06.516            29.926                Anadyr2           935.188
       229   03 Jun 2027 08:06:46.626   03 Jun 2027 08:07:38.378            51.752                 Moscow          1617.250
       230   03 Jun 2027 09:29:03.446   03 Jun 2027 09:29:50.222            46.776               Magadan1          1461.750
       231   03 Jun 2027 09:30:16.363   03 Jun 2027 09:30:35.252            18.889               Magadan2           590.281
       232   03 Jun 2027 09:31:36.726   03 Jun 2027 09:31:51.591            14.865                Novosib           464.531
       233   03 Jun 2027 09:32:03.582   03 Jun 2027 09:32:54.124            50.542               Magadan1          1579.437
       234   03 Jun 2027 09:33:18.436   03 Jun 2027 09:33:41.827            23.391                Norilsk           730.969
       235   03 Jun 2027 09:33:51.988   03 Jun 2027 09:33:54.563             2.575               Magadan1            80.469
       236   03 Jun 2027 09:33:59.369   03 Jun 2027 09:34:30.745            31.376                Irkutsk           980.500
       237   03 Jun 2027 09:35:02.671   03 Jun 2027 09:35:05.415             2.744                Norilsk            85.750
       238   03 Jun 2027 09:35:12.106   03 Jun 2027 09:35:51.113            39.007                Norilsk          1218.969
       239   03 Jun 2027 10:11:32.563   03 Jun 2027 10:12:01.491            28.928            RioGallegos           904.000
       240   03 Jun 2027 10:20:13.199   03 Jun 2027 10:20:27.099            13.900            RioGallegos           434.375
       241   03 Jun 2027 10:50:21.913   03 Jun 2027 10:50:43.570            21.657                Sumatra           676.781
       242   03 Jun 2027 10:52:29.210   03 Jun 2027 10:53:19.969            50.759                Sumatra          1586.219
       243   03 Jun 2027 11:05:50.680   03 Jun 2027 11:06:21.702            31.022                Irkutsk           969.437
       244   03 Jun 2027 11:07:01.655   03 Jun 2027 11:07:13.281            11.626                Irkutsk           363.312
       245   03 Jun 2027 11:07:16.458   03 Jun 2027 11:09:38.345           141.887               Magadan2          4433.969
       246   03 Jun 2027 11:09:57.918   03 Jun 2027 11:10:28.788            30.870                Irkutsk           964.687
       247   03 Jun 2027 11:10:33.058   03 Jun 2027 11:10:47.713            14.655                Norilsk           457.969
       248   03 Jun 2027 11:11:10.684   03 Jun 2027 11:11:28.891            18.207                Norilsk           568.969
       249   03 Jun 2027 11:11:38.550   03 Jun 2027 11:11:42.462             3.912                Novosib           122.250
       250   03 Jun 2027 11:46:29.388   03 Jun 2027 11:48:15.103           105.715            RioGallegos          3303.594
       251   03 Jun 2027 12:21:10.782   03 Jun 2027 12:21:55.443            44.661                Sumatra          1395.656
       252   03 Jun 2027 12:35:24.643   03 Jun 2027 12:36:39.802            75.159                Irkutsk          2348.719
       253   03 Jun 2027 12:37:15.953   03 Jun 2027 12:37:58.699            42.746                Novosib          1335.813
       254   03 Jun 2027 12:39:45.386   03 Jun 2027 12:40:42.429            57.043                Norilsk          1782.594
       255   03 Jun 2027 12:43:29.517   03 Jun 2027 12:43:49.783            20.266              Murmansk1           633.312
       256   03 Jun 2027 12:50:15.264   03 Jun 2027 12:50:32.690            17.426                Norilsk           544.562
       257   03 Jun 2027 13:26:33.751   03 Jun 2027 13:30:17.336           223.585            RioGallegos          6987.031
       258   03 Jun 2027 14:13:16.715   03 Jun 2027 14:13:17.719             1.004                Novosib            31.375
       259   03 Jun 2027 14:14:14.740   03 Jun 2027 14:15:13.146            58.406                Novosib          1825.188
       260   03 Jun 2027 14:17:19.538   03 Jun 2027 14:18:52.084            92.546                Norilsk          2892.063
       261   03 Jun 2027 14:20:54.060   03 Jun 2027 14:21:48.869            54.809                Norilsk          1712.781
       262   03 Jun 2027 15:49:47.259   03 Jun 2027 15:52:15.422           148.163                 Moscow          4630.094
       263   03 Jun 2027 15:53:05.271   03 Jun 2027 15:53:36.218            30.947                 Moscow           967.094
       264   03 Jun 2027 15:53:49.749   03 Jun 2027 15:54:38.668            48.919              Murmansk1          1528.719
       265   03 Jun 2027 15:56:13.403   03 Jun 2027 15:56:22.185             8.782              Murmansk1           274.438
       266   03 Jun 2027 15:56:34.465   03 Jun 2027 15:57:07.574            33.109              Murmansk2          1034.656
       267   03 Jun 2027 15:57:11.211   03 Jun 2027 15:58:44.521            93.310                Norilsk          2915.937
       268   03 Jun 2027 15:59:59.366   03 Jun 2027 16:00:38.723            39.357                Norilsk          1229.906
       269   03 Jun 2027 16:01:05.771   03 Jun 2027 16:02:49.696           103.925                Norilsk          3247.656
       270   03 Jun 2027 17:04:23.279   03 Jun 2027 17:04:56.477            33.198               CapeTown          1037.438
       271   03 Jun 2027 17:27:07.445   03 Jun 2027 17:27:28.774            21.329                 Moscow           666.531
       272   03 Jun 2027 17:27:53.229   03 Jun 2027 17:28:13.269            20.040                 Moscow           626.250
       273   03 Jun 2027 17:28:39.740   03 Jun 2027 17:30:54.357           134.617                 Moscow          4206.781
       274   03 Jun 2027 17:32:01.906   03 Jun 2027 17:32:08.922             7.016                 Moscow           219.250
       275   03 Jun 2027 17:34:07.710   03 Jun 2027 17:34:20.270            12.560              Murmansk2           392.500
       276   03 Jun 2027 17:38:20.673   03 Jun 2027 17:38:44.486            23.813              Murmansk2           744.156
       277   03 Jun 2027 17:44:16.535   03 Jun 2027 17:44:59.498            42.963                Anadyr2          1342.594
       278   03 Jun 2027 17:45:13.911   03 Jun 2027 17:46:05.347            51.436                Anadyr2          1607.375
       279   03 Jun 2027 18:39:16.845   03 Jun 2027 18:41:03.810           106.965               CapeTown          3342.656
       280   03 Jun 2027 19:09:34.972   03 Jun 2027 19:10:30.416            55.444              Murmansk2          1732.625
       281   03 Jun 2027 19:11:52.261   03 Jun 2027 19:14:27.471           155.210              Murmansk1          4850.312
       282   03 Jun 2027 19:21:00.075   03 Jun 2027 19:21:27.636            27.561                Anadyr2           861.281
       283   03 Jun 2027 19:23:03.649   03 Jun 2027 19:23:15.685            12.036                Anadyr2           376.125
       284   03 Jun 2027 19:23:50.358   03 Jun 2027 19:25:39.226           108.868               Magadan1          3402.125
       285   03 Jun 2027 19:26:17.589   03 Jun 2027 19:26:25.066             7.477               Magadan1           233.656
       286   03 Jun 2027 19:26:25.066   03 Jun 2027 19:26:27.400             2.334               Magadan2            72.938
       287   03 Jun 2027 19:26:36.395   03 Jun 2027 19:26:52.321            15.926               Magadan2           497.687
       288   03 Jun 2027 19:29:05.471   03 Jun 2027 19:29:30.223            24.752               Magadan1           773.500
       289   03 Jun 2027 20:19:45.101   03 Jun 2027 20:20:24.821            39.720               CapeTown          1241.250
       290   03 Jun 2027 20:55:45.682   03 Jun 2027 20:57:22.899            97.217                Anadyr1          3038.031
       291   03 Jun 2027 20:57:41.248   03 Jun 2027 20:59:00.052            78.804                Anadyr2          2462.625
       292   03 Jun 2027 20:59:13.804   03 Jun 2027 21:01:34.442           140.638               Magadan2          4394.938
       293   03 Jun 2027 21:02:02.786   03 Jun 2027 21:02:57.425            54.639               Magadan1          1707.469
       294   03 Jun 2027 21:08:56.446   03 Jun 2027 21:09:05.664             9.218               Magadan1           288.062
       295   03 Jun 2027 21:53:53.932   03 Jun 2027 21:54:55.128            61.196            RioGallegos          1912.375
       296   03 Jun 2027 22:31:37.553   03 Jun 2027 22:35:18.191           220.638                Anadyr2          6894.937
       297   03 Jun 2027 22:35:25.790   03 Jun 2027 22:37:46.568           140.778               Magadan2          4399.313
       298   03 Jun 2027 22:39:08.610   03 Jun 2027 22:40:11.465            62.855                Irkutsk          1964.219
       299   03 Jun 2027 22:41:36.295   03 Jun 2027 22:41:58.613            22.318                Irkutsk           697.438
       300   03 Jun 2027 22:44:37.472   03 Jun 2027 22:45:20.763            43.291                Irkutsk          1352.844
       301   03 Jun 2027 22:55:01.591   03 Jun 2027 22:56:06.152            64.561                Sumatra          2017.531
       302   03 Jun 2027 22:56:27.074   03 Jun 2027 22:56:28.475             1.401                Sumatra            43.781
       303   03 Jun 2027 22:59:46.483   03 Jun 2027 23:01:01.301            74.818                Sumatra          2338.062
       304   04 Jun 2027 00:07:01.611   04 Jun 2027 00:07:47.061            45.450                Anadyr2          1420.312
       305   04 Jun 2027 00:08:35.347   04 Jun 2027 00:09:20.147            44.800                Anadyr2          1400.000
       306   04 Jun 2027 00:09:28.626   04 Jun 2027 00:10:27.785            59.159                Norilsk          1848.719
       307   04 Jun 2027 00:10:40.372   04 Jun 2027 00:11:11.640            31.268                Norilsk           977.125
       308   04 Jun 2027 00:11:22.269   04 Jun 2027 00:11:55.094            32.825               Magadan2          1025.781
       309   04 Jun 2027 00:12:30.616   04 Jun 2027 00:13:03.451            32.835               Magadan1          1026.094
       310   04 Jun 2027 00:13:27.434   04 Jun 2027 00:14:34.949            67.515                Irkutsk          2109.844
       311   04 Jun 2027 00:17:27.321   04 Jun 2027 00:17:49.807            22.486                Novosib           702.687
       312   04 Jun 2027 00:18:32.082   04 Jun 2027 00:19:02.983            30.901                Novosib           965.656
       313   04 Jun 2027 00:20:32.108   04 Jun 2027 00:21:58.709            86.601                Novosib          2706.281
       314   04 Jun 2027 00:31:38.951   04 Jun 2027 00:33:03.552            84.601                Sumatra          2643.781
       315   04 Jun 2027 01:09:03.997   04 Jun 2027 01:09:18.314            14.317            RioGallegos           447.406
       316   04 Jun 2027 01:11:41.999   04 Jun 2027 01:12:01.833            19.834            RioGallegos           619.812
       317   04 Jun 2027 01:13:17.025   04 Jun 2027 01:13:22.882             5.857            RioGallegos           183.031
       318   04 Jun 2027 01:41:20.509   04 Jun 2027 01:42:19.611            59.102                Anadyr1          1846.937
       319   04 Jun 2027 01:42:58.724   04 Jun 2027 01:43:27.169            28.445                Anadyr2           888.906
       320   04 Jun 2027 01:45:29.043   04 Jun 2027 01:47:22.156           113.113                Norilsk          3534.781
       321   04 Jun 2027 01:48:41.724   04 Jun 2027 01:48:58.882            17.158                Norilsk           536.187
       322   04 Jun 2027 01:49:19.210   04 Jun 2027 01:51:30.981           131.771                Novosib          4117.844
       323   04 Jun 2027 01:52:04.264   04 Jun 2027 01:53:16.691            72.427                Irkutsk          2263.344
       324   04 Jun 2027 01:59:42.100   04 Jun 2027 01:59:43.576             1.476                  Delhi            46.125
       325   04 Jun 2027 02:00:23.364   04 Jun 2027 02:00:33.434            10.070                  Delhi           314.688
       326   04 Jun 2027 02:03:47.039   04 Jun 2027 02:04:02.420            15.381                  Delhi           480.656
       327   04 Jun 2027 02:06:14.683   04 Jun 2027 02:06:32.688            18.005                  Delhi           562.656
       328   04 Jun 2027 02:38:16.129   04 Jun 2027 02:39:26.511            70.382            RioGallegos          2199.437
       329   04 Jun 2027 02:39:35.201   04 Jun 2027 02:40:25.446            50.245            RioGallegos          1570.156
       330   04 Jun 2027 02:40:31.367   04 Jun 2027 02:41:05.964            34.597            RioGallegos          1081.156
       331   04 Jun 2027 02:42:08.227   04 Jun 2027 02:42:44.716            36.489            RioGallegos          1140.281
       332   04 Jun 2027 03:30:29.823   04 Jun 2027 03:31:05.620            35.797                Irkutsk          1118.656
       333   04 Jun 2027 03:31:21.235   04 Jun 2027 03:31:54.988            33.753                Irkutsk          1054.781
       334   04 Jun 2027 03:32:08.665   04 Jun 2027 03:32:49.415            40.750                Norilsk          1273.437
       335   04 Jun 2027 03:33:09.231   04 Jun 2027 03:33:12.415             3.184                Irkutsk            99.500
       336   04 Jun 2027 03:33:19.539   04 Jun 2027 03:34:12.111            52.572                Norilsk          1642.875
       337   04 Jun 2027 03:34:42.847   04 Jun 2027 03:35:50.012            67.165                Novosib          2098.906
       338   04 Jun 2027 03:36:18.626   04 Jun 2027 03:37:15.171            56.545                Novosib          1767.031
       339   04 Jun 2027 03:37:29.274   04 Jun 2027 03:39:27.506           118.232                  Delhi          3694.750
       340   04 Jun 2027 05:07:01.758   04 Jun 2027 05:07:33.464            31.706                Novosib           990.813
       341   04 Jun 2027 05:07:37.169   04 Jun 2027 05:09:30.074           112.905                Novosib          3528.281
       342   04 Jun 2027 05:11:09.334   04 Jun 2027 05:11:33.762            24.428                 Moscow           763.375
       343   04 Jun 2027 05:13:26.147   04 Jun 2027 05:14:10.812            44.665                 Moscow          1395.781
       344   04 Jun 2027 05:26:44.659   04 Jun 2027 05:27:25.837            41.178               CapeTown          1286.813
       345   04 Jun 2027 06:29:50.998   04 Jun 2027 06:30:12.642            21.644                Anadyr1           676.375
       346   04 Jun 2027 06:30:17.939   04 Jun 2027 06:30:32.541            14.602                Anadyr1           456.312
       347   04 Jun 2027 06:31:07.535   04 Jun 2027 06:31:11.721             4.186               Magadan1           130.812
       348   04 Jun 2027 06:31:17.113   04 Jun 2027 06:31:34.632            17.519               Magadan1           547.469
       349   04 Jun 2027 06:32:05.290   04 Jun 2027 06:32:33.892            28.602                Anadyr1           893.813
       350   04 Jun 2027 06:33:42.687   04 Jun 2027 06:33:55.391            12.704               Magadan1           397.000
       351   04 Jun 2027 06:34:16.328   04 Jun 2027 06:34:22.425             6.097                Anadyr2           190.531
       352   04 Jun 2027 06:35:38.992   04 Jun 2027 06:36:20.007            41.015                Anadyr2          1281.719
       353   04 Jun 2027 08:04:15.592   04 Jun 2027 08:05:04.620            49.028               Magadan1          1532.125
       354   04 Jun 2027 08:05:11.604   04 Jun 2027 08:05:32.797            21.193               Magadan2           662.281
       355   04 Jun 2027 08:05:34.120   04 Jun 2027 08:06:09.953            35.833               Magadan1          1119.781
       356   04 Jun 2027 08:06:17.926   04 Jun 2027 08:07:01.105            43.179                Anadyr2          1349.344
       357   04 Jun 2027 08:07:04.084   04 Jun 2027 08:08:28.164            84.080                Anadyr2          2627.500
       358   04 Jun 2027 08:08:40.789   04 Jun 2027 08:09:53.035            72.246               Magadan2          2257.688
       359   04 Jun 2027 08:56:50.300   04 Jun 2027 08:57:00.007             9.707            RioGallegos           303.344
       360   04 Jun 2027 09:39:00.343   04 Jun 2027 09:40:15.618            75.275               Magadan1          2352.344
       361   04 Jun 2027 09:40:31.514   04 Jun 2027 09:40:48.078            16.564               Magadan2           517.625
       362   04 Jun 2027 09:41:00.450   04 Jun 2027 09:41:51.197            50.747                Anadyr1          1585.844
       363   04 Jun 2027 09:42:36.781   04 Jun 2027 09:44:03.480            86.699               Magadan1          2709.344
       364   04 Jun 2027 09:45:11.973   04 Jun 2027 09:45:31.457            19.484               Magadan2           608.875
       365   04 Jun 2027 09:45:44.366   04 Jun 2027 09:45:56.469            12.103               Magadan2           378.219
       366   04 Jun 2027 09:46:21.392   04 Jun 2027 09:46:40.556            19.164                Irkutsk           598.875
       367   04 Jun 2027 09:46:43.436   04 Jun 2027 09:47:20.517            37.081               Magadan1          1158.781
       368   04 Jun 2027 10:22:50.267   04 Jun 2027 10:23:24.493            34.226            RioGallegos          1069.562
       369   04 Jun 2027 10:23:34.751   04 Jun 2027 10:23:58.360            23.609            RioGallegos           737.781
       370   04 Jun 2027 11:00:20.425   04 Jun 2027 11:02:04.204           103.779                Sumatra          3243.094
       371   04 Jun 2027 11:17:52.383   04 Jun 2027 11:18:16.807            24.424                Irkutsk           763.250
       372   04 Jun 2027 11:18:30.542   04 Jun 2027 11:19:07.147            36.605                Irkutsk          1143.906
       373   04 Jun 2027 11:20:02.672   04 Jun 2027 11:20:26.361            23.689                Irkutsk           740.281
       374   04 Jun 2027 11:20:28.128   04 Jun 2027 11:20:55.158            27.030                Novosib           844.688
       375   04 Jun 2027 11:20:57.886   04 Jun 2027 11:21:47.080            49.194               Magadan1          1537.312
       376   04 Jun 2027 11:22:20.580   04 Jun 2027 11:22:41.603            21.023                Novosib           656.969
       377   04 Jun 2027 11:22:46.479   04 Jun 2027 11:23:04.693            18.214                Irkutsk           569.187
       378   04 Jun 2027 11:23:05.893   04 Jun 2027 11:23:17.755            11.862                Novosib           370.688
       379   04 Jun 2027 11:23:20.556   04 Jun 2027 11:24:10.060            49.504                Norilsk          1547.000
       380   04 Jun 2027 11:58:42.842   04 Jun 2027 11:59:32.886            50.044            RioGallegos          1563.875
       381   04 Jun 2027 12:34:47.100   04 Jun 2027 12:35:39.088            51.988                Sumatra          1624.625
       382   04 Jun 2027 12:36:19.024   04 Jun 2027 12:37:28.731            69.707                Sumatra          2178.344
       383   04 Jun 2027 12:47:46.609   04 Jun 2027 12:48:45.936            59.327                Irkutsk          1853.969
       384   04 Jun 2027 12:50:24.576   04 Jun 2027 12:50:36.745            12.169                Novosib           380.281
       385   04 Jun 2027 12:51:53.258   04 Jun 2027 12:52:40.236            46.978                Norilsk          1468.063
       386   04 Jun 2027 13:40:03.924   04 Jun 2027 13:42:53.174           169.250            RioGallegos          5289.062
       387   04 Jun 2027 14:20:24.196   04 Jun 2027 14:22:23.391           119.195                  Delhi          3724.844
       388   04 Jun 2027 14:25:42.793   04 Jun 2027 14:26:10.167            27.374                Novosib           855.438
       389   04 Jun 2027 14:29:23.704   04 Jun 2027 14:30:47.197            83.493                Novosib          2609.156
       390   04 Jun 2027 14:31:01.817   04 Jun 2027 14:31:30.139            28.322                Norilsk           885.062
       391   04 Jun 2027 14:32:32.081   04 Jun 2027 14:32:56.489            24.408                Norilsk           762.750
       392   04 Jun 2027 14:39:13.776   04 Jun 2027 14:39:22.868             9.092                Norilsk           284.125
       393   04 Jun 2027 16:01:48.217   04 Jun 2027 16:04:42.841           174.624                 Moscow          5457.000
       394   04 Jun 2027 16:05:17.504   04 Jun 2027 16:07:14.349           116.845              Murmansk2          3651.406
       395   04 Jun 2027 16:09:56.784   04 Jun 2027 16:13:37.113           220.329                Norilsk          6885.281
       396   04 Jun 2027 16:14:34.337   04 Jun 2027 16:14:35.601             1.264                Norilsk            39.500
       397   04 Jun 2027 17:26:02.534   04 Jun 2027 17:26:15.217            12.683               CapeTown           396.344
       398   04 Jun 2027 17:39:37.390   04 Jun 2027 17:42:53.397           196.007                 Moscow          6125.219
       399   04 Jun 2027 17:52:01.736   04 Jun 2027 17:52:26.062            24.326              Murmansk1           760.188
       400   04 Jun 2027 17:56:12.309   04 Jun 2027 17:56:16.903             4.594                Anadyr1           143.562
       401   04 Jun 2027 17:56:20.181   04 Jun 2027 17:57:36.194            76.013                Anadyr2          2375.406
       402   04 Jun 2027 18:05:40.920   04 Jun 2027 18:05:44.187             3.267                Anadyr2           102.094
       403   04 Jun 2027 18:51:24.672   04 Jun 2027 18:53:13.417           108.745               CapeTown          3398.281
       404   04 Jun 2027 19:00:31.256   04 Jun 2027 19:01:07.388            36.132               CapeTown          1129.125
       405   04 Jun 2027 19:22:15.373   04 Jun 2027 19:23:42.739            87.366              Murmansk1          2730.187
       406   04 Jun 2027 19:23:44.214   04 Jun 2027 19:26:24.043           159.829              Murmansk2          4994.656
       407   04 Jun 2027 19:26:37.914   04 Jun 2027 19:27:02.307            24.393              Murmansk1           762.281
       408   04 Jun 2027 19:34:59.186   04 Jun 2027 19:35:42.085            42.899               Magadan2          1340.594
       409   04 Jun 2027 19:36:02.290   04 Jun 2027 19:36:58.262            55.972               Magadan1          1749.125
       410   04 Jun 2027 19:38:18.898   04 Jun 2027 19:38:25.485             6.587               Magadan2           205.844
       411   04 Jun 2027 19:42:50.764   04 Jun 2027 19:43:30.421            39.657               Magadan2          1239.281
       412   04 Jun 2027 21:07:47.416   04 Jun 2027 21:11:16.464           209.048                Anadyr2          6532.750
       413   04 Jun 2027 21:11:17.396   04 Jun 2027 21:14:50.553           213.157               Magadan1          6661.156
       414   04 Jun 2027 22:04:06.001   04 Jun 2027 22:06:30.949           144.948            RioGallegos          4529.625
       415   04 Jun 2027 22:08:58.040   04 Jun 2027 22:09:24.325            26.285            RioGallegos           821.406
       416   04 Jun 2027 22:43:37.379   04 Jun 2027 22:46:19.150           161.771                Anadyr1          5055.344
       417   04 Jun 2027 22:46:29.062   04 Jun 2027 22:47:08.865            39.803               Magadan1          1243.844
       418   04 Jun 2027 22:47:28.467   04 Jun 2027 22:47:37.891             9.424               Magadan1           294.500
       419   04 Jun 2027 22:47:45.298   04 Jun 2027 22:47:54.677             9.379               Magadan2           293.094
       420   04 Jun 2027 22:48:40.263   04 Jun 2027 22:49:01.534            21.271               Magadan2           664.719
       421   04 Jun 2027 22:50:32.521   04 Jun 2027 22:50:50.255            17.734               Magadan2           554.188
       422   04 Jun 2027 22:51:15.583   04 Jun 2027 22:52:22.988            67.405                Irkutsk          2106.406
       423   04 Jun 2027 22:53:17.927   04 Jun 2027 22:53:50.899            32.972                Irkutsk          1030.375
       424   04 Jun 2027 22:56:04.073   04 Jun 2027 22:56:21.067            16.994                Irkutsk           531.062
       425   04 Jun 2027 23:05:48.145   04 Jun 2027 23:07:44.768           116.623                Sumatra          3644.469
       426   05 Jun 2027 00:18:55.371   05 Jun 2027 00:20:44.408           109.037                Anadyr1          3407.406
       427   05 Jun 2027 00:20:55.102   05 Jun 2027 00:21:32.929            37.827                Anadyr2          1182.094
       428   05 Jun 2027 00:21:48.484   05 Jun 2027 00:23:13.831            85.347                Norilsk          2667.094
       429   05 Jun 2027 00:23:24.798   05 Jun 2027 00:23:42.064            17.266               Magadan2           539.563
       430   05 Jun 2027 00:23:42.064   05 Jun 2027 00:23:46.005             3.941               Magadan1           123.156
       431   05 Jun 2027 00:24:16.341   05 Jun 2027 00:24:31.291            14.950               Magadan1           467.188
       432   05 Jun 2027 00:24:58.819   05 Jun 2027 00:25:24.137            25.318               Magadan1           791.187
       433   05 Jun 2027 00:25:26.394   05 Jun 2027 00:26:32.843            66.449                Irkutsk          2076.531
       434   05 Jun 2027 00:28:17.758   05 Jun 2027 00:29:03.308            45.550                Novosib          1423.437
       435   05 Jun 2027 00:30:33.905   05 Jun 2027 00:31:02.042            28.137                Novosib           879.281
       436   05 Jun 2027 00:31:55.682   05 Jun 2027 00:32:07.029            11.347                Novosib           354.594
       437   05 Jun 2027 00:36:21.076   05 Jun 2027 00:37:16.865            55.789                  Delhi          1743.406
       438   05 Jun 2027 00:37:18.426   05 Jun 2027 00:37:29.380            10.954                  Delhi           342.313
       439   05 Jun 2027 00:41:13.426   05 Jun 2027 00:41:22.159             8.733                  Delhi           272.906
       440   05 Jun 2027 00:44:00.138   05 Jun 2027 00:45:00.899            60.761                Sumatra          1898.781
       441   05 Jun 2027 01:19:07.499   05 Jun 2027 01:19:14.402             6.903            RioGallegos           215.719
       442   05 Jun 2027 01:19:21.048   05 Jun 2027 01:19:25.897             4.849            RioGallegos           151.531
       443   05 Jun 2027 01:20:10.726   05 Jun 2027 01:21:03.106            52.380            RioGallegos          1636.875
       444   05 Jun 2027 01:53:04.412   05 Jun 2027 01:54:11.162            66.750                Anadyr2          2085.937
       445   05 Jun 2027 01:54:58.179   05 Jun 2027 01:55:35.750            37.571                Anadyr1          1174.094
       446   05 Jun 2027 01:57:31.324   05 Jun 2027 01:58:49.197            77.873                Norilsk          2433.531
       447   05 Jun 2027 01:58:52.227   05 Jun 2027 01:59:02.942            10.715                Norilsk           334.844
       448   05 Jun 2027 02:00:27.405   05 Jun 2027 02:01:31.289            63.884              Murmansk1          1996.375
       449   05 Jun 2027 02:01:32.780   05 Jun 2027 02:03:17.262           104.482                Irkutsk          3265.062
       450   05 Jun 2027 02:06:38.736   05 Jun 2027 02:06:41.935             3.199                Irkutsk            99.969
       451   05 Jun 2027 02:07:26.927   05 Jun 2027 02:08:36.284            69.357                Irkutsk          2167.406
       452   05 Jun 2027 02:17:24.482   05 Jun 2027 02:17:50.242            25.760                  Delhi           805.000
       453   05 Jun 2027 02:50:32.851   05 Jun 2027 02:54:32.824           239.973            RioGallegos          7499.156
       454   05 Jun 2027 03:43:29.788   05 Jun 2027 03:45:17.553           107.765                Norilsk          3367.656
       455   05 Jun 2027 03:45:19.979   05 Jun 2027 03:45:39.029            19.050                 Moscow           595.313
       456   05 Jun 2027 03:45:43.898   05 Jun 2027 03:48:58.592           194.694                Novosib          6084.188
       457   05 Jun 2027 03:49:16.385   05 Jun 2027 03:53:59.774           283.389                  Delhi          8855.906
       458   05 Jun 2027 05:03:33.496   05 Jun 2027 05:04:26.171            52.675                Anadyr2          1646.094
       459   05 Jun 2027 05:19:00.199   05 Jun 2027 05:19:42.722            42.523                Novosib          1328.844
       460   05 Jun 2027 05:23:18.346   05 Jun 2027 05:23:58.453            40.107                 Moscow          1253.344
       461   05 Jun 2027 05:38:43.659   05 Jun 2027 05:41:22.691           159.032               CapeTown          4969.750
       462   05 Jun 2027 06:41:45.184   05 Jun 2027 06:42:33.956            48.772                Anadyr1          1524.125
       463   05 Jun 2027 06:42:41.789   05 Jun 2027 06:43:22.250            40.461                Anadyr2          1264.406
       464   05 Jun 2027 06:43:30.329   05 Jun 2027 06:43:36.106             5.777               Magadan1           180.531
       465   05 Jun 2027 06:43:36.343   05 Jun 2027 06:44:35.753            59.410                Anadyr2          1856.563
       466   05 Jun 2027 06:44:35.753   05 Jun 2027 06:45:07.748            31.995                Anadyr1           999.844
       467   05 Jun 2027 07:18:23.357   05 Jun 2027 07:22:27.072           243.715               CapeTown          7616.094
       468   05 Jun 2027 08:18:11.198   05 Jun 2027 08:18:16.341             5.143               Magadan2           160.719
       469   05 Jun 2027 08:18:37.420   05 Jun 2027 08:19:11.922            34.502                Anadyr2          1078.187
       470   05 Jun 2027 08:19:32.163   05 Jun 2027 08:19:34.606             2.443               Magadan2            76.344
       471   05 Jun 2027 08:19:58.256   05 Jun 2027 08:20:12.355            14.099               Magadan1           440.594
       472   05 Jun 2027 08:20:28.570   05 Jun 2027 08:21:45.898            77.328                Anadyr2          2416.500
       473   05 Jun 2027 09:53:32.409   05 Jun 2027 09:53:41.223             8.814               Magadan1           275.437
       474   05 Jun 2027 09:53:41.223   05 Jun 2027 09:53:46.012             4.789               Magadan2           149.656
       475   05 Jun 2027 09:54:40.851   05 Jun 2027 09:56:02.710            81.859               Magadan2          2558.094
       476   05 Jun 2027 09:56:12.629   05 Jun 2027 09:56:49.543            36.914                Norilsk          1153.563
       477   05 Jun 2027 09:56:57.037   05 Jun 2027 09:57:14.184            17.147                Norilsk           535.844
       478   05 Jun 2027 09:57:33.550   05 Jun 2027 09:58:36.649            63.099                Norilsk          1971.844
       479   05 Jun 2027 09:58:50.174   05 Jun 2027 09:58:56.724             6.550                Norilsk           204.688
       480   05 Jun 2027 09:59:01.072   05 Jun 2027 09:59:26.703            25.631                Norilsk           800.969
       481   05 Jun 2027 09:59:37.249   05 Jun 2027 09:59:38.355             1.106                Norilsk            34.563
       482   05 Jun 2027 09:59:55.869   05 Jun 2027 10:00:33.886            38.017                Norilsk          1188.031
