uniorb/output/strategy_4/Drop/Drop_KinoSat_112004.txt

KinoSat_112004
-------------------------
    Access    *     Start Time (UTCG)     *     Stop Time (UTCG)  *   Duration (s)        *       Station  *  Data (Mbytes)
         1   01 Jun 2027 03:07:21.090   01 Jun 2027 03:07:42.902            21.812               Magadan2           681.625
         2   01 Jun 2027 03:07:58.223   01 Jun 2027 03:08:41.671            43.448               Magadan2          1357.750
         3   01 Jun 2027 03:08:41.859   01 Jun 2027 03:09:05.916            24.057                Irkutsk           751.781
         4   01 Jun 2027 03:09:15.695   01 Jun 2027 03:10:20.492            64.797                Irkutsk          2024.906
         5   01 Jun 2027 03:10:30.815   01 Jun 2027 03:11:08.389            37.574                Norilsk          1174.187
         6   01 Jun 2027 03:11:16.529   01 Jun 2027 03:12:02.781            46.252                Novosib          1445.375
         7   01 Jun 2027 03:12:07.537   01 Jun 2027 03:12:13.803             6.266                Norilsk           195.813
         8   01 Jun 2027 03:12:14.092   01 Jun 2027 03:12:36.341            22.249                Irkutsk           695.281
         9   01 Jun 2027 03:12:48.451   01 Jun 2027 03:14:18.940            90.489                Norilsk          2827.781
        10   01 Jun 2027 03:14:47.886   01 Jun 2027 03:16:18.133            90.247                  Delhi          2820.219
        11   01 Jun 2027 03:20:50.098   01 Jun 2027 03:21:08.849            18.751                  Delhi           585.969
        12   01 Jun 2027 03:56:14.464   01 Jun 2027 03:57:12.160            57.696            RioGallegos          1803.000
        13   01 Jun 2027 03:58:00.309   01 Jun 2027 04:00:01.085           120.776            RioGallegos          3774.250
        14   01 Jun 2027 04:45:24.001   01 Jun 2027 04:46:09.682            45.681                Norilsk          1427.531
        15   01 Jun 2027 04:46:27.377   01 Jun 2027 04:48:06.159            98.782                Novosib          3086.937
        16   01 Jun 2027 04:48:18.692   01 Jun 2027 04:49:45.213            86.521                Novosib          2703.781
        17   01 Jun 2027 04:49:51.921   01 Jun 2027 04:50:20.620            28.699                Irkutsk           896.844
        18   01 Jun 2027 04:50:24.695   01 Jun 2027 04:50:40.111            15.416              Murmansk2           481.750
        19   01 Jun 2027 04:50:44.199   01 Jun 2027 04:56:50.487           366.288                  Delhi         11446.500
        20   01 Jun 2027 06:24:17.861   01 Jun 2027 06:24:37.607            19.746                Novosib           617.062
        21   01 Jun 2027 06:24:40.637   01 Jun 2027 06:25:17.280            36.643                 Moscow          1145.094
        22   01 Jun 2027 06:25:24.808   01 Jun 2027 06:25:58.655            33.847                Norilsk          1057.719
        23   01 Jun 2027 06:26:02.298   01 Jun 2027 06:26:37.166            34.868                Novosib          1089.625
        24   01 Jun 2027 06:27:03.226   01 Jun 2027 06:29:12.255           129.029              Murmansk2          4032.156
        25   01 Jun 2027 06:29:27.384   01 Jun 2027 06:31:34.789           127.405                 Moscow          3981.406
        26   01 Jun 2027 06:43:48.046   01 Jun 2027 06:47:45.232           237.186               CapeTown          7412.063
        27   01 Jun 2027 06:50:35.290   01 Jun 2027 06:52:12.801            97.511               CapeTown          3047.219
        28   01 Jun 2027 07:47:05.865   01 Jun 2027 07:47:31.040            25.175                Anadyr2           786.719
        29   01 Jun 2027 07:47:44.931   01 Jun 2027 07:48:44.326            59.395                Anadyr2          1856.094
        30   01 Jun 2027 08:28:33.252   01 Jun 2027 08:30:34.646           121.394               CapeTown          3793.562
        31   01 Jun 2027 09:22:25.887   01 Jun 2027 09:23:03.984            38.097               Magadan1          1190.531
        32   01 Jun 2027 09:23:30.517   01 Jun 2027 09:25:26.894           116.377                Anadyr2          3636.781
        33   01 Jun 2027 09:27:09.830   01 Jun 2027 09:29:15.626           125.796                Anadyr2          3931.125
        34   01 Jun 2027 10:53:01.719   01 Jun 2027 10:54:20.651            78.932               Magadan2          2466.625
        35   01 Jun 2027 10:56:18.785   01 Jun 2027 10:57:45.829            87.044               Magadan1          2720.125
        36   01 Jun 2027 10:57:45.829   01 Jun 2027 10:58:26.824            40.995               Magadan2          1281.094
        37   01 Jun 2027 10:58:58.765   01 Jun 2027 11:04:47.770           349.005               Magadan2         10906.406
        38   01 Jun 2027 12:33:42.714   01 Jun 2027 12:38:57.385           314.671               Magadan2          9833.469
        39   01 Jun 2027 14:56:50.072   01 Jun 2027 15:01:16.037           265.965            RioGallegos          8311.406
        40   01 Jun 2027 17:26:51.974   01 Jun 2027 17:28:03.945            71.971                Norilsk          2249.094
        41   01 Jun 2027 18:56:35.649   01 Jun 2027 18:58:07.880            92.231                 Moscow          2882.219
        42   01 Jun 2027 19:00:59.968   01 Jun 2027 19:01:56.495            56.527                 Moscow          1766.469
        43   01 Jun 2027 19:03:27.047   01 Jun 2027 19:06:36.917           189.870                 Moscow          5933.437
        44   01 Jun 2027 20:12:52.431   01 Jun 2027 20:13:35.692            43.261               CapeTown          1351.906
        45   01 Jun 2027 20:17:13.935   01 Jun 2027 20:19:14.953           121.018               CapeTown          3781.812
        46   01 Jun 2027 20:39:11.688   01 Jun 2027 20:42:22.990           191.302              Murmansk1          5978.187
        47   01 Jun 2027 20:43:49.835   01 Jun 2027 20:46:52.914           183.079              Murmansk2          5721.219
        48   01 Jun 2027 22:27:08.649   01 Jun 2027 22:27:47.481            38.832               Magadan1          1213.500
        49   01 Jun 2027 22:28:36.598   01 Jun 2027 22:29:09.245            32.647               Magadan2          1020.219
        50   01 Jun 2027 22:30:19.513   01 Jun 2027 22:30:33.696            14.183               Magadan2           443.219
        51   01 Jun 2027 22:30:33.696   01 Jun 2027 22:30:52.733            19.037               Magadan1           594.906
        52   01 Jun 2027 22:38:58.166   01 Jun 2027 22:39:30.001            31.835               Magadan2           994.844
        53   01 Jun 2027 23:21:14.921   01 Jun 2027 23:23:40.406           145.485            RioGallegos          4546.406
        54   01 Jun 2027 23:25:58.753   01 Jun 2027 23:26:16.425            17.672            RioGallegos           552.250
        55   02 Jun 2027 00:00:40.811   02 Jun 2027 00:02:12.454            91.643                Anadyr1          2863.844
        56   02 Jun 2027 00:02:15.537   02 Jun 2027 00:03:41.370            85.833                Anadyr2          2682.281
        57   02 Jun 2027 00:03:44.303   02 Jun 2027 00:04:19.385            35.082                Norilsk          1096.313
        58   02 Jun 2027 00:05:11.058   02 Jun 2027 00:06:05.282            54.224               Magadan1          1694.500
        59   02 Jun 2027 00:06:20.672   02 Jun 2027 00:06:30.287             9.615               Magadan2           300.469
        60   02 Jun 2027 00:06:57.121   02 Jun 2027 00:07:39.618            42.497               Magadan2          1328.031
        61   02 Jun 2027 00:07:48.294   02 Jun 2027 00:08:36.774            48.480                Irkutsk          1515.000
        62   02 Jun 2027 00:10:19.512   02 Jun 2027 00:11:01.538            42.026                Irkutsk          1313.312
        63   02 Jun 2027 00:14:31.922   02 Jun 2027 00:15:31.791            59.869                Irkutsk          1870.906
        64   02 Jun 2027 00:22:58.790   02 Jun 2027 00:24:53.277           114.487                Sumatra          3577.719
        65   02 Jun 2027 00:30:58.575   02 Jun 2027 00:31:06.697             8.122                Sumatra           253.813
        66   02 Jun 2027 00:56:42.722   02 Jun 2027 00:57:18.013            35.291            RioGallegos          1102.844
        67   02 Jun 2027 01:01:40.422   02 Jun 2027 01:02:18.610            38.188            RioGallegos          1193.375
        68   02 Jun 2027 01:03:54.431   02 Jun 2027 01:04:13.157            18.726            RioGallegos           585.188
        69   02 Jun 2027 01:06:10.998   02 Jun 2027 01:06:41.372            30.374            RioGallegos           949.187
        70   02 Jun 2027 01:35:59.981   02 Jun 2027 01:36:14.977            14.996                Anadyr1           468.625
        71   02 Jun 2027 01:36:51.022   02 Jun 2027 01:37:31.358            40.336                Anadyr1          1260.500
        72   02 Jun 2027 01:38:07.876   02 Jun 2027 01:38:24.479            16.603                Anadyr2           518.844
        73   02 Jun 2027 01:38:32.690   02 Jun 2027 01:39:57.599            84.909                Norilsk          2653.406
        74   02 Jun 2027 01:40:32.911   02 Jun 2027 01:40:54.487            21.576               Magadan2           674.250
        75   02 Jun 2027 01:41:59.763   02 Jun 2027 01:42:05.488             5.725                Norilsk           178.906
        76   02 Jun 2027 01:42:17.615   02 Jun 2027 01:42:31.423            13.808               Magadan1           431.500
        77   02 Jun 2027 01:43:11.655   02 Jun 2027 01:44:57.252           105.597                Novosib          3299.906
        78   02 Jun 2027 01:45:35.887   02 Jun 2027 01:45:58.090            22.203                Irkutsk           693.844
        79   02 Jun 2027 01:47:29.836   02 Jun 2027 01:48:15.571            45.735                Novosib          1429.219
        80   02 Jun 2027 01:49:57.023   02 Jun 2027 01:50:16.512            19.489                Irkutsk           609.031
        81   02 Jun 2027 01:52:34.806   02 Jun 2027 01:52:57.723            22.917                Novosib           716.156
        82   02 Jun 2027 01:53:46.929   02 Jun 2027 01:53:51.063             4.134                  Delhi           129.187
        83   02 Jun 2027 01:55:30.969   02 Jun 2027 01:55:51.564            20.595                  Delhi           643.594
        84   02 Jun 2027 01:56:45.725   02 Jun 2027 01:59:20.056           154.331                Sumatra          4822.844
        85   02 Jun 2027 02:04:50.050   02 Jun 2027 02:06:03.138            73.088                Sumatra          2284.000
        86   02 Jun 2027 02:41:52.511   02 Jun 2027 02:42:47.520            55.009            RioGallegos          1719.031
        87   02 Jun 2027 03:18:59.795   02 Jun 2027 03:20:41.743           101.948               Magadan2          3185.875
        88   02 Jun 2027 03:21:43.302   02 Jun 2027 03:22:08.633            25.331                Norilsk           791.594
        89   02 Jun 2027 03:22:58.240   02 Jun 2027 03:24:36.375            98.135                Irkutsk          3066.719
        90   02 Jun 2027 03:24:56.182   02 Jun 2027 03:27:57.122           180.940                Novosib          5654.375
        91   02 Jun 2027 03:28:14.660   02 Jun 2027 03:29:34.888            80.228                Irkutsk          2507.125
        92   02 Jun 2027 03:31:07.387   02 Jun 2027 03:32:41.448            94.061                  Delhi          2939.406
        93   02 Jun 2027 04:07:34.422   02 Jun 2027 04:12:38.968           304.546            RioGallegos          9517.063
        94   02 Jun 2027 04:58:49.921   02 Jun 2027 05:01:29.674           159.753                Irkutsk          4992.281
        95   02 Jun 2027 05:03:19.422   02 Jun 2027 05:11:10.502           471.080                  Delhi         14721.250
        96   02 Jun 2027 06:37:48.691   02 Jun 2027 06:37:57.348             8.657                Novosib           270.531
        97   02 Jun 2027 06:39:03.873   02 Jun 2027 06:39:27.848            23.975                 Moscow           749.219
        98   02 Jun 2027 06:39:50.164   02 Jun 2027 06:40:25.638            35.474              Murmansk1          1108.562
        99   02 Jun 2027 06:42:51.535   02 Jun 2027 06:43:39.574            48.039                 Moscow          1501.219
       100   02 Jun 2027 08:00:12.936   02 Jun 2027 08:02:09.861           116.925                Anadyr1          3653.906
       101   02 Jun 2027 08:05:01.897   02 Jun 2027 08:05:26.841            24.944                Anadyr1           779.500
       102   02 Jun 2027 09:35:51.775   02 Jun 2027 09:37:06.379            74.604                Anadyr2          2331.375
       103   02 Jun 2027 09:37:44.255   02 Jun 2027 09:39:12.111            87.856               Magadan1          2745.500
       104   02 Jun 2027 09:39:12.111   02 Jun 2027 09:40:24.061            71.950               Magadan2          2248.438
       105   02 Jun 2027 11:10:17.014   02 Jun 2027 11:10:46.625            29.611               Magadan2           925.344
       106   02 Jun 2027 11:10:53.573   02 Jun 2027 11:11:29.144            35.571               Magadan1          1111.594
       107   02 Jun 2027 11:13:01.325   02 Jun 2027 11:13:32.972            31.647                Irkutsk           988.969
       108   02 Jun 2027 11:13:35.156   02 Jun 2027 11:14:18.703            43.547                Irkutsk          1360.844
       109   02 Jun 2027 11:14:36.915   02 Jun 2027 11:15:02.878            25.963                Norilsk           811.344
       110   02 Jun 2027 11:15:07.864   02 Jun 2027 11:16:45.056            97.192               Magadan1          3037.250
       111   02 Jun 2027 12:28:30.984   02 Jun 2027 12:30:24.485           113.501                Sumatra          3546.906
       112   02 Jun 2027 12:39:54.916   02 Jun 2027 12:41:17.678            82.762                Irkutsk          2586.313
       113   02 Jun 2027 12:42:05.318   02 Jun 2027 12:42:43.678            38.360                Irkutsk          1198.750
       114   02 Jun 2027 12:45:25.298   02 Jun 2027 12:45:31.055             5.757                Norilsk           179.906
       115   02 Jun 2027 12:46:02.435   02 Jun 2027 12:46:19.635            17.200                Norilsk           537.500
       116   02 Jun 2027 12:47:05.572   02 Jun 2027 12:48:05.359            59.787                Irkutsk          1868.344
       117   02 Jun 2027 12:48:11.047   02 Jun 2027 12:49:56.933           105.886               Magadan2          3308.938
       118   02 Jun 2027 13:34:02.898   02 Jun 2027 13:34:29.555            26.657            RioGallegos           833.031
       119   02 Jun 2027 14:02:25.213   02 Jun 2027 14:02:39.205            13.992                Sumatra           437.250
       120   02 Jun 2027 14:05:16.184   02 Jun 2027 14:07:10.690           114.506                Sumatra          3578.313
       121   02 Jun 2027 14:10:19.669   02 Jun 2027 14:12:10.850           111.181                Sumatra          3474.406
       122   02 Jun 2027 14:17:12.354   02 Jun 2027 14:18:29.372            77.018                Irkutsk          2406.812
       123   02 Jun 2027 14:22:03.765   02 Jun 2027 14:22:38.848            35.083                Irkutsk          1096.344
       124   02 Jun 2027 14:26:42.019   02 Jun 2027 14:27:11.213            29.194                Irkutsk           912.312
       125   02 Jun 2027 15:47:02.184   02 Jun 2027 15:48:31.111            88.927                  Delhi          2778.969
       126   02 Jun 2027 15:52:20.276   02 Jun 2027 15:52:21.336             1.060                  Delhi            33.125
       127   02 Jun 2027 15:54:06.273   02 Jun 2027 15:56:56.732           170.459                  Delhi          5326.844
       128   02 Jun 2027 15:59:06.395   02 Jun 2027 16:00:12.315            65.920                Norilsk          2060.000
       129   02 Jun 2027 16:00:36.498   02 Jun 2027 16:00:50.663            14.165                Novosib           442.656
       130   02 Jun 2027 16:01:51.841   02 Jun 2027 16:02:29.073            37.232                Norilsk          1163.500
       131   02 Jun 2027 16:04:00.569   02 Jun 2027 16:04:45.863            45.294                Norilsk          1415.437
       132   02 Jun 2027 16:07:42.218   02 Jun 2027 16:09:01.809            79.591                Norilsk          2487.219
       133   02 Jun 2027 17:32:41.895   02 Jun 2027 17:34:11.201            89.306                 Moscow          2790.812
       134   02 Jun 2027 17:35:54.498   02 Jun 2027 17:36:25.086            30.588              Murmansk2           955.875
       135   02 Jun 2027 17:36:25.086   02 Jun 2027 17:36:54.410            29.324              Murmansk1           916.375
       136   02 Jun 2027 17:39:41.972   02 Jun 2027 17:45:08.389           326.417                Norilsk         10200.531
       137   02 Jun 2027 19:09:10.512   02 Jun 2027 19:11:52.347           161.835                 Moscow          5057.344
       138   02 Jun 2027 19:11:56.088   02 Jun 2027 19:12:23.411            27.323              Murmansk1           853.844
       139   02 Jun 2027 19:14:25.006   02 Jun 2027 19:15:27.123            62.117              Murmansk2          1941.156
       140   02 Jun 2027 20:20:37.296   02 Jun 2027 20:21:55.395            78.099               CapeTown          2440.594
       141   02 Jun 2027 20:22:57.324   02 Jun 2027 20:25:14.160           136.836               CapeTown          4276.125
       142   02 Jun 2027 20:51:55.759   02 Jun 2027 20:58:47.306           411.547              Murmansk2         12860.844
       143   02 Jun 2027 22:36:52.031   02 Jun 2027 22:38:22.613            90.582                Anadyr2          2830.688
       144   02 Jun 2027 22:39:08.868   02 Jun 2027 22:40:58.246           109.378               Magadan1          3418.063
       145   02 Jun 2027 22:41:49.599   02 Jun 2027 22:42:13.155            23.556               Magadan2           736.125
       146   02 Jun 2027 22:42:26.733   02 Jun 2027 22:42:36.399             9.666               Magadan2           302.063
       147   02 Jun 2027 22:42:54.938   02 Jun 2027 22:42:57.711             2.773               Magadan1            86.656
       148   02 Jun 2027 22:43:22.120   02 Jun 2027 22:44:00.821            38.701               Magadan2          1209.406
       149   02 Jun 2027 22:45:54.353   02 Jun 2027 22:46:07.549            13.196               Magadan1           412.375
       150   02 Jun 2027 22:47:16.445   02 Jun 2027 22:47:22.290             5.845               Magadan2           182.656
       151   02 Jun 2027 22:47:34.112   02 Jun 2027 22:48:18.975            44.863               Magadan2          1401.969
       152   02 Jun 2027 23:32:29.578   02 Jun 2027 23:34:40.014           130.436            RioGallegos          4076.125
       153   02 Jun 2027 23:35:22.482   02 Jun 2027 23:35:23.751             1.269            RioGallegos            39.656
       154   02 Jun 2027 23:37:29.521   02 Jun 2027 23:37:35.369             5.848            RioGallegos           182.750
       155   02 Jun 2027 23:38:08.371   02 Jun 2027 23:38:46.252            37.881            RioGallegos          1183.781
       156   03 Jun 2027 00:12:40.367   03 Jun 2027 00:14:06.671            86.304                Anadyr1          2697.000
       157   03 Jun 2027 00:14:15.234   03 Jun 2027 00:14:31.755            16.521                Anadyr2           516.281
       158   03 Jun 2027 00:14:44.700   03 Jun 2027 00:16:21.243            96.543                Norilsk          3016.969
       159   03 Jun 2027 00:16:40.408   03 Jun 2027 00:17:52.796            72.388               Magadan1          2262.125
       160   03 Jun 2027 00:19:29.861   03 Jun 2027 00:21:42.781           132.920                Irkutsk          4153.750
       161   03 Jun 2027 00:25:57.968   03 Jun 2027 00:26:28.299            30.331                Irkutsk           947.844
       162   03 Jun 2027 00:34:07.844   03 Jun 2027 00:35:48.817           100.973                Sumatra          3155.406
       163   03 Jun 2027 00:39:54.186   03 Jun 2027 00:40:09.821            15.635                Sumatra           488.594
       164   03 Jun 2027 00:43:11.920   03 Jun 2027 00:43:12.603             0.683                Sumatra            21.344
       165   03 Jun 2027 01:06:38.548   03 Jun 2027 01:06:50.910            12.362            RioGallegos           386.312
       166   03 Jun 2027 01:08:37.656   03 Jun 2027 01:09:11.844            34.188            RioGallegos          1068.375
       167   03 Jun 2027 01:12:32.913   03 Jun 2027 01:13:15.135            42.222            RioGallegos          1319.437
       168   03 Jun 2027 01:18:15.889   03 Jun 2027 01:19:03.335            47.446            RioGallegos          1482.687
       169   03 Jun 2027 01:47:52.832   03 Jun 2027 01:47:56.007             3.175                Anadyr2            99.219
       170   03 Jun 2027 01:48:12.806   03 Jun 2027 01:48:19.791             6.985                Anadyr2           218.281
       171   03 Jun 2027 01:49:23.928   03 Jun 2027 01:50:07.533            43.605                Anadyr2          1362.656
       172   03 Jun 2027 01:50:26.064   03 Jun 2027 01:50:47.618            21.554                Anadyr2           673.563
       173   03 Jun 2027 01:51:14.723   03 Jun 2027 01:51:25.309            10.586               Magadan2           330.812
       174   03 Jun 2027 01:51:27.265   03 Jun 2027 01:52:55.255            87.990               Magadan1          2749.688
       175   03 Jun 2027 01:54:16.562   03 Jun 2027 01:54:32.025            15.463                Norilsk           483.219
       176   03 Jun 2027 01:55:01.385   03 Jun 2027 01:57:11.512           130.127                Novosib          4066.469
       177   03 Jun 2027 01:58:21.636   03 Jun 2027 01:58:24.564             2.928                Irkutsk            91.500
       178   03 Jun 2027 02:00:56.729   03 Jun 2027 02:01:39.805            43.076                Irkutsk          1346.125
       179   03 Jun 2027 02:06:37.841   03 Jun 2027 02:06:56.159            18.318                  Delhi           572.437
       180   03 Jun 2027 02:08:31.954   03 Jun 2027 02:11:10.782           158.828                Sumatra          4963.375
       181   03 Jun 2027 02:42:39.071   03 Jun 2027 02:43:59.648            80.577            RioGallegos          2518.031
       182   03 Jun 2027 02:53:12.002   03 Jun 2027 02:54:23.093            71.091            RioGallegos          2221.594
       183   03 Jun 2027 03:30:43.150   03 Jun 2027 03:30:55.851            12.701               Magadan1           396.906
       184   03 Jun 2027 03:31:10.752   03 Jun 2027 03:32:16.866            66.114               Magadan1          2066.062
       185   03 Jun 2027 03:34:23.871   03 Jun 2027 03:35:17.256            53.385                Norilsk          1668.281
       186   03 Jun 2027 03:35:25.649   03 Jun 2027 03:37:28.496           122.847                Irkutsk          3838.969
       187   03 Jun 2027 03:38:41.944   03 Jun 2027 03:39:32.284            50.340                Norilsk          1573.125
       188   03 Jun 2027 03:39:51.786   03 Jun 2027 03:39:55.272             3.486                Irkutsk           108.938
       189   03 Jun 2027 04:19:55.507   03 Jun 2027 04:26:03.840           368.333            RioGallegos         11510.406
       190   03 Jun 2027 05:08:24.259   03 Jun 2027 05:09:56.303            92.044                Irkutsk          2876.375
       191   03 Jun 2027 05:11:11.873   03 Jun 2027 05:11:32.170            20.297                Irkutsk           634.281
       192   03 Jun 2027 05:11:48.086   03 Jun 2027 05:12:17.285            29.199                Irkutsk           912.469
       193   03 Jun 2027 05:13:15.044   03 Jun 2027 05:13:44.609            29.565                 Moscow           923.906
       194   03 Jun 2027 05:13:47.812   03 Jun 2027 05:13:58.897            11.085                 Moscow           346.406
       195   03 Jun 2027 05:14:15.714   03 Jun 2027 05:14:47.246            31.532                Novosib           985.375
       196   03 Jun 2027 05:16:12.066   03 Jun 2027 05:16:15.630             3.564                Novosib           111.375
       197   03 Jun 2027 05:16:59.542   03 Jun 2027 05:21:57.663           298.121                  Delhi          9316.281
       198   03 Jun 2027 06:47:04.187   03 Jun 2027 06:47:08.454             4.267                 Moscow           133.344
       199   03 Jun 2027 06:47:22.669   03 Jun 2027 06:47:33.849            11.180                Norilsk           349.375
       200   03 Jun 2027 06:47:38.042   03 Jun 2027 06:48:14.095            36.053                Norilsk          1126.656
       201   03 Jun 2027 06:49:04.802   03 Jun 2027 06:49:35.080            30.278              Murmansk1           946.187
       202   03 Jun 2027 06:49:51.572   03 Jun 2027 06:50:44.062            52.490                 Moscow          1640.312
       203   03 Jun 2027 06:54:26.781   03 Jun 2027 06:54:55.397            28.616                 Moscow           894.250
       204   03 Jun 2027 07:07:49.951   03 Jun 2027 07:11:00.559           190.608               CapeTown          5956.500
       205   03 Jun 2027 08:10:51.949   03 Jun 2027 08:12:41.143           109.194                Anadyr1          3412.313
       206   03 Jun 2027 08:12:55.640   03 Jun 2027 08:13:25.325            29.685                Anadyr2           927.656
       207   03 Jun 2027 08:13:57.387   03 Jun 2027 08:14:16.792            19.405                Anadyr2           606.406
       208   03 Jun 2027 08:15:36.969   03 Jun 2027 08:16:57.093            80.124                Anadyr1          2503.875
       209   03 Jun 2027 09:47:24.580   03 Jun 2027 09:47:57.565            32.985               Magadan1          1030.781
       210   03 Jun 2027 09:48:25.653   03 Jun 2027 09:48:29.413             3.760               Magadan1           117.500
       211   03 Jun 2027 09:48:33.866   03 Jun 2027 09:48:52.216            18.350               Magadan1           573.437
       212   03 Jun 2027 09:49:47.254   03 Jun 2027 09:51:11.631            84.377               Magadan1          2636.781
       213   03 Jun 2027 11:18:21.222   03 Jun 2027 11:19:10.126            48.904               Magadan2          1528.250
       214   03 Jun 2027 11:19:29.765   03 Jun 2027 11:22:46.470           196.705               Magadan1          6147.031
       215   03 Jun 2027 11:24:22.754   03 Jun 2027 11:24:39.444            16.690                Norilsk           521.563
       216   03 Jun 2027 11:24:55.529   03 Jun 2027 11:26:02.451            66.922               Magadan1          2091.312
       217   03 Jun 2027 11:26:31.866   03 Jun 2027 11:26:37.249             5.383                Norilsk           168.219
       218   03 Jun 2027 11:26:58.125   03 Jun 2027 11:26:59.897             1.772                Irkutsk            55.375
       219   03 Jun 2027 11:27:29.322   03 Jun 2027 11:27:36.104             6.782                Norilsk           211.938
       220   03 Jun 2027 11:27:53.718   03 Jun 2027 11:28:02.889             9.171                Norilsk           286.594
       221   03 Jun 2027 11:28:12.988   03 Jun 2027 11:28:41.617            28.629                Norilsk           894.656
       222   03 Jun 2027 11:28:54.684   03 Jun 2027 11:29:45.039            50.355                Norilsk          1573.594
       223   03 Jun 2027 12:03:36.742   03 Jun 2027 12:04:55.214            78.472            RioGallegos          2452.250
       224   03 Jun 2027 12:39:48.336   03 Jun 2027 12:39:53.292             4.956                Sumatra           154.875
       225   03 Jun 2027 12:41:01.835   03 Jun 2027 12:42:38.256            96.421                Sumatra          3013.156
       226   03 Jun 2027 12:51:54.504   03 Jun 2027 12:53:15.650            81.146                Irkutsk          2535.813
       227   03 Jun 2027 12:56:49.429   03 Jun 2027 12:57:46.724            57.295                Norilsk          1790.469
       228   03 Jun 2027 13:40:22.257   03 Jun 2027 13:41:06.036            43.779            RioGallegos          1368.094
       229   03 Jun 2027 13:42:23.667   03 Jun 2027 13:43:32.920            69.253            RioGallegos          2164.156
       230   03 Jun 2027 13:45:14.371   03 Jun 2027 13:45:33.313            18.942            RioGallegos           591.938
       231   03 Jun 2027 13:48:50.996   03 Jun 2027 13:50:17.032            86.036            RioGallegos          2688.625
       232   03 Jun 2027 14:14:40.391   03 Jun 2027 14:16:03.464            83.073                Sumatra          2596.031
       233   03 Jun 2027 14:19:47.811   03 Jun 2027 14:19:49.945             2.134                Sumatra            66.688
       234   03 Jun 2027 14:29:25.056   03 Jun 2027 14:31:06.206           101.150                Novosib          3160.938
       235   03 Jun 2027 14:32:40.908   03 Jun 2027 14:33:08.876            27.968                Novosib           874.000
       236   03 Jun 2027 14:33:44.858   03 Jun 2027 14:35:31.884           107.026                Irkutsk          3344.562
       237   03 Jun 2027 14:36:30.620   03 Jun 2027 14:38:15.154           104.534                Irkutsk          3266.687
       238   03 Jun 2027 15:59:28.794   03 Jun 2027 16:05:20.750           351.956                  Delhi         10998.625
       239   03 Jun 2027 16:07:56.261   03 Jun 2027 16:11:04.684           188.423                Novosib          5888.219
       240   03 Jun 2027 16:12:28.675   03 Jun 2027 16:13:50.307            81.632                Novosib          2551.000
       241   03 Jun 2027 17:52:39.412   03 Jun 2027 17:53:20.948            41.536                Norilsk          1298.000
       242   03 Jun 2027 17:54:29.926   03 Jun 2027 17:56:54.841           144.915                Norilsk          4528.594
       243   03 Jun 2027 19:21:52.047   03 Jun 2027 19:28:21.754           389.707                 Moscow         12178.344
       244   03 Jun 2027 20:32:51.647   03 Jun 2027 20:33:17.005            25.358               CapeTown           792.438
       245   03 Jun 2027 20:34:47.732   03 Jun 2027 20:36:17.837            90.105               CapeTown          2815.781
       246   03 Jun 2027 20:41:05.283   03 Jun 2027 20:42:40.261            94.978               CapeTown          2968.063
       247   03 Jun 2027 21:04:45.047   03 Jun 2027 21:10:38.588           353.541              Murmansk1         11048.156
       248   03 Jun 2027 22:48:53.702   03 Jun 2027 22:50:23.247            89.545                Anadyr2          2798.281
       249   03 Jun 2027 22:51:09.621   03 Jun 2027 22:52:35.289            85.668               Magadan1          2677.125
       250   03 Jun 2027 22:52:35.289   03 Jun 2027 22:53:00.817            25.528               Magadan2           797.750
       251   03 Jun 2027 22:53:21.815   03 Jun 2027 22:54:22.202            60.387               Magadan2          1887.094
       252   03 Jun 2027 22:55:31.680   03 Jun 2027 22:56:02.118            30.438               Magadan2           951.188
       253   03 Jun 2027 22:56:27.475   03 Jun 2027 22:56:52.490            25.015               Magadan1           781.719
       254   03 Jun 2027 23:00:13.430   03 Jun 2027 23:00:44.667            31.237               Magadan1           976.156
       255   03 Jun 2027 23:44:01.142   03 Jun 2027 23:47:11.463           190.321            RioGallegos          5947.531
       256   04 Jun 2027 00:24:39.370   04 Jun 2027 00:26:18.161            98.791                Anadyr2          3087.219
       257   04 Jun 2027 00:26:43.842   04 Jun 2027 00:28:22.978            99.136                Norilsk          3098.000
       258   04 Jun 2027 00:29:35.661   04 Jun 2027 00:30:08.482            32.821               Magadan2          1025.656
       259   04 Jun 2027 00:30:15.513   04 Jun 2027 00:30:23.846             8.333                Norilsk           260.406
       260   04 Jun 2027 00:30:35.308   04 Jun 2027 00:30:38.768             3.460               Magadan2           108.125
       261   04 Jun 2027 00:30:52.698   04 Jun 2027 00:31:06.278            13.580               Magadan2           424.375
       262   04 Jun 2027 00:31:16.373   04 Jun 2027 00:32:34.851            78.478                Irkutsk          2452.437
       263   04 Jun 2027 00:33:35.515   04 Jun 2027 00:35:47.480           131.965                Irkutsk          4123.906
       264   04 Jun 2027 00:45:31.802   04 Jun 2027 00:46:19.214            47.412                Sumatra          1481.625
       265   04 Jun 2027 00:46:33.417   04 Jun 2027 00:48:32.075           118.658                Sumatra          3708.063
       266   04 Jun 2027 01:29:26.462   04 Jun 2027 01:30:21.680            55.218            RioGallegos          1725.563
       267   04 Jun 2027 02:00:25.780   04 Jun 2027 02:00:42.984            17.204                Anadyr1           537.625
       268   04 Jun 2027 02:01:13.667   04 Jun 2027 02:01:40.027            26.360                Anadyr2           823.750
       269   04 Jun 2027 02:02:37.195   04 Jun 2027 02:04:13.819            96.624                Norilsk          3019.500
       270   04 Jun 2027 02:05:29.006   04 Jun 2027 02:05:35.823             6.817               Magadan1           213.031
       271   04 Jun 2027 02:06:05.187   04 Jun 2027 02:06:34.476            29.289                Norilsk           915.281
       272   04 Jun 2027 02:06:53.790   04 Jun 2027 02:08:25.858            92.068                Novosib          2877.125
       273   04 Jun 2027 02:08:47.940   04 Jun 2027 02:09:29.770            41.830                Novosib          1307.187
       274   04 Jun 2027 02:12:10.890   04 Jun 2027 02:12:29.820            18.930                Novosib           591.563
       275   04 Jun 2027 02:15:28.288   04 Jun 2027 02:15:30.499             2.211                Novosib            69.094
       276   04 Jun 2027 02:15:32.028   04 Jun 2027 02:16:17.211            45.183                  Delhi          1411.969
       277   04 Jun 2027 02:19:01.077   04 Jun 2027 02:19:41.231            40.154                  Delhi          1254.813
       278   04 Jun 2027 02:20:50.692   04 Jun 2027 02:22:55.061           124.369                Sumatra          3886.531
       279   04 Jun 2027 02:25:26.536   04 Jun 2027 02:26:15.904            49.368                Sumatra          1542.750
       280   04 Jun 2027 02:59:51.402   04 Jun 2027 03:00:12.619            21.217            RioGallegos           663.031
       281   04 Jun 2027 03:01:28.753   04 Jun 2027 03:02:20.091            51.338            RioGallegos          1604.312
       282   04 Jun 2027 03:43:19.466   04 Jun 2027 03:43:44.890            25.424               Magadan1           794.500
       283   04 Jun 2027 03:45:48.240   04 Jun 2027 03:46:11.326            23.086                Irkutsk           721.437
       284   04 Jun 2027 03:46:17.523   04 Jun 2027 03:48:46.250           148.727                Irkutsk          4647.719
       285   04 Jun 2027 03:49:12.970   04 Jun 2027 03:50:11.978            59.008                Irkutsk          1844.000
       286   04 Jun 2027 03:52:57.558   04 Jun 2027 03:53:25.390            27.832                Novosib           869.750
       287   04 Jun 2027 04:32:24.776   04 Jun 2027 04:37:04.152           279.376            RioGallegos          8730.500
       288   04 Jun 2027 05:21:32.744   04 Jun 2027 05:22:40.322            67.578                Irkutsk          2111.813
       289   04 Jun 2027 05:24:02.653   04 Jun 2027 05:25:04.975            62.322                 Moscow          1947.563
       290   04 Jun 2027 05:25:16.854   04 Jun 2027 05:25:47.134            30.280                 Moscow           946.250
       291   04 Jun 2027 05:25:48.714   04 Jun 2027 05:26:57.271            68.557                Novosib          2142.406
       292   04 Jun 2027 05:27:25.877   04 Jun 2027 05:27:57.569            31.692              Murmansk1           990.375
       293   04 Jun 2027 05:30:19.703   04 Jun 2027 05:31:26.941            67.238                  Delhi          2101.188
       294   04 Jun 2027 07:00:09.823   04 Jun 2027 07:00:28.601            18.778                Norilsk           586.812
       295   04 Jun 2027 07:01:07.070   04 Jun 2027 07:01:24.159            17.089                Norilsk           534.031
       296   04 Jun 2027 07:01:54.636   04 Jun 2027 07:02:03.828             9.192              Murmansk1           287.250
       297   04 Jun 2027 07:02:09.624   04 Jun 2027 07:02:20.032            10.408              Murmansk1           325.250
       298   04 Jun 2027 07:02:28.341   04 Jun 2027 07:02:28.343             0.002              Murmansk1             0.062
       299   04 Jun 2027 07:03:32.729   04 Jun 2027 07:03:51.463            18.734              Murmansk1           585.437
       300   04 Jun 2027 07:19:58.740   04 Jun 2027 07:22:18.476           139.736               CapeTown          4366.750
       301   04 Jun 2027 08:22:40.560   04 Jun 2027 08:23:48.945            68.385                Anadyr1          2137.031
       302   04 Jun 2027 08:24:01.299   04 Jun 2027 08:24:06.401             5.102               Magadan2           159.437
       303   04 Jun 2027 08:25:12.889   04 Jun 2027 08:25:22.402             9.513                Anadyr2           297.281
       304   04 Jun 2027 08:25:22.402   04 Jun 2027 08:25:24.018             1.616                Anadyr1            50.500
       305   04 Jun 2027 08:25:34.798   04 Jun 2027 08:25:47.905            13.107                Anadyr2           409.594
       306   04 Jun 2027 08:26:25.910   04 Jun 2027 08:27:37.109            71.199                Anadyr2          2224.969
       307   04 Jun 2027 09:59:25.035   04 Jun 2027 10:00:31.041            66.006               Magadan2          2062.688
       308   04 Jun 2027 10:00:45.948   04 Jun 2027 10:00:51.765             5.817               Magadan1           181.781
       309   04 Jun 2027 10:01:36.356   04 Jun 2027 10:01:52.836            16.480               Magadan2           515.000
       310   04 Jun 2027 10:03:10.411   04 Jun 2027 10:04:02.010            51.599               Magadan2          1612.469
       311   04 Jun 2027 10:42:44.989   04 Jun 2027 10:43:01.172            16.183            RioGallegos           505.719
       312   04 Jun 2027 10:46:56.155   04 Jun 2027 10:47:49.229            53.074            RioGallegos          1658.562
       313   04 Jun 2027 11:30:32.084   04 Jun 2027 11:33:42.928           190.844               Magadan2          5963.875
       314   04 Jun 2027 11:35:32.073   04 Jun 2027 11:37:39.932           127.859               Magadan2          3995.594
       315   04 Jun 2027 11:38:01.424   04 Jun 2027 11:38:38.415            36.991                Irkutsk          1155.969
       316   04 Jun 2027 11:39:03.610   04 Jun 2027 11:39:35.281            31.671                Irkutsk           989.719
       317   04 Jun 2027 11:39:47.065   04 Jun 2027 11:40:38.235            51.170                Irkutsk          1599.063
       318   04 Jun 2027 11:40:48.099   04 Jun 2027 11:40:53.061             4.962                Norilsk           155.062
       319   04 Jun 2027 12:15:32.532   04 Jun 2027 12:16:54.272            81.740            RioGallegos          2554.375
       320   04 Jun 2027 12:51:17.796   04 Jun 2027 12:52:40.783            82.987                Sumatra          2593.344
       321   04 Jun 2027 13:03:57.366   04 Jun 2027 13:07:14.212           196.846                Irkutsk          6151.437
       322   04 Jun 2027 13:21:46.790   04 Jun 2027 13:21:47.012             0.222                Norilsk             6.938
       323   04 Jun 2027 13:52:48.838   04 Jun 2027 13:54:12.003            83.165            RioGallegos          2598.906
       324   04 Jun 2027 13:57:36.972   04 Jun 2027 13:58:17.342            40.370            RioGallegos          1261.563
       325   04 Jun 2027 13:59:22.781   04 Jun 2027 14:00:14.928            52.147            RioGallegos          1629.594
       326   04 Jun 2027 14:27:03.067   04 Jun 2027 14:32:48.328           345.261                Sumatra         10789.406
       327   04 Jun 2027 14:42:22.631   04 Jun 2027 14:48:41.090           378.459                Irkutsk         11826.844
       328   04 Jun 2027 16:12:04.815   04 Jun 2027 16:12:44.151            39.336                  Delhi          1229.250
       329   04 Jun 2027 16:14:54.409   04 Jun 2027 16:18:55.794           241.385                  Delhi          7543.281
       330   04 Jun 2027 16:20:31.429   04 Jun 2027 16:27:11.515           400.086                Novosib         12502.688
       331   04 Jun 2027 18:08:15.388   04 Jun 2027 18:08:28.000            12.612                Norilsk           394.125
       332   04 Jun 2027 19:34:42.278   04 Jun 2027 19:42:19.123           456.845                 Moscow         14276.406
       333   04 Jun 2027 20:46:10.002   04 Jun 2027 20:47:22.049            72.047               CapeTown          2251.469
       334   04 Jun 2027 20:48:14.365   04 Jun 2027 20:50:23.863           129.498               CapeTown          4046.813
       335   04 Jun 2027 21:17:41.755   04 Jun 2027 21:22:24.550           282.795              Murmansk2          8837.344
       336   04 Jun 2027 23:00:55.212   04 Jun 2027 23:02:11.775            76.563                Anadyr2          2392.594
       337   04 Jun 2027 23:02:24.094   04 Jun 2027 23:03:10.283            46.189                Anadyr1          1443.406
       338   04 Jun 2027 23:03:10.837   04 Jun 2027 23:03:48.763            37.926               Magadan2          1185.188
       339   04 Jun 2027 23:04:31.063   04 Jun 2027 23:04:47.422            16.359               Magadan1           511.219
       340   04 Jun 2027 23:04:57.057   04 Jun 2027 23:06:06.715            69.658               Magadan2          2176.813
       341   04 Jun 2027 23:14:00.339   04 Jun 2027 23:14:14.524            14.185               Magadan1           443.281
       342   04 Jun 2027 23:15:22.688   04 Jun 2027 23:15:30.413             7.725               Magadan1           241.406
       343   04 Jun 2027 23:15:30.413   04 Jun 2027 23:16:05.884            35.471               Magadan2          1108.469
       344   04 Jun 2027 23:55:41.266   04 Jun 2027 23:58:24.912           163.646            RioGallegos          5113.937
       345   05 Jun 2027 00:01:15.033   05 Jun 2027 00:02:19.993            64.960            RioGallegos          2030.000
       346   05 Jun 2027 00:36:37.760   05 Jun 2027 00:37:53.274            75.514                Anadyr2          2359.812
       347   05 Jun 2027 00:38:43.822   05 Jun 2027 00:40:24.576           100.754                Norilsk          3148.562
       348   05 Jun 2027 00:41:26.210   05 Jun 2027 00:41:46.701            20.491               Magadan2           640.344
       349   05 Jun 2027 00:42:03.945   05 Jun 2027 00:42:34.313            30.368               Magadan2           949.000
       350   05 Jun 2027 00:43:06.391   05 Jun 2027 00:44:35.441            89.050                Irkutsk          2782.813
       351   05 Jun 2027 00:47:32.695   05 Jun 2027 00:48:44.381            71.686                Irkutsk          2240.187
       352   05 Jun 2027 00:57:05.992   05 Jun 2027 00:58:49.906           103.914                Sumatra          3247.313
       353   05 Jun 2027 00:58:56.939   05 Jun 2027 01:00:24.319            87.380                Sumatra          2730.625
       354   05 Jun 2027 01:38:00.739   05 Jun 2027 01:38:29.805            29.066            RioGallegos           908.312
       355   05 Jun 2027 02:11:34.736   05 Jun 2027 02:11:52.779            18.043                Anadyr2           563.844
       356   05 Jun 2027 02:12:06.400   05 Jun 2027 02:12:41.611            35.211                Anadyr1          1100.344
       357   05 Jun 2027 02:13:56.059   05 Jun 2027 02:14:33.766            37.707                Anadyr2          1178.344
       358   05 Jun 2027 02:14:39.607   05 Jun 2027 02:15:58.509            78.902                Norilsk          2465.687
       359   05 Jun 2027 02:18:32.193   05 Jun 2027 02:20:52.296           140.103                Irkutsk          4378.219
       360   05 Jun 2027 02:21:51.499   05 Jun 2027 02:21:53.193             1.694                Irkutsk            52.937
       361   05 Jun 2027 02:22:25.554   05 Jun 2027 02:22:31.595             6.041                Irkutsk           188.781
       362   05 Jun 2027 02:25:19.050   05 Jun 2027 02:25:44.947            25.897                Novosib           809.281
       363   05 Jun 2027 02:27:00.359   05 Jun 2027 02:27:50.812            50.453                  Delhi          1576.656
       364   05 Jun 2027 02:33:17.808   05 Jun 2027 02:43:21.258           603.450                Sumatra         18857.812
       365   05 Jun 2027 03:55:14.185   05 Jun 2027 03:55:14.284             0.099               Magadan1             3.094
       366   05 Jun 2027 03:57:25.127   05 Jun 2027 04:01:34.440           249.313                Irkutsk          7791.031
       367   05 Jun 2027 04:02:23.927   05 Jun 2027 04:02:47.727            23.800                Norilsk           743.750
       368   05 Jun 2027 04:03:37.420   05 Jun 2027 04:04:03.504            26.084                Novosib           815.125
       369   05 Jun 2027 04:04:30.317   05 Jun 2027 04:05:04.580            34.263                Novosib          1070.719
       370   05 Jun 2027 04:10:42.094   05 Jun 2027 04:14:10.953           208.859                  Delhi          6526.844
       371   05 Jun 2027 04:45:17.023   05 Jun 2027 04:47:39.192           142.169            RioGallegos          4442.781
       372   05 Jun 2027 05:35:41.677   05 Jun 2027 05:36:06.014            24.337                Norilsk           760.531
       373   05 Jun 2027 05:36:17.042   05 Jun 2027 05:36:39.677            22.635                Norilsk           707.344
       374   05 Jun 2027 05:36:46.837   05 Jun 2027 05:40:25.376           218.539                Novosib          6829.344
       375   05 Jun 2027 07:11:31.723   05 Jun 2027 07:11:50.961            19.238                 Moscow           601.188
       376   05 Jun 2027 07:12:29.569   05 Jun 2027 07:12:55.647            26.078                Norilsk           814.938
       377   05 Jun 2027 07:13:39.548   05 Jun 2027 07:14:01.604            22.056                 Moscow           689.250
       378   05 Jun 2027 07:14:14.246   05 Jun 2027 07:15:53.776            99.530                 Moscow          3110.312
       379   05 Jun 2027 07:32:13.201   05 Jun 2027 07:32:47.273            34.072               CapeTown          1064.750
       380   05 Jun 2027 07:34:52.215   05 Jun 2027 07:37:12.629           140.414               CapeTown          4387.938
       381   05 Jun 2027 07:40:41.542   05 Jun 2027 07:42:03.275            81.733               CapeTown          2554.156
       382   05 Jun 2027 08:35:31.487   05 Jun 2027 08:35:43.068            11.581               Magadan2           361.906
       383   05 Jun 2027 08:35:49.735   05 Jun 2027 08:37:09.085            79.350                Anadyr1          2479.688
       384   05 Jun 2027 08:37:18.174   05 Jun 2027 08:37:48.626            30.452                Anadyr1           951.625
       385   05 Jun 2027 08:38:22.452   05 Jun 2027 08:38:29.520             7.068               Magadan2           220.875
       386   05 Jun 2027 08:38:37.298   05 Jun 2027 08:39:36.728            59.430                Anadyr1          1857.188
       387   05 Jun 2027 10:11:24.911   05 Jun 2027 10:12:37.479            72.568               Magadan1          2267.750
       388   05 Jun 2027 10:13:09.956   05 Jun 2027 10:13:13.069             3.113               Magadan1            97.281
       389   05 Jun 2027 10:14:01.120   05 Jun 2027 10:15:08.297            67.177               Magadan1          2099.281
       390   05 Jun 2027 10:15:08.297   05 Jun 2027 10:15:18.542            10.245               Magadan2           320.156
       391   05 Jun 2027 11:42:41.167   05 Jun 2027 11:44:31.974           110.807               Magadan1          3462.719
       392   05 Jun 2027 11:48:44.496   05 Jun 2027 11:52:27.978           223.482               Magadan1          6983.812
       393   05 Jun 2027 11:53:06.286   05 Jun 2027 11:53:15.987             9.701                Norilsk           303.156
       394   05 Jun 2027 12:27:31.614   05 Jun 2027 12:28:52.058            80.444            RioGallegos          2513.875
       395   05 Jun 2027 12:37:07.471   05 Jun 2027 12:38:23.519            76.048            RioGallegos          2376.500
       396   05 Jun 2027 13:02:56.165   05 Jun 2027 13:03:42.581            46.416                Sumatra          1450.500
       397   05 Jun 2027 13:09:46.226   05 Jun 2027 13:10:11.224            24.998                Sumatra           781.187
       398   05 Jun 2027 13:16:03.598   05 Jun 2027 13:19:14.742           191.144                Irkutsk          5973.250
       399   05 Jun 2027 13:33:48.644   05 Jun 2027 13:33:49.096             0.452                Norilsk            14.125
       400   05 Jun 2027 13:35:30.510   05 Jun 2027 13:36:03.038            32.528              Murmansk1          1016.500
       401   05 Jun 2027 14:05:21.193   05 Jun 2027 14:07:52.483           151.290            RioGallegos          4727.812
       402   05 Jun 2027 14:11:07.577   05 Jun 2027 14:11:12.345             4.768            RioGallegos           149.000
       403   05 Jun 2027 14:14:27.654   05 Jun 2027 14:15:25.841            58.187            RioGallegos          1818.344
       404   05 Jun 2027 14:39:35.336   05 Jun 2027 14:46:39.578           424.242                Sumatra         13257.563
       405   05 Jun 2027 14:56:35.647   05 Jun 2027 15:03:23.070           407.423                Irkutsk         12731.969
       406   05 Jun 2027 16:25:18.165   05 Jun 2027 16:33:19.289           481.124                  Delhi         15035.125
       407   05 Jun 2027 16:33:41.620   05 Jun 2027 16:40:43.170           421.550                Novosib         13173.437
       408   05 Jun 2027 19:47:45.451   05 Jun 2027 19:53:48.698           363.247                 Moscow         11351.469
       409   05 Jun 2027 19:53:54.187   05 Jun 2027 19:55:20.817            86.630              Murmansk2          2707.187
       410   05 Jun 2027 20:59:08.125   05 Jun 2027 21:03:32.667           264.542               CapeTown          8266.938
       411   05 Jun 2027 21:30:52.342   05 Jun 2027 21:33:58.711           186.369              Murmansk2          5824.031
       412   06 Jun 2027 00:07:26.774   06 Jun 2027 00:09:34.607           127.833            RioGallegos          3994.781
       413   06 Jun 2027 00:10:30.010   06 Jun 2027 00:10:55.744            25.734            RioGallegos           804.188
       414   06 Jun 2027 00:12:59.188   06 Jun 2027 00:13:40.412            41.224            RioGallegos          1288.250
       415   06 Jun 2027 00:48:35.438   06 Jun 2027 00:49:43.965            68.527                Anadyr1          2141.469
       416   06 Jun 2027 00:50:00.180   06 Jun 2027 00:50:20.436            20.256                Anadyr2           633.000
       417   06 Jun 2027 00:50:20.436   06 Jun 2027 00:51:00.137            39.701                Anadyr1          1240.656
       418   06 Jun 2027 00:51:16.016   06 Jun 2027 00:52:27.852            71.836               Magadan2          2244.875
       419   06 Jun 2027 00:53:18.572   06 Jun 2027 00:53:33.150            14.578               Magadan1           455.563
       420   06 Jun 2027 00:53:47.911   06 Jun 2027 00:53:52.775             4.864                Norilsk           152.000
       421   06 Jun 2027 00:54:02.747   06 Jun 2027 00:54:39.272            36.525               Magadan1          1141.406
       422   06 Jun 2027 00:54:59.042   06 Jun 2027 00:56:00.335            61.293                Irkutsk          1915.406
       423   06 Jun 2027 00:56:25.568   06 Jun 2027 00:56:36.937            11.369                Irkutsk           355.281
       424   06 Jun 2027 00:57:12.533   06 Jun 2027 00:57:34.655            22.122                Novosib           691.313
       425   06 Jun 2027 00:58:02.148   06 Jun 2027 00:58:35.256            33.108                Novosib          1034.625
       426   06 Jun 2027 00:59:20.699   06 Jun 2027 01:00:10.193            49.494                Novosib          1546.687
       427   06 Jun 2027 01:08:48.137   06 Jun 2027 01:09:39.195            51.058                Sumatra          1595.562
       428   06 Jun 2027 01:14:57.746   06 Jun 2027 01:15:32.045            34.299                Sumatra          1071.844
       429   06 Jun 2027 01:42:38.481   06 Jun 2027 01:42:38.754             0.273            RioGallegos             8.531
       430   06 Jun 2027 01:43:22.789   06 Jun 2027 01:43:40.644            17.855            RioGallegos           557.969
       431   06 Jun 2027 01:44:03.652   06 Jun 2027 01:44:55.694            52.042            RioGallegos          1626.312
       432   06 Jun 2027 01:49:42.549   06 Jun 2027 01:50:07.336            24.787            RioGallegos           774.594
       433   06 Jun 2027 01:55:19.010   06 Jun 2027 01:55:31.511            12.501            RioGallegos           390.656
       434   06 Jun 2027 02:23:23.694   06 Jun 2027 02:23:27.423             3.729                Anadyr1           116.531
       435   06 Jun 2027 02:23:57.999   06 Jun 2027 02:24:42.085            44.086                Anadyr1          1377.688
       436   06 Jun 2027 02:25:17.613   06 Jun 2027 02:25:41.039            23.426                Anadyr2           732.063
       437   06 Jun 2027 02:26:02.876   06 Jun 2027 02:26:03.359             0.483                Anadyr1            15.094
       438   06 Jun 2027 02:26:42.081   06 Jun 2027 02:27:50.501            68.420                Norilsk          2138.125
       439   06 Jun 2027 02:28:11.528   06 Jun 2027 02:28:12.383             0.855                Norilsk            26.719
       440   06 Jun 2027 02:28:33.852   06 Jun 2027 02:28:58.564            24.712               Magadan2           772.250
       441   06 Jun 2027 02:30:34.918   06 Jun 2027 02:33:28.692           173.774                Irkutsk          5430.437
       442   06 Jun 2027 02:39:24.648   06 Jun 2027 02:39:56.526            31.878                  Delhi           996.187
       443   06 Jun 2027 02:45:56.290   06 Jun 2027 02:54:58.729           542.439                Sumatra         16951.219
       444   06 Jun 2027 04:09:44.917   06 Jun 2027 04:10:54.212            69.295                Irkutsk          2165.469
       445   06 Jun 2027 04:11:33.588   06 Jun 2027 04:15:12.329           218.741                Irkutsk          6835.656
       446   06 Jun 2027 04:15:21.798   06 Jun 2027 04:16:31.899            70.101                Irkutsk          2190.656
       447   06 Jun 2027 04:16:47.700   06 Jun 2027 04:17:09.210            21.510                Novosib           672.188
       448   06 Jun 2027 04:19:22.232   06 Jun 2027 04:25:53.269           391.037                  Delhi         12219.906
       449   06 Jun 2027 05:47:05.639   06 Jun 2027 05:51:23.298           257.659                Novosib          8051.844
       450   06 Jun 2027 05:53:42.953   06 Jun 2027 05:55:57.993           135.040                 Moscow          4220.000
       451   06 Jun 2027 06:08:39.798   06 Jun 2027 06:09:22.131            42.333               CapeTown          1322.906
       452   06 Jun 2027 06:10:49.186   06 Jun 2027 06:11:46.031            56.845               CapeTown          1776.406
       453   06 Jun 2027 07:12:26.060   06 Jun 2027 07:13:14.737            48.677                Anadyr1          1521.156
       454   06 Jun 2027 07:14:20.147   06 Jun 2027 07:14:26.523             6.376                Anadyr1           199.250
       455   06 Jun 2027 07:15:06.039   06 Jun 2027 07:15:22.954            16.915               Magadan1           528.594
       456   06 Jun 2027 07:15:31.919   06 Jun 2027 07:15:48.841            16.922                Anadyr1           528.813
       457   06 Jun 2027 07:23:39.133   06 Jun 2027 07:24:03.083            23.950                Norilsk           748.437
       458   06 Jun 2027 07:25:01.859   06 Jun 2027 07:25:15.689            13.830              Murmansk2           432.188
       459   06 Jun 2027 07:25:40.024   06 Jun 2027 07:26:03.400            23.376              Murmansk2           730.500
       460   06 Jun 2027 07:26:05.867   06 Jun 2027 07:26:30.047            24.180                 Moscow           755.625
       461   06 Jun 2027 07:30:46.201   06 Jun 2027 07:31:22.880            36.679                 Moscow          1146.219
       462   06 Jun 2027 07:44:33.979   06 Jun 2027 07:46:05.786            91.807               CapeTown          2868.969
       463   06 Jun 2027 07:49:46.873   06 Jun 2027 07:49:56.370             9.497               CapeTown           296.781
       464   06 Jun 2027 07:51:40.557   06 Jun 2027 07:54:29.763           169.206               CapeTown          5287.688
       465   06 Jun 2027 08:47:00.827   06 Jun 2027 08:47:16.034            15.207               Magadan1           475.219
       466   06 Jun 2027 08:47:34.036   06 Jun 2027 08:48:06.450            32.414               Magadan1          1012.937
       467   06 Jun 2027 08:49:12.220   06 Jun 2027 08:50:21.826            69.606                Anadyr1          2175.188
       468   06 Jun 2027 10:23:24.105   06 Jun 2027 10:24:25.994            61.889               Magadan2          1934.031
       469   06 Jun 2027 10:25:38.098   06 Jun 2027 10:25:55.613            17.515               Magadan2           547.344
       470   06 Jun 2027 10:26:12.211   06 Jun 2027 10:27:05.100            52.889               Magadan2          1652.781
       471   06 Jun 2027 11:05:02.633   06 Jun 2027 11:05:36.864            34.231            RioGallegos          1069.719
       472   06 Jun 2027 11:55:19.867   06 Jun 2027 11:58:04.889           165.022               Magadan1          5156.938
       473   06 Jun 2027 11:58:23.560   06 Jun 2027 11:59:04.944            41.384                Irkutsk          1293.250
       474   06 Jun 2027 11:59:14.856   06 Jun 2027 11:59:50.363            35.507                Irkutsk          1109.594
       475   06 Jun 2027 12:00:32.313   06 Jun 2027 12:00:41.159             8.846                Novosib           276.438
       476   06 Jun 2027 12:01:26.542   06 Jun 2027 12:04:17.670           171.128               Magadan1          5347.750
       477   06 Jun 2027 12:44:15.436   06 Jun 2027 12:44:30.617            15.181            RioGallegos           474.406
       478   06 Jun 2027 12:47:23.033   06 Jun 2027 12:48:20.833            57.800            RioGallegos          1806.250
       479   06 Jun 2027 13:17:25.769   06 Jun 2027 13:18:23.531            57.762                Sumatra          1805.062
       480   06 Jun 2027 13:20:27.118   06 Jun 2027 13:21:32.043            64.925                Sumatra          2028.906
       481   06 Jun 2027 13:24:57.587   06 Jun 2027 13:27:08.904           131.317                Sumatra          4103.656
       482   06 Jun 2027 13:34:58.076   06 Jun 2027 13:37:44.098           166.022                Irkutsk          5188.187
