uniorb/output/strategy_4/Drop/Drop_KinoSat_111606.txt

KinoSat_111606
-------------------------
    Access    *     Start Time (UTCG)     *     Stop Time (UTCG)  *   Duration (s)        *       Station  *  Data (Mbytes)
         1   01 Jun 2027 03:05:17.472   01 Jun 2027 03:05:27.290             9.818                Norilsk           306.813
         2   01 Jun 2027 03:05:38.131   01 Jun 2027 03:05:50.583            12.452              Murmansk2           389.125
         3   01 Jun 2027 03:06:03.095   01 Jun 2027 03:07:33.994            90.899                Novosib          2840.594
         4   01 Jun 2027 03:07:46.605   01 Jun 2027 03:09:22.119            95.514                Novosib          2984.812
         5   01 Jun 2027 03:09:22.474   01 Jun 2027 03:09:35.336            12.862              Murmansk1           401.938
         6   01 Jun 2027 03:09:35.336   01 Jun 2027 03:10:07.893            32.557              Murmansk2          1017.406
         7   01 Jun 2027 03:10:18.679   01 Jun 2027 03:10:30.815            12.136                Norilsk           379.250
         8   01 Jun 2027 03:11:12.425   01 Jun 2027 03:11:59.575            47.150                  Delhi          1473.438
         9   01 Jun 2027 04:44:20.593   01 Jun 2027 04:46:27.377           126.784                Novosib          3962.000
        10   01 Jun 2027 04:46:53.942   01 Jun 2027 04:49:15.883           141.941              Murmansk1          4435.656
        11   01 Jun 2027 05:04:00.604   01 Jun 2027 05:07:00.265           179.661               CapeTown          5614.406
        12   01 Jun 2027 06:07:51.896   01 Jun 2027 06:08:51.840            59.944                Anadyr2          1873.250
        13   01 Jun 2027 06:13:20.622   01 Jun 2027 06:13:38.934            18.312                Anadyr2           572.250
        14   01 Jun 2027 07:45:06.277   01 Jun 2027 07:48:16.008           189.731               Magadan1          5929.094
        15   01 Jun 2027 07:48:16.008   01 Jun 2027 07:48:24.004             7.996               Magadan2           249.875
        16   01 Jun 2027 07:48:44.326   01 Jun 2027 07:49:28.354            44.028                Anadyr2          1375.875
        17   01 Jun 2027 09:18:25.550   01 Jun 2027 09:24:19.271           353.721                Anadyr1         11053.781
        18   01 Jun 2027 10:54:20.651   01 Jun 2027 10:56:18.785           118.134               Magadan1          3691.688
        19   01 Jun 2027 10:56:18.785   01 Jun 2027 10:57:45.829            87.044               Magadan2          2720.125
        20   01 Jun 2027 10:58:26.824   01 Jun 2027 10:58:56.372            29.548               Magadan1           923.375
        21   01 Jun 2027 10:59:42.900   01 Jun 2027 11:00:22.254            39.354                Irkutsk          1229.813
        22   01 Jun 2027 12:25:06.488   01 Jun 2027 12:25:17.155            10.667                Irkutsk           333.344
        23   01 Jun 2027 12:26:29.035   01 Jun 2027 12:26:59.108            30.073                Irkutsk           939.781
        24   01 Jun 2027 12:27:58.515   01 Jun 2027 12:29:18.521            80.006                Irkutsk          2500.188
        25   01 Jun 2027 12:30:19.523   01 Jun 2027 12:30:25.403             5.880                Irkutsk           183.750
        26   01 Jun 2027 13:17:38.719   01 Jun 2027 13:21:03.001           204.282            RioGallegos          6383.812
        27   01 Jun 2027 14:03:03.272   01 Jun 2027 14:07:42.348           279.076                Novosib          8721.125
        28   01 Jun 2027 14:09:26.926   01 Jun 2027 14:09:47.647            20.721                Norilsk           647.531
        29   01 Jun 2027 14:12:32.284   01 Jun 2027 14:13:35.542            63.258                Novosib          1976.813
        30   01 Jun 2027 15:39:04.951   01 Jun 2027 15:41:54.852           169.901                 Moscow          5309.406
        31   01 Jun 2027 15:42:34.581   01 Jun 2027 15:43:43.880            69.299              Murmansk2          2165.594
        32   01 Jun 2027 15:47:20.383   01 Jun 2027 15:52:02.114           281.731                Norilsk          8804.094
        33   01 Jun 2027 17:16:58.466   01 Jun 2027 17:17:56.419            57.953                 Moscow          1811.031
        34   01 Jun 2027 17:18:50.811   01 Jun 2027 17:22:05.041           194.230                 Moscow          6069.688
        35   01 Jun 2027 17:35:57.146   01 Jun 2027 17:36:04.096             6.950                Anadyr1           217.188
        36   01 Jun 2027 17:36:10.576   01 Jun 2027 17:36:48.594            38.018                Anadyr1          1188.063
        37   01 Jun 2027 18:28:42.289   01 Jun 2027 18:31:22.189           159.900               CapeTown          4996.875
        38   01 Jun 2027 18:59:38.033   01 Jun 2027 19:01:10.012            91.979              Murmansk2          2874.344
        39   01 Jun 2027 19:01:38.372   01 Jun 2027 19:05:33.061           234.689              Murmansk1          7334.031
        40   01 Jun 2027 19:12:14.144   01 Jun 2027 19:12:31.965            17.821               Magadan1           556.906
        41   01 Jun 2027 19:12:31.965   01 Jun 2027 19:12:49.126            17.161               Magadan2           536.281
        42   01 Jun 2027 19:13:31.392   01 Jun 2027 19:14:21.288            49.896               Magadan2          1559.250
        43   01 Jun 2027 20:45:03.960   01 Jun 2027 20:48:48.468           224.508                Anadyr1          7015.875
        44   01 Jun 2027 20:49:25.864   01 Jun 2027 20:50:18.024            52.160               Magadan2          1630.000
        45   01 Jun 2027 20:50:18.024   01 Jun 2027 20:52:46.511           148.487               Magadan1          4640.219
        46   01 Jun 2027 20:56:38.642   01 Jun 2027 20:57:23.687            45.045               Magadan2          1407.656
        47   01 Jun 2027 21:41:15.523   01 Jun 2027 21:43:44.289           148.766            RioGallegos          4648.937
        48   01 Jun 2027 21:46:24.353   01 Jun 2027 21:46:30.076             5.723            RioGallegos           178.844
        49   01 Jun 2027 22:20:53.506   01 Jun 2027 22:23:09.947           136.441                Anadyr1          4263.781
        50   01 Jun 2027 22:23:17.586   01 Jun 2027 22:25:13.385           115.799               Magadan1          3618.719
        51   01 Jun 2027 22:25:13.385   01 Jun 2027 22:25:28.168            14.783               Magadan2           461.969
        52   01 Jun 2027 22:25:37.107   01 Jun 2027 22:25:46.309             9.202               Magadan2           287.563
        53   01 Jun 2027 22:26:02.738   01 Jun 2027 22:26:16.912            14.174               Magadan2           442.938
        54   01 Jun 2027 22:27:02.261   01 Jun 2027 22:27:08.197             5.936               Magadan2           185.500
        55   01 Jun 2027 22:27:57.300   01 Jun 2027 22:28:31.587            34.287                Irkutsk          1071.469
        56   01 Jun 2027 22:29:44.657   01 Jun 2027 22:30:40.069            55.412                Irkutsk          1731.625
        57   01 Jun 2027 22:33:26.925   01 Jun 2027 22:34:29.639            62.714                Irkutsk          1959.813
        58   01 Jun 2027 22:42:56.752   01 Jun 2027 22:44:50.420           113.668                Sumatra          3552.125
        59   01 Jun 2027 23:56:10.483   01 Jun 2027 23:57:44.025            93.542                Anadyr1          2923.188
        60   01 Jun 2027 23:58:41.047   01 Jun 2027 23:58:54.503            13.456                Anadyr1           420.500
        61   01 Jun 2027 23:59:08.810   01 Jun 2027 23:59:17.689             8.879                Anadyr1           277.469
        62   01 Jun 2027 23:59:24.786   02 Jun 2027 00:01:33.392           128.606               Magadan1          4018.938
        63   02 Jun 2027 00:02:20.647   02 Jun 2027 00:02:36.580            15.933               Magadan1           497.906
        64   02 Jun 2027 00:02:42.743   02 Jun 2027 00:03:47.693            64.950                Irkutsk          2029.688
        65   02 Jun 2027 00:04:24.354   02 Jun 2027 00:05:00.198            35.844                Novosib          1120.125
        66   02 Jun 2027 00:06:33.223   02 Jun 2027 00:07:04.220            30.997                Novosib           968.656
        67   02 Jun 2027 00:13:24.687   02 Jun 2027 00:14:36.871            72.184                  Delhi          2255.750
        68   02 Jun 2027 00:18:22.568   02 Jun 2027 00:18:32.928            10.360                  Delhi           323.750
        69   02 Jun 2027 00:21:25.794   02 Jun 2027 00:22:19.428            53.634                Sumatra          1676.062
        70   02 Jun 2027 00:53:01.583   02 Jun 2027 00:53:08.920             7.337            RioGallegos           229.281
        71   02 Jun 2027 00:54:41.018   02 Jun 2027 00:54:58.579            17.561            RioGallegos           548.781
        72   02 Jun 2027 00:56:39.129   02 Jun 2027 00:56:42.722             3.593            RioGallegos           112.281
        73   02 Jun 2027 00:57:18.013   02 Jun 2027 00:57:32.827            14.814            RioGallegos           462.938
        74   02 Jun 2027 00:59:26.844   02 Jun 2027 00:59:39.145            12.301            RioGallegos           384.406
        75   02 Jun 2027 01:00:57.294   02 Jun 2027 01:01:40.422            43.128            RioGallegos          1347.750
        76   02 Jun 2027 01:30:18.163   02 Jun 2027 01:31:15.232            57.069                Anadyr1          1783.406
        77   02 Jun 2027 01:31:56.495   02 Jun 2027 01:32:09.071            12.576                Anadyr2           393.000
        78   02 Jun 2027 01:32:28.592   02 Jun 2027 01:32:50.490            21.898                Anadyr1           684.313
        79   02 Jun 2027 01:34:48.030   02 Jun 2027 01:36:46.677           118.647                Norilsk          3707.719
        80   02 Jun 2027 01:37:05.662   02 Jun 2027 01:37:11.156             5.494               Magadan2           171.687
        81   02 Jun 2027 01:37:42.511   02 Jun 2027 01:40:04.886           142.375              Murmansk2          4449.219
        82   02 Jun 2027 01:42:58.684   02 Jun 2027 01:43:09.013            10.329                Novosib           322.781
        83   02 Jun 2027 01:43:54.602   02 Jun 2027 01:45:35.887           101.285                Irkutsk          3165.156
        84   02 Jun 2027 01:55:51.564   02 Jun 2027 01:57:59.536           127.972                  Delhi          3999.125
        85   02 Jun 2027 02:27:51.420   02 Jun 2027 02:29:06.625            75.205            RioGallegos          2350.156
        86   02 Jun 2027 03:17:56.508   02 Jun 2027 03:18:05.229             8.721                Norilsk           272.531
        87   02 Jun 2027 03:19:25.735   02 Jun 2027 03:19:50.196            24.461                Norilsk           764.406
        88   02 Jun 2027 03:19:51.679   02 Jun 2027 03:22:55.018           183.339                 Moscow          5729.344
        89   02 Jun 2027 03:23:43.653   02 Jun 2027 03:24:10.910            27.257                  Delhi           851.781
        90   02 Jun 2027 03:28:52.481   02 Jun 2027 03:31:07.387           134.906                  Delhi          4215.813
        91   02 Jun 2027 04:37:24.794   02 Jun 2027 04:38:02.365            37.571                Anadyr1          1174.094
        92   02 Jun 2027 04:38:02.365   02 Jun 2027 04:38:27.312            24.947                Anadyr2           779.594
        93   02 Jun 2027 04:40:07.761   02 Jun 2027 04:40:48.081            40.320                Anadyr2          1260.000
        94   02 Jun 2027 04:59:26.630   02 Jun 2027 05:00:44.717            78.087                 Moscow          2440.219
        95   02 Jun 2027 05:01:08.117   02 Jun 2027 05:01:42.651            34.534                 Moscow          1079.187
        96   02 Jun 2027 05:02:07.440   02 Jun 2027 05:03:32.060            84.620                 Moscow          2644.375
        97   02 Jun 2027 06:12:46.303   02 Jun 2027 06:14:51.001           124.698                Anadyr1          3896.812
        98   02 Jun 2027 06:15:06.117   02 Jun 2027 06:15:25.538            19.421                Anadyr2           606.906
        99   02 Jun 2027 06:16:28.071   02 Jun 2027 06:16:55.299            27.228               Magadan2           850.875
       100   02 Jun 2027 06:19:07.565   02 Jun 2027 06:20:45.299            97.734                Anadyr2          3054.188
       101   02 Jun 2027 06:20:53.411   02 Jun 2027 06:22:24.976            91.565                Anadyr1          2861.406
       102   02 Jun 2027 06:22:29.377   02 Jun 2027 06:23:09.475            40.098               Magadan2          1253.063
       103   02 Jun 2027 07:59:00.046   02 Jun 2027 08:00:12.936            72.890                Anadyr1          2277.813
       104   02 Jun 2027 08:00:15.857   02 Jun 2027 08:01:17.953            62.096               Magadan1          1940.500
       105   02 Jun 2027 08:05:09.419   02 Jun 2027 08:06:04.261            54.842                 Moscow          1713.812
       106   02 Jun 2027 09:30:21.443   02 Jun 2027 09:30:54.204            32.761               Magadan1          1023.781
       107   02 Jun 2027 09:30:55.565   02 Jun 2027 09:31:12.177            16.612               Magadan2           519.125
       108   02 Jun 2027 09:31:28.338   02 Jun 2027 09:32:08.098            39.760               Magadan2          1242.500
       109   02 Jun 2027 09:32:08.098   02 Jun 2027 09:33:20.753            72.655               Magadan1          2270.469
       110   02 Jun 2027 09:33:25.364   02 Jun 2027 09:34:59.791            94.427                Anadyr2          2950.844
       111   02 Jun 2027 09:35:23.629   02 Jun 2027 09:35:28.733             5.104               Magadan2           159.500
       112   02 Jun 2027 09:35:30.740   02 Jun 2027 09:35:48.170            17.430                Irkutsk           544.688
       113   02 Jun 2027 09:36:19.152   02 Jun 2027 09:36:56.802            37.650               Magadan1          1176.563
       114   02 Jun 2027 10:11:55.096   02 Jun 2027 10:13:02.911            67.815            RioGallegos          2119.219
       115   02 Jun 2027 10:14:54.229   02 Jun 2027 10:15:01.200             6.971            RioGallegos           217.844
       116   02 Jun 2027 10:48:31.640   02 Jun 2027 10:50:18.702           107.062                Sumatra          3345.688
       117   02 Jun 2027 11:07:08.480   02 Jun 2027 11:07:25.257            16.777                Irkutsk           524.281
       118   02 Jun 2027 11:08:15.006   02 Jun 2027 11:08:59.356            44.350                Irkutsk          1385.938
       119   02 Jun 2027 11:09:04.705   02 Jun 2027 11:09:50.353            45.648                Norilsk          1426.500
       120   02 Jun 2027 11:10:46.868   02 Jun 2027 11:10:53.503             6.635                Irkutsk           207.344
       121   02 Jun 2027 11:11:17.348   02 Jun 2027 11:11:55.518            38.170                Novosib          1192.813
       122   02 Jun 2027 11:12:01.697   02 Jun 2027 11:12:13.640            11.943                Novosib           373.219
       123   02 Jun 2027 11:12:28.448   02 Jun 2027 11:13:00.403            31.955                Irkutsk           998.594
       124   02 Jun 2027 11:49:03.112   02 Jun 2027 11:49:38.973            35.861            RioGallegos          1120.656
       125   02 Jun 2027 11:50:39.413   02 Jun 2027 11:51:44.201            64.788            RioGallegos          2024.625
       126   02 Jun 2027 12:22:41.856   02 Jun 2027 12:22:52.810            10.954                Sumatra           342.312
       127   02 Jun 2027 12:25:26.693   02 Jun 2027 12:27:14.134           107.441                Sumatra          3357.531
       128   02 Jun 2027 12:37:34.043   02 Jun 2027 12:38:17.932            43.889                Irkutsk          1371.531
       129   02 Jun 2027 12:39:26.807   02 Jun 2027 12:40:29.410            62.603                Novosib          1956.344
       130   02 Jun 2027 12:44:02.255   02 Jun 2027 12:44:20.394            18.139                Norilsk           566.844
       131   02 Jun 2027 12:54:39.822   02 Jun 2027 12:54:57.316            17.494              Murmansk2           546.687
       132   02 Jun 2027 14:07:21.912   02 Jun 2027 14:08:15.244            53.332                  Delhi          1666.625
       133   02 Jun 2027 14:09:28.367   02 Jun 2027 14:11:56.757           148.390                  Delhi          4637.187
       134   02 Jun 2027 14:15:35.046   02 Jun 2027 14:19:27.216           232.170                Novosib          7255.312
       135   02 Jun 2027 14:24:06.674   02 Jun 2027 14:24:33.176            26.502                Norilsk           828.187
       136   02 Jun 2027 15:51:09.260   02 Jun 2027 15:55:12.385           243.125                 Moscow          7597.656
       137   02 Jun 2027 15:55:50.263   02 Jun 2027 15:56:04.448            14.185              Murmansk1           443.281
       138   02 Jun 2027 15:56:34.485   02 Jun 2027 15:57:26.698            52.213              Murmansk1          1631.656
       139   02 Jun 2027 16:00:12.315   02 Jun 2027 16:01:39.534            87.219                Norilsk          2725.594
       140   02 Jun 2027 16:01:43.516   02 Jun 2027 16:01:51.841             8.325                Norilsk           260.156
       141   02 Jun 2027 16:02:29.073   02 Jun 2027 16:04:00.569            91.496                Norilsk          2859.250
       142   02 Jun 2027 17:11:28.722   02 Jun 2027 17:12:06.469            37.747               CapeTown          1179.594
       143   02 Jun 2027 17:29:34.877   02 Jun 2027 17:29:49.437            14.560                 Moscow           455.000
       144   02 Jun 2027 17:30:54.403   02 Jun 2027 17:31:33.859            39.456                 Moscow          1233.000
       145   02 Jun 2027 17:32:15.834   02 Jun 2027 17:32:41.864            26.030              Murmansk1           813.437
       146   02 Jun 2027 17:33:53.160   02 Jun 2027 17:34:25.260            32.100              Murmansk1          1003.125
       147   02 Jun 2027 17:35:19.934   02 Jun 2027 17:35:54.498            34.564              Murmansk2          1080.125
       148   02 Jun 2027 17:35:54.498   02 Jun 2027 17:36:25.086            30.588              Murmansk1           955.875
       149   02 Jun 2027 17:45:25.633   02 Jun 2027 17:46:53.415            87.782                Anadyr2          2743.187
       150   02 Jun 2027 17:56:01.651   02 Jun 2027 17:56:09.191             7.540                Anadyr1           235.625
       151   02 Jun 2027 18:40:53.669   02 Jun 2027 18:42:34.296           100.627               CapeTown          3144.594
       152   02 Jun 2027 18:44:52.114   02 Jun 2027 18:45:16.856            24.742               CapeTown           773.188
       153   02 Jun 2027 19:12:23.411   02 Jun 2027 19:17:33.925           310.514              Murmansk1          9703.562
       154   02 Jun 2027 19:24:03.531   02 Jun 2027 19:25:08.939            65.408               Magadan2          2044.000
       155   02 Jun 2027 20:57:05.533   02 Jun 2027 21:00:03.683           178.150                Anadyr2          5567.188
       156   02 Jun 2027 21:00:32.163   02 Jun 2027 21:01:40.070            67.907               Magadan1          2122.094
       157   02 Jun 2027 21:02:06.280   02 Jun 2027 21:02:29.023            22.743               Magadan2           710.719
       158   02 Jun 2027 21:02:29.023   02 Jun 2027 21:02:46.270            17.247               Magadan1           538.969
       159   02 Jun 2027 21:03:20.080   02 Jun 2027 21:04:40.477            80.397               Magadan2          2512.406
       160   02 Jun 2027 21:05:52.710   02 Jun 2027 21:06:14.339            21.629               Magadan1           675.906
       161   02 Jun 2027 21:07:24.944   02 Jun 2027 21:07:35.668            10.724               Magadan1           335.125
       162   02 Jun 2027 21:10:05.591   02 Jun 2027 21:10:06.966             1.375               Magadan1            42.969
       163   02 Jun 2027 21:10:11.206   02 Jun 2027 21:10:44.228            33.022               Magadan1          1031.938
       164   02 Jun 2027 21:52:35.655   02 Jun 2027 21:55:27.443           171.788            RioGallegos          5368.375
       165   02 Jun 2027 21:58:34.815   02 Jun 2027 21:58:44.278             9.463            RioGallegos           295.719
       166   02 Jun 2027 21:59:35.073   02 Jun 2027 21:59:41.988             6.915            RioGallegos           216.094
       167   02 Jun 2027 22:32:52.734   02 Jun 2027 22:35:01.351           128.617                Anadyr1          4019.281
       168   02 Jun 2027 22:35:04.339   02 Jun 2027 22:36:32.546            88.207                Norilsk          2756.469
       169   02 Jun 2027 22:37:13.080   02 Jun 2027 22:37:35.128            22.048                Norilsk           689.000
       170   02 Jun 2027 22:38:02.028   02 Jun 2027 22:38:29.184            27.156                Norilsk           848.625
       171   02 Jun 2027 22:39:40.098   02 Jun 2027 22:40:29.591            49.493                Irkutsk          1546.656
       172   02 Jun 2027 22:41:43.756   02 Jun 2027 22:42:17.136            33.380                Irkutsk          1043.125
       173   02 Jun 2027 22:54:10.539   02 Jun 2027 22:56:48.891           158.352                Sumatra          4948.500
       174   03 Jun 2027 00:08:02.860   03 Jun 2027 00:09:11.730            68.870                Anadyr2          2152.188
       175   03 Jun 2027 00:09:11.730   03 Jun 2027 00:09:19.493             7.763                Anadyr1           242.594
       176   03 Jun 2027 00:09:45.238   03 Jun 2027 00:10:29.942            44.704                Anadyr1          1397.000
       177   03 Jun 2027 00:11:27.867   03 Jun 2027 00:13:08.974           101.107               Magadan1          3159.594
       178   03 Jun 2027 00:13:45.348   03 Jun 2027 00:14:10.657            25.309               Magadan2           790.906
       179   03 Jun 2027 00:14:42.842   03 Jun 2027 00:16:56.784           133.942                Irkutsk          4185.687
       180   03 Jun 2027 00:18:11.359   03 Jun 2027 00:19:31.480            80.121                Novosib          2503.781
       181   03 Jun 2027 00:26:24.797   03 Jun 2027 00:26:40.972            16.175                  Delhi           505.469
       182   03 Jun 2027 00:29:29.427   03 Jun 2027 00:30:37.177            67.750                  Delhi          2117.188
       183   03 Jun 2027 01:05:20.227   03 Jun 2027 01:05:23.214             2.987            RioGallegos            93.344
       184   03 Jun 2027 01:06:50.910   03 Jun 2027 01:08:00.657            69.747            RioGallegos          2179.594
       185   03 Jun 2027 01:42:00.997   03 Jun 2027 01:42:43.754            42.757                Anadyr2          1336.156
       186   03 Jun 2027 01:43:14.144   03 Jun 2027 01:43:45.825            31.681                Anadyr2           990.031
       187   03 Jun 2027 01:43:56.740   03 Jun 2027 01:44:11.207            14.467                Anadyr2           452.094
       188   03 Jun 2027 01:46:34.366   03 Jun 2027 01:47:19.040            44.674                Anadyr1          1396.063
       189   03 Jun 2027 01:47:21.259   03 Jun 2027 01:48:43.535            82.276                Norilsk          2571.125
       190   03 Jun 2027 01:49:31.552   03 Jun 2027 01:50:44.224            72.672              Murmansk2          2271.000
       191   03 Jun 2027 01:50:47.532   03 Jun 2027 01:51:12.602            25.070              Murmansk1           783.438
       192   03 Jun 2027 01:51:26.000   03 Jun 2027 01:51:33.405             7.405                Novosib           231.406
       193   03 Jun 2027 01:52:06.338   03 Jun 2027 01:52:29.702            23.364                Irkutsk           730.125
       194   03 Jun 2027 01:52:32.896   03 Jun 2027 01:52:37.989             5.093                Irkutsk           159.156
       195   03 Jun 2027 01:52:42.630   03 Jun 2027 01:52:43.068             0.438                Irkutsk            13.687
       196   03 Jun 2027 01:53:55.436   03 Jun 2027 01:54:03.324             7.888                Novosib           246.500
       197   03 Jun 2027 01:57:35.631   03 Jun 2027 01:58:03.638            28.007                Novosib           875.219
       198   03 Jun 2027 01:58:12.639   03 Jun 2027 02:00:22.613           129.974                  Delhi          4061.688
       199   03 Jun 2027 02:40:13.527   03 Jun 2027 02:41:46.044            92.517            RioGallegos          2891.156
       200   03 Jun 2027 02:41:52.503   03 Jun 2027 02:42:39.071            46.568            RioGallegos          1455.250
       201   03 Jun 2027 02:45:10.515   03 Jun 2027 02:45:34.041            23.526            RioGallegos           735.188
       202   03 Jun 2027 03:30:56.425   03 Jun 2027 03:31:47.626            51.201                Irkutsk          1600.031
       203   03 Jun 2027 03:32:35.971   03 Jun 2027 03:33:40.046            64.075              Murmansk1          2002.344
       204   03 Jun 2027 03:33:51.942   03 Jun 2027 03:34:33.839            41.897              Murmansk1          1309.281
       205   03 Jun 2027 03:34:41.050   03 Jun 2027 03:34:52.557            11.507                Novosib           359.594
       206   03 Jun 2027 03:35:17.256   03 Jun 2027 03:35:17.732             0.476                Norilsk            14.875
       207   03 Jun 2027 03:37:32.663   03 Jun 2027 03:37:52.884            20.221                Novosib           631.906
       208   03 Jun 2027 05:07:41.881   03 Jun 2027 05:08:24.916            43.035                Novosib          1344.844
       209   03 Jun 2027 05:09:34.121   03 Jun 2027 05:10:13.216            39.095                 Moscow          1221.719
       210   03 Jun 2027 05:10:38.151   03 Jun 2027 05:11:02.494            24.343                 Moscow           760.719
       211   03 Jun 2027 05:12:47.515   03 Jun 2027 05:12:59.508            11.993                 Moscow           374.781
       212   03 Jun 2027 05:28:05.034   03 Jun 2027 05:30:09.237           124.203               CapeTown          3881.344
       213   03 Jun 2027 06:30:36.210   03 Jun 2027 06:30:58.451            22.241                Anadyr2           695.031
       214   03 Jun 2027 06:30:58.451   03 Jun 2027 06:31:50.467            52.016                Anadyr1          1625.500
       215   03 Jun 2027 06:31:56.302   03 Jun 2027 06:32:32.816            36.514                Anadyr2          1141.062
       216   03 Jun 2027 06:32:32.816   03 Jun 2027 06:32:40.431             7.615                Anadyr1           237.969
       217   03 Jun 2027 06:32:43.694   03 Jun 2027 06:33:28.406            44.712               Magadan2          1397.250
       218   03 Jun 2027 06:35:32.764   03 Jun 2027 06:35:51.733            18.969                Anadyr2           592.781
       219   03 Jun 2027 08:07:26.619   03 Jun 2027 08:07:27.288             0.669               Magadan2            20.906
       220   03 Jun 2027 08:07:38.049   03 Jun 2027 08:07:52.997            14.948                Anadyr1           467.125
       221   03 Jun 2027 08:07:57.771   03 Jun 2027 08:08:51.246            53.475                Anadyr2          1671.094
       222   03 Jun 2027 08:08:55.710   03 Jun 2027 08:09:33.403            37.693               Magadan2          1177.906
       223   03 Jun 2027 08:09:46.638   03 Jun 2027 08:10:51.949            65.311                Anadyr2          2040.969
       224   03 Jun 2027 08:50:59.548   03 Jun 2027 08:51:36.000            36.452            RioGallegos          1139.125
       225   03 Jun 2027 09:42:48.140   03 Jun 2027 09:42:57.630             9.490               Magadan1           296.563
       226   03 Jun 2027 09:43:14.084   03 Jun 2027 09:43:30.307            16.223               Magadan2           506.969
       227   03 Jun 2027 09:44:15.727   03 Jun 2027 09:44:32.825            17.098               Magadan1           534.313
       228   03 Jun 2027 09:45:18.958   03 Jun 2027 09:45:59.496            40.538               Magadan2          1266.812
       229   03 Jun 2027 09:46:21.500   03 Jun 2027 09:46:43.611            22.111                Anadyr2           690.969
       230   03 Jun 2027 09:46:55.969   03 Jun 2027 09:47:05.426             9.457                Irkutsk           295.531
       231   03 Jun 2027 09:47:24.580   03 Jun 2027 09:47:57.565            32.985               Magadan2          1030.781
       232   03 Jun 2027 09:48:25.653   03 Jun 2027 09:48:29.413             3.760               Magadan2           117.500
       233   03 Jun 2027 09:48:33.866   03 Jun 2027 09:48:52.216            18.350               Magadan2           573.437
       234   03 Jun 2027 10:23:48.440   03 Jun 2027 10:24:51.421            62.981            RioGallegos          1968.156
       235   03 Jun 2027 10:30:25.568   03 Jun 2027 10:30:29.674             4.106            RioGallegos           128.312
       236   03 Jun 2027 10:59:52.660   03 Jun 2027 11:00:19.593            26.933                Sumatra           841.656
       237   03 Jun 2027 11:04:42.912   03 Jun 2027 11:05:01.364            18.452                Sumatra           576.625
       238   03 Jun 2027 11:08:48.928   03 Jun 2027 11:09:03.983            15.055                Sumatra           470.469
       239   03 Jun 2027 11:20:42.122   03 Jun 2027 11:21:15.329            33.207                Irkutsk          1037.719
       240   03 Jun 2027 11:21:45.082   03 Jun 2027 11:22:43.710            58.628                Irkutsk          1832.125
       241   03 Jun 2027 11:22:56.469   03 Jun 2027 11:22:56.879             0.410                Norilsk            12.812
       242   03 Jun 2027 11:22:58.554   03 Jun 2027 11:23:00.093             1.539                Irkutsk            48.094
       243   03 Jun 2027 11:23:42.517   03 Jun 2027 11:23:52.206             9.689                Novosib           302.781
       244   03 Jun 2027 11:23:58.609   03 Jun 2027 11:24:05.274             6.665                Novosib           208.281
       245   03 Jun 2027 11:24:08.203   03 Jun 2027 11:24:22.754            14.551                Norilsk           454.719
       246   03 Jun 2027 11:24:27.590   03 Jun 2027 11:24:43.771            16.181                Novosib           505.656
       247   03 Jun 2027 11:24:55.496   03 Jun 2027 11:26:07.384            71.888                Novosib          2246.500
       248   03 Jun 2027 12:04:55.214   03 Jun 2027 12:05:37.504            42.290            RioGallegos          1321.563
       249   03 Jun 2027 12:34:58.648   03 Jun 2027 12:35:43.905            45.257                Sumatra          1414.281
       250   03 Jun 2027 12:43:16.901   03 Jun 2027 12:43:47.005            30.104                  Delhi           940.750
       251   03 Jun 2027 12:49:39.965   03 Jun 2027 12:52:54.202           194.237                Novosib          6069.906
       252   03 Jun 2027 14:19:50.608   03 Jun 2027 14:25:01.721           311.113                  Delhi          9722.281
       253   03 Jun 2027 14:28:12.822   03 Jun 2027 14:29:25.056            72.234                Novosib          2257.313
       254   03 Jun 2027 14:31:54.996   03 Jun 2027 14:32:48.856            53.860                Norilsk          1683.125
       255   03 Jun 2027 16:03:16.648   03 Jun 2027 16:05:13.007           116.359                 Moscow          3636.219
       256   03 Jun 2027 16:06:24.985   03 Jun 2027 16:06:53.582            28.597                 Moscow           893.656
       257   03 Jun 2027 16:07:35.393   03 Jun 2027 16:08:35.736            60.343              Murmansk1          1885.719
       258   03 Jun 2027 16:09:35.879   03 Jun 2027 16:09:46.157            10.278              Murmansk2           321.188
       259   03 Jun 2027 16:13:13.296   03 Jun 2027 16:16:00.803           167.507                Norilsk          5234.594
       260   03 Jun 2027 16:22:56.467   03 Jun 2027 16:23:14.388            17.921                Anadyr2           560.031
       261   03 Jun 2027 16:23:14.424   03 Jun 2027 16:23:23.520             9.096                Anadyr1           284.250
       262   03 Jun 2027 17:16:52.690   03 Jun 2027 17:18:30.548            97.858               CapeTown          3058.062
       263   03 Jun 2027 17:27:49.645   03 Jun 2027 17:28:14.217            24.572               CapeTown           767.875
       264   03 Jun 2027 17:43:01.066   03 Jun 2027 17:44:08.359            67.293                 Moscow          2102.906
       265   03 Jun 2027 17:44:39.349   03 Jun 2027 17:45:54.318            74.969              Murmansk2          2342.781
       266   03 Jun 2027 17:46:11.931   03 Jun 2027 17:47:06.022            54.091                 Moscow          1690.344
       267   03 Jun 2027 17:49:36.129   03 Jun 2027 17:49:36.392             0.263              Murmansk2             8.219
       268   03 Jun 2027 17:49:43.585   03 Jun 2027 17:49:55.911            12.326              Murmansk1           385.187
       269   03 Jun 2027 17:52:43.493   03 Jun 2027 17:52:59.015            15.522              Murmansk1           485.062
       270   03 Jun 2027 17:53:14.208   03 Jun 2027 17:53:40.243            26.035              Murmansk2           813.594
       271   03 Jun 2027 17:58:02.950   03 Jun 2027 17:58:17.031            14.081                Anadyr2           440.031
       272   03 Jun 2027 17:58:36.305   03 Jun 2027 17:58:40.379             4.074                Anadyr2           127.313
       273   03 Jun 2027 17:58:54.407   03 Jun 2027 17:59:12.177            17.770                Anadyr2           555.313
       274   03 Jun 2027 18:07:32.954   03 Jun 2027 18:07:45.781            12.827                Anadyr2           400.844
       275   03 Jun 2027 18:53:08.777   03 Jun 2027 18:54:37.046            88.269               CapeTown          2758.406
       276   03 Jun 2027 18:57:06.517   03 Jun 2027 18:57:45.432            38.915               CapeTown          1216.094
       277   03 Jun 2027 19:25:14.556   03 Jun 2027 19:29:49.499           274.943              Murmansk1          8591.969
       278   03 Jun 2027 19:29:52.160   03 Jun 2027 19:30:46.193            54.033              Murmansk2          1688.531
       279   03 Jun 2027 19:35:55.675   03 Jun 2027 19:36:19.952            24.277               Magadan2           758.656
       280   03 Jun 2027 19:36:21.137   03 Jun 2027 19:36:37.173            16.036               Magadan2           501.125
       281   03 Jun 2027 21:09:06.972   03 Jun 2027 21:12:50.367           223.395                Anadyr1          6981.094
       282   03 Jun 2027 21:12:56.972   03 Jun 2027 21:14:18.811            81.839                Anadyr2          2557.469
       283   03 Jun 2027 21:14:26.344   03 Jun 2027 21:14:43.162            16.818                Anadyr2           525.562
       284   03 Jun 2027 21:15:08.219   03 Jun 2027 21:17:42.629           154.410               Magadan1          4825.312
       285   03 Jun 2027 22:04:09.596   03 Jun 2027 22:06:31.741           142.145            RioGallegos          4442.031
       286   03 Jun 2027 22:09:59.601   03 Jun 2027 22:10:38.042            38.441            RioGallegos          1201.281
       287   03 Jun 2027 22:44:51.393   03 Jun 2027 22:46:22.415            91.022                Anadyr1          2844.437
       288   03 Jun 2027 22:46:58.137   03 Jun 2027 22:48:34.254            96.117                Norilsk          3003.656
       289   03 Jun 2027 22:48:48.330   03 Jun 2027 22:48:59.600            11.270               Magadan2           352.188
       290   03 Jun 2027 22:49:42.477   03 Jun 2027 22:49:57.380            14.903               Magadan2           465.719
       291   03 Jun 2027 22:51:27.395   03 Jun 2027 22:52:28.741            61.346                Irkutsk          1917.063
       292   03 Jun 2027 22:53:39.726   03 Jun 2027 22:55:02.031            82.305                Irkutsk          2572.031
       293   03 Jun 2027 23:05:37.475   03 Jun 2027 23:08:34.853           177.378                Sumatra          5543.063
       294   04 Jun 2027 00:19:53.990   04 Jun 2027 00:21:09.779            75.789                Anadyr1          2368.406
       295   04 Jun 2027 00:21:20.455   04 Jun 2027 00:21:46.524            26.069                Anadyr1           814.656
       296   04 Jun 2027 00:22:14.325   04 Jun 2027 00:22:31.079            16.754                Anadyr2           523.562
       297   04 Jun 2027 00:22:51.456   04 Jun 2027 00:24:34.630           103.174                Norilsk          3224.188
       298   04 Jun 2027 00:25:39.448   04 Jun 2027 00:25:52.311            12.863               Magadan2           401.969
       299   04 Jun 2027 00:26:35.042   04 Jun 2027 00:26:37.722             2.680                Norilsk            83.750
       300   04 Jun 2027 00:26:43.884   04 Jun 2027 00:28:31.324           107.440                Irkutsk          3357.500
       301   04 Jun 2027 00:29:12.055   04 Jun 2027 00:29:31.512            19.457                Novosib           608.031
       302   04 Jun 2027 00:35:36.464   04 Jun 2027 00:38:22.116           165.652                  Delhi          5176.625
       303   04 Jun 2027 01:17:09.655   04 Jun 2027 01:17:25.399            15.744            RioGallegos           492.000
       304   04 Jun 2027 01:18:37.402   04 Jun 2027 01:18:59.919            22.517            RioGallegos           703.656
       305   04 Jun 2027 01:25:41.213   04 Jun 2027 01:25:48.209             6.996            RioGallegos           218.625
       306   04 Jun 2027 01:53:43.083   04 Jun 2027 01:54:12.855            29.772                Anadyr1           930.375
       307   04 Jun 2027 01:54:12.855   04 Jun 2027 01:54:56.296            43.441                Anadyr2          1357.531
       308   04 Jun 2027 01:55:57.287   04 Jun 2027 01:56:37.755            40.468                Anadyr2          1264.625
       309   04 Jun 2027 01:58:35.718   04 Jun 2027 01:59:01.171            25.453                Anadyr2           795.406
       310   04 Jun 2027 01:59:12.459   04 Jun 2027 02:00:31.923            79.464                Norilsk          2483.250
       311   04 Jun 2027 02:01:24.478   04 Jun 2027 02:02:08.175            43.697              Murmansk1          1365.531
       312   04 Jun 2027 02:02:38.495   04 Jun 2027 02:03:12.223            33.728                Novosib          1054.000
       313   04 Jun 2027 02:03:24.172   04 Jun 2027 02:05:29.472           125.300                Novosib          3915.625
       314   04 Jun 2027 02:10:01.221   04 Jun 2027 02:10:05.639             4.418                  Delhi           138.062
       315   04 Jun 2027 02:11:51.846   04 Jun 2027 02:12:12.580            20.734                  Delhi           647.937
       316   04 Jun 2027 02:18:19.076   04 Jun 2027 02:18:34.535            15.459                  Delhi           483.094
       317   04 Jun 2027 02:20:05.537   04 Jun 2027 02:20:36.416            30.879                  Delhi           964.969
       318   04 Jun 2027 02:52:45.182   04 Jun 2027 02:54:45.514           120.332            RioGallegos          3760.375
       319   04 Jun 2027 02:55:46.675   04 Jun 2027 02:56:36.949            50.274            RioGallegos          1571.062
       320   04 Jun 2027 03:43:42.981   04 Jun 2027 03:44:18.955            35.974                Norilsk          1124.187
       321   04 Jun 2027 03:44:25.362   04 Jun 2027 03:46:25.145           119.783                Norilsk          3743.219
       322   04 Jun 2027 03:47:20.155   04 Jun 2027 03:48:16.356            56.201              Murmansk1          1756.281
       323   04 Jun 2027 03:49:27.740   04 Jun 2027 03:49:30.528             2.788                Novosib            87.125
       324   04 Jun 2027 03:50:56.529   04 Jun 2027 03:51:28.984            32.455                 Moscow          1014.219
       325   04 Jun 2027 05:19:52.450   04 Jun 2027 05:20:06.191            13.741                Novosib           429.406
       326   04 Jun 2027 05:21:39.417   04 Jun 2027 05:22:00.018            20.601                 Moscow           643.781
       327   04 Jun 2027 05:22:01.614   04 Jun 2027 05:22:02.615             1.001                 Moscow            31.281
       328   04 Jun 2027 05:22:41.195   04 Jun 2027 05:23:48.663            67.468                 Moscow          2108.375
       329   04 Jun 2027 05:40:15.134   04 Jun 2027 05:41:02.723            47.589               CapeTown          1487.156
       330   04 Jun 2027 05:49:57.564   04 Jun 2027 05:50:01.534             3.970               CapeTown           124.063
       331   04 Jun 2027 06:42:45.622   04 Jun 2027 06:43:15.690            30.068                Anadyr1           939.625
       332   04 Jun 2027 06:43:15.694   04 Jun 2027 06:43:21.532             5.838               Magadan2           182.437
       333   04 Jun 2027 06:43:31.860   04 Jun 2027 06:43:33.636             1.776               Magadan1            55.500
       334   04 Jun 2027 06:43:33.636   04 Jun 2027 06:44:02.908            29.272               Magadan2           914.750
       335   04 Jun 2027 06:44:14.987   04 Jun 2027 06:45:15.205            60.218               Magadan2          1881.813
       336   04 Jun 2027 06:45:16.978   04 Jun 2027 06:45:28.603            11.625                Anadyr2           363.281
       337   04 Jun 2027 06:45:31.614   04 Jun 2027 06:46:02.331            30.717               Magadan1           959.906
       338   04 Jun 2027 06:47:32.735   04 Jun 2027 06:47:53.595            20.860                Anadyr1           651.875
       339   04 Jun 2027 06:59:45.074   04 Jun 2027 06:59:52.571             7.497                 Moscow           234.281
       340   04 Jun 2027 07:01:56.849   04 Jun 2027 07:02:08.479            11.630                 Moscow           363.438
       341   04 Jun 2027 08:19:21.540   04 Jun 2027 08:19:54.681            33.141                Anadyr1          1035.656
       342   04 Jun 2027 08:20:16.099   04 Jun 2027 08:21:04.419            48.320                Anadyr2          1510.000
       343   04 Jun 2027 08:21:35.313   04 Jun 2027 08:22:07.940            32.627               Magadan1          1019.594
       344   04 Jun 2027 08:22:07.940   04 Jun 2027 08:23:06.324            58.384               Magadan2          1824.500
       345   04 Jun 2027 09:54:38.129   04 Jun 2027 09:55:31.937            53.808               Magadan2          1681.500
       346   04 Jun 2027 09:55:37.554   04 Jun 2027 09:55:39.866             2.312               Magadan2            72.250
       347   04 Jun 2027 09:56:26.130   04 Jun 2027 09:57:16.163            50.033               Magadan2          1563.531
       348   04 Jun 2027 09:57:37.636   04 Jun 2027 09:59:25.035           107.399               Magadan1          3356.219
       349   04 Jun 2027 10:00:10.363   04 Jun 2027 10:00:39.421            29.058                Irkutsk           908.063
       350   04 Jun 2027 10:01:49.174   04 Jun 2027 10:01:55.411             6.237                Norilsk           194.906
       351   04 Jun 2027 10:35:45.015   04 Jun 2027 10:36:46.667            61.652            RioGallegos          1926.625
       352   04 Jun 2027 11:11:24.617   04 Jun 2027 11:12:31.198            66.581                Sumatra          2080.656
       353   04 Jun 2027 11:32:48.712   04 Jun 2027 11:33:17.716            29.004                Irkutsk           906.375
       354   04 Jun 2027 11:33:51.391   04 Jun 2027 11:34:18.993            27.602                Irkutsk           862.563
       355   04 Jun 2027 11:34:27.476   04 Jun 2027 11:34:29.070             1.594                Norilsk            49.812
       356   04 Jun 2027 11:34:39.008   04 Jun 2027 11:35:05.810            26.802                Irkutsk           837.563
       357   04 Jun 2027 11:35:31.074   04 Jun 2027 11:36:05.716            34.642                Norilsk          1082.562
       358   04 Jun 2027 11:36:10.148   04 Jun 2027 11:36:22.139            11.991                Norilsk           374.719
       359   04 Jun 2027 11:36:24.477   04 Jun 2027 11:36:29.760             5.283                Novosib           165.094
       360   04 Jun 2027 11:36:46.957   04 Jun 2027 11:37:11.344            24.387                Norilsk           762.094
       361   04 Jun 2027 12:13:10.178   04 Jun 2027 12:13:56.034            45.856            RioGallegos          1433.000
       362   04 Jun 2027 12:17:38.334   04 Jun 2027 12:18:21.330            42.996            RioGallegos          1343.625
       363   04 Jun 2027 12:47:23.308   04 Jun 2027 12:48:35.444            72.136                Sumatra          2254.250
       364   04 Jun 2027 13:01:48.017   04 Jun 2027 13:02:33.052            45.035                Novosib          1407.344
       365   04 Jun 2027 13:02:47.750   04 Jun 2027 13:02:52.836             5.086                Irkutsk           158.938
       366   04 Jun 2027 13:04:54.358   04 Jun 2027 13:05:30.326            35.968                Novosib          1124.000
       367   04 Jun 2027 13:05:45.363   04 Jun 2027 13:06:20.130            34.767                Norilsk          1086.469
       368   04 Jun 2027 13:07:14.212   04 Jun 2027 13:07:40.315            26.103                Irkutsk           815.719
       369   04 Jun 2027 13:12:11.263   04 Jun 2027 13:12:48.108            36.845                Norilsk          1151.406
       370   04 Jun 2027 14:32:29.396   04 Jun 2027 14:34:53.402           144.006                  Delhi          4500.188
       371   04 Jun 2027 14:35:53.958   04 Jun 2027 14:37:25.907            91.949                  Delhi          2873.406
       372   04 Jun 2027 14:40:58.104   04 Jun 2027 14:41:32.386            34.282                Novosib          1071.313
       373   04 Jun 2027 14:42:35.074   04 Jun 2027 14:44:41.480           126.406                Novosib          3950.187
       374   04 Jun 2027 14:45:31.246   04 Jun 2027 14:45:50.220            18.974                Norilsk           592.938
       375   04 Jun 2027 14:53:30.638   04 Jun 2027 14:53:56.190            25.552                Norilsk           798.500
       376   04 Jun 2027 16:15:27.258   04 Jun 2027 16:17:11.653           104.395                 Moscow          3262.344
       377   04 Jun 2027 16:18:24.502   04 Jun 2027 16:19:20.663            56.161                 Moscow          1755.031
       378   04 Jun 2027 16:19:27.800   04 Jun 2027 16:21:35.107           127.307              Murmansk1          3978.344
       379   04 Jun 2027 16:26:38.679   04 Jun 2027 16:28:19.504           100.825                Norilsk          3150.781
       380   04 Jun 2027 16:34:30.237   04 Jun 2027 16:35:10.181            39.944                Anadyr1          1248.250
       381   04 Jun 2027 16:38:39.890   04 Jun 2027 16:38:45.599             5.709                Anadyr2           178.406
       382   04 Jun 2027 16:39:57.861   04 Jun 2027 16:40:30.459            32.598                Anadyr2          1018.688
       383   04 Jun 2027 17:28:46.472   04 Jun 2027 17:29:38.194            51.722               CapeTown          1616.312
       384   04 Jun 2027 17:30:24.548   04 Jun 2027 17:30:42.559            18.011               CapeTown           562.844
       385   04 Jun 2027 17:35:22.593   04 Jun 2027 17:35:38.141            15.548               CapeTown           485.875
       386   04 Jun 2027 17:41:01.504   04 Jun 2027 17:41:26.206            24.702               CapeTown           771.937
       387   04 Jun 2027 17:55:11.476   04 Jun 2027 17:59:25.844           254.368                 Moscow          7949.000
       388   04 Jun 2027 18:10:55.605   04 Jun 2027 18:11:05.106             9.501                Anadyr1           296.906
       389   04 Jun 2027 18:11:08.102   04 Jun 2027 18:11:16.033             7.931                Anadyr1           247.844
       390   04 Jun 2027 18:12:00.895   04 Jun 2027 18:12:17.587            16.692                Anadyr1           521.625
       391   04 Jun 2027 18:16:17.783   04 Jun 2027 18:16:36.292            18.509                Anadyr1           578.406
       392   04 Jun 2027 18:20:28.392   04 Jun 2027 18:20:31.079             2.687                Anadyr1            83.969
       393   04 Jun 2027 19:05:28.537   04 Jun 2027 19:06:42.590            74.053               CapeTown          2314.156
       394   04 Jun 2027 19:08:16.961   04 Jun 2027 19:08:34.465            17.504               CapeTown           547.000
       395   04 Jun 2027 19:09:40.815   04 Jun 2027 19:10:25.749            44.934               CapeTown          1404.188
       396   04 Jun 2027 19:38:14.469   04 Jun 2027 19:42:29.096           254.627              Murmansk1          7957.094
       397   04 Jun 2027 19:47:49.874   04 Jun 2027 19:48:39.612            49.738               Magadan1          1554.313
       398   04 Jun 2027 19:49:46.798   04 Jun 2027 19:50:27.393            40.595               Magadan1          1268.594
       399   04 Jun 2027 19:56:28.503   04 Jun 2027 19:57:01.091            32.588               Magadan2          1018.375
       400   04 Jun 2027 21:21:08.240   04 Jun 2027 21:24:50.998           222.758                Anadyr1          6961.188
       401   04 Jun 2027 21:25:04.342   04 Jun 2027 21:27:11.847           127.505               Magadan2          3984.531
       402   04 Jun 2027 21:27:11.847   04 Jun 2027 21:28:18.514            66.667               Magadan1          2083.344
       403   04 Jun 2027 21:30:41.320   04 Jun 2027 21:31:04.734            23.414               Magadan1           731.687
       404   04 Jun 2027 21:34:13.359   04 Jun 2027 21:35:17.026            63.667               Magadan1          1989.594
       405   04 Jun 2027 22:15:51.055   04 Jun 2027 22:17:30.266            99.211            RioGallegos          3100.344
       406   04 Jun 2027 22:17:47.881   04 Jun 2027 22:18:16.209            28.328            RioGallegos           885.250
       407   04 Jun 2027 22:25:09.234   04 Jun 2027 22:25:14.209             4.975            RioGallegos           155.469
       408   04 Jun 2027 22:56:49.420   04 Jun 2027 22:58:51.619           122.199                Anadyr1          3818.719
       409   04 Jun 2027 22:58:58.036   04 Jun 2027 22:58:59.693             1.657                Norilsk            51.781
       410   04 Jun 2027 22:59:26.143   04 Jun 2027 23:01:05.929            99.786               Magadan2          3118.312
       411   04 Jun 2027 23:03:08.934   04 Jun 2027 23:03:10.067             1.133               Magadan2            35.406
       412   04 Jun 2027 23:03:17.939   04 Jun 2027 23:04:28.901            70.962                Irkutsk          2217.563
       413   04 Jun 2027 23:05:19.809   04 Jun 2027 23:05:32.615            12.806                Irkutsk           400.187
       414   04 Jun 2027 23:05:37.770   04 Jun 2027 23:06:27.114            49.344                Irkutsk          1542.000
       415   04 Jun 2027 23:17:13.822   04 Jun 2027 23:18:39.470            85.648                Sumatra          2676.500
       416   04 Jun 2027 23:23:30.601   04 Jun 2027 23:23:44.754            14.153                Sumatra           442.281
       417   04 Jun 2027 23:24:59.590   04 Jun 2027 23:26:34.769            95.179                Sumatra          2974.344
       418   05 Jun 2027 00:31:43.819   05 Jun 2027 00:32:44.139            60.320                Anadyr2          1885.000
       419   05 Jun 2027 00:33:21.204   05 Jun 2027 00:33:47.857            26.653                Anadyr2           832.906
       420   05 Jun 2027 00:34:12.155   05 Jun 2027 00:34:30.877            18.722                Anadyr2           585.062
       421   05 Jun 2027 00:34:53.687   05 Jun 2027 00:36:36.581           102.894                Norilsk          3215.438
       422   05 Jun 2027 00:38:44.161   05 Jun 2027 00:39:19.497            35.336               Magadan1          1104.250
       423   05 Jun 2027 00:39:20.727   05 Jun 2027 00:40:51.521            90.794                Irkutsk          2837.312
       424   05 Jun 2027 00:40:56.650   05 Jun 2027 00:41:19.556            22.906                Novosib           715.813
       425   05 Jun 2027 00:45:21.739   05 Jun 2027 00:45:44.935            23.196                Novosib           724.875
       426   05 Jun 2027 00:47:07.332   05 Jun 2027 00:48:58.176           110.844                  Delhi          3463.875
       427   05 Jun 2027 00:56:31.868   05 Jun 2027 00:57:05.992            34.124                Sumatra          1066.375
       428   05 Jun 2027 01:01:05.630   05 Jun 2027 01:03:27.762           142.132                Sumatra          4441.625
       429   05 Jun 2027 02:06:32.079   05 Jun 2027 02:07:11.241            39.162                Anadyr1          1223.813
       430   05 Jun 2027 02:10:54.091   05 Jun 2027 02:12:20.410            86.319                Norilsk          2697.469
       431   05 Jun 2027 02:13:19.859   05 Jun 2027 02:14:04.265            44.406              Murmansk2          1387.688
       432   05 Jun 2027 02:14:20.803   05 Jun 2027 02:15:12.748            51.945              Murmansk2          1623.281
       433   05 Jun 2027 02:15:12.995   05 Jun 2027 02:15:56.253            43.258                Irkutsk          1351.813
       434   05 Jun 2027 02:17:55.681   05 Jun 2027 02:18:15.689            20.008                Novosib           625.250
       435   05 Jun 2027 02:22:08.771   05 Jun 2027 02:22:46.793            38.022                  Delhi          1188.188
       436   05 Jun 2027 02:26:22.305   05 Jun 2027 02:26:50.195            27.890                  Delhi           871.562
       437   05 Jun 2027 02:32:30.194   05 Jun 2027 02:33:38.788            68.594                  Delhi          2143.562
       438   05 Jun 2027 03:06:40.321   05 Jun 2027 03:07:21.864            41.543            RioGallegos          1298.219
       439   05 Jun 2027 03:56:49.812   05 Jun 2027 03:59:57.921           188.109                Novosib          5878.406
       440   05 Jun 2027 04:00:18.256   05 Jun 2027 04:00:49.416            31.160              Murmansk1           973.750
       441   05 Jun 2027 04:03:02.559   05 Jun 2027 04:04:10.874            68.315                 Moscow          2134.844
       442   05 Jun 2027 05:34:01.840   05 Jun 2027 05:34:45.348            43.508                 Moscow          1359.625
       443   05 Jun 2027 05:35:53.472   05 Jun 2027 05:37:18.386            84.914                 Moscow          2653.563
       444   05 Jun 2027 05:39:00.172   05 Jun 2027 05:39:42.491            42.319                 Moscow          1322.469
       445   05 Jun 2027 05:52:31.010   05 Jun 2027 05:53:01.286            30.276               CapeTown           946.125
       446   05 Jun 2027 05:55:02.801   05 Jun 2027 05:57:02.345           119.544               CapeTown          3735.750
       447   05 Jun 2027 06:55:34.377   05 Jun 2027 06:55:47.709            13.332               Magadan1           416.625
       448   05 Jun 2027 06:55:51.909   05 Jun 2027 06:57:12.670            80.761                Anadyr2          2523.781
       449   05 Jun 2027 06:57:15.602   05 Jun 2027 06:57:34.764            19.162               Magadan2           598.813
       450   05 Jun 2027 06:57:34.764   05 Jun 2027 06:58:30.222            55.458               Magadan1          1733.063
       451   05 Jun 2027 08:31:14.349   05 Jun 2027 08:31:56.200            41.851                Anadyr1          1307.844
       452   05 Jun 2027 08:32:25.352   05 Jun 2027 08:32:32.722             7.370               Magadan2           230.313
       453   05 Jun 2027 08:32:48.831   05 Jun 2027 08:33:22.537            33.706                Anadyr2          1053.312
       454   05 Jun 2027 08:33:36.899   05 Jun 2027 08:34:16.822            39.923               Magadan2          1247.594
       455   05 Jun 2027 08:34:23.910   05 Jun 2027 08:35:49.735            85.825                Anadyr1          2682.031
       456   05 Jun 2027 10:06:24.478   05 Jun 2027 10:07:33.173            68.695               Magadan1          2146.719
       457   05 Jun 2027 10:08:04.962   05 Jun 2027 10:08:29.925            24.963               Magadan2           780.094
       458   05 Jun 2027 10:08:39.458   05 Jun 2027 10:09:03.016            23.558               Magadan2           736.187
       459   05 Jun 2027 10:09:12.135   05 Jun 2027 10:11:24.911           132.776               Magadan2          4149.250
       460   05 Jun 2027 10:11:45.297   05 Jun 2027 10:12:08.363            23.066                Norilsk           720.812
       461   05 Jun 2027 10:12:16.841   05 Jun 2027 10:12:42.153            25.312                Norilsk           791.000
       462   05 Jun 2027 10:12:54.658   05 Jun 2027 10:13:38.328            43.670                Norilsk          1364.687
       463   05 Jun 2027 10:48:48.135   05 Jun 2027 10:48:54.893             6.758            RioGallegos           211.187
       464   05 Jun 2027 10:49:16.802   05 Jun 2027 10:50:12.557            55.755            RioGallegos          1742.344
       465   05 Jun 2027 11:23:04.890   05 Jun 2027 11:23:39.278            34.388                Sumatra          1074.625
       466   05 Jun 2027 11:24:44.013   05 Jun 2027 11:24:49.588             5.575                Sumatra           174.219
       467   05 Jun 2027 11:25:26.769   05 Jun 2027 11:26:25.273            58.504                Sumatra          1828.250
       468   05 Jun 2027 11:43:25.412   05 Jun 2027 11:44:17.093            51.681                Irkutsk          1615.031
       469   05 Jun 2027 11:44:21.531   05 Jun 2027 11:44:45.853            24.322                Novosib           760.063
       470   05 Jun 2027 11:44:54.179   05 Jun 2027 11:45:03.953             9.774                Irkutsk           305.438
       471   05 Jun 2027 11:45:12.588   05 Jun 2027 11:46:21.659            69.071                Novosib          2158.469
       472   05 Jun 2027 11:46:26.594   05 Jun 2027 11:46:42.753            16.159                Novosib           504.969
       473   05 Jun 2027 11:46:54.955   05 Jun 2027 11:47:15.244            20.289                Norilsk           634.031
       474   05 Jun 2027 11:47:22.584   05 Jun 2027 11:47:36.620            14.036                Novosib           438.625
       475   05 Jun 2027 11:47:40.812   05 Jun 2027 11:48:06.871            26.059                Norilsk           814.344
       476   05 Jun 2027 11:48:12.208   05 Jun 2027 11:48:21.934             9.726                Norilsk           303.937
       477   05 Jun 2027 11:48:31.354   05 Jun 2027 11:49:08.597            37.243                Novosib          1163.844
       478   05 Jun 2027 12:25:44.091   05 Jun 2027 12:26:16.888            32.797            RioGallegos          1024.906
       479   05 Jun 2027 12:31:13.837   05 Jun 2027 12:31:16.759             2.922            RioGallegos            91.312
       480   05 Jun 2027 12:34:42.233   05 Jun 2027 12:35:40.604            58.371            RioGallegos          1824.094
       481   05 Jun 2027 12:59:58.327   05 Jun 2027 13:00:40.147            41.820                Sumatra          1306.875
       482   05 Jun 2027 13:01:52.876   05 Jun 2027 13:02:56.165            63.289                Sumatra          1977.781
