uniorb/output/strategy_4/Drop/Drop_KinoSat_110405.txt

KinoSat_110405
-------------------------
    Access    *     Start Time (UTCG)     *     Stop Time (UTCG)  *   Duration (s)        *       Station  *  Data (Mbytes)
         1   01 Jun 2027 03:52:50.263   01 Jun 2027 03:53:35.042            44.779               Magadan2          5597.375
         2   01 Jun 2027 03:53:35.042   01 Jun 2027 03:54:12.440            37.398               Magadan1          4674.750
         3   01 Jun 2027 03:54:36.146   01 Jun 2027 03:55:05.690            29.544               Magadan1          3693.000
         4   01 Jun 2027 03:55:11.665   01 Jun 2027 03:55:41.456            29.791                Anadyr2          3723.875
         5   01 Jun 2027 03:55:41.780   01 Jun 2027 03:57:17.941            96.161                Irkutsk         12020.125
         6   01 Jun 2027 03:57:52.722   01 Jun 2027 03:58:07.571            14.849               Magadan1          1856.125
         7   01 Jun 2027 03:58:34.989   01 Jun 2027 03:58:58.603            23.614               Magadan1          2951.750
         8   01 Jun 2027 03:59:12.608   01 Jun 2027 03:59:14.867             2.259                Norilsk           282.375
         9   01 Jun 2027 03:59:48.571   01 Jun 2027 03:59:56.175             7.604                Norilsk           950.500
        10   01 Jun 2027 04:00:07.273   01 Jun 2027 04:00:38.103            30.830                Norilsk          3853.750
        11   01 Jun 2027 04:33:56.379   01 Jun 2027 04:34:06.624            10.245            RioGallegos          1280.625
        12   01 Jun 2027 04:39:09.675   01 Jun 2027 04:39:31.510            21.835            RioGallegos          2729.375
        13   01 Jun 2027 04:42:11.190   01 Jun 2027 04:42:47.490            36.300            RioGallegos          4537.500
        14   01 Jun 2027 05:10:11.126   01 Jun 2027 05:13:29.068           197.942                Sumatra         24742.750
        15   01 Jun 2027 05:31:02.602   01 Jun 2027 05:33:12.766           130.164                Irkutsk         16270.500
        16   01 Jun 2027 05:33:52.519   01 Jun 2027 05:34:27.300            34.781              Murmansk1          4347.625
        17   01 Jun 2027 05:34:46.938   01 Jun 2027 05:36:28.235           101.297                Novosib         12662.125
        18   01 Jun 2027 06:44:58.105   01 Jun 2027 06:45:48.354            50.249                Sumatra          6281.125
        19   01 Jun 2027 06:55:37.092   01 Jun 2027 06:57:32.395           115.303                  Delhi         14412.875
        20   01 Jun 2027 07:07:59.987   01 Jun 2027 07:08:27.017            27.030              Murmansk1          3378.750
        21   01 Jun 2027 07:08:33.550   01 Jun 2027 07:09:29.268            55.718              Murmansk2          6964.750
        22   01 Jun 2027 07:09:41.309   01 Jun 2027 07:09:47.460             6.151                Irkutsk           768.875
        23   01 Jun 2027 07:10:06.574   01 Jun 2027 07:10:15.749             9.175                Irkutsk          1146.875
        24   01 Jun 2027 07:10:22.778   01 Jun 2027 07:10:48.629            25.851                Norilsk          3231.375
        25   01 Jun 2027 07:10:50.011   01 Jun 2027 07:11:36.794            46.783              Murmansk2          5847.875
        26   01 Jun 2027 08:32:39.147   01 Jun 2027 08:32:51.026            11.879                  Delhi          1484.875
        27   01 Jun 2027 08:44:22.662   01 Jun 2027 08:44:35.548            12.886              Murmansk2          1610.750
        28   01 Jun 2027 08:44:35.548   01 Jun 2027 08:44:55.553            20.005              Murmansk1          2500.625
        29   01 Jun 2027 08:45:01.191   01 Jun 2027 08:45:22.554            21.363              Murmansk1          2670.375
        30   01 Jun 2027 08:45:56.269   01 Jun 2027 08:53:03.165           426.896              Murmansk1         53362.000
        31   01 Jun 2027 10:21:20.604   01 Jun 2027 10:23:35.729           135.125              Murmansk2         16890.625
        32   01 Jun 2027 10:33:24.245   01 Jun 2027 10:36:55.292           211.047                Anadyr2         26380.875
        33   01 Jun 2027 12:07:32.112   01 Jun 2027 12:09:00.111            87.999                Anadyr2         10999.875
        34   01 Jun 2027 12:10:12.927   01 Jun 2027 12:12:00.024           107.097                Anadyr1         13387.125
        35   01 Jun 2027 12:12:19.473   01 Jun 2027 12:12:49.120            29.647                Anadyr1          3705.875
        36   01 Jun 2027 13:46:06.224   01 Jun 2027 13:51:45.719           339.495               Magadan1         42436.875
        37   01 Jun 2027 16:14:26.300   01 Jun 2027 16:18:05.406           219.106            RioGallegos         27388.250
        38   01 Jun 2027 16:20:55.696   01 Jun 2027 16:22:00.733            65.037            RioGallegos          8129.625
        39   01 Jun 2027 17:03:54.174   01 Jun 2027 17:05:44.716           110.542                Irkutsk         13817.750
        40   01 Jun 2027 17:16:44.357   01 Jun 2027 17:17:29.657            45.300                Sumatra          5662.500
        41   01 Jun 2027 17:18:47.904   01 Jun 2027 17:22:28.111           220.207                Sumatra         27525.875
        42   01 Jun 2027 18:37:15.785   01 Jun 2027 18:38:25.795            70.010                Novosib          8751.250
        43   01 Jun 2027 18:39:52.753   01 Jun 2027 18:41:29.145            96.392                Novosib          9941.250
        44   02 Jun 2027 04:10:46.777   02 Jun 2027 04:10:58.216            11.439                Irkutsk          1429.875
        45   02 Jun 2027 04:45:51.684   02 Jun 2027 04:46:25.580            33.896            RioGallegos          4237.000
        46   02 Jun 2027 05:21:39.619   02 Jun 2027 05:23:24.006           104.387                Sumatra         13048.375
        47   02 Jun 2027 05:44:59.216   02 Jun 2027 05:47:07.538           128.322                Irkutsk         16040.250
        48   02 Jun 2027 05:47:09.627   02 Jun 2027 05:51:36.987           267.360                Norilsk         33420.000
        49   02 Jun 2027 05:51:37.698   02 Jun 2027 05:52:18.354            40.656              Murmansk1          5082.000
        50   02 Jun 2027 05:52:18.354   02 Jun 2027 05:53:24.194            65.840              Murmansk2          8230.000
        51   02 Jun 2027 06:23:06.659   02 Jun 2027 06:26:40.523           213.864            RioGallegos         26733.000
        52   02 Jun 2027 06:29:57.245   02 Jun 2027 06:30:11.272            14.027            RioGallegos          1753.375
        53   02 Jun 2027 06:57:19.311   02 Jun 2027 06:59:04.789           105.478                Sumatra         13184.750
        54   02 Jun 2027 07:22:51.074   02 Jun 2027 07:24:33.885           102.811                Novosib         12851.375
        55   02 Jun 2027 07:24:36.302   02 Jun 2027 07:26:51.768           135.466                Norilsk         16933.250
        56   02 Jun 2027 07:27:09.379   02 Jun 2027 07:29:20.776           131.397              Murmansk2         16424.625
        57   02 Jun 2027 07:29:35.426   02 Jun 2027 07:29:57.967            22.541              Murmansk2          2817.625
        58   02 Jun 2027 08:42:20.891   02 Jun 2027 08:46:15.838           234.947                  Delhi         29368.375
        59   02 Jun 2027 08:48:52.595   02 Jun 2027 08:49:49.650            57.055                  Delhi          7131.875
        60   02 Jun 2027 08:50:49.174   02 Jun 2027 08:54:19.172           209.998                Novosib         26249.750
        61   02 Jun 2027 08:58:51.871   02 Jun 2027 09:02:09.604           197.733                 Moscow         24716.625
        62   02 Jun 2027 09:02:18.748   02 Jun 2027 09:03:44.541            85.793              Murmansk2         10724.125
        63   02 Jun 2027 09:03:44.541   02 Jun 2027 09:05:42.594           118.053              Murmansk1         14756.625
        64   02 Jun 2027 10:29:00.245   02 Jun 2027 10:31:49.073           168.828              Murmansk2         21103.500
        65   02 Jun 2027 10:32:41.994   02 Jun 2027 10:33:14.694            32.700              Murmansk2          4087.500
        66   02 Jun 2027 10:33:31.191   02 Jun 2027 10:33:49.002            17.811              Murmansk2          2226.375
        67   02 Jun 2027 10:35:33.652   02 Jun 2027 10:36:24.093            50.441              Murmansk2          6305.125
        68   02 Jun 2027 10:36:27.103   02 Jun 2027 10:38:31.349           124.246                Norilsk         15530.750
        69   02 Jun 2027 10:38:40.955   02 Jun 2027 10:38:56.049            15.094              Murmansk2          1886.750
        70   02 Jun 2027 10:44:48.979   02 Jun 2027 10:50:10.809           321.830                Anadyr2         40228.750
        71   02 Jun 2027 12:07:03.258   02 Jun 2027 12:09:28.499           145.241              Murmansk1         18155.125
        72   02 Jun 2027 12:19:30.330   02 Jun 2027 12:21:01.828            91.498                Anadyr1         11437.250
        73   02 Jun 2027 12:21:09.056   02 Jun 2027 12:22:21.548            72.492                Anadyr1          9061.500
        74   02 Jun 2027 13:57:59.249   02 Jun 2027 14:02:13.161           253.912               Magadan2         31739.000
        75   02 Jun 2027 14:02:13.161   02 Jun 2027 14:02:13.234             0.073               Magadan1             9.125
        76   02 Jun 2027 14:04:50.851   02 Jun 2027 14:05:31.560            40.709               Magadan2          5088.625
        77   02 Jun 2027 16:26:04.897   02 Jun 2027 16:32:32.848           387.951            RioGallegos         48493.875
        78   02 Jun 2027 17:16:00.023   02 Jun 2027 17:17:37.477            97.454                Irkutsk         12181.750
        79   02 Jun 2027 17:19:02.714   02 Jun 2027 17:19:13.360            10.646                Irkutsk          1330.750
        80   02 Jun 2027 17:27:27.324   02 Jun 2027 17:29:14.366           107.042                Sumatra         13380.250
        81   02 Jun 2027 17:31:22.670   02 Jun 2027 17:32:30.200            67.530                Sumatra          8441.250
        82   02 Jun 2027 18:49:09.378   02 Jun 2027 18:50:53.218           103.840                Novosib         12980.000
        83   02 Jun 2027 18:57:23.545   02 Jun 2027 19:00:58.791           215.246                  Delhi         26905.750
        84   02 Jun 2027 20:29:35.455   02 Jun 2027 20:32:03.027           147.572                 Moscow         18289.625
        85   03 Jun 2027 04:23:19.153   03 Jun 2027 04:23:40.848            21.695              Murmansk2          2711.875
        86   03 Jun 2027 05:33:16.997   03 Jun 2027 05:35:07.862           110.865                Sumatra         13858.125
        87   03 Jun 2027 05:37:13.960   03 Jun 2027 05:37:23.328             9.368                Sumatra          1171.000
        88   03 Jun 2027 05:46:34.975   03 Jun 2027 05:47:20.077            45.102                  Delhi          5637.750
        89   03 Jun 2027 05:48:50.838   03 Jun 2027 05:50:29.661            98.823                  Delhi         12352.875
        90   03 Jun 2027 05:58:45.135   03 Jun 2027 06:05:52.689           427.554              Murmansk2         53444.250
        91   03 Jun 2027 06:05:52.689   03 Jun 2027 06:06:37.105            44.416              Murmansk1          5552.000
        92   03 Jun 2027 06:43:17.158   03 Jun 2027 06:43:23.382             6.224            RioGallegos           778.000
        93   03 Jun 2027 07:09:49.661   03 Jun 2027 07:13:55.795           246.134                Sumatra         30766.750
        94   03 Jun 2027 07:17:03.422   03 Jun 2027 07:18:54.044           110.622                  Delhi         13827.750
        95   03 Jun 2027 07:20:06.274   03 Jun 2027 07:20:25.434            19.160                  Delhi          2395.000
        96   03 Jun 2027 07:20:47.021   03 Jun 2027 07:21:45.903            58.882                  Delhi          7360.250
        97   03 Jun 2027 07:24:00.940   03 Jun 2027 07:25:19.607            78.667                Novosib          9833.375
        98   03 Jun 2027 07:25:26.048   03 Jun 2027 07:29:47.781           261.733                Irkutsk         32716.625
        99   03 Jun 2027 07:34:48.993   03 Jun 2027 07:37:48.639           179.646                 Moscow         22455.750
       100   03 Jun 2027 07:37:58.671   03 Jun 2027 07:39:34.414            95.743              Murmansk2         11967.875
       101   03 Jun 2027 07:39:34.414   03 Jun 2027 07:41:10.306            95.892              Murmansk1         11986.500
       102   03 Jun 2027 07:41:36.270   03 Jun 2027 07:41:56.638            20.368              Murmansk1          2546.000
       103   03 Jun 2027 08:55:07.955   03 Jun 2027 08:58:36.423           208.468                  Delhi         26058.500
       104   03 Jun 2027 09:03:40.706   03 Jun 2027 09:06:11.488           150.782                Novosib         18847.750
       105   03 Jun 2027 09:10:26.324   03 Jun 2027 09:10:47.946            21.622              Murmansk2          2702.750
       106   03 Jun 2027 09:11:25.716   03 Jun 2027 09:17:23.035           357.319              Murmansk1         44664.875
       107   03 Jun 2027 09:17:23.035   03 Jun 2027 09:17:43.692            20.657              Murmansk2          2582.125
       108   03 Jun 2027 10:41:10.505   03 Jun 2027 10:44:43.292           212.787              Murmansk2         26598.375
       109   03 Jun 2027 10:45:52.264   03 Jun 2027 10:46:05.120            12.856              Murmansk2          1607.000
       110   03 Jun 2027 10:46:54.535   03 Jun 2027 10:47:29.021            34.486                 Moscow          4310.750
       111   03 Jun 2027 10:48:11.945   03 Jun 2027 10:48:35.235            23.290              Murmansk2          2911.250
       112   03 Jun 2027 10:49:08.605   03 Jun 2027 10:51:07.016           118.411              Murmansk2         14801.375
       113   03 Jun 2027 10:51:25.600   03 Jun 2027 10:52:06.288            40.688              Murmansk2          5086.000
       114   03 Jun 2027 10:52:41.769   03 Jun 2027 10:53:18.701            36.932              Murmansk2          4616.500
       115   03 Jun 2027 10:56:28.597   03 Jun 2027 11:03:08.925           400.328                Anadyr2         50041.000
       116   03 Jun 2027 12:18:02.075   03 Jun 2027 12:20:50.105           168.030                 Moscow         21003.750
       117   03 Jun 2027 12:31:29.241   03 Jun 2027 12:32:37.278            68.037                Anadyr2          8504.625
       118   03 Jun 2027 12:34:26.135   03 Jun 2027 12:36:02.823            96.688                Anadyr1         12086.000
       119   03 Jun 2027 14:09:54.020   03 Jun 2027 14:14:15.000           260.980               Magadan2         32622.500
       120   03 Jun 2027 16:37:49.160   03 Jun 2027 16:43:52.089           362.929            RioGallegos         45366.125
       121   03 Jun 2027 17:25:19.979   03 Jun 2027 17:27:00.380           100.401                Irkutsk         12550.125
       122   03 Jun 2027 17:27:47.205   03 Jun 2027 17:29:38.581           111.376                Novosib         13922.000
       123   03 Jun 2027 17:29:45.893   03 Jun 2027 17:30:29.170            43.277                Novosib          5409.625
       124   03 Jun 2027 17:40:57.129   03 Jun 2027 17:42:27.892            90.763                Sumatra         11345.375
       125   03 Jun 2027 17:43:25.396   03 Jun 2027 17:45:24.040           118.644                Sumatra         14830.500
       126   03 Jun 2027 19:08:59.659   03 Jun 2027 19:10:11.977            72.318                  Delhi          9039.750
       127   03 Jun 2027 19:11:04.135   03 Jun 2027 19:12:53.228           109.093                  Delhi         13636.625
       128   03 Jun 2027 20:39:22.756   03 Jun 2027 20:39:52.756            30.000              Murmansk2          3750.000
       129   03 Jun 2027 22:11:08.940   03 Jun 2027 22:11:54.262            45.322              Murmansk1          5665.250
       130   03 Jun 2027 22:16:57.220   03 Jun 2027 22:17:26.329            29.109                 Moscow          3638.625
       131   03 Jun 2027 22:38:59.745   03 Jun 2027 22:41:07.528           127.783               CapeTown          7441.624
       132   04 Jun 2027 04:35:16.143   04 Jun 2027 04:39:00.346           224.203                Norilsk         28025.375
       133   04 Jun 2027 05:45:01.569   04 Jun 2027 05:46:44.381           102.812                Sumatra         12851.500
       134   04 Jun 2027 05:47:16.391   04 Jun 2027 05:47:43.012            26.621                Sumatra          3327.625
       135   04 Jun 2027 05:56:58.826   04 Jun 2027 05:57:51.039            52.213                  Delhi          6526.625
       136   04 Jun 2027 06:11:04.868   04 Jun 2027 06:12:10.065            65.197                 Moscow          8149.625
       137   04 Jun 2027 06:12:27.301   04 Jun 2027 06:12:42.469            15.168                Novosib          1896.000
       138   04 Jun 2027 06:12:49.142   04 Jun 2027 06:18:31.702           342.560              Murmansk2         42820.000
       139   04 Jun 2027 06:48:16.300   04 Jun 2027 06:50:48.998           152.698            RioGallegos         19087.250
       140   04 Jun 2027 06:50:57.780   04 Jun 2027 06:51:44.686            46.906            RioGallegos          5863.250
       141   04 Jun 2027 07:22:33.159   04 Jun 2027 07:26:12.185           219.026                Sumatra         27378.250
       142   04 Jun 2027 07:28:58.844   04 Jun 2027 07:30:40.356           101.512                  Delhi         12689.000
       143   04 Jun 2027 07:36:14.191   04 Jun 2027 07:39:11.596           177.405                Novosib         22175.625
       144   04 Jun 2027 07:39:14.184   04 Jun 2027 07:43:16.613           242.429                Irkutsk         30303.625
       145   04 Jun 2027 07:46:59.003   04 Jun 2027 07:47:04.735             5.732                Norilsk           716.500
       146   04 Jun 2027 07:47:06.665   04 Jun 2027 07:48:27.295            80.630                 Moscow         10078.750
       147   04 Jun 2027 07:48:54.399   04 Jun 2027 07:51:58.936           184.537              Murmansk1         23067.125
       148   04 Jun 2027 09:08:15.560   04 Jun 2027 09:11:04.872           169.312                  Delhi         21164.000
       149   04 Jun 2027 09:22:32.930   04 Jun 2027 09:22:42.396             9.466                Norilsk          1183.250
       150   04 Jun 2027 09:24:01.754   04 Jun 2027 09:27:57.703           235.949                Norilsk         29493.625
       151   04 Jun 2027 09:28:38.711   04 Jun 2027 09:29:44.955            66.244              Murmansk2          8280.500
       152   04 Jun 2027 10:29:22.851   04 Jun 2027 10:36:34.520           431.669               CapeTown         53958.625
       153   04 Jun 2027 10:49:58.015   04 Jun 2027 10:56:04.435           366.420                 Moscow         45802.500
       154   04 Jun 2027 10:56:07.170   04 Jun 2027 11:01:35.460           328.290              Murmansk2         41036.250
       155   04 Jun 2027 11:02:02.544   04 Jun 2027 11:02:48.044            45.500              Murmansk2          5687.500
       156   04 Jun 2027 11:03:18.656   04 Jun 2027 11:04:00.388            41.732              Murmansk2          5216.500
       157   04 Jun 2027 11:05:10.072   04 Jun 2027 11:05:42.943            32.871              Murmansk2          4108.875
       158   04 Jun 2027 11:08:14.937   04 Jun 2027 11:14:16.377           361.440                Anadyr1         45180.000
       159   04 Jun 2027 12:07:39.575   04 Jun 2027 12:08:06.759            27.184               CapeTown          3398.000
       160   04 Jun 2027 12:10:13.177   04 Jun 2027 12:12:23.736           130.559               CapeTown         16319.875
       161   04 Jun 2027 12:31:30.687   04 Jun 2027 12:31:46.961            16.274                 Moscow          2034.250
       162   04 Jun 2027 12:43:48.570   04 Jun 2027 12:45:43.980           115.410                Anadyr1         14426.250
       163   04 Jun 2027 12:48:04.660   04 Jun 2027 12:50:25.213           140.553               Magadan1         17569.125
       164   04 Jun 2027 14:21:50.162   04 Jun 2027 14:23:41.380           111.218               Magadan1         13902.250
       165   04 Jun 2027 16:49:37.357   04 Jun 2027 16:53:45.582           248.225            RioGallegos         31028.125
       166   04 Jun 2027 16:53:52.398   04 Jun 2027 16:55:25.370            92.972            RioGallegos         11621.500
       167   04 Jun 2027 17:38:55.683   04 Jun 2027 17:44:46.480           350.797                Novosib         43849.625
       168   04 Jun 2027 17:53:49.071   04 Jun 2027 17:55:22.965            93.894                Sumatra         11736.750
       169   04 Jun 2027 19:20:42.391   04 Jun 2027 19:22:41.667           119.276                  Delhi         14909.500
       170   04 Jun 2027 19:26:05.700   04 Jun 2027 19:26:11.421             5.721                  Delhi           715.125
       171   04 Jun 2027 20:48:07.369   04 Jun 2027 20:49:03.428            56.059              Murmansk1          7007.375
       172   04 Jun 2027 20:52:01.673   04 Jun 2027 20:55:08.501           186.828                 Moscow         23353.500
       173   05 Jun 2027 04:47:17.081   05 Jun 2027 04:52:15.851           298.770                Norilsk         37346.250
       174   05 Jun 2027 04:52:21.028   05 Jun 2027 04:55:39.507           198.479              Murmansk2         24809.875
       175   05 Jun 2027 05:21:57.218   05 Jun 2027 05:25:42.976           225.758            RioGallegos         28219.750
       176   05 Jun 2027 05:26:16.663   05 Jun 2027 05:26:58.240            41.577            RioGallegos          5197.125
       177   05 Jun 2027 05:28:59.783   05 Jun 2027 05:30:14.394            74.611            RioGallegos          9326.375
       178   05 Jun 2027 05:30:50.269   05 Jun 2027 05:31:04.293            14.024            RioGallegos          1753.000
       179   05 Jun 2027 05:56:52.380   05 Jun 2027 05:58:07.038            74.658                Sumatra          9332.250
       180   05 Jun 2027 05:59:53.597   05 Jun 2027 06:00:39.443            45.846                Sumatra          5730.750
       181   05 Jun 2027 06:04:17.832   05 Jun 2027 06:06:23.713           125.881                Sumatra         15735.125
       182   05 Jun 2027 06:07:56.234   05 Jun 2027 06:10:05.933           129.699                  Delhi         16212.375
       183   05 Jun 2027 06:10:43.534   05 Jun 2027 06:15:03.375           259.841                Irkutsk         32480.125
       184   05 Jun 2027 06:15:08.472   05 Jun 2027 06:15:31.554            23.082                Novosib          2885.250
       185   05 Jun 2027 06:15:59.689   05 Jun 2027 06:16:21.317            21.628                Norilsk          2703.500
       186   05 Jun 2027 06:22:45.779   05 Jun 2027 06:24:48.114           122.335                 Moscow         15291.875
       187   05 Jun 2027 06:25:00.939   05 Jun 2027 06:28:09.478           188.539              Murmansk1         23567.375
       188   05 Jun 2027 06:28:09.478   05 Jun 2027 06:30:19.037           129.559              Murmansk2         16194.875
       189   05 Jun 2027 07:01:03.350   05 Jun 2027 07:04:24.579           201.229            RioGallegos         25153.625
       190   05 Jun 2027 07:35:40.483   05 Jun 2027 07:38:36.347           175.864                Sumatra         21983.000
       191   05 Jun 2027 07:44:11.248   05 Jun 2027 07:46:24.032           132.784                  Delhi         16598.000
       192   05 Jun 2027 07:48:31.017   05 Jun 2027 07:49:43.168            72.151                Novosib          9018.875
       193   05 Jun 2027 07:50:54.659   05 Jun 2027 07:53:01.638           126.979                Novosib         15872.375
       194   05 Jun 2027 07:53:12.647   05 Jun 2027 07:54:02.869            50.222                Irkutsk          6277.750
       195   05 Jun 2027 07:58:53.691   05 Jun 2027 07:59:37.455            43.764                Norilsk          5470.500
       196   05 Jun 2027 07:59:44.806   05 Jun 2027 08:00:26.117            41.311                Novosib          5163.875
       197   05 Jun 2027 08:00:28.582   05 Jun 2027 08:02:50.887           142.305              Murmansk1         17788.125
       198   05 Jun 2027 08:02:50.887   05 Jun 2027 08:03:22.627            31.740              Murmansk2          3967.500
       199   05 Jun 2027 08:05:27.224   05 Jun 2027 08:05:55.222            27.998              Murmansk1          3499.750
       200   05 Jun 2027 09:22:24.562   05 Jun 2027 09:24:48.647           144.085                  Delhi         18010.625
       201   05 Jun 2027 09:27:25.625   05 Jun 2027 09:28:21.516            55.891                 Moscow          6986.375
       202   05 Jun 2027 09:35:32.719   05 Jun 2027 09:39:55.176           262.457                Norilsk         32807.125
       203   05 Jun 2027 09:40:28.772   05 Jun 2027 09:41:46.357            77.585              Murmansk2          9698.125
       204   05 Jun 2027 10:40:38.043   05 Jun 2027 10:49:34.131           536.088               CapeTown         67011.000
       205   05 Jun 2027 11:02:17.890   05 Jun 2027 11:12:11.279           593.389                 Moscow         74173.625
       206   05 Jun 2027 11:12:21.599   05 Jun 2027 11:17:44.397           322.798              Murmansk1         40349.750
       207   05 Jun 2027 11:20:05.260   05 Jun 2027 11:28:40.279           515.019                Anadyr1         64377.375
       208   05 Jun 2027 12:14:49.655   05 Jun 2027 12:19:51.351           301.696               CapeTown         37712.000
       209   05 Jun 2027 12:44:33.378   05 Jun 2027 12:44:43.991            10.613              Murmansk2          1326.625
       210   05 Jun 2027 12:56:24.805   05 Jun 2027 12:56:25.342             0.537                Anadyr2            67.125
       211   05 Jun 2027 12:59:23.940   05 Jun 2027 13:02:24.508           180.568               Magadan1         22571.000
       212   05 Jun 2027 13:02:48.017   05 Jun 2027 13:02:57.828             9.811               Magadan2          1226.375
       213   05 Jun 2027 13:05:21.434   05 Jun 2027 13:05:29.726             8.292               Magadan1          1036.500
       214   05 Jun 2027 14:33:47.408   05 Jun 2027 14:36:02.550           135.142               Magadan2         16892.750
       215   05 Jun 2027 16:15:39.428   05 Jun 2027 16:20:44.140           304.712                Irkutsk         38089.000
       216   05 Jun 2027 17:03:08.035   05 Jun 2027 17:04:09.653            61.618            RioGallegos          7702.250
       217   05 Jun 2027 17:49:12.311   05 Jun 2027 17:50:59.090           106.779                Irkutsk         13347.375
       218   05 Jun 2027 17:51:21.659   05 Jun 2027 17:53:37.814           136.155                Novosib         17019.375
       219   05 Jun 2027 19:32:30.261   05 Jun 2027 19:36:47.438           257.177                  Delhi         32147.125
       220   05 Jun 2027 20:59:21.812   05 Jun 2027 20:59:49.741            27.929              Murmansk1          3491.125
       221   05 Jun 2027 21:03:39.549   05 Jun 2027 21:07:09.068           209.519                 Moscow         26189.875
       222   06 Jun 2027 03:22:00.920   06 Jun 2027 03:22:26.472            25.552                Norilsk          3194.000
       223   06 Jun 2027 03:22:59.988   06 Jun 2027 03:28:52.148           352.160              Murmansk2         44020.000
       224   06 Jun 2027 03:28:52.148   06 Jun 2027 03:30:10.173            78.025              Murmansk1          9753.125
       225   06 Jun 2027 03:30:37.466   06 Jun 2027 03:30:39.264             1.798              Murmansk1           224.750
       226   06 Jun 2027 03:31:20.996   06 Jun 2027 03:32:46.683            85.687              Murmansk1         10710.875
       227   06 Jun 2027 04:38:05.717   06 Jun 2027 04:38:38.917            33.200                Sumatra          4150.000
       228   06 Jun 2027 04:40:26.035   06 Jun 2027 04:41:21.856            55.821                Sumatra          6977.625
       229   06 Jun 2027 04:59:18.219   06 Jun 2027 05:04:04.186           285.967                Norilsk         35745.875
       230   06 Jun 2027 05:04:15.761   06 Jun 2027 05:04:16.325             0.564                Norilsk            70.500
       231   06 Jun 2027 05:04:27.260   06 Jun 2027 05:07:29.706           182.446              Murmansk2         22805.750
       232   06 Jun 2027 05:34:05.964   06 Jun 2027 05:37:47.340           221.376            RioGallegos         27672.000
       233   06 Jun 2027 05:38:26.993   06 Jun 2027 05:38:57.916            30.923            RioGallegos          3865.375
       234   06 Jun 2027 05:41:26.185   06 Jun 2027 05:42:09.472            43.287            RioGallegos          5410.875
       235   06 Jun 2027 06:08:48.935   06 Jun 2027 06:11:02.137           133.202                Sumatra         16650.250
       236   06 Jun 2027 06:19:09.343   06 Jun 2027 06:20:39.550            90.207                  Delhi         11275.875
       237   06 Jun 2027 06:23:00.130   06 Jun 2027 06:27:32.057           271.927                Irkutsk         33990.875
       238   06 Jun 2027 06:27:36.844   06 Jun 2027 06:28:36.533            59.689                Novosib          7461.125
       239   06 Jun 2027 06:34:35.141   06 Jun 2027 06:35:12.487            37.346              Murmansk1          4668.250
       240   06 Jun 2027 06:35:19.887   06 Jun 2027 06:40:12.532           292.645                Norilsk         36580.625
       241   06 Jun 2027 06:40:25.508   06 Jun 2027 06:42:22.934           117.426              Murmansk2         14678.250
       242   06 Jun 2027 07:14:03.238   06 Jun 2027 07:16:58.251           175.013            RioGallegos         21876.625
       243   06 Jun 2027 07:53:05.672   06 Jun 2027 07:57:08.130           242.458                  Delhi         30307.250
       244   06 Jun 2027 08:00:51.724   06 Jun 2027 08:06:54.602           362.878                Novosib         45359.750
       245   06 Jun 2027 08:10:50.634   06 Jun 2027 08:14:07.216           196.582                 Moscow         24572.750
       246   06 Jun 2027 08:14:18.420   06 Jun 2027 08:15:55.368            96.948              Murmansk2         12118.500
       247   06 Jun 2027 08:16:11.868   06 Jun 2027 08:16:11.883             0.015                Norilsk             1.875
       248   06 Jun 2027 08:17:39.928   06 Jun 2027 08:17:55.060            15.132              Murmansk2          1891.500
       249   06 Jun 2027 09:46:22.445   06 Jun 2027 09:51:51.129           328.684                Norilsk         41085.500
       250   06 Jun 2027 09:52:04.258   06 Jun 2027 09:53:47.859           103.601              Murmansk2         12950.125
       251   06 Jun 2027 10:52:07.186   06 Jun 2027 11:01:23.361           556.175               CapeTown         69521.875
       252   06 Jun 2027 11:14:41.943   06 Jun 2027 11:24:39.046           597.103                 Moscow         74637.875
       253   06 Jun 2027 11:24:47.454   06 Jun 2027 11:29:45.707           298.253              Murmansk1         37281.625
       254   06 Jun 2027 11:31:58.222   06 Jun 2027 11:39:21.997           443.775                Anadyr1         55471.875
       255   06 Jun 2027 12:26:53.553   06 Jun 2027 12:29:55.277           181.724               CapeTown         22715.500
       256   06 Jun 2027 12:36:14.304   06 Jun 2027 12:36:33.213            18.909               CapeTown          2363.625
       257   06 Jun 2027 12:57:09.401   06 Jun 2027 12:59:21.677           132.276              Murmansk1         16534.500
       258   06 Jun 2027 13:10:59.342   06 Jun 2027 13:14:24.390           205.048               Magadan1         25631.000
       259   06 Jun 2027 13:17:31.737   06 Jun 2027 13:18:08.252            36.515               Magadan2          4564.375
       260   06 Jun 2027 14:50:18.168   06 Jun 2027 14:50:59.975            41.807               Magadan2          5225.875
       261   06 Jun 2027 16:26:55.808   06 Jun 2027 16:33:00.722           364.914                Irkutsk         45614.250
       262   06 Jun 2027 16:42:56.928   06 Jun 2027 16:44:24.974            88.046                Sumatra         11005.750
       263   06 Jun 2027 16:46:19.066   06 Jun 2027 16:48:17.766           118.700                Sumatra         14837.500
       264   06 Jun 2027 18:02:10.279   06 Jun 2027 18:03:38.292            88.013                Novosib         11001.625
       265   06 Jun 2027 21:11:20.925   06 Jun 2027 21:12:36.956            76.031              Murmansk1          9503.875
       266   06 Jun 2027 21:15:23.578   06 Jun 2027 21:19:10.277           226.699                 Moscow         28337.375
       267   06 Jun 2027 21:42:31.858   06 Jun 2027 21:44:21.824           109.966               CapeTown         13745.750
       268   07 Jun 2027 03:34:01.941   07 Jun 2027 03:34:20.594            18.653               Magadan2          2331.625
       269   07 Jun 2027 03:35:23.188   07 Jun 2027 03:35:42.028            18.840                Novosib          2355.000
       270   07 Jun 2027 03:35:44.623   07 Jun 2027 03:45:04.413           559.790              Murmansk1         69973.750
       271   07 Jun 2027 04:10:29.753   07 Jun 2027 04:14:38.849           249.096            RioGallegos         31137.000
       272   07 Jun 2027 04:48:11.724   07 Jun 2027 04:50:02.915           111.191                Sumatra         13898.875
       273   07 Jun 2027 05:11:19.544   07 Jun 2027 05:16:17.060           297.516                Norilsk         37189.500
       274   07 Jun 2027 05:16:29.392   07 Jun 2027 05:19:20.614           171.222              Murmansk1         21402.750
       275   07 Jun 2027 05:46:18.445   07 Jun 2027 05:49:30.111           191.666            RioGallegos         23958.250
       276   07 Jun 2027 05:50:35.817   07 Jun 2027 05:51:00.917            25.100            RioGallegos          3137.500
       277   07 Jun 2027 05:55:02.341   07 Jun 2027 05:55:40.914            38.573            RioGallegos          4821.625
       278   07 Jun 2027 05:58:30.567   07 Jun 2027 05:58:37.242             6.675            RioGallegos           834.375
       279   07 Jun 2027 06:20:51.062   07 Jun 2027 06:23:57.377           186.315                Sumatra         23289.375
       280   07 Jun 2027 06:31:26.116   07 Jun 2027 06:32:04.443            38.327                  Delhi          4790.875
       281   07 Jun 2027 06:34:49.610   07 Jun 2027 06:36:09.613            80.003                  Delhi         10000.375
       282   07 Jun 2027 06:36:20.744   07 Jun 2027 06:39:42.363           201.619                Irkutsk         25202.375
       283   07 Jun 2027 06:40:21.273   07 Jun 2027 06:40:45.217            23.944                Novosib          2993.000
       284   07 Jun 2027 06:47:11.443   07 Jun 2027 06:49:24.606           133.163                 Moscow         16645.375
       285   07 Jun 2027 06:49:25.421   07 Jun 2027 06:54:19.509           294.088              Murmansk2         36761.000
       286   07 Jun 2027 07:27:27.863   07 Jun 2027 07:30:58.090           210.227            RioGallegos         26278.375
       287   07 Jun 2027 08:05:17.529   07 Jun 2027 08:11:36.601           379.072                  Delhi         47384.000
       288   07 Jun 2027 08:14:45.180   07 Jun 2027 08:17:48.158           182.978                Novosib         22872.250
       289   07 Jun 2027 08:22:48.952   07 Jun 2027 08:23:38.671            49.719              Murmansk2          6214.875
       290   07 Jun 2027 08:23:38.671   07 Jun 2027 08:29:55.214           376.543              Murmansk1         47067.875
       291   07 Jun 2027 09:49:25.626   07 Jun 2027 09:50:25.448            59.822                 Moscow          7477.750
       292   07 Jun 2027 09:53:42.433   07 Jun 2027 09:54:41.575            59.142              Murmansk2          7392.750
       293   07 Jun 2027 09:57:58.945   07 Jun 2027 10:03:44.890           345.945                Norilsk         43243.125
       294   07 Jun 2027 10:03:44.972   07 Jun 2027 10:05:49.445           124.473              Murmansk1         15559.125
       295   07 Jun 2027 11:03:44.881   07 Jun 2027 11:10:12.219           387.338               CapeTown         48417.250
       296   07 Jun 2027 11:27:10.703   07 Jun 2027 11:31:12.068           241.365                 Moscow         30170.625
       297   07 Jun 2027 11:31:35.853   07 Jun 2027 11:41:11.784           575.931              Murmansk2         71991.375
       298   07 Jun 2027 11:43:53.085   07 Jun 2027 11:49:18.618           325.533                Anadyr2         40691.625
       299   07 Jun 2027 11:50:04.547   07 Jun 2027 11:51:28.662            84.115                Anadyr1         10514.375
       300   07 Jun 2027 12:39:00.260   07 Jun 2027 12:43:21.964           261.704               CapeTown         32713.000
       301   07 Jun 2027 13:22:42.356   07 Jun 2027 13:27:54.428           312.072               Magadan2         39009.000
       302   07 Jun 2027 15:52:00.311   07 Jun 2027 15:56:41.247           280.936            RioGallegos         35117.000
       303   07 Jun 2027 16:38:27.985   07 Jun 2027 16:41:45.272           197.287                Irkutsk         24660.875
       304   07 Jun 2027 16:53:36.979   07 Jun 2027 16:56:03.275           146.296                Sumatra         18287.000
       305   07 Jun 2027 16:58:16.676   07 Jun 2027 17:00:19.253           122.577                Sumatra         15322.125
       306   07 Jun 2027 18:17:39.850   07 Jun 2027 18:17:54.697            14.847                Novosib          1855.875
       307   07 Jun 2027 18:24:22.402   07 Jun 2027 18:25:56.314            93.912                  Delhi         11739.000
       308   07 Jun 2027 18:28:05.763   07 Jun 2027 18:28:35.560            29.797                  Delhi          3724.625
       309   07 Jun 2027 21:24:10.513   07 Jun 2027 21:25:40.961            90.448              Murmansk2         11306.000
       310   07 Jun 2027 21:30:32.463   07 Jun 2027 21:31:12.060            39.597                 Moscow          4949.625
       311   07 Jun 2027 21:33:43.555   07 Jun 2027 21:34:27.597            44.042                 Moscow          5505.250
       312   07 Jun 2027 21:53:30.657   07 Jun 2027 21:55:18.353           107.696               CapeTown         13462.000
       313   08 Jun 2027 03:47:19.283   08 Jun 2027 03:52:32.975           313.692                Norilsk         39211.500
       314   08 Jun 2027 03:52:33.853   08 Jun 2027 03:56:51.696           257.843              Murmansk2         32230.375
       315   08 Jun 2027 04:59:08.762   08 Jun 2027 05:01:55.139           166.377                Sumatra         20797.125
       316   08 Jun 2027 05:23:12.085   08 Jun 2027 05:28:19.964           307.879              Murmansk1         38484.875
       317   08 Jun 2027 05:28:19.964   08 Jun 2027 05:28:28.879             8.915              Murmansk2          1114.375
       318   08 Jun 2027 05:29:24.061   08 Jun 2027 05:29:54.918            30.857              Murmansk1          3857.125
       319   08 Jun 2027 05:30:03.865   08 Jun 2027 05:30:11.704             7.839              Murmansk1           979.875
       320   08 Jun 2027 05:30:14.988   08 Jun 2027 05:31:12.256            57.268              Murmansk1          7158.500
       321   08 Jun 2027 05:58:34.948   08 Jun 2027 06:00:52.001           137.053            RioGallegos         17131.625
       322   08 Jun 2027 06:01:53.513   08 Jun 2027 06:02:41.584            48.071            RioGallegos          6008.875
       323   08 Jun 2027 06:32:58.906   08 Jun 2027 06:35:50.041           171.135                Sumatra         21391.875
       324   08 Jun 2027 06:47:37.728   08 Jun 2027 06:48:45.582            67.854                  Delhi          8481.750
       325   08 Jun 2027 06:49:14.324   08 Jun 2027 06:51:56.405           162.081                Irkutsk         20260.125
       326   08 Jun 2027 06:57:45.844   08 Jun 2027 06:58:00.763            14.919              Murmansk1          1864.875
       327   08 Jun 2027 06:59:10.572   08 Jun 2027 07:04:16.286           305.714                Norilsk         38214.250
       328   08 Jun 2027 07:04:28.044   08 Jun 2027 07:06:16.666           108.622              Murmansk2         13577.750
       329   08 Jun 2027 08:17:35.735   08 Jun 2027 08:27:30.036           594.301                  Delhi         74287.625
       330   08 Jun 2027 08:27:34.589   08 Jun 2027 08:29:45.353           130.764                Novosib         16345.500
       331   08 Jun 2027 08:34:43.563   08 Jun 2027 08:39:16.899           273.336              Murmansk1         34167.000
       332   08 Jun 2027 08:39:19.491   08 Jun 2027 08:40:13.918            54.427                Norilsk          6803.375
       333   08 Jun 2027 08:40:18.251   08 Jun 2027 08:41:55.647            97.396              Murmansk1         12174.500
       334   08 Jun 2027 10:01:28.763   08 Jun 2027 10:05:19.705           230.942                 Moscow         28867.750
       335   08 Jun 2027 10:06:07.107   08 Jun 2027 10:06:34.168            27.061                 Moscow          3382.625
       336   08 Jun 2027 10:09:45.965   08 Jun 2027 10:14:19.994           274.029                 Moscow         34253.625
       337   08 Jun 2027 10:14:20.727   08 Jun 2027 10:15:35.168            74.441                Norilsk          9305.125
       338   08 Jun 2027 10:15:43.220   08 Jun 2027 10:17:51.086           127.866              Murmansk1         15983.250
       339   08 Jun 2027 11:20:43.117   08 Jun 2027 11:21:33.331            50.214               CapeTown          6276.750
       340   08 Jun 2027 11:39:44.922   08 Jun 2027 11:43:33.379           228.457                 Moscow         28557.125
       341   08 Jun 2027 11:43:35.059   08 Jun 2027 11:53:31.764           596.705              Murmansk1         74588.125
       342   08 Jun 2027 11:55:49.355   08 Jun 2027 12:01:09.980           320.625                Anadyr1         40078.125
       343   08 Jun 2027 13:34:29.990   08 Jun 2027 13:38:25.584           235.594               Magadan2         29449.250
       344   08 Jun 2027 16:03:11.058   08 Jun 2027 16:06:29.882           198.824            RioGallegos         24853.000
       345   08 Jun 2027 16:51:31.410   08 Jun 2027 16:56:04.158           272.748                Irkutsk         34093.500
       346   08 Jun 2027 17:04:45.220   08 Jun 2027 17:07:48.631           183.411                Sumatra         22926.375
       347   08 Jun 2027 17:09:32.950   08 Jun 2027 17:10:33.047            60.097                Sumatra          7512.125
       348   08 Jun 2027 18:29:14.360   08 Jun 2027 18:31:25.010           130.650                Novosib         16331.250
       349   08 Jun 2027 18:34:59.056   08 Jun 2027 18:37:10.668           131.612                  Delhi         16451.500
       350   08 Jun 2027 21:37:19.665   08 Jun 2027 21:39:17.555           117.890              Murmansk2         14736.250
       351   08 Jun 2027 21:43:14.391   08 Jun 2027 21:45:42.663           148.272                 Moscow         18534.000
       352   08 Jun 2027 22:04:43.779   08 Jun 2027 22:04:48.437             4.658               CapeTown           582.250
       353   08 Jun 2027 22:06:36.581   08 Jun 2027 22:07:34.881            58.300               CapeTown          7287.500
       354   08 Jun 2027 22:11:50.318   08 Jun 2027 22:12:31.875            41.557               CapeTown          2788.877
       355   09 Jun 2027 03:59:14.629   09 Jun 2027 04:04:35.186           320.557              Murmansk2         40069.625
       356   09 Jun 2027 05:10:25.308   09 Jun 2027 05:13:43.657           198.349                Sumatra         24793.625
       357   09 Jun 2027 05:35:16.964   09 Jun 2027 05:39:43.172           266.208                Norilsk         33276.000
       358   09 Jun 2027 05:39:46.382   09 Jun 2027 05:40:33.626            47.244              Murmansk2          5905.500
       359   09 Jun 2027 05:40:33.626   09 Jun 2027 05:43:04.650           151.024              Murmansk1         18878.000
       360   09 Jun 2027 06:10:55.844   09 Jun 2027 06:11:11.132            15.288            RioGallegos          1911.000
       361   09 Jun 2027 06:12:33.908   09 Jun 2027 06:13:55.301            81.393            RioGallegos         10174.125
       362   09 Jun 2027 06:45:12.968   09 Jun 2027 06:47:38.333           145.365                Sumatra         18170.625
       363   09 Jun 2027 06:48:14.531   09 Jun 2027 06:49:56.484           101.953                Sumatra         12744.125
       364   09 Jun 2027 06:59:59.005   09 Jun 2027 07:01:16.816            77.811                Novosib          9726.375
       365   09 Jun 2027 07:02:20.028   09 Jun 2027 07:04:14.471           114.443                Irkutsk         14305.375
       366   09 Jun 2027 07:04:37.686   09 Jun 2027 07:05:12.610            34.924                Novosib          4365.500
       367   09 Jun 2027 07:05:43.784   09 Jun 2027 07:05:47.400             3.616                Irkutsk           452.000
       368   09 Jun 2027 07:10:31.488   09 Jun 2027 07:12:49.176           137.688                Novosib         17211.000
       369   09 Jun 2027 07:12:50.777   09 Jun 2027 07:13:46.925            56.148                 Moscow          7018.500
       370   09 Jun 2027 07:13:57.570   09 Jun 2027 07:16:28.951           151.381              Murmansk1         18922.625
       371   09 Jun 2027 08:30:01.310   09 Jun 2027 08:37:52.304           470.994                  Delhi         58874.250
       372   09 Jun 2027 08:38:21.986   09 Jun 2027 08:42:07.523           225.537                Novosib         28192.125
       373   09 Jun 2027 08:42:08.143   09 Jun 2027 08:42:33.057            24.914                Norilsk          3114.250
       374   09 Jun 2027 08:47:15.886   09 Jun 2027 08:47:52.615            36.729                Novosib          4591.125
       375   09 Jun 2027 08:47:52.637   09 Jun 2027 08:51:04.092           191.455              Murmansk1         23931.875
       376   09 Jun 2027 08:51:04.092   09 Jun 2027 08:53:41.171           157.079              Murmansk2         19634.875
       377   09 Jun 2027 08:53:41.171   09 Jun 2027 08:53:56.340            15.169              Murmansk1          1896.125
       378   09 Jun 2027 10:16:45.421   09 Jun 2027 10:18:58.284           132.863                 Moscow         16607.875
       379   09 Jun 2027 10:19:08.291   09 Jun 2027 10:20:55.503           107.212              Murmansk2         13401.500
       380   09 Jun 2027 10:21:37.198   09 Jun 2027 10:24:40.241           183.043              Murmansk1         22880.375
       381   09 Jun 2027 10:24:48.409   09 Jun 2027 10:27:19.044           150.635                Norilsk         18829.375
       382   09 Jun 2027 10:27:41.931   09 Jun 2027 10:28:07.874            25.943              Murmansk2          3242.875
       383   09 Jun 2027 10:33:38.243   09 Jun 2027 10:36:56.956           198.713                Anadyr2         24839.125
       384   09 Jun 2027 11:54:53.387   09 Jun 2027 11:56:12.188            78.801              Murmansk1          9850.125
       385   09 Jun 2027 11:56:12.188   09 Jun 2027 11:58:44.445           152.257              Murmansk2         19032.125
       386   09 Jun 2027 11:59:10.695   09 Jun 2027 11:59:30.845            20.150              Murmansk2          2518.750
       387   09 Jun 2027 12:00:07.195   09 Jun 2027 12:01:08.888            61.693              Murmansk2          7711.625
       388   09 Jun 2027 12:01:18.033   09 Jun 2027 12:01:27.139             9.106              Murmansk1          1138.250
       389   09 Jun 2027 12:01:34.131   09 Jun 2027 12:01:47.583            13.452              Murmansk1          1681.500
       390   09 Jun 2027 12:02:09.973   09 Jun 2027 12:03:29.009            79.036              Murmansk1          9879.500
       391   09 Jun 2027 12:08:51.300   09 Jun 2027 12:09:14.572            23.272                Anadyr1          2909.000
       392   09 Jun 2027 13:46:20.759   09 Jun 2027 13:50:36.783           256.024               Magadan1         32003.000
       393   09 Jun 2027 13:52:43.383   09 Jun 2027 13:53:46.582            63.199               Magadan2          7899.875
       394   09 Jun 2027 16:14:40.622   09 Jun 2027 16:18:19.988           219.366            RioGallegos         27420.750
       395   09 Jun 2027 16:19:45.973   09 Jun 2027 16:21:10.695            84.722            RioGallegos         10590.250
       396   09 Jun 2027 17:04:09.125   09 Jun 2027 17:05:59.360           110.235                Irkutsk         13779.375
       397   09 Jun 2027 17:17:44.321   09 Jun 2027 17:22:42.922           298.601                Sumatra         37325.125
       398   09 Jun 2027 18:38:40.811   09 Jun 2027 18:40:07.664            86.853                Novosib         10856.625
       399   09 Jun 2027 18:46:10.889   09 Jun 2027 18:49:22.017           191.128                  Delhi         23891.000
       400   09 Jun 2027 21:50:15.231   09 Jun 2027 21:51:59.635           104.404              Murmansk1         13050.500
       401   09 Jun 2027 21:52:33.690   09 Jun 2027 21:55:17.226           163.536                 Moscow         16324.875
       402   10 Jun 2027 05:21:53.925   10 Jun 2027 05:23:15.678            81.753                Sumatra         10219.125
       403   10 Jun 2027 05:47:14.907   10 Jun 2027 05:48:50.730            95.823                Novosib         11977.875
       404   10 Jun 2027 05:48:50.743   10 Jun 2027 05:52:20.536           209.793                Norilsk         26224.125
       405   10 Jun 2027 05:54:30.270   10 Jun 2027 05:54:57.793            27.523              Murmansk2          3440.375
       406   10 Jun 2027 06:23:21.655   10 Jun 2027 06:27:31.265           249.610            RioGallegos         31201.250
       407   10 Jun 2027 06:57:34.270   10 Jun 2027 07:00:31.185           176.915                Sumatra         22114.375
       408   10 Jun 2027 07:01:10.945   10 Jun 2027 07:02:00.606            49.661                Sumatra          6207.625
       409   10 Jun 2027 07:05:27.818   10 Jun 2027 07:05:43.889            16.071                  Delhi          2008.875
       410   10 Jun 2027 07:07:39.187   10 Jun 2027 07:09:40.501           121.314                  Delhi         15164.250
       411   10 Jun 2027 07:12:05.782   10 Jun 2027 07:14:26.922           141.140                Novosib         17642.500
       412   10 Jun 2027 07:15:02.064   10 Jun 2027 07:17:58.815           176.751                Irkutsk         22093.875
       413   10 Jun 2027 07:18:19.297   10 Jun 2027 07:18:33.649            14.352                Norilsk          1794.000
       414   10 Jun 2027 07:22:57.343   10 Jun 2027 07:27:08.816           251.473                Norilsk         31434.125
       415   10 Jun 2027 07:27:24.003   10 Jun 2027 07:28:43.481            79.478              Murmansk1          9934.750
       416   10 Jun 2027 08:42:36.029   10 Jun 2027 08:46:30.661           234.632                  Delhi         29329.000
       417   10 Jun 2027 08:51:04.394   10 Jun 2027 08:55:14.983           250.589                Novosib         31323.625
       418   10 Jun 2027 08:59:06.846   10 Jun 2027 09:02:24.284           197.438                 Moscow         24679.750
       419   10 Jun 2027 09:02:25.278   10 Jun 2027 09:03:59.071            93.793              Murmansk1         11724.125
       420   10 Jun 2027 09:03:59.071   10 Jun 2027 09:05:57.246           118.175              Murmansk2         14771.875
       421   10 Jun 2027 10:29:15.002   10 Jun 2027 10:30:31.199            76.197              Murmansk2          9524.625
       422   10 Jun 2027 10:30:31.199   10 Jun 2027 10:30:37.887             6.688              Murmansk1           836.000
       423   10 Jun 2027 10:36:17.669   10 Jun 2027 10:36:40.554            22.885              Murmansk1          2860.625
       424   10 Jun 2027 10:36:43.690   10 Jun 2027 10:38:45.293           121.603                Norilsk         15200.375
       425   10 Jun 2027 10:38:57.411   10 Jun 2027 10:39:10.705            13.294              Murmansk1          1661.750
       426   10 Jun 2027 10:45:03.295   10 Jun 2027 10:48:49.044           225.749                Anadyr1         28218.625
       427   10 Jun 2027 12:07:01.523   10 Jun 2027 12:08:29.627            88.104                 Moscow         11013.000
       428   10 Jun 2027 12:08:31.607   10 Jun 2027 12:12:03.883           212.276              Murmansk1         26534.500
       429   10 Jun 2027 12:12:03.883   10 Jun 2027 12:13:43.667            99.784              Murmansk2         12473.000
       430   10 Jun 2027 12:14:06.994   10 Jun 2027 12:14:11.653             4.659              Murmansk1           582.375
       431   10 Jun 2027 12:19:44.951   10 Jun 2027 12:21:01.282            76.331                Anadyr2          9541.375
       432   10 Jun 2027 12:24:16.435   10 Jun 2027 12:24:17.232             0.797                Anadyr1            99.625
       433   10 Jun 2027 12:28:48.345   10 Jun 2027 12:29:18.574            30.229                Anadyr1          3778.625
       434   10 Jun 2027 13:58:13.812   10 Jun 2027 14:00:47.765           153.953               Magadan2         19244.125
       435   10 Jun 2027 14:02:28.252   10 Jun 2027 14:03:45.006            76.754               Magadan1          9594.250
       436   10 Jun 2027 14:05:06.619   10 Jun 2027 14:05:46.516            39.897               Magadan2          4987.125
       437   10 Jun 2027 16:26:19.308   10 Jun 2027 16:32:46.845           387.537            RioGallegos         48442.125
       438   10 Jun 2027 17:13:42.779   10 Jun 2027 17:14:46.420            63.641                Irkutsk          7955.125
       439   10 Jun 2027 17:16:14.920   10 Jun 2027 17:17:52.537            97.617                Irkutsk         12202.125
       440   10 Jun 2027 17:19:21.748   10 Jun 2027 17:19:27.736             5.988                Irkutsk           748.500
       441   10 Jun 2027 17:27:41.681   10 Jun 2027 17:29:29.319           107.638                Sumatra         13454.750
       442   10 Jun 2027 17:31:37.376   10 Jun 2027 17:32:02.834            25.458                Sumatra          3182.250
       443   10 Jun 2027 17:32:45.651   10 Jun 2027 17:34:23.851            98.200                Sumatra         12275.000
       444   10 Jun 2027 18:51:08.171   10 Jun 2027 18:51:40.128            31.957                Novosib          3994.625
       445   10 Jun 2027 18:57:37.830   10 Jun 2027 19:01:13.397           215.567                  Delhi         26945.875
       446   10 Jun 2027 20:29:48.887   10 Jun 2027 20:31:22.420            93.533                 Moscow         11691.625
       447   10 Jun 2027 21:59:22.433   10 Jun 2027 22:00:10.516            48.083              Murmansk2          6010.375
       448   10 Jun 2027 22:08:57.880   10 Jun 2027 22:09:18.283            20.403              Murmansk1          2550.375
       449   10 Jun 2027 22:27:37.182   10 Jun 2027 22:29:07.270            90.088               CapeTown          3240.250
       450   11 Jun 2027 04:23:33.990   11 Jun 2027 04:23:57.490            23.500              Murmansk2          2937.500
       451   11 Jun 2027 05:33:31.401   11 Jun 2027 05:35:22.354           110.953                Sumatra         13869.125
       452   11 Jun 2027 05:37:27.283   11 Jun 2027 05:37:38.080            10.797                Sumatra          1349.625
       453   11 Jun 2027 05:46:47.951   11 Jun 2027 05:47:34.288            46.337                  Delhi          5792.125
       454   11 Jun 2027 05:48:04.865   11 Jun 2027 05:49:05.777            60.912                  Delhi          7614.000
       455   11 Jun 2027 05:58:59.551   11 Jun 2027 06:00:54.177           114.626                Novosib         14328.250
       456   11 Jun 2027 06:01:00.860   11 Jun 2027 06:04:13.629           192.769                Norilsk         24096.125
       457   11 Jun 2027 06:04:37.643   11 Jun 2027 06:06:51.671           134.028              Murmansk2         16753.500
       458   11 Jun 2027 06:36:07.386   11 Jun 2027 06:36:36.298            28.912            RioGallegos          3614.000
       459   11 Jun 2027 06:37:56.067   11 Jun 2027 06:39:00.104            64.037            RioGallegos          8004.625
       460   11 Jun 2027 06:44:23.317   11 Jun 2027 06:45:32.449            69.132            RioGallegos          8641.500
       461   11 Jun 2027 07:10:04.752   11 Jun 2027 07:12:41.308           156.556                Sumatra         19569.500
       462   11 Jun 2027 07:17:17.971   11 Jun 2027 07:19:21.369           123.398                  Delhi         15424.750
       463   11 Jun 2027 07:20:20.985   11 Jun 2027 07:22:00.790            99.805                  Delhi         12475.625
       464   11 Jun 2027 07:24:15.724   11 Jun 2027 07:25:09.863            54.139                Novosib          6767.375
       465   11 Jun 2027 07:25:41.326   11 Jun 2027 07:30:02.579           261.253                Irkutsk         32656.625
       466   11 Jun 2027 07:35:06.006   11 Jun 2027 07:38:03.368           177.362                 Moscow         22170.250
       467   11 Jun 2027 07:38:15.135   11 Jun 2027 07:40:48.431           153.296              Murmansk1         19162.000
       468   11 Jun 2027 07:41:51.110   11 Jun 2027 07:42:11.263            20.153              Murmansk2          2519.125
       469   11 Jun 2027 08:55:23.288   11 Jun 2027 08:58:51.333           208.045                  Delhi         26005.625
       470   11 Jun 2027 09:03:56.064   11 Jun 2027 09:06:26.794           150.730                Novosib         18841.250
       471   11 Jun 2027 09:10:41.836   11 Jun 2027 09:11:04.749            22.913              Murmansk2          2864.125
       472   11 Jun 2027 09:11:41.227   11 Jun 2027 09:17:58.351           377.124              Murmansk2         47140.500
       473   11 Jun 2027 10:40:26.128   11 Jun 2027 10:41:28.503            62.375                 Moscow          7796.875
       474   11 Jun 2027 10:41:36.405   11 Jun 2027 10:46:09.374           272.969              Murmansk1         34121.125
       475   11 Jun 2027 10:46:20.890   11 Jun 2027 10:47:47.247            86.357              Murmansk2         10794.625
       476   11 Jun 2027 10:49:23.241   11 Jun 2027 10:51:09.355           106.114              Murmansk1         13264.250
       477   11 Jun 2027 10:52:33.098   11 Jun 2027 10:52:57.046            23.948              Murmansk2          2993.500
       478   11 Jun 2027 10:53:25.429   11 Jun 2027 10:53:34.083             8.654              Murmansk2          1081.750
       479   11 Jun 2027 10:53:42.782   11 Jun 2027 10:53:56.045            13.263              Murmansk2          1657.875
       480   11 Jun 2027 10:56:43.030   11 Jun 2027 11:02:02.559           319.529                Anadyr1         39941.125
       481   11 Jun 2027 12:18:17.608   11 Jun 2027 12:21:06.024           168.416                 Moscow         21052.000
       482   11 Jun 2027 12:21:43.599   11 Jun 2027 12:21:57.271            13.672              Murmansk1          1709.000
