uniorb/output/strategy_4/Drop/Drop_KinoSat_110607.txt

KinoSat_110607
-------------------------
    Access    *     Start Time (UTCG)     *     Stop Time (UTCG)  *   Duration (s)        *       Station  *  Data (Mbytes)
         1   01 Jun 2027 03:25:57.192   01 Jun 2027 03:26:24.921            27.729                Anadyr2           866.531
         2   01 Jun 2027 03:26:29.602   01 Jun 2027 03:26:58.066            28.464                Anadyr2           889.500
         3   01 Jun 2027 03:27:01.975   01 Jun 2027 03:29:14.981           133.006                Anadyr2          4156.438
         4   01 Jun 2027 03:29:51.274   01 Jun 2027 03:30:15.487            24.213                Anadyr2           756.656
         5   01 Jun 2027 05:01:17.489   01 Jun 2027 05:04:42.515           205.026               Magadan2          6407.063
         6   01 Jun 2027 05:04:43.307   01 Jun 2027 05:05:24.301            40.994                Anadyr1          1281.063
         7   01 Jun 2027 05:05:34.107   01 Jun 2027 05:05:51.139            17.032               Magadan1           532.250
         8   01 Jun 2027 05:05:51.139   01 Jun 2027 05:05:54.380             3.241               Magadan2           101.281
         9   01 Jun 2027 05:05:56.761   01 Jun 2027 05:06:38.330            41.569                Irkutsk          1299.031
        10   01 Jun 2027 05:06:40.084   01 Jun 2027 05:07:37.112            57.028                Novosib          1782.125
        11   01 Jun 2027 05:08:39.986   01 Jun 2027 05:08:56.710            16.724                Norilsk           522.625
        12   01 Jun 2027 05:09:45.104   01 Jun 2027 05:10:16.616            31.512                Norilsk           984.750
        13   01 Jun 2027 05:41:47.555   01 Jun 2027 05:44:24.852           157.297            RioGallegos          4915.531
        14   01 Jun 2027 06:18:13.015   01 Jun 2027 06:18:52.147            39.132                Sumatra          1222.875
        15   01 Jun 2027 06:21:14.943   01 Jun 2027 06:22:50.045            95.102                Sumatra          2971.938
        16   01 Jun 2027 06:24:19.683   01 Jun 2027 06:25:29.705            70.022                Sumatra          2188.187
        17   01 Jun 2027 06:38:06.601   01 Jun 2027 06:39:14.647            68.046                Novosib          2126.437
        18   01 Jun 2027 06:39:15.868   01 Jun 2027 06:39:40.047            24.179                Norilsk           755.594
        19   01 Jun 2027 06:39:49.941   01 Jun 2027 06:43:16.036           206.095                Novosib          6440.469
        20   01 Jun 2027 06:43:19.336   01 Jun 2027 06:44:14.557            55.221              Murmansk1          1725.656
        21   01 Jun 2027 06:44:50.196   01 Jun 2027 06:44:56.497             6.301                Norilsk           196.906
        22   01 Jun 2027 06:46:54.789   01 Jun 2027 06:46:59.672             4.883              Murmansk1           152.594
        23   01 Jun 2027 06:47:26.271   01 Jun 2027 06:48:06.999            40.728              Murmansk2          1272.750
        24   01 Jun 2027 07:18:22.352   01 Jun 2027 07:18:38.460            16.108            RioGallegos           503.375
        25   01 Jun 2027 07:19:11.044   01 Jun 2027 07:19:51.263            40.219            RioGallegos          1256.844
        26   01 Jun 2027 07:20:27.573   01 Jun 2027 07:20:45.409            17.836            RioGallegos           557.375
        27   01 Jun 2027 07:52:41.605   01 Jun 2027 07:53:58.520            76.915                Sumatra          2403.594
        28   01 Jun 2027 07:56:20.901   01 Jun 2027 07:57:44.197            83.296                Sumatra          2603.000
        29   01 Jun 2027 08:01:24.227   01 Jun 2027 08:05:08.164           223.937                  Delhi          6998.031
        30   01 Jun 2027 08:15:37.090   01 Jun 2027 08:16:16.721            39.631                 Moscow          1238.469
        31   01 Jun 2027 08:16:27.458   01 Jun 2027 08:19:21.954           174.496                 Moscow          5453.000
        32   01 Jun 2027 08:20:01.590   01 Jun 2027 08:20:23.483            21.893                Novosib           684.156
        33   01 Jun 2027 09:37:25.799   01 Jun 2027 09:39:14.376           108.577                  Delhi          3393.031
        34   01 Jun 2027 09:52:42.450   01 Jun 2027 09:57:24.849           282.399                Norilsk          8824.969
        35   01 Jun 2027 09:57:32.702   01 Jun 2027 09:58:22.354            49.652              Murmansk1          1551.625
        36   01 Jun 2027 09:58:22.354   01 Jun 2027 09:59:11.580            49.226              Murmansk2          1538.312
        37   01 Jun 2027 09:59:29.741   01 Jun 2027 09:59:48.548            18.807                Norilsk           587.719
        38   01 Jun 2027 11:41:33.607   01 Jun 2027 11:44:09.729           156.122                Anadyr1          4878.813
        39   01 Jun 2027 13:16:54.137   01 Jun 2027 13:17:24.720            30.583                Anadyr2           955.719
        40   01 Jun 2027 13:20:21.513   01 Jun 2027 13:20:51.446            29.933                Anadyr2           935.406
        41   01 Jun 2027 14:53:57.940   01 Jun 2027 15:03:53.549           595.609               Magadan2         18612.781
        42   01 Jun 2027 17:22:24.132   01 Jun 2027 17:30:04.562           460.430            RioGallegos         14388.437
        43   01 Jun 2027 18:07:02.483   01 Jun 2027 18:10:37.355           214.872                Norilsk          6714.750
        44   01 Jun 2027 18:10:46.432   01 Jun 2027 18:12:14.729            88.297                Norilsk          2759.281
        45   01 Jun 2027 18:12:47.728   01 Jun 2027 18:17:33.516           285.788                Irkutsk          8930.875
        46   01 Jun 2027 18:26:48.405   01 Jun 2027 18:31:20.565           272.160                Sumatra          8505.000
        47   01 Jun 2027 19:53:59.649   01 Jun 2027 20:02:27.934           508.285                  Delhi         15883.906
        48   01 Jun 2027 21:19:28.180   01 Jun 2027 21:26:05.229           397.049              Murmansk2         12407.781
        49   01 Jun 2027 22:58:57.956   01 Jun 2027 23:00:37.496            99.540              Murmansk2          3110.625
        50   01 Jun 2027 23:23:52.837   01 Jun 2027 23:26:24.359           151.522               CapeTown          4735.062
        51   01 Jun 2027 23:28:05.557   01 Jun 2027 23:31:04.654           179.097               CapeTown          5596.781
        52   02 Jun 2027 01:01:38.001   02 Jun 2027 01:02:00.020            22.019               CapeTown           688.094
        53   02 Jun 2027 01:07:42.236   02 Jun 2027 01:09:02.535            80.299               CapeTown          2509.344
        54   02 Jun 2027 01:55:22.112   02 Jun 2027 01:56:12.113            50.001               Magadan1          1562.531
        55   02 Jun 2027 01:58:16.333   02 Jun 2027 01:58:19.548             3.215               Magadan2           100.469
        56   02 Jun 2027 02:00:25.270   02 Jun 2027 02:00:56.674            31.404               Magadan1           981.375
        57   02 Jun 2027 02:04:06.060   02 Jun 2027 02:04:41.477            35.417               Magadan2          1106.781
        58   02 Jun 2027 02:06:47.558   02 Jun 2027 02:07:55.391            67.833              Murmansk1          2119.781
        59   02 Jun 2027 02:08:35.249   02 Jun 2027 02:08:49.050            13.801              Murmansk2           431.281
        60   02 Jun 2027 02:10:18.049   02 Jun 2027 02:11:09.513            51.464                 Moscow          1608.250
        61   02 Jun 2027 02:14:15.869   02 Jun 2027 02:14:32.408            16.539                 Moscow           516.844
        62   02 Jun 2027 02:16:54.901   02 Jun 2027 02:17:09.489            14.588                 Moscow           455.875
        63   02 Jun 2027 02:19:54.153   02 Jun 2027 02:19:57.223             3.070                 Moscow            95.938
        64   02 Jun 2027 03:33:15.883   02 Jun 2027 03:33:45.337            29.454                Anadyr2           920.437
        65   02 Jun 2027 03:34:39.091   02 Jun 2027 03:36:10.296            91.205                Anadyr2          2850.156
        66   02 Jun 2027 03:37:05.064   02 Jun 2027 03:37:45.226            40.162               Magadan1          1255.062
        67   02 Jun 2027 03:37:51.034   02 Jun 2027 03:38:11.643            20.609                Anadyr1           644.031
        68   02 Jun 2027 03:38:26.312   02 Jun 2027 03:40:29.782           123.470                Anadyr2          3858.438
        69   02 Jun 2027 03:40:29.782   02 Jun 2027 03:43:17.625           167.843                Anadyr1          5245.094
        70   02 Jun 2027 04:24:58.476   02 Jun 2027 04:26:48.318           109.842            RioGallegos          3432.563
        71   02 Jun 2027 04:26:51.622   02 Jun 2027 04:26:56.801             5.179            RioGallegos           161.844
        72   02 Jun 2027 05:14:06.221   02 Jun 2027 05:15:04.999            58.778                Irkutsk          1836.812
        73   02 Jun 2027 05:16:03.212   02 Jun 2027 05:16:12.310             9.098               Magadan1           284.312
        74   02 Jun 2027 05:17:11.922   02 Jun 2027 05:18:43.599            91.677               Magadan2          2864.906
        75   02 Jun 2027 06:50:38.724   02 Jun 2027 06:51:40.019            61.295                Irkutsk          1915.469
        76   02 Jun 2027 06:52:34.336   02 Jun 2027 06:52:47.644            13.308                Irkutsk           415.875
        77   02 Jun 2027 06:53:01.708   02 Jun 2027 06:53:43.532            41.824                Irkutsk          1307.000
        78   02 Jun 2027 06:54:43.921   02 Jun 2027 06:58:58.792           254.871                Norilsk          7964.719
        79   02 Jun 2027 08:09:20.215   02 Jun 2027 08:11:45.065           144.850                Sumatra          4526.563
        80   02 Jun 2027 08:28:21.394   02 Jun 2027 08:29:08.508            47.114                Irkutsk          1472.313
        81   02 Jun 2027 08:29:41.737   02 Jun 2027 08:29:54.980            13.243                Irkutsk           413.844
        82   02 Jun 2027 08:30:01.622   02 Jun 2027 08:30:22.762            21.140                Novosib           660.625
        83   02 Jun 2027 08:30:43.800   02 Jun 2027 08:30:48.203             4.403                Norilsk           137.594
        84   02 Jun 2027 08:30:50.538   02 Jun 2027 08:30:54.546             4.008                Norilsk           125.250
        85   02 Jun 2027 08:32:13.986   02 Jun 2027 08:32:23.103             9.117                Novosib           284.906
        86   02 Jun 2027 08:33:14.867   02 Jun 2027 08:33:27.057            12.190                 Moscow           380.938
        87   02 Jun 2027 08:35:15.355   02 Jun 2027 08:35:23.696             8.341                Norilsk           260.656
        88   02 Jun 2027 09:53:07.277   02 Jun 2027 09:55:30.653           143.376                  Delhi          4480.500
        89   02 Jun 2027 09:56:55.088   02 Jun 2027 09:57:59.410            64.322                  Delhi          2010.063
        90   02 Jun 2027 10:03:16.325   02 Jun 2027 10:03:55.958            39.633              Murmansk2          1238.531
        91   02 Jun 2027 10:06:32.530   02 Jun 2027 10:06:44.271            11.741                Novosib           366.906
        92   02 Jun 2027 11:54:39.102   02 Jun 2027 11:56:14.940            95.838                Anadyr2          2994.937
        93   02 Jun 2027 13:14:43.619   02 Jun 2027 13:16:29.145           105.526              Murmansk1          3297.687
        94   02 Jun 2027 13:16:55.814   02 Jun 2027 13:18:25.641            89.827              Murmansk1          2807.094
        95   02 Jun 2027 13:18:41.734   02 Jun 2027 13:18:45.242             3.508              Murmansk1           109.625
        96   02 Jun 2027 13:19:32.515   02 Jun 2027 13:20:06.678            34.163              Murmansk2          1067.594
        97   02 Jun 2027 13:27:19.751   02 Jun 2027 13:28:58.767            99.016                Anadyr1          3094.250
        98   02 Jun 2027 13:29:34.069   02 Jun 2027 13:32:56.594           202.525                Anadyr2          6328.906
        99   02 Jun 2027 14:55:32.840   02 Jun 2027 14:57:33.526           120.686              Murmansk2          3771.437
       100   02 Jun 2027 15:03:06.393   02 Jun 2027 15:04:03.567            57.174                Anadyr2          1786.688
       101   02 Jun 2027 15:04:03.567   02 Jun 2027 15:05:20.489            76.922                Anadyr1          2403.812
       102   02 Jun 2027 15:05:50.272   02 Jun 2027 15:11:32.943           342.671               Magadan2         10708.469
       103   02 Jun 2027 15:13:32.649   02 Jun 2027 15:16:24.973           172.324               Magadan1          5385.125
       104   02 Jun 2027 16:41:18.666   02 Jun 2027 16:41:40.279            21.613               Magadan2           675.406
       105   02 Jun 2027 16:44:33.997   02 Jun 2027 16:44:48.049            14.052               Magadan2           439.125
       106   02 Jun 2027 16:45:33.257   02 Jun 2027 16:45:42.879             9.622               Magadan2           300.688
       107   02 Jun 2027 16:47:28.065   02 Jun 2027 16:47:55.027            26.962               Magadan1           842.562
       108   02 Jun 2027 17:34:00.206   02 Jun 2027 17:40:35.584           395.378            RioGallegos         12355.563
       109   02 Jun 2027 18:16:55.378   02 Jun 2027 18:19:11.511           136.133                Norilsk          4254.156
       110   02 Jun 2027 18:21:20.497   02 Jun 2027 18:23:16.688           116.191                Irkutsk          3630.969
       111   02 Jun 2027 18:23:45.458   02 Jun 2027 18:25:39.295           113.837                Norilsk          3557.406
       112   02 Jun 2027 18:35:24.210   02 Jun 2027 18:38:59.355           215.145                Sumatra          6723.281
       113   02 Jun 2027 18:40:31.817   02 Jun 2027 18:42:12.797           100.980                Sumatra          3155.625
       114   02 Jun 2027 19:57:00.223   02 Jun 2027 19:58:26.392            86.169                Novosib          2692.781
       115   02 Jun 2027 19:59:15.202   02 Jun 2027 19:59:30.848            15.646                Novosib           488.937
       116   02 Jun 2027 20:05:22.309   02 Jun 2027 20:12:42.601           440.292                  Delhi         13759.125
       117   02 Jun 2027 21:31:21.132   02 Jun 2027 21:38:49.645           448.513              Murmansk2         14016.031
       118   02 Jun 2027 23:10:26.706   02 Jun 2027 23:11:45.868            79.162                 Moscow          2473.813
       119   02 Jun 2027 23:35:20.879   02 Jun 2027 23:38:39.972           199.093               CapeTown          6221.656
       120   02 Jun 2027 23:40:48.747   02 Jun 2027 23:42:08.999            80.252               CapeTown          2507.875
       121   03 Jun 2027 00:51:23.714   03 Jun 2027 00:52:19.305            55.591                 Moscow          1737.219
       122   03 Jun 2027 01:10:14.412   03 Jun 2027 01:11:25.334            70.922               CapeTown          2216.313
       123   03 Jun 2027 01:20:51.289   03 Jun 2027 01:22:30.145            98.856               CapeTown          3089.250
       124   03 Jun 2027 02:07:08.592   03 Jun 2027 02:08:12.146            63.554               Magadan2          1986.062
       125   03 Jun 2027 02:09:40.827   03 Jun 2027 02:09:49.811             8.984               Magadan1           280.750
       126   03 Jun 2027 02:12:26.647   03 Jun 2027 02:12:44.364            17.717               Magadan2           553.656
       127   03 Jun 2027 02:15:21.739   03 Jun 2027 02:16:08.483            46.744               Magadan1          1460.750
       128   03 Jun 2027 02:18:48.029   03 Jun 2027 02:19:06.803            18.774              Murmansk2           586.688
       129   03 Jun 2027 02:19:06.803   03 Jun 2027 02:19:28.877            22.074              Murmansk1           689.812
       130   03 Jun 2027 02:21:23.652   03 Jun 2027 02:21:26.885             3.233              Murmansk1           101.031
       131   03 Jun 2027 02:22:19.973   03 Jun 2027 02:22:31.235            11.262              Murmansk2           351.938
       132   03 Jun 2027 02:22:31.938   03 Jun 2027 02:23:12.731            40.793                 Moscow          1274.781
       133   03 Jun 2027 02:23:50.927   03 Jun 2027 02:24:27.048            36.121                 Moscow          1128.781
       134   03 Jun 2027 02:29:47.136   03 Jun 2027 02:31:50.467           123.331                 Moscow          3854.094
       135   03 Jun 2027 03:46:30.014   03 Jun 2027 03:46:36.962             6.948                Anadyr2           217.125
       136   03 Jun 2027 03:47:18.492   03 Jun 2027 03:48:37.292            78.800                Anadyr2          2462.500
       137   03 Jun 2027 03:49:26.240   03 Jun 2027 03:49:32.214             5.974                Anadyr2           186.688
       138   03 Jun 2027 03:49:33.125   03 Jun 2027 03:53:18.027           224.902               Magadan1          7028.187
       139   03 Jun 2027 03:53:35.864   03 Jun 2027 03:54:16.981            41.117               Magadan2          1284.906
       140   03 Jun 2027 03:54:18.455   03 Jun 2027 03:54:40.312            21.857                Anadyr2           683.031
       141   03 Jun 2027 04:34:52.075   03 Jun 2027 04:35:37.674            45.599            RioGallegos          1424.969
       142   03 Jun 2027 04:36:20.879   03 Jun 2027 04:36:24.125             3.246            RioGallegos           101.437
       143   03 Jun 2027 05:27:05.370   03 Jun 2027 05:29:55.151           169.781                Irkutsk          5305.656
       144   03 Jun 2027 05:30:23.497   03 Jun 2027 05:30:51.275            27.778                Irkutsk           868.063
       145   03 Jun 2027 07:03:22.643   03 Jun 2027 07:03:42.116            19.473                Novosib           608.531
       146   03 Jun 2027 07:03:50.144   03 Jun 2027 07:04:58.479            68.335              Murmansk2          2135.469
       147   03 Jun 2027 07:06:40.450   03 Jun 2027 07:06:45.653             5.203                Norilsk           162.594
       148   03 Jun 2027 07:09:18.084   03 Jun 2027 07:09:29.719            11.635              Murmansk1           363.594
       149   03 Jun 2027 07:47:41.405   03 Jun 2027 07:48:11.837            30.432            RioGallegos           951.000
       150   03 Jun 2027 08:20:34.658   03 Jun 2027 08:20:43.998             9.340                Sumatra           291.875
       151   03 Jun 2027 08:23:52.926   03 Jun 2027 08:24:42.568            49.642                Sumatra          1551.312
       152   03 Jun 2027 08:39:44.135   03 Jun 2027 08:39:57.328            13.193              Murmansk2           412.281
       153   03 Jun 2027 08:40:09.455   03 Jun 2027 08:40:14.088             4.633                Novosib           144.781
       154   03 Jun 2027 08:40:21.637   03 Jun 2027 08:40:38.834            17.197              Murmansk2           537.406
       155   03 Jun 2027 08:40:53.186   03 Jun 2027 08:41:24.739            31.553                Novosib           986.031
       156   03 Jun 2027 08:41:30.121   03 Jun 2027 08:41:37.909             7.788                Novosib           243.375
       157   03 Jun 2027 08:42:59.772   03 Jun 2027 08:44:21.883            82.111                Novosib          2565.969
       158   03 Jun 2027 10:02:39.440   03 Jun 2027 10:04:58.773           139.333                  Delhi          4354.156
       159   03 Jun 2027 10:15:13.772   03 Jun 2027 10:15:28.159            14.387                Novosib           449.594
       160   03 Jun 2027 10:20:43.449   03 Jun 2027 10:20:52.850             9.401                Norilsk           293.781
       161   03 Jun 2027 13:25:28.359   03 Jun 2027 13:28:08.425           160.066                 Moscow          5002.062
       162   03 Jun 2027 13:30:07.118   03 Jun 2027 13:30:27.375            20.257              Murmansk1           633.031
       163   03 Jun 2027 13:32:17.108   03 Jun 2027 13:32:48.477            31.369              Murmansk1           980.281
       164   03 Jun 2027 13:33:25.450   03 Jun 2027 13:33:53.029            27.579              Murmansk1           861.844
       165   03 Jun 2027 13:34:47.633   03 Jun 2027 13:35:05.754            18.121              Murmansk1           566.281
       166   03 Jun 2027 13:36:32.641   03 Jun 2027 13:36:42.425             9.784              Murmansk1           305.750
       167   03 Jun 2027 13:37:15.899   03 Jun 2027 13:37:22.399             6.500              Murmansk1           203.125
       168   03 Jun 2027 13:39:18.448   03 Jun 2027 13:39:36.324            17.876                Anadyr2           558.625
       169   03 Jun 2027 13:40:50.234   03 Jun 2027 13:41:29.935            39.701                Anadyr1          1240.656
       170   03 Jun 2027 13:41:44.032   03 Jun 2027 13:43:10.602            86.570                Anadyr2          2705.312
       171   03 Jun 2027 13:43:38.124   03 Jun 2027 13:44:08.280            30.156                Anadyr1           942.375
       172   03 Jun 2027 13:45:44.474   03 Jun 2027 13:46:24.002            39.528                Anadyr1          1235.250
       173   03 Jun 2027 13:46:47.881   03 Jun 2027 13:47:56.021            68.140                Anadyr2          2129.375
       174   03 Jun 2027 15:08:38.886   03 Jun 2027 15:12:06.116           207.230              Murmansk1          6475.938
       175   03 Jun 2027 15:15:07.620   03 Jun 2027 15:16:16.668            69.048                Anadyr1          2157.750
       176   03 Jun 2027 15:17:27.074   03 Jun 2027 15:18:12.599            45.525                Anadyr2          1422.656
       177   03 Jun 2027 15:18:56.212   03 Jun 2027 15:21:22.673           146.461               Magadan1          4576.906
       178   03 Jun 2027 15:21:22.673   03 Jun 2027 15:23:21.769           119.096               Magadan2          3721.750
       179   03 Jun 2027 15:26:10.210   03 Jun 2027 15:27:15.526            65.316               Magadan1          2041.125
       180   03 Jun 2027 16:51:30.743   03 Jun 2027 16:52:10.341            39.598                Anadyr2          1237.437
       181   03 Jun 2027 16:53:19.478   03 Jun 2027 16:55:28.633           129.155               Magadan1          4036.094
       182   03 Jun 2027 16:57:35.391   03 Jun 2027 16:57:44.679             9.288               Magadan2           290.250
       183   03 Jun 2027 17:01:45.038   03 Jun 2027 17:02:16.361            31.323               Magadan1           978.844
       184   03 Jun 2027 17:45:42.827   03 Jun 2027 17:51:54.673           371.846            RioGallegos         11620.187
       185   03 Jun 2027 18:29:44.497   03 Jun 2027 18:34:18.037           273.540                Norilsk          8548.125
       186   03 Jun 2027 18:35:22.428   03 Jun 2027 18:36:46.360            83.932                Irkutsk          2622.875
       187   03 Jun 2027 18:36:49.136   03 Jun 2027 18:38:45.688           116.552                Novosib          3642.250
       188   03 Jun 2027 18:48:38.625   03 Jun 2027 18:50:58.395           139.770                Sumatra          4367.813
       189   03 Jun 2027 20:08:54.971   03 Jun 2027 20:10:11.884            76.913                Novosib          2403.531
       190   03 Jun 2027 20:16:55.709   03 Jun 2027 20:20:27.329           211.620                  Delhi          6613.125
       191   03 Jun 2027 20:20:55.395   03 Jun 2027 20:23:35.850           160.455                  Delhi          5014.219
       192   03 Jun 2027 21:43:16.368   03 Jun 2027 21:47:30.186           253.818              Murmansk2          7931.813
       193   03 Jun 2027 21:47:30.186   03 Jun 2027 21:51:29.702           239.516              Murmansk1          7484.875
       194   03 Jun 2027 21:53:10.969   03 Jun 2027 21:53:43.869            32.900                 Moscow          1028.125
       195   03 Jun 2027 23:22:22.632   03 Jun 2027 23:24:44.903           142.271                 Moscow          4445.969
       196   03 Jun 2027 23:33:21.226   03 Jun 2027 23:34:23.634            62.408                 Moscow          1950.250
       197   03 Jun 2027 23:48:34.829   03 Jun 2027 23:50:32.643           117.814               CapeTown          3681.688
       198   04 Jun 2027 00:53:08.635   04 Jun 2027 00:53:45.387            36.752               Magadan2          1148.500
       199   04 Jun 2027 00:54:55.249   04 Jun 2027 00:56:00.314            65.065              Murmansk2          2033.281
       200   04 Jun 2027 00:58:08.450   04 Jun 2027 00:59:07.081            58.631                 Moscow          1832.219
       201   04 Jun 2027 01:02:43.410   04 Jun 2027 01:03:24.777            41.367                 Moscow          1292.719
       202   04 Jun 2027 01:22:31.910   04 Jun 2027 01:23:15.118            43.208               CapeTown          1350.250
       203   04 Jun 2027 01:26:17.296   04 Jun 2027 01:26:30.054            12.758               CapeTown           398.687
       204   04 Jun 2027 01:28:46.547   04 Jun 2027 01:29:14.544            27.997               CapeTown           874.906
       205   04 Jun 2027 01:31:32.534   04 Jun 2027 01:32:25.216            52.682               CapeTown          1646.312
       206   04 Jun 2027 02:18:57.148   04 Jun 2027 02:21:06.714           129.566               Magadan1          4048.937
       207   04 Jun 2027 02:23:55.550   04 Jun 2027 02:24:08.672            13.122               Magadan1           410.062
       208   04 Jun 2027 02:25:04.002   04 Jun 2027 02:25:36.643            32.641               Magadan1          1020.031
       209   04 Jun 2027 02:28:10.160   04 Jun 2027 02:28:38.799            28.639                Norilsk           894.969
       210   04 Jun 2027 02:30:48.212   04 Jun 2027 02:31:30.069            41.857              Murmansk1          1308.031
       211   04 Jun 2027 02:31:44.237   04 Jun 2027 02:31:58.225            13.988              Murmansk2           437.125
       212   04 Jun 2027 02:32:23.600   04 Jun 2027 02:33:18.669            55.069              Murmansk1          1720.906
       213   04 Jun 2027 02:35:59.821   04 Jun 2027 02:36:41.055            41.234                 Moscow          1288.562
       214   04 Jun 2027 02:41:50.967   04 Jun 2027 02:42:18.788            27.821                 Moscow           869.406
       215   04 Jun 2027 03:13:29.837   04 Jun 2027 03:15:59.824           149.987            RioGallegos          4687.094
       216   04 Jun 2027 04:01:22.482   04 Jun 2027 04:06:19.895           297.413                Anadyr1          9294.156
       217   04 Jun 2027 04:06:19.895   04 Jun 2027 04:06:37.726            17.831                Anadyr2           557.219
       218   04 Jun 2027 04:51:25.478   04 Jun 2027 04:52:35.371            69.893            RioGallegos          2184.156
       219   04 Jun 2027 05:38:51.838   04 Jun 2027 05:42:23.993           212.155                Irkutsk          6629.844
       220   04 Jun 2027 05:43:45.036   04 Jun 2027 05:44:05.846            20.810                Novosib           650.313
       221   04 Jun 2027 07:13:51.284   04 Jun 2027 07:14:43.410            52.126                Novosib          1628.938
       222   04 Jun 2027 07:15:21.805   04 Jun 2027 07:15:47.832            26.027                Novosib           813.344
       223   04 Jun 2027 07:15:52.018   04 Jun 2027 07:16:45.443            53.425              Murmansk1          1669.531
       224   04 Jun 2027 07:16:55.115   04 Jun 2027 07:17:10.224            15.109                Irkutsk           472.156
       225   04 Jun 2027 07:17:23.460   04 Jun 2027 07:17:48.436            24.976                Irkutsk           780.500
       226   04 Jun 2027 07:19:39.295   04 Jun 2027 07:19:57.611            18.316                Norilsk           572.375
       227   04 Jun 2027 07:21:17.309   04 Jun 2027 07:21:17.950             0.641              Murmansk2            20.031
       228   04 Jun 2027 07:59:07.145   04 Jun 2027 07:59:30.970            23.825            RioGallegos           744.531
       229   04 Jun 2027 08:01:08.026   04 Jun 2027 08:01:49.540            41.514            RioGallegos          1297.313
       230   04 Jun 2027 08:32:46.648   04 Jun 2027 08:33:15.364            28.716                Sumatra           897.375
       231   04 Jun 2027 08:37:33.417   04 Jun 2027 08:38:08.780            35.363                Sumatra          1105.094
       232   04 Jun 2027 08:50:54.702   04 Jun 2027 08:50:55.348             0.646                Novosib            20.187
       233   04 Jun 2027 08:51:32.535   04 Jun 2027 08:51:41.253             8.718              Murmansk2           272.437
       234   04 Jun 2027 08:51:44.674   04 Jun 2027 08:51:51.895             7.221              Murmansk2           225.656
       235   04 Jun 2027 08:52:09.894   04 Jun 2027 08:52:27.562            17.668                Novosib           552.125
       236   04 Jun 2027 08:52:43.722   04 Jun 2027 08:52:54.732            11.010                Novosib           344.062
       237   04 Jun 2027 08:53:16.881   04 Jun 2027 08:53:28.002            11.121                Novosib           347.531
       238   04 Jun 2027 08:54:45.288   04 Jun 2027 08:54:53.092             7.804                Novosib           243.875
       239   04 Jun 2027 10:15:38.664   04 Jun 2027 10:18:20.916           162.252                  Delhi          5070.375
       240   04 Jun 2027 10:19:02.556   04 Jun 2027 10:19:06.942             4.386                  Delhi           137.063
       241   04 Jun 2027 10:31:45.855   04 Jun 2027 10:32:44.818            58.963                Norilsk          1842.594
       242   04 Jun 2027 12:08:20.533   04 Jun 2027 12:08:41.218            20.685              Murmansk2           646.406
       243   04 Jun 2027 12:09:10.423   04 Jun 2027 12:09:34.206            23.783              Murmansk2           743.219
       244   04 Jun 2027 12:10:31.260   04 Jun 2027 12:10:52.333            21.073              Murmansk2           658.531
       245   04 Jun 2027 12:19:17.364   04 Jun 2027 12:19:18.823             1.459                Anadyr2            45.594
       246   04 Jun 2027 12:19:57.500   04 Jun 2027 12:20:02.551             5.051                Anadyr2           157.844
       247   04 Jun 2027 12:21:54.427   04 Jun 2027 12:23:31.201            96.774                Anadyr1          3024.187
       248   04 Jun 2027 13:38:44.977   04 Jun 2027 13:40:15.121            90.144                 Moscow          2817.000
       249   04 Jun 2027 13:40:31.276   04 Jun 2027 13:40:57.106            25.830              Murmansk1           807.188
       250   04 Jun 2027 13:42:23.807   04 Jun 2027 13:42:56.663            32.856              Murmansk1          1026.750
       251   04 Jun 2027 13:43:09.445   04 Jun 2027 13:43:21.358            11.913              Murmansk2           372.281
       252   04 Jun 2027 13:44:51.436   04 Jun 2027 13:45:08.716            17.280              Murmansk2           540.000
       253   04 Jun 2027 13:45:13.017   04 Jun 2027 13:45:44.607            31.590              Murmansk2           987.187
       254   04 Jun 2027 13:48:09.689   04 Jun 2027 13:48:31.019            21.330              Murmansk1           666.563
       255   04 Jun 2027 13:51:17.745   04 Jun 2027 13:52:44.017            86.272                Anadyr1          2696.000
       256   04 Jun 2027 13:53:24.118   04 Jun 2027 13:55:11.120           107.002                Anadyr2          3343.813
       257   04 Jun 2027 13:56:15.945   04 Jun 2027 13:59:26.270           190.325               Magadan2          5947.656
       258   04 Jun 2027 15:27:08.928   04 Jun 2027 15:28:17.122            68.194                Anadyr1          2131.062
       259   04 Jun 2027 15:29:04.592   04 Jun 2027 15:29:56.209            51.617                Anadyr1          1613.031
       260   04 Jun 2027 15:30:57.499   04 Jun 2027 15:31:04.574             7.075                Anadyr2           221.094
       261   04 Jun 2027 15:31:07.651   04 Jun 2027 15:31:19.420            11.769                Anadyr2           367.781
       262   04 Jun 2027 15:31:22.412   04 Jun 2027 15:35:19.880           237.468               Magadan2          7420.875
       263   04 Jun 2027 15:36:39.926   04 Jun 2027 15:38:12.613            92.687               Magadan2          2896.469
       264   04 Jun 2027 17:03:02.941   04 Jun 2027 17:03:13.285            10.344                Anadyr2           323.250
       265   04 Jun 2027 17:03:27.594   04 Jun 2027 17:04:11.694            44.100                Anadyr2          1378.125
       266   04 Jun 2027 17:05:20.643   04 Jun 2027 17:07:17.110           116.467               Magadan2          3639.594
       267   04 Jun 2027 17:08:57.346   04 Jun 2027 17:09:58.422            61.076                Norilsk          1908.625
       268   04 Jun 2027 17:57:29.842   04 Jun 2027 18:00:51.092           201.250            RioGallegos          6289.062
       269   04 Jun 2027 18:01:26.542   04 Jun 2027 18:01:50.460            23.918            RioGallegos           747.437
       270   04 Jun 2027 18:06:56.352   04 Jun 2027 18:08:01.854            65.502            RioGallegos          2046.937
       271   04 Jun 2027 18:42:36.729   04 Jun 2027 18:44:55.860           139.131                Norilsk          4347.844
       272   04 Jun 2027 18:45:04.587   04 Jun 2027 18:47:05.690           121.103                Irkutsk          3784.469
       273   04 Jun 2027 18:47:11.736   04 Jun 2027 18:52:29.922           318.186                Novosib          9943.312
       274   04 Jun 2027 19:03:03.037   04 Jun 2027 19:03:10.360             7.323                Sumatra           228.844
       275   04 Jun 2027 20:21:49.221   04 Jun 2027 20:22:46.875            57.654                Novosib          1801.687
       276   04 Jun 2027 20:25:06.557   04 Jun 2027 20:27:32.212           145.655                Novosib          4551.719
       277   04 Jun 2027 20:28:36.437   04 Jun 2027 20:32:27.570           231.133                  Delhi          7222.906
       278   04 Jun 2027 20:34:07.561   04 Jun 2027 20:34:53.770            46.209                  Delhi          1444.031
       279   04 Jun 2027 21:55:13.202   04 Jun 2027 21:57:15.926           122.724              Murmansk1          3835.125
       280   04 Jun 2027 21:57:20.762   04 Jun 2027 22:00:43.940           203.178              Murmansk2          6349.312
       281   04 Jun 2027 22:00:44.185   04 Jun 2027 22:06:55.321           371.136                 Moscow         11598.000
       282   04 Jun 2027 23:58:36.465   05 Jun 2027 00:00:00.468            84.003               CapeTown          2625.094
       283   05 Jun 2027 00:00:29.953   05 Jun 2027 00:01:04.376            34.423               CapeTown          1075.719
       284   05 Jun 2027 00:02:30.252   05 Jun 2027 00:02:55.308            25.056               CapeTown           783.000
       285   05 Jun 2027 00:10:14.399   05 Jun 2027 00:10:46.489            32.090               CapeTown          1002.813
       286   05 Jun 2027 01:06:56.765   05 Jun 2027 01:09:21.038           144.273              Murmansk2          4508.531
       287   05 Jun 2027 01:10:11.293   05 Jun 2027 01:10:35.999            24.706                 Moscow           772.062
       288   05 Jun 2027 01:19:44.103   05 Jun 2027 01:19:56.238            12.135                 Moscow           379.219
       289   05 Jun 2027 01:19:58.325   05 Jun 2027 01:20:27.145            28.820                 Moscow           900.625
       290   05 Jun 2027 01:34:56.156   05 Jun 2027 01:35:09.896            13.740               CapeTown           429.375
       291   05 Jun 2027 01:35:43.610   05 Jun 2027 01:36:41.256            57.646               CapeTown          1801.437
       292   05 Jun 2027 01:42:24.989   05 Jun 2027 01:43:29.725            64.736               CapeTown          2023.000
       293   05 Jun 2027 02:30:47.834   05 Jun 2027 02:32:52.419           124.585               Magadan1          3893.281
       294   05 Jun 2027 02:32:52.419   05 Jun 2027 02:33:07.504            15.085               Magadan2           471.406
       295   05 Jun 2027 02:36:11.002   05 Jun 2027 02:36:41.419            30.417               Magadan2           950.531
       296   05 Jun 2027 02:39:16.785   05 Jun 2027 02:39:32.411            15.626                Norilsk           488.312
       297   05 Jun 2027 02:40:59.082   05 Jun 2027 02:41:12.783            13.701                Norilsk           428.156
       298   05 Jun 2027 02:42:48.088   05 Jun 2027 02:43:31.487            43.399              Murmansk2          1356.219
       299   05 Jun 2027 02:43:52.326   05 Jun 2027 02:43:59.422             7.096              Murmansk1           221.750
       300   05 Jun 2027 02:45:08.262   05 Jun 2027 02:45:38.574            30.312              Murmansk2           947.250
       301   05 Jun 2027 02:46:37.717   05 Jun 2027 02:47:20.610            42.893                 Moscow          1340.406
       302   05 Jun 2027 02:48:42.973   05 Jun 2027 02:48:46.192             3.219                 Moscow           100.594
       303   05 Jun 2027 02:49:34.984   05 Jun 2027 02:49:54.997            20.013                 Moscow           625.406
       304   05 Jun 2027 02:52:43.714   05 Jun 2027 02:52:46.151             2.437                 Moscow            76.156
       305   05 Jun 2027 02:54:44.603   05 Jun 2027 02:55:30.279            45.676                 Moscow          1427.375
       306   05 Jun 2027 03:24:07.470   05 Jun 2027 03:25:22.412            74.942            RioGallegos          2341.938
       307   05 Jun 2027 03:26:36.826   05 Jun 2027 03:27:08.233            31.407            RioGallegos           981.469
       308   05 Jun 2027 04:11:37.321   05 Jun 2027 04:11:57.146            19.825               Magadan1           619.531
       309   05 Jun 2027 04:11:57.146   05 Jun 2027 04:12:12.187            15.041               Magadan2           470.031
       310   05 Jun 2027 04:12:39.599   05 Jun 2027 04:15:04.896           145.297                Anadyr1          4540.531
       311   05 Jun 2027 04:15:16.780   05 Jun 2027 04:15:53.103            36.323               Magadan1          1135.094
       312   05 Jun 2027 04:16:17.702   05 Jun 2027 04:19:01.254           163.552                Anadyr2          5111.000
       313   05 Jun 2027 04:54:56.720   05 Jun 2027 04:58:48.285           231.565            RioGallegos          7236.406
       314   05 Jun 2027 05:49:54.195   05 Jun 2027 05:50:30.872            36.677                Irkutsk          1146.156
       315   05 Jun 2027 05:51:08.172   05 Jun 2027 05:55:00.830           232.658                Irkutsk          7270.562
       316   05 Jun 2027 07:26:42.925   05 Jun 2027 07:27:58.288            75.363                Irkutsk          2355.094
       317   05 Jun 2027 07:28:14.028   05 Jun 2027 07:28:51.672            37.644                Irkutsk          1176.375
       318   05 Jun 2027 07:29:05.146   05 Jun 2027 07:29:19.135            13.989                Irkutsk           437.156
       319   05 Jun 2027 07:30:34.390   05 Jun 2027 07:30:38.470             4.080                Irkutsk           127.500
       320   05 Jun 2027 07:31:46.080   05 Jun 2027 07:32:04.953            18.873                Norilsk           589.781
       321   05 Jun 2027 07:32:53.732   05 Jun 2027 07:33:05.207            11.475              Murmansk2           358.594
       322   05 Jun 2027 08:10:07.238   05 Jun 2027 08:10:40.367            33.129            RioGallegos          1035.281
       323   05 Jun 2027 08:14:51.585   05 Jun 2027 08:15:30.225            38.640            RioGallegos          1207.500
       324   05 Jun 2027 08:44:43.714   05 Jun 2027 08:45:43.907            60.193                Sumatra          1881.031
       325   05 Jun 2027 09:04:38.696   05 Jun 2027 09:04:58.511            19.815                Novosib           619.219
       326   05 Jun 2027 09:06:18.282   05 Jun 2027 09:06:25.496             7.214                Novosib           225.437
       327   05 Jun 2027 09:07:02.489   05 Jun 2027 09:08:14.211            71.722                Novosib          2241.313
       328   05 Jun 2027 10:29:14.326   05 Jun 2027 10:30:29.788            75.462                  Delhi          2358.187
       329   05 Jun 2027 10:31:16.929   05 Jun 2027 10:31:22.525             5.596                  Delhi           174.875
       330   05 Jun 2027 10:39:58.363   05 Jun 2027 10:39:59.152             0.789              Murmansk1            24.656
       331   05 Jun 2027 10:44:24.345   05 Jun 2027 10:44:32.962             8.617              Murmansk2           269.281
       332   05 Jun 2027 12:13:20.645   05 Jun 2027 12:13:44.375            23.730              Murmansk2           741.563
       333   05 Jun 2027 12:14:09.147   05 Jun 2027 12:14:31.011            21.864              Murmansk2           683.250
       334   05 Jun 2027 12:15:15.559   05 Jun 2027 12:15:57.110            41.551              Murmansk2          1298.469
       335   05 Jun 2027 12:22:57.077   05 Jun 2027 12:23:07.267            10.190              Murmansk1           318.438
       336   05 Jun 2027 12:27:57.070   05 Jun 2027 12:31:58.749           241.679                Anadyr1          7552.469
       337   05 Jun 2027 12:32:30.088   05 Jun 2027 12:33:50.610            80.522                Anadyr2          2516.313
       338   05 Jun 2027 13:52:10.998   05 Jun 2027 13:53:41.674            90.676              Murmansk2          2833.625
       339   05 Jun 2027 13:54:30.908   05 Jun 2027 13:54:39.950             9.042              Murmansk1           282.562
       340   05 Jun 2027 13:54:39.950   05 Jun 2027 13:55:16.887            36.937              Murmansk2          1154.281
       341   05 Jun 2027 13:58:30.841   05 Jun 2027 13:58:39.688             8.847              Murmansk2           276.469
       342   05 Jun 2027 13:59:36.663   05 Jun 2027 14:00:11.473            34.810              Murmansk2          1087.812
       343   05 Jun 2027 14:03:17.533   05 Jun 2027 14:04:50.755            93.222                Anadyr1          2913.187
       344   05 Jun 2027 14:05:16.689   05 Jun 2027 14:05:44.512            27.823                Anadyr1           869.469
       345   05 Jun 2027 14:07:11.348   05 Jun 2027 14:07:39.512            28.164                Anadyr1           880.125
       346   05 Jun 2027 14:07:52.576   05 Jun 2027 14:12:55.781           303.205               Magadan1          9475.156
       347   05 Jun 2027 15:41:37.136   05 Jun 2027 15:45:26.194           229.058               Magadan1          7158.062
       348   05 Jun 2027 15:45:45.905   05 Jun 2027 15:47:01.373            75.468               Magadan1          2358.375
       349   05 Jun 2027 15:48:07.920   05 Jun 2027 15:48:55.227            47.307               Magadan1          1478.344
       350   05 Jun 2027 17:16:12.984   05 Jun 2027 17:16:58.371            45.387                Anadyr1          1418.344
       351   05 Jun 2027 17:17:22.115   05 Jun 2027 17:19:03.516           101.401               Magadan2          3168.781
       352   05 Jun 2027 17:20:58.473   05 Jun 2027 17:21:33.015            34.542                Norilsk          1079.437
       353   05 Jun 2027 17:22:18.820   05 Jun 2027 17:22:54.281            35.461                Norilsk          1108.156
       354   05 Jun 2027 17:23:50.423   05 Jun 2027 17:28:00.047           249.624                Irkutsk          7800.750
       355   05 Jun 2027 18:19:43.475   05 Jun 2027 18:20:43.300            59.825            RioGallegos          1869.531
       356   05 Jun 2027 18:56:57.745   05 Jun 2027 18:57:51.732            53.987                Norilsk          1687.094
       357   05 Jun 2027 18:58:23.252   05 Jun 2027 19:05:36.874           433.622                Novosib         13550.687
       358   05 Jun 2027 19:12:27.197   05 Jun 2027 19:13:43.683            76.486                Sumatra          2390.188
       359   05 Jun 2027 20:34:32.771   05 Jun 2027 20:35:17.070            44.299                Novosib          1384.344
       360   05 Jun 2027 20:37:06.824   05 Jun 2027 20:37:20.329            13.505                Novosib           422.031
       361   05 Jun 2027 20:40:22.709   05 Jun 2027 20:44:26.651           243.942                  Delhi          7623.187
       362   05 Jun 2027 20:51:37.832   05 Jun 2027 20:52:34.377            56.545                  Delhi          1767.031
       363   05 Jun 2027 22:07:11.193   05 Jun 2027 22:08:56.180           104.987              Murmansk1          3280.844
       364   05 Jun 2027 22:09:28.231   05 Jun 2027 22:13:55.327           267.096              Murmansk2          8346.750
       365   05 Jun 2027 22:14:13.784   05 Jun 2027 22:16:39.286           145.502              Murmansk2          4546.938
       366   05 Jun 2027 22:17:01.793   05 Jun 2027 22:19:22.460           140.667                 Moscow          4395.844
       367   05 Jun 2027 22:40:40.264   05 Jun 2027 22:43:13.688           153.424               CapeTown          4794.500
       368   06 Jun 2027 00:10:22.629   06 Jun 2027 00:12:21.739           119.110               CapeTown          3722.188
       369   06 Jun 2027 00:21:46.964   06 Jun 2027 00:21:46.978             0.014               CapeTown             0.437
       370   06 Jun 2027 01:11:07.242   06 Jun 2027 01:11:09.841             2.599               Magadan2            81.219
       371   06 Jun 2027 01:13:37.453   06 Jun 2027 01:13:57.394            19.941               Magadan2           623.156
       372   06 Jun 2027 01:15:52.102   06 Jun 2027 01:16:04.083            11.981               Magadan2           374.406
       373   06 Jun 2027 01:16:14.678   06 Jun 2027 01:17:42.853            88.175               Magadan2          2755.469
       374   06 Jun 2027 01:18:58.176   06 Jun 2027 01:19:17.433            19.257              Murmansk2           601.781
       375   06 Jun 2027 01:19:51.460   06 Jun 2027 01:21:14.986            83.526              Murmansk1          2610.187
       376   06 Jun 2027 01:27:21.821   06 Jun 2027 01:27:25.102             3.281                 Moscow           102.531
       377   06 Jun 2027 01:28:49.882   06 Jun 2027 01:30:38.987           109.105                 Moscow          3409.531
       378   06 Jun 2027 02:42:40.705   06 Jun 2027 02:45:34.842           174.137               Magadan2          5441.781
       379   06 Jun 2027 02:46:48.637   06 Jun 2027 02:47:22.876            34.239               Magadan2          1069.969
       380   06 Jun 2027 02:51:03.440   06 Jun 2027 02:51:15.849            12.409               Magadan2           387.781
       381   06 Jun 2027 02:51:27.650   06 Jun 2027 02:51:52.756            25.106                Norilsk           784.563
       382   06 Jun 2027 02:54:47.613   06 Jun 2027 02:55:33.092            45.479              Murmansk1          1421.219
       383   06 Jun 2027 02:55:40.032   06 Jun 2027 02:56:00.444            20.412              Murmansk2           637.875
       384   06 Jun 2027 02:57:31.661   06 Jun 2027 02:57:39.260             7.599              Murmansk1           237.469
       385   06 Jun 2027 02:58:45.950   06 Jun 2027 02:59:25.270            39.320                 Moscow          1228.750
       386   06 Jun 2027 03:35:08.364   06 Jun 2027 03:37:50.201           161.837            RioGallegos          5057.406
       387   06 Jun 2027 03:40:04.163   06 Jun 2027 03:41:00.562            56.399            RioGallegos          1762.469
       388   06 Jun 2027 04:23:50.892   06 Jun 2027 04:25:17.026            86.134               Magadan1          2691.687
       389   06 Jun 2027 04:25:35.221   06 Jun 2027 04:27:21.949           106.728               Magadan1          3335.250
       390   06 Jun 2027 04:27:42.476   06 Jun 2027 04:30:25.093           162.617                Irkutsk          5081.781
       391   06 Jun 2027 04:30:55.878   06 Jun 2027 04:31:02.852             6.974                Novosib           217.938
       392   06 Jun 2027 05:06:38.254   06 Jun 2027 05:10:09.602           211.348            RioGallegos          6604.625
       393   06 Jun 2027 05:11:25.476   06 Jun 2027 05:12:47.199            81.723            RioGallegos          2553.844
       394   06 Jun 2027 05:13:27.171   06 Jun 2027 05:13:55.748            28.577            RioGallegos           893.031
       395   06 Jun 2027 06:01:48.929   06 Jun 2027 06:01:59.882            10.953                Norilsk           342.281
       396   06 Jun 2027 06:02:41.786   06 Jun 2027 06:04:08.987            87.201               Magadan2          2725.031
       397   06 Jun 2027 06:04:28.579   06 Jun 2027 06:05:59.175            90.596                Novosib          2831.125
       398   06 Jun 2027 06:06:22.059   06 Jun 2027 06:07:04.460            42.401                Irkutsk          1325.031
       399   06 Jun 2027 06:07:44.289   06 Jun 2027 06:07:57.738            13.449                Novosib           420.281
       400   06 Jun 2027 07:38:42.549   06 Jun 2027 07:39:51.160            68.611                Irkutsk          2144.094
       401   06 Jun 2027 07:39:55.270   06 Jun 2027 07:40:41.954            46.684              Murmansk1          1458.875
       402   06 Jun 2027 07:41:26.861   06 Jun 2027 07:41:47.017            20.156                Irkutsk           629.875
       403   06 Jun 2027 07:43:42.019   06 Jun 2027 07:43:53.664            11.645                Norilsk           363.906
       404   06 Jun 2027 07:44:28.843   06 Jun 2027 07:44:50.971            22.128              Murmansk1           691.500
       405   06 Jun 2027 08:21:30.322   06 Jun 2027 08:22:32.798            62.476            RioGallegos          1952.375
       406   06 Jun 2027 08:56:50.955   06 Jun 2027 08:58:03.737            72.782                Sumatra          2274.438
       407   06 Jun 2027 09:18:22.556   06 Jun 2027 09:18:26.223             3.667                Novosib           114.594
       408   06 Jun 2027 09:19:07.026   06 Jun 2027 09:20:05.317            58.291                Novosib          1821.594
       409   06 Jun 2027 10:56:53.378   06 Jun 2027 10:57:09.310            15.932              Murmansk2           497.875
       410   06 Jun 2027 12:25:35.980   06 Jun 2027 12:25:50.121            14.141              Murmansk1           441.906
       411   06 Jun 2027 12:26:22.600   06 Jun 2027 12:26:41.376            18.776              Murmansk1           586.750
       412   06 Jun 2027 12:27:04.713   06 Jun 2027 12:27:25.656            20.943              Murmansk1           654.469
       413   06 Jun 2027 12:27:58.580   06 Jun 2027 12:28:36.894            38.314              Murmansk1          1197.312
       414   06 Jun 2027 12:31:00.301   06 Jun 2027 12:31:25.966            25.665              Murmansk2           802.031
       415   06 Jun 2027 12:31:50.271   06 Jun 2027 12:32:07.123            16.852              Murmansk2           526.625
       416   06 Jun 2027 12:32:21.139   06 Jun 2027 12:32:27.985             6.846              Murmansk2           213.937
       417   06 Jun 2027 12:32:27.985   06 Jun 2027 12:33:01.774            33.789              Murmansk1          1055.906
       418   06 Jun 2027 12:33:23.910   06 Jun 2027 12:33:47.911            24.001              Murmansk2           750.031
       419   06 Jun 2027 12:34:34.179   06 Jun 2027 12:35:42.637            68.458              Murmansk1          2139.313
       420   06 Jun 2027 12:35:50.715   06 Jun 2027 12:36:16.526            25.811              Murmansk1           806.594
       421   06 Jun 2027 12:39:49.254   06 Jun 2027 12:48:54.615           545.361                Anadyr2         17042.531
       422   06 Jun 2027 14:17:57.160   06 Jun 2027 14:18:44.030            46.870                Anadyr1          1464.688
       423   06 Jun 2027 14:18:55.400   06 Jun 2027 14:25:58.770           423.370               Magadan1         13230.312
       424   06 Jun 2027 15:53:35.006   06 Jun 2027 15:54:53.170            78.164               Magadan2          2442.625
       425   06 Jun 2027 15:57:28.285   06 Jun 2027 15:58:40.995            72.710               Magadan2          2272.187
       426   06 Jun 2027 17:27:03.196   06 Jun 2027 17:28:04.130            60.934                Anadyr1          1904.187
       427   06 Jun 2027 17:29:04.028   06 Jun 2027 17:29:05.959             1.931                Anadyr1            60.344
       428   06 Jun 2027 17:29:22.643   06 Jun 2027 17:29:39.021            16.378                Norilsk           511.812
       429   06 Jun 2027 17:30:47.900   06 Jun 2027 17:31:45.070            57.170               Magadan2          1786.562
       430   06 Jun 2027 17:32:17.830   06 Jun 2027 17:32:59.847            42.017                Norilsk          1313.031
       431   06 Jun 2027 17:33:31.103   06 Jun 2027 17:34:40.904            69.801                Norilsk          2181.281
       432   06 Jun 2027 17:34:56.851   06 Jun 2027 17:41:25.288           388.437                Irkutsk         12138.656
       433   06 Jun 2027 17:51:27.050   06 Jun 2027 17:55:37.096           250.046                Sumatra          7813.938
       434   06 Jun 2027 19:10:00.104   06 Jun 2027 19:17:32.718           452.614                Novosib         14144.187
       435   06 Jun 2027 20:46:07.998   06 Jun 2027 20:47:15.683            67.685              Murmansk1          2115.156
       436   06 Jun 2027 20:55:02.739   06 Jun 2027 20:55:26.789            24.050                  Delhi           751.563
       437   06 Jun 2027 21:03:25.135   06 Jun 2027 21:04:27.012            61.877                  Delhi          1933.656
       438   06 Jun 2027 22:19:10.068   06 Jun 2027 22:20:44.263            94.195              Murmansk2          2943.594
       439   06 Jun 2027 22:21:34.007   06 Jun 2027 22:24:34.962           180.955              Murmansk1          5654.844
       440   06 Jun 2027 22:24:40.478   06 Jun 2027 22:29:31.216           290.738                 Moscow          9085.563
       441   06 Jun 2027 22:50:46.140   06 Jun 2027 22:56:41.763           355.623               CapeTown         11113.219
       442   07 Jun 2027 00:32:21.129   07 Jun 2027 00:32:30.084             8.955               CapeTown           279.844
       443   07 Jun 2027 01:27:44.391   07 Jun 2027 01:27:57.270            12.879               Magadan2           402.469
       444   07 Jun 2027 01:30:49.186   07 Jun 2027 01:31:21.662            32.476               Magadan2          1014.875
       445   07 Jun 2027 01:31:25.254   07 Jun 2027 01:33:07.838           102.584              Murmansk1          3205.750
       446   07 Jun 2027 01:34:18.416   07 Jun 2027 01:34:56.209            37.793                 Moscow          1181.031
       447   07 Jun 2027 01:39:37.935   07 Jun 2027 01:39:49.801            11.866              Murmansk1           370.813
       448   07 Jun 2027 01:40:06.675   07 Jun 2027 01:40:49.633            42.958                 Moscow          1342.438
       449   07 Jun 2027 02:00:11.655   07 Jun 2027 02:01:13.537            61.882               CapeTown          1933.813
       450   07 Jun 2027 02:07:54.994   07 Jun 2027 02:08:24.840            29.846               CapeTown           932.687
       451   07 Jun 2027 02:54:35.817   07 Jun 2027 02:57:06.395           150.578               Magadan1          4705.563
       452   07 Jun 2027 02:57:49.661   07 Jun 2027 02:58:14.838            25.177               Magadan1           786.781
       453   07 Jun 2027 02:59:44.005   07 Jun 2027 03:00:12.944            28.939               Magadan2           904.344
       454   07 Jun 2027 03:00:48.450   07 Jun 2027 03:01:13.550            25.100               Magadan2           784.375
       455   07 Jun 2027 03:01:25.739   07 Jun 2027 03:03:20.963           115.224                Anadyr1          3600.750
       456   07 Jun 2027 03:03:31.088   07 Jun 2027 03:03:53.905            22.817               Magadan1           713.031
       457   07 Jun 2027 03:04:07.011   07 Jun 2027 03:07:25.581           198.570               Magadan1          6205.313
       458   07 Jun 2027 04:35:19.931   07 Jun 2027 04:36:03.826            43.895                Irkutsk          1371.719
       459   07 Jun 2027 04:36:48.776   07 Jun 2027 04:36:59.398            10.622               Magadan2           331.937
       460   07 Jun 2027 04:37:01.321   07 Jun 2027 04:38:33.973            92.652                Irkutsk          2895.375
       461   07 Jun 2027 04:38:47.322   07 Jun 2027 04:38:55.216             7.894                Novosib           246.687
       462   07 Jun 2027 04:38:55.713   07 Jun 2027 04:38:58.923             3.210                Anadyr1           100.312
       463   07 Jun 2027 04:39:01.343   07 Jun 2027 04:40:04.658            63.315               Magadan1          1978.594
       464   07 Jun 2027 04:40:23.478   07 Jun 2027 04:42:01.664            98.186               Magadan1          3068.312
       465   07 Jun 2027 04:42:09.069   07 Jun 2027 04:42:35.881            26.812                Irkutsk           837.875
       466   07 Jun 2027 06:13:17.056   07 Jun 2027 06:13:56.940            39.884               Magadan2          1246.375
       467   07 Jun 2027 06:14:11.277   07 Jun 2027 06:14:23.418            12.141               Magadan2           379.406
       468   07 Jun 2027 06:14:30.676   07 Jun 2027 06:15:00.905            30.229               Magadan1           944.656
       469   07 Jun 2027 06:16:09.491   07 Jun 2027 06:16:18.820             9.329               Magadan1           291.531
       470   07 Jun 2027 06:16:44.675   07 Jun 2027 06:17:05.505            20.830               Magadan1           650.938
       471   07 Jun 2027 06:19:09.886   07 Jun 2027 06:19:10.473             0.587                Norilsk            18.344
       472   07 Jun 2027 06:21:38.861   07 Jun 2027 06:22:03.086            24.225              Murmansk2           757.031
       473   07 Jun 2027 07:51:23.782   07 Jun 2027 07:51:54.341            30.559                Novosib           954.969
       474   07 Jun 2027 07:51:56.594   07 Jun 2027 07:52:15.003            18.409              Murmansk1           575.281
       475   07 Jun 2027 07:52:16.513   07 Jun 2027 07:53:17.898            61.385                Novosib          1918.281
       476   07 Jun 2027 07:53:32.817   07 Jun 2027 07:53:47.223            14.406                 Moscow           450.188
       477   07 Jun 2027 07:55:44.142   07 Jun 2027 07:56:36.801            52.659                Novosib          1645.594
       478   07 Jun 2027 08:34:44.090   07 Jun 2027 08:35:07.068            22.978            RioGallegos           718.063
       479   07 Jun 2027 08:37:16.444   07 Jun 2027 08:37:23.642             7.198            RioGallegos           224.937
       480   07 Jun 2027 09:30:53.373   07 Jun 2027 09:31:11.078            17.705                Novosib           553.281
       481   07 Jun 2027 11:08:50.180   07 Jun 2027 11:08:59.816             9.636                Norilsk           301.125
       482   07 Jun 2027 12:34:49.459   07 Jun 2027 12:35:39.603            50.144                 Moscow          1567.000
