uniorb/output/strategy_4/Drop/Drop_KinoSat_111804.txt

KinoSat_111804
-------------------------
    Access    *     Start Time (UTCG)     *     Stop Time (UTCG)  *   Duration (s)        *       Station  *  Data (Mbytes)
         1   01 Jun 2027 03:15:56.264   01 Jun 2027 03:16:09.046            12.782                Novosib           399.437
         2   01 Jun 2027 03:16:13.615   01 Jun 2027 03:18:52.429           158.814                Norilsk          4962.938
         3   01 Jun 2027 03:19:01.956   01 Jun 2027 03:20:04.850            62.894                Irkutsk          1965.438
         4   01 Jun 2027 03:20:17.610   01 Jun 2027 03:20:25.642             8.032                Irkutsk           251.000
         5   01 Jun 2027 03:20:38.112   01 Jun 2027 03:20:50.389            12.277                Norilsk           383.656
         6   01 Jun 2027 03:20:51.323   01 Jun 2027 03:21:21.013            29.690                 Moscow           927.813
         7   01 Jun 2027 03:21:30.784   01 Jun 2027 03:22:10.616            39.832                Irkutsk          1244.750
         8   01 Jun 2027 03:23:25.049   01 Jun 2027 03:23:37.882            12.833                Irkutsk           401.031
         9   01 Jun 2027 03:24:11.223   01 Jun 2027 03:26:58.170           166.947                  Delhi          5217.094
        10   01 Jun 2027 04:54:53.477   01 Jun 2027 04:55:55.325            61.848                Norilsk          1932.750
        11   01 Jun 2027 04:56:03.629   01 Jun 2027 04:57:20.278            76.649              Murmansk1          2395.281
        12   01 Jun 2027 04:57:20.278   01 Jun 2027 04:57:28.891             8.613              Murmansk2           269.156
        13   01 Jun 2027 04:57:32.891   01 Jun 2027 04:57:48.523            15.632                 Moscow           488.500
        14   01 Jun 2027 04:57:54.390   01 Jun 2027 04:57:58.093             3.703                Novosib           115.719
        15   01 Jun 2027 04:58:03.210   01 Jun 2027 05:00:28.213           145.003              Murmansk2          4531.344
        16   01 Jun 2027 05:01:05.518   01 Jun 2027 05:04:11.619           186.101                 Moscow          5815.656
        17   01 Jun 2027 05:16:17.308   01 Jun 2027 05:20:24.315           247.007               CapeTown          7718.969
        18   01 Jun 2027 05:20:41.011   01 Jun 2027 05:22:01.763            80.752               CapeTown          2523.500
        19   01 Jun 2027 06:31:34.789   01 Jun 2027 06:35:18.984           224.195                 Moscow          7006.094
        20   01 Jun 2027 06:39:51.439   01 Jun 2027 06:39:54.042             2.603                 Moscow            81.344
        21   01 Jun 2027 06:52:12.801   01 Jun 2027 06:53:20.576            67.775               CapeTown          2117.969
        22   01 Jun 2027 06:56:34.004   01 Jun 2027 06:57:20.905            46.901               CapeTown          1465.656
        23   01 Jun 2027 07:55:21.117   01 Jun 2027 07:58:29.681           188.564                Anadyr2          5892.625
        24   01 Jun 2027 07:59:42.887   01 Jun 2027 07:59:54.365            11.478                Anadyr2           358.687
        25   01 Jun 2027 09:30:47.107   01 Jun 2027 09:32:27.452           100.345                Anadyr1          3135.781
        26   01 Jun 2027 09:33:03.087   01 Jun 2027 09:33:33.180            30.093                Anadyr1           940.406
        27   01 Jun 2027 09:33:33.180   01 Jun 2027 09:34:44.353            71.173                Anadyr2          2224.156
        28   01 Jun 2027 09:34:49.445   01 Jun 2027 09:35:18.157            28.712               Magadan1           897.250
        29   01 Jun 2027 11:04:47.770   01 Jun 2027 11:05:25.908            38.138               Magadan2          1191.812
        30   01 Jun 2027 11:07:31.222   01 Jun 2027 11:11:54.896           263.674               Magadan1          8239.812
        31   01 Jun 2027 14:19:41.238   01 Jun 2027 14:22:29.984           168.746                Irkutsk          5273.312
        32   01 Jun 2027 15:46:55.340   01 Jun 2027 15:49:45.548           170.208                  Delhi          5319.000
        33   01 Jun 2027 15:50:00.315   01 Jun 2027 15:51:57.435           117.120                  Delhi          3660.000
        34   01 Jun 2027 15:57:03.608   01 Jun 2027 15:59:45.463           161.855                Novosib          5057.969
        35   01 Jun 2027 19:08:58.007   01 Jun 2027 19:12:28.937           210.930                 Moscow          6591.563
        36   01 Jun 2027 20:20:35.091   01 Jun 2027 20:22:43.351           128.260               CapeTown          4008.125
        37   01 Jun 2027 20:23:24.144   01 Jun 2027 20:25:20.744           116.600               CapeTown          3643.750
        38   01 Jun 2027 22:32:35.448   01 Jun 2027 22:34:46.455           131.007                Anadyr2          4093.969
        39   01 Jun 2027 22:34:52.490   01 Jun 2027 22:36:42.983           110.493               Magadan1          3452.906
        40   01 Jun 2027 22:36:42.983   01 Jun 2027 22:36:43.789             0.806               Magadan2            25.187
        41   01 Jun 2027 22:37:50.063   01 Jun 2027 22:38:01.109            11.046               Magadan1           345.188
        42   01 Jun 2027 22:38:11.496   01 Jun 2027 22:38:23.624            12.128               Magadan2           379.000
        43   01 Jun 2027 22:39:07.292   01 Jun 2027 22:39:56.667            49.375                Norilsk          1542.969
        44   01 Jun 2027 22:42:07.105   01 Jun 2027 22:42:35.769            28.664                Irkutsk           895.750
        45   01 Jun 2027 22:46:59.910   01 Jun 2027 22:47:24.049            24.139               Magadan2           754.344
        46   01 Jun 2027 23:26:54.172   01 Jun 2027 23:28:42.352           108.180            RioGallegos          3380.625
        47   01 Jun 2027 23:29:03.114   01 Jun 2027 23:29:59.917            56.803            RioGallegos          1775.094
        48   01 Jun 2027 23:33:01.043   01 Jun 2027 23:33:15.457            14.414            RioGallegos           450.438
        49   01 Jun 2027 23:35:14.854   01 Jun 2027 23:35:41.792            26.938            RioGallegos           841.813
        50   01 Jun 2027 23:37:41.290   01 Jun 2027 23:37:50.810             9.520            RioGallegos           297.500
        51   02 Jun 2027 00:08:09.889   02 Jun 2027 00:08:56.019            46.130                Anadyr1          1441.563
        52   02 Jun 2027 00:09:40.239   02 Jun 2027 00:10:14.715            34.476                Anadyr2          1077.375
        53   02 Jun 2027 00:10:24.010   02 Jun 2027 00:12:09.366           105.356                Norilsk          3292.375
        54   02 Jun 2027 00:12:40.080   02 Jun 2027 00:14:21.144           101.064               Magadan2          3158.250
        55   02 Jun 2027 00:15:31.791   02 Jun 2027 00:16:01.336            29.545                Irkutsk           923.281
        56   02 Jun 2027 00:16:05.802   02 Jun 2027 00:17:04.118            58.316                Novosib          1822.375
        57   02 Jun 2027 00:20:28.859   02 Jun 2027 00:21:10.585            41.726                Irkutsk          1303.938
        58   02 Jun 2027 00:24:03.184   02 Jun 2027 00:24:43.706            40.522                Irkutsk          1266.313
        59   02 Jun 2027 00:26:29.940   02 Jun 2027 00:26:33.230             3.290                Irkutsk           102.812
        60   02 Jun 2027 00:31:06.697   02 Jun 2027 00:31:10.241             3.544                Sumatra           110.750
        61   02 Jun 2027 00:31:48.862   02 Jun 2027 00:33:38.860           109.998                Sumatra          3437.437
        62   02 Jun 2027 01:09:07.378   02 Jun 2027 01:09:49.937            42.559            RioGallegos          1329.969
        63   02 Jun 2027 01:12:30.228   02 Jun 2027 01:12:41.987            11.759            RioGallegos           367.469
        64   02 Jun 2027 01:14:04.734   02 Jun 2027 01:15:07.563            62.829            RioGallegos          1963.406
        65   02 Jun 2027 01:43:14.421   02 Jun 2027 01:43:29.316            14.895                Anadyr1           465.469
        66   02 Jun 2027 01:44:57.060   02 Jun 2027 01:45:20.686            23.626                Anadyr1           738.313
        67   02 Jun 2027 01:46:22.842   02 Jun 2027 01:48:08.611           105.769                Norilsk          3305.281
        68   02 Jun 2027 01:49:24.380   02 Jun 2027 01:49:48.337            23.957                Norilsk           748.656
        69   02 Jun 2027 01:50:16.512   02 Jun 2027 01:52:03.402           106.890                Irkutsk          3340.312
        70   02 Jun 2027 01:52:26.669   02 Jun 2027 01:52:34.806             8.137                Novosib           254.281
        71   02 Jun 2027 01:52:57.723   02 Jun 2027 01:53:04.121             6.398                Novosib           199.938
        72   02 Jun 2027 01:53:18.852   02 Jun 2027 01:54:03.565            44.713                Novosib          1397.281
        73   02 Jun 2027 02:00:05.170   02 Jun 2027 02:01:24.380            79.210                  Delhi          2475.312
        74   02 Jun 2027 02:06:32.977   02 Jun 2027 02:08:47.442           134.465                Sumatra          4202.031
        75   02 Jun 2027 02:41:37.167   02 Jun 2027 02:41:52.511            15.344            RioGallegos           479.500
        76   02 Jun 2027 02:42:47.520   02 Jun 2027 02:43:04.885            17.365            RioGallegos           542.656
        77   02 Jun 2027 02:47:13.950   02 Jun 2027 02:47:39.016            25.066            RioGallegos           783.313
        78   02 Jun 2027 03:29:11.660   02 Jun 2027 03:29:17.382             5.722                Novosib           178.812
        79   02 Jun 2027 03:29:22.178   02 Jun 2027 03:31:44.635           142.457                Norilsk          4451.781
        80   02 Jun 2027 03:31:53.209   02 Jun 2027 03:32:13.646            20.437                Novosib           638.656
        81   02 Jun 2027 03:32:15.416   02 Jun 2027 03:35:06.404           170.988                Irkutsk          5343.375
        82   02 Jun 2027 03:38:17.846   02 Jun 2027 03:38:39.034            21.188                Novosib           662.125
        83   02 Jun 2027 05:09:00.784   02 Jun 2027 05:11:38.818           158.034                Novosib          4938.562
        84   02 Jun 2027 05:14:36.057   02 Jun 2027 05:14:53.233            17.176                 Moscow           536.750
        85   02 Jun 2027 05:28:00.732   02 Jun 2027 05:31:13.188           192.456               CapeTown          6014.250
        86   02 Jun 2027 05:34:35.691   02 Jun 2027 05:35:18.911            43.220               CapeTown          1350.625
        87   02 Jun 2027 05:36:04.763   02 Jun 2027 05:37:25.682            80.919               CapeTown          2528.719
        88   02 Jun 2027 06:27:09.802   02 Jun 2027 06:28:52.195           102.393               Magadan2          3199.781
        89   02 Jun 2027 06:31:02.018   02 Jun 2027 06:32:32.703            90.685               Magadan2          2833.906
        90   02 Jun 2027 06:32:49.974   02 Jun 2027 06:33:03.509            13.535               Magadan2           422.969
        91   02 Jun 2027 06:36:36.751   02 Jun 2027 06:36:46.665             9.914               Magadan1           309.812
        92   02 Jun 2027 06:46:39.670   02 Jun 2027 06:47:35.289            55.619              Murmansk1          1738.094
        93   02 Jun 2027 06:48:34.913   02 Jun 2027 06:49:22.297            47.384                 Moscow          1480.750
        94   02 Jun 2027 08:07:35.124   02 Jun 2027 08:08:42.233            67.109               Magadan1          2097.156
        95   02 Jun 2027 08:08:59.421   02 Jun 2027 08:09:51.089            51.668               Magadan1          1614.625
        96   02 Jun 2027 08:09:51.089   02 Jun 2027 08:10:25.905            34.816               Magadan2          1088.000
        97   02 Jun 2027 08:11:00.112   02 Jun 2027 08:13:11.137           131.025                Anadyr1          4094.531
        98   02 Jun 2027 09:41:47.833   02 Jun 2027 09:43:37.437           109.604               Magadan2          3425.125
        99   02 Jun 2027 09:43:45.493   02 Jun 2027 09:48:32.173           286.680                Anadyr1          8958.750
       100   02 Jun 2027 11:17:47.452   02 Jun 2027 11:18:19.690            32.238                Irkutsk          1007.438
       101   02 Jun 2027 11:18:21.756   02 Jun 2027 11:20:19.420           117.664               Magadan2          3677.000
       102   02 Jun 2027 11:20:22.375   02 Jun 2027 11:23:40.402           198.027               Magadan2          6188.344
       103   02 Jun 2027 11:24:07.049   02 Jun 2027 11:24:11.380             4.331                Norilsk           135.344
       104   02 Jun 2027 11:24:44.297   02 Jun 2027 11:24:50.935             6.638                Novosib           207.438
       105   02 Jun 2027 11:59:18.236   02 Jun 2027 12:00:10.344            52.108            RioGallegos          1628.375
       106   02 Jun 2027 12:02:29.521   02 Jun 2027 12:03:03.826            34.305            RioGallegos          1072.031
       107   02 Jun 2027 12:34:11.622   02 Jun 2027 12:34:50.230            38.608                Sumatra          1206.500
       108   02 Jun 2027 12:37:14.659   02 Jun 2027 12:37:30.318            15.659                Sumatra           489.344
       109   02 Jun 2027 12:46:53.543   02 Jun 2027 12:47:10.534            16.991                  Delhi           530.969
       110   02 Jun 2027 12:48:05.359   02 Jun 2027 12:49:28.534            83.175                Irkutsk          2599.219
       111   02 Jun 2027 12:50:14.599   02 Jun 2027 12:50:25.537            10.938                Novosib           341.812
       112   02 Jun 2027 12:51:24.825   02 Jun 2027 12:52:38.992            74.167                Irkutsk          2317.719
       113   02 Jun 2027 12:53:36.495   02 Jun 2027 12:54:23.734            47.239                Norilsk          1476.219
       114   02 Jun 2027 13:03:32.676   02 Jun 2027 13:03:57.887            25.211                Norilsk           787.844
       115   02 Jun 2027 13:38:28.694   02 Jun 2027 13:39:38.133            69.439            RioGallegos          2169.969
       116   02 Jun 2027 14:13:15.034   02 Jun 2027 14:17:14.769           239.735                Sumatra          7491.719
       117   02 Jun 2027 14:28:15.656   02 Jun 2027 14:28:45.514            29.858                Novosib           933.063
       118   02 Jun 2027 14:29:11.240   02 Jun 2027 14:31:23.571           132.331                Irkutsk          4135.344
       119   02 Jun 2027 16:00:22.966   02 Jun 2027 16:01:35.339            72.373                  Delhi          2261.656
       120   02 Jun 2027 16:02:47.906   02 Jun 2027 16:03:59.294            71.388                 Moscow          2230.875
       121   02 Jun 2027 16:06:09.609   02 Jun 2027 16:06:54.478            44.869              Murmansk2          1402.156
       122   02 Jun 2027 16:07:10.413   02 Jun 2027 16:07:31.040            20.627              Murmansk1           644.594
       123   02 Jun 2027 16:07:56.713   02 Jun 2027 16:10:37.154           160.441                Novosib          5013.781
       124   02 Jun 2027 16:13:35.045   02 Jun 2027 16:14:58.118            83.073                Norilsk          2596.031
       125   02 Jun 2027 17:17:51.008   02 Jun 2027 17:17:58.585             7.577               CapeTown           236.781
       126   02 Jun 2027 17:18:41.921   02 Jun 2027 17:19:41.104            59.183               CapeTown          1849.469
       127   02 Jun 2027 17:39:40.476   02 Jun 2027 17:39:43.033             2.557                 Moscow            79.906
       128   02 Jun 2027 17:40:33.617   02 Jun 2027 17:41:43.483            69.866                 Moscow          2183.312
       129   02 Jun 2027 17:42:58.217   02 Jun 2027 17:44:51.488           113.271              Murmansk2          3539.719
       130   02 Jun 2027 17:50:49.016   02 Jun 2027 17:51:51.697            62.681              Murmansk2          1958.781
       131   02 Jun 2027 17:57:20.943   02 Jun 2027 17:57:51.333            30.390                Anadyr2           949.687
       132   02 Jun 2027 17:59:30.828   02 Jun 2027 17:59:50.474            19.646                Anadyr1           613.938
       133   02 Jun 2027 18:52:10.502   02 Jun 2027 18:54:17.498           126.996               CapeTown          3968.625
       134   02 Jun 2027 19:04:28.964   02 Jun 2027 19:04:52.505            23.541               CapeTown           735.656
       135   02 Jun 2027 19:21:55.926   02 Jun 2027 19:27:16.558           320.632              Murmansk1         10019.750
       136   02 Jun 2027 19:28:23.073   02 Jun 2027 19:29:04.044            40.971              Murmansk1          1280.344
       137   02 Jun 2027 20:30:36.938   02 Jun 2027 20:32:13.639            96.701               CapeTown          3021.906
       138   02 Jun 2027 20:34:02.852   02 Jun 2027 20:35:10.516            67.664               CapeTown          2114.500
       139   02 Jun 2027 21:08:42.535   02 Jun 2027 21:09:58.140            75.605                Anadyr2          2362.656
       140   02 Jun 2027 21:11:06.173   02 Jun 2027 21:12:07.921            61.748               Magadan1          1929.625
       141   02 Jun 2027 21:12:07.921   02 Jun 2027 21:13:19.135            71.214               Magadan2          2225.437
       142   02 Jun 2027 21:13:25.699   02 Jun 2027 21:13:46.859            21.160               Magadan2           661.250
       143   02 Jun 2027 21:13:57.672   02 Jun 2027 21:14:08.028            10.356               Magadan1           323.625
       144   02 Jun 2027 21:15:27.910   02 Jun 2027 21:16:01.128            33.218               Magadan1          1038.063
       145   02 Jun 2027 21:20:05.050   02 Jun 2027 21:20:26.172            21.122               Magadan1           660.062
       146   02 Jun 2027 21:23:04.575   02 Jun 2027 21:23:07.239             2.664               Magadan1            83.250
       147   02 Jun 2027 22:44:36.097   02 Jun 2027 22:48:20.050           223.953                Anadyr1          6998.531
       148   02 Jun 2027 22:48:23.430   02 Jun 2027 22:50:26.485           123.055                Norilsk          3845.469
       149   02 Jun 2027 22:50:42.870   02 Jun 2027 22:51:54.750            71.880               Magadan1          2246.250
       150   02 Jun 2027 22:52:46.025   02 Jun 2027 22:53:58.260            72.235                Irkutsk          2257.344
       151   02 Jun 2027 22:57:06.645   02 Jun 2027 22:57:53.329            46.684                Irkutsk          1458.875
       152   02 Jun 2027 23:38:46.252   02 Jun 2027 23:40:07.263            81.011            RioGallegos          2531.594
       153   02 Jun 2027 23:40:51.882   02 Jun 2027 23:41:40.433            48.551            RioGallegos          1517.219
       154   02 Jun 2027 23:47:46.950   02 Jun 2027 23:48:15.822            28.872            RioGallegos           902.250
       155   02 Jun 2027 23:49:53.601   02 Jun 2027 23:50:17.313            23.712            RioGallegos           741.000
       156   03 Jun 2027 00:20:05.781   03 Jun 2027 00:20:37.810            32.029                Anadyr1          1000.906
       157   03 Jun 2027 00:21:21.031   03 Jun 2027 00:23:00.721            99.690                Anadyr2          3115.313
       158   03 Jun 2027 00:23:08.945   03 Jun 2027 00:24:11.600            62.655                Norilsk          1957.969
       159   03 Jun 2027 00:24:22.784   03 Jun 2027 00:24:51.361            28.577               Magadan1           893.031
       160   03 Jun 2027 00:25:26.630   03 Jun 2027 00:25:49.791            23.161               Magadan2           723.781
       161   03 Jun 2027 00:26:28.299   03 Jun 2027 00:27:36.008            67.709                Irkutsk          2115.906
       162   03 Jun 2027 00:27:38.782   03 Jun 2027 00:28:38.780            59.998                Novosib          1874.937
       163   03 Jun 2027 00:33:00.772   03 Jun 2027 00:33:45.589            44.817                Novosib          1400.531
       164   03 Jun 2027 00:40:09.821   03 Jun 2027 00:40:41.242            31.421                Sumatra           981.906
       165   03 Jun 2027 00:46:08.692   03 Jun 2027 00:46:55.896            47.204                Sumatra          1475.125
       166   03 Jun 2027 00:48:48.826   03 Jun 2027 00:49:44.130            55.304                Sumatra          1728.250
       167   03 Jun 2027 01:19:16.861   03 Jun 2027 01:20:04.252            47.391            RioGallegos          1480.969
       168   03 Jun 2027 01:26:14.582   03 Jun 2027 01:26:47.108            32.526            RioGallegos          1016.437
       169   03 Jun 2027 01:54:34.753   03 Jun 2027 01:55:15.016            40.263                Anadyr1          1258.219
       170   03 Jun 2027 01:56:09.977   03 Jun 2027 01:56:39.059            29.082                Anadyr1           908.813
       171   03 Jun 2027 01:56:39.059   03 Jun 2027 01:56:53.645            14.586                Anadyr2           455.813
       172   03 Jun 2027 01:58:25.258   03 Jun 2027 01:59:30.433            65.175                Norilsk          2036.719
       173   03 Jun 2027 01:59:40.648   03 Jun 2027 01:59:46.567             5.919                Norilsk           184.969
       174   03 Jun 2027 01:59:58.419   03 Jun 2027 02:00:10.909            12.490                Norilsk           390.312
       175   03 Jun 2027 02:02:18.424   03 Jun 2027 02:04:34.221           135.797                Novosib          4243.656
       176   03 Jun 2027 02:06:59.091   03 Jun 2027 02:07:21.918            22.827                Irkutsk           713.344
       177   03 Jun 2027 02:09:48.570   03 Jun 2027 02:10:41.149            52.579                  Delhi          1643.094
       178   03 Jun 2027 02:15:56.715   03 Jun 2027 02:16:03.177             6.462                  Delhi           201.938
       179   03 Jun 2027 02:16:34.794   03 Jun 2027 02:17:13.850            39.056                  Delhi          1220.500
       180   03 Jun 2027 02:20:20.175   03 Jun 2027 02:23:39.572           199.397                Sumatra          6231.156
       181   03 Jun 2027 02:54:32.856   03 Jun 2027 02:55:23.114            50.258            RioGallegos          1570.562
       182   03 Jun 2027 02:59:49.275   03 Jun 2027 03:00:04.393            15.118            RioGallegos           472.438
       183   03 Jun 2027 03:41:53.299   03 Jun 2027 03:42:01.573             8.274                Norilsk           258.563
       184   03 Jun 2027 03:42:29.294   03 Jun 2027 03:43:59.157            89.863                Norilsk          2808.219
       185   03 Jun 2027 03:44:09.250   03 Jun 2027 03:44:51.938            42.688              Murmansk1          1334.000
       186   03 Jun 2027 03:44:57.175   03 Jun 2027 03:45:21.156            23.981              Murmansk2           749.406
       187   03 Jun 2027 03:46:00.205   03 Jun 2027 03:46:27.689            27.484              Murmansk2           858.875
       188   03 Jun 2027 03:46:50.857   03 Jun 2027 03:46:55.976             5.119                Irkutsk           159.969
       189   03 Jun 2027 03:47:26.240   03 Jun 2027 03:49:32.765           126.525                  Delhi          3953.906
       190   03 Jun 2027 03:54:38.963   03 Jun 2027 03:56:11.312            92.349                  Delhi          2885.906
       191   03 Jun 2027 05:20:10.287   03 Jun 2027 05:20:20.378            10.091                Novosib           315.344
       192   03 Jun 2027 05:20:20.749   03 Jun 2027 05:20:31.327            10.578                 Moscow           330.562
       193   03 Jun 2027 05:20:34.802   03 Jun 2027 05:21:33.126            58.324                Novosib          1822.625
       194   03 Jun 2027 05:21:37.250   03 Jun 2027 05:22:36.380            59.130                 Moscow          1847.812
       195   03 Jun 2027 05:22:49.367   03 Jun 2027 05:23:20.883            31.516                 Moscow           984.875
       196   03 Jun 2027 05:23:39.867   03 Jun 2027 05:24:17.228            37.361                 Moscow          1167.531
       197   03 Jun 2027 05:24:46.400   03 Jun 2027 05:24:57.529            11.129              Murmansk2           347.781
       198   03 Jun 2027 05:28:05.085   03 Jun 2027 05:28:29.697            24.612                 Moscow           769.125
       199   03 Jun 2027 05:39:49.522   03 Jun 2027 05:42:11.689           142.167               CapeTown          4442.719
       200   03 Jun 2027 06:42:31.681   03 Jun 2027 06:43:31.895            60.214                Anadyr1          1881.687
       201   03 Jun 2027 06:43:36.338   03 Jun 2027 06:44:14.103            37.765                Anadyr2          1180.156
       202   03 Jun 2027 06:44:19.807   03 Jun 2027 06:44:36.871            17.064               Magadan2           533.250
       203   03 Jun 2027 06:45:18.617   03 Jun 2027 06:45:47.634            29.017               Magadan1           906.781
       204   03 Jun 2027 06:46:36.583   03 Jun 2027 06:46:54.642            18.059               Magadan1           564.344
       205   03 Jun 2027 06:47:35.026   03 Jun 2027 06:47:51.470            16.444                Anadyr1           513.875
       206   03 Jun 2027 06:54:55.397   03 Jun 2027 06:55:44.871            49.474                 Moscow          1546.062
       207   03 Jun 2027 06:56:48.482   03 Jun 2027 06:57:09.293            20.811                 Moscow           650.344
       208   03 Jun 2027 07:17:18.611   03 Jun 2027 07:17:30.655            12.044               CapeTown           376.375
       209   03 Jun 2027 07:20:05.125   03 Jun 2027 07:22:08.129           123.004               CapeTown          3843.875
       210   03 Jun 2027 08:17:01.854   03 Jun 2027 08:17:03.428             1.574               Magadan2            49.188
       211   03 Jun 2027 08:17:28.551   03 Jun 2027 08:17:42.214            13.663                Anadyr1           426.969
       212   03 Jun 2027 08:17:48.957   03 Jun 2027 08:18:16.979            28.022               Magadan2           875.687
       213   03 Jun 2027 08:18:35.705   03 Jun 2027 08:19:20.335            44.630                Anadyr2          1394.687
       214   03 Jun 2027 08:19:25.810   03 Jun 2027 08:19:40.753            14.943               Magadan1           466.969
       215   03 Jun 2027 08:20:17.621   03 Jun 2027 08:21:22.973            65.352                Anadyr2          2042.250
       216   03 Jun 2027 08:21:38.768   03 Jun 2027 08:21:41.208             2.440               Magadan2            76.250
       217   03 Jun 2027 08:22:40.325   03 Jun 2027 08:22:57.419            17.094                Anadyr2           534.187
       218   03 Jun 2027 08:23:58.025   03 Jun 2027 08:25:11.377            73.352                Anadyr1          2292.250
       219   03 Jun 2027 09:53:05.836   03 Jun 2027 09:53:06.653             0.817               Magadan1            25.531
       220   03 Jun 2027 09:53:06.653   03 Jun 2027 09:53:57.952            51.299               Magadan2          1603.094
       221   03 Jun 2027 09:54:51.119   03 Jun 2027 09:55:17.245            26.126               Magadan2           816.437
       222   03 Jun 2027 09:55:17.245   03 Jun 2027 09:56:59.217           101.972               Magadan1          3186.625
       223   03 Jun 2027 09:57:58.015   03 Jun 2027 09:58:21.723            23.708               Magadan2           740.875
       224   03 Jun 2027 09:58:55.376   03 Jun 2027 09:59:25.656            30.280               Magadan2           946.250
       225   03 Jun 2027 10:03:40.730   03 Jun 2027 10:03:43.886             3.156                Norilsk            98.625
       226   03 Jun 2027 10:36:02.824   03 Jun 2027 10:36:34.697            31.873            RioGallegos           996.031
       227   03 Jun 2027 10:38:25.102   03 Jun 2027 10:39:19.760            54.658            RioGallegos          1708.062
       228   03 Jun 2027 11:15:01.342   03 Jun 2027 11:15:24.334            22.992                Sumatra           718.500
       229   03 Jun 2027 11:28:39.538   03 Jun 2027 11:31:08.842           149.304               Magadan2          4665.750
       230   03 Jun 2027 11:32:38.915   03 Jun 2027 11:33:29.049            50.134                Irkutsk          1566.687
       231   03 Jun 2027 11:33:44.082   03 Jun 2027 11:33:56.439            12.357                Norilsk           386.156
       232   03 Jun 2027 11:34:33.628   03 Jun 2027 11:35:39.431            65.803                Novosib          2056.344
       233   03 Jun 2027 11:35:48.567   03 Jun 2027 11:35:48.685             0.118                Norilsk             3.688
       234   03 Jun 2027 11:36:03.133   03 Jun 2027 11:36:12.808             9.675                Norilsk           302.344
       235   03 Jun 2027 11:36:13.734   03 Jun 2027 11:36:37.752            24.018                Novosib           750.563
       236   03 Jun 2027 12:12:03.236   03 Jun 2027 12:13:07.352            64.116            RioGallegos          2003.625
       237   03 Jun 2027 12:46:09.442   03 Jun 2027 12:48:48.231           158.789                Sumatra          4962.156
       238   03 Jun 2027 13:01:16.705   03 Jun 2027 13:02:28.703            71.998                Novosib          2249.938
       239   03 Jun 2027 13:04:43.903   03 Jun 2027 13:05:35.552            51.649                Norilsk          1614.031
       240   03 Jun 2027 13:51:30.791   03 Jun 2027 13:55:14.705           223.914            RioGallegos          6997.312
       241   03 Jun 2027 14:38:14.880   03 Jun 2027 14:40:12.051           117.171                Novosib          3661.594
       242   03 Jun 2027 14:42:15.634   03 Jun 2027 14:43:09.891            54.257                Novosib          1695.531
       243   03 Jun 2027 14:43:13.318   03 Jun 2027 14:43:38.670            25.352                Norilsk           792.250
       244   03 Jun 2027 14:45:36.166   03 Jun 2027 14:46:52.965            76.799                Norilsk          2399.969
       245   03 Jun 2027 16:14:45.957   03 Jun 2027 16:15:58.982            73.025                 Moscow          2282.031
       246   03 Jun 2027 16:16:57.461   03 Jun 2027 16:18:03.904            66.443                 Moscow          2076.344
       247   03 Jun 2027 16:18:12.073   03 Jun 2027 16:19:09.782            57.709              Murmansk2          1803.406
       248   03 Jun 2027 16:21:33.125   03 Jun 2027 16:22:54.498            81.373              Murmansk1          2542.906
       249   03 Jun 2027 16:23:04.345   03 Jun 2027 16:24:05.442            61.097                Norilsk          1909.281
       250   03 Jun 2027 16:26:06.680   03 Jun 2027 16:27:51.684           105.004                Norilsk          3281.375
       251   03 Jun 2027 17:29:22.208   03 Jun 2027 17:29:58.722            36.514               CapeTown          1141.062
       252   03 Jun 2027 17:33:42.642   03 Jun 2027 17:33:50.578             7.936               CapeTown           248.000
       253   03 Jun 2027 17:38:39.532   03 Jun 2027 17:38:58.863            19.331               CapeTown           604.094
       254   03 Jun 2027 17:52:05.534   03 Jun 2027 17:52:33.835            28.301                 Moscow           884.406
       255   03 Jun 2027 17:53:38.696   03 Jun 2027 17:55:46.166           127.470                 Moscow          3983.437
       256   03 Jun 2027 17:57:02.634   03 Jun 2027 17:57:10.944             8.310                 Moscow           259.688
       257   03 Jun 2027 17:57:32.330   03 Jun 2027 17:59:10.136            97.806              Murmansk1          3056.438
       258   03 Jun 2027 18:01:33.659   03 Jun 2027 18:02:03.024            29.365                 Moscow           917.656
       259   03 Jun 2027 18:09:52.113   03 Jun 2027 18:10:25.339            33.226                Anadyr2          1038.313
       260   03 Jun 2027 19:04:15.453   03 Jun 2027 19:06:02.579           107.126               CapeTown          3347.687
       261   03 Jun 2027 19:07:50.407   03 Jun 2027 19:08:23.577            33.170               CapeTown          1036.563
       262   03 Jun 2027 19:34:32.659   03 Jun 2027 19:40:04.447           331.788              Murmansk2         10368.375
       263   03 Jun 2027 19:40:07.787   03 Jun 2027 19:42:19.550           131.763              Murmansk2          4117.594
       264   03 Jun 2027 20:44:38.072   03 Jun 2027 20:45:41.277            63.205               CapeTown          1975.156
       265   03 Jun 2027 21:20:44.372   03 Jun 2027 21:23:51.202           186.830                Anadyr2          5838.438
       266   03 Jun 2027 21:23:55.553   03 Jun 2027 21:24:45.774            50.221               Magadan1          1569.406
       267   03 Jun 2027 21:25:12.683   03 Jun 2027 21:25:24.762            12.079               Magadan1           377.469
       268   03 Jun 2027 21:25:44.007   03 Jun 2027 21:25:55.976            11.969               Magadan2           374.031
       269   03 Jun 2027 21:27:28.068   03 Jun 2027 21:28:09.185            41.117               Magadan1          1284.906
       270   03 Jun 2027 22:18:56.288   03 Jun 2027 22:19:54.611            58.323            RioGallegos          1822.594
       271   03 Jun 2027 22:56:36.395   03 Jun 2027 23:00:45.010           248.615                Anadyr1          7769.219
       272   03 Jun 2027 23:00:49.351   03 Jun 2027 23:01:29.058            39.707               Magadan1          1240.844
       273   03 Jun 2027 23:01:34.605   03 Jun 2027 23:01:56.518            21.913               Magadan1           684.781
       274   03 Jun 2027 23:02:25.568   03 Jun 2027 23:02:36.275            10.707               Magadan2           334.594
       275   03 Jun 2027 23:03:24.200   03 Jun 2027 23:03:59.625            35.425                Norilsk          1107.031
       276   03 Jun 2027 23:04:07.420   03 Jun 2027 23:05:15.846            68.426                Irkutsk          2138.312
       277   03 Jun 2027 23:06:09.078   03 Jun 2027 23:06:28.906            19.828                Irkutsk           619.625
       278   03 Jun 2027 23:06:44.413   03 Jun 2027 23:07:01.044            16.631                Irkutsk           519.719
       279   03 Jun 2027 23:20:01.913   03 Jun 2027 23:21:28.050            86.137                Sumatra          2691.781
       280   03 Jun 2027 23:22:54.443   03 Jun 2027 23:24:12.146            77.703                Sumatra          2428.219
       281   04 Jun 2027 00:00:32.559   04 Jun 2027 00:01:17.612            45.053            RioGallegos          1407.906
       282   04 Jun 2027 00:32:00.678   04 Jun 2027 00:33:25.896            85.218                Anadyr1          2663.062
       283   04 Jun 2027 00:34:27.096   04 Jun 2027 00:36:13.853           106.757                Norilsk          3336.156
       284   04 Jun 2027 00:37:02.780   04 Jun 2027 00:38:50.192           107.412               Magadan1          3356.625
       285   04 Jun 2027 00:39:19.001   04 Jun 2027 00:40:07.594            48.593                Irkutsk          1518.531
       286   04 Jun 2027 00:45:24.312   04 Jun 2027 00:47:00.293            95.981                Novosib          2999.406
       287   04 Jun 2027 00:52:10.480   04 Jun 2027 00:52:17.456             6.976                Sumatra           218.000
       288   04 Jun 2027 00:54:19.743   04 Jun 2027 00:54:44.889            25.146                Sumatra           785.812
       289   04 Jun 2027 00:56:20.181   04 Jun 2027 00:56:25.674             5.493                Sumatra           171.656
       290   04 Jun 2027 00:56:49.556   04 Jun 2027 00:57:59.680            70.124                Sumatra          2191.375
       291   04 Jun 2027 01:30:52.186   04 Jun 2027 01:31:20.202            28.016            RioGallegos           875.500
       292   04 Jun 2027 01:32:43.098   04 Jun 2027 01:32:54.403            11.305            RioGallegos           353.281
       293   04 Jun 2027 01:35:16.889   04 Jun 2027 01:35:21.772             4.883            RioGallegos           152.594
       294   04 Jun 2027 01:35:39.946   04 Jun 2027 01:36:03.035            23.089            RioGallegos           721.531
       295   04 Jun 2027 02:06:19.785   04 Jun 2027 02:07:15.312            55.527                Anadyr1          1735.219
       296   04 Jun 2027 02:08:11.293   04 Jun 2027 02:08:44.218            32.925                Anadyr2          1028.906
       297   04 Jun 2027 02:08:44.218   04 Jun 2027 02:08:56.885            12.667                Anadyr1           395.844
       298   04 Jun 2027 02:10:27.638   04 Jun 2027 02:11:44.150            76.512                Norilsk          2391.000
       299   04 Jun 2027 02:13:06.582   04 Jun 2027 02:13:34.567            27.985                Norilsk           874.531
       300   04 Jun 2027 02:13:45.062   04 Jun 2027 02:14:47.247            62.185              Murmansk2          1943.281
       301   04 Jun 2027 02:14:47.603   04 Jun 2027 02:15:48.906            61.303                Irkutsk          1915.719
       302   04 Jun 2027 02:15:54.033   04 Jun 2027 02:16:33.290            39.257                Novosib          1226.781
       303   04 Jun 2027 02:27:42.498   04 Jun 2027 02:27:56.336            13.838                  Delhi           432.437
       304   04 Jun 2027 02:28:35.048   04 Jun 2027 02:29:02.618            27.570                  Delhi           861.562
       305   04 Jun 2027 02:33:43.559   04 Jun 2027 02:33:54.730            11.171                  Delhi           349.094
       306   04 Jun 2027 03:03:14.884   04 Jun 2027 03:04:25.271            70.387            RioGallegos          2199.594
       307   04 Jun 2027 03:05:13.110   04 Jun 2027 03:07:47.113           154.003            RioGallegos          4812.594
       308   04 Jun 2027 03:10:47.597   04 Jun 2027 03:11:26.951            39.354            RioGallegos          1229.813
       309   04 Jun 2027 03:55:49.098   04 Jun 2027 04:00:49.868           300.770                Novosib          9399.063
       310   04 Jun 2027 04:02:22.755   04 Jun 2027 04:05:31.542           188.787                  Delhi          5899.594
       311   04 Jun 2027 05:31:53.809   04 Jun 2027 05:32:28.554            34.745                Novosib          1085.781
       312   04 Jun 2027 05:33:26.817   04 Jun 2027 05:34:24.513            57.696                 Moscow          1803.000
       313   04 Jun 2027 05:34:50.431   04 Jun 2027 05:35:49.060            58.629                 Moscow          1832.156
       314   04 Jun 2027 05:35:55.472   04 Jun 2027 05:36:31.800            36.328                 Moscow          1135.250
       315   04 Jun 2027 05:36:36.157   04 Jun 2027 05:36:55.196            19.039              Murmansk2           594.969
       316   04 Jun 2027 05:51:43.430   04 Jun 2027 05:54:42.076           178.646               CapeTown          5582.688
       317   04 Jun 2027 06:54:48.101   04 Jun 2027 06:55:05.825            17.724                Anadyr2           553.875
       318   04 Jun 2027 06:55:08.400   04 Jun 2027 06:56:01.275            52.875               Magadan1          1652.344
       319   04 Jun 2027 06:56:14.948   04 Jun 2027 06:56:30.876            15.928               Magadan1           497.750
       320   04 Jun 2027 06:56:54.205   04 Jun 2027 06:56:57.779             3.574               Magadan1           111.687
       321   04 Jun 2027 06:57:06.725   04 Jun 2027 06:57:29.325            22.600                Anadyr2           706.250
       322   04 Jun 2027 06:58:16.625   04 Jun 2027 06:59:18.514            61.889                Anadyr2          1934.031
       323   04 Jun 2027 07:30:08.861   04 Jun 2027 07:30:45.825            36.964               CapeTown          1155.125
       324   04 Jun 2027 07:32:27.909   04 Jun 2027 07:34:39.200           131.291               CapeTown          4102.844
       325   04 Jun 2027 08:28:50.380   04 Jun 2027 08:29:30.109            39.729                Anadyr2          1241.531
       326   04 Jun 2027 08:30:00.843   04 Jun 2027 08:30:09.067             8.224               Magadan1           257.000
       327   04 Jun 2027 08:30:17.219   04 Jun 2027 08:30:50.804            33.585                Anadyr1          1049.531
       328   04 Jun 2027 08:31:10.882   04 Jun 2027 08:31:49.069            38.187               Magadan1          1193.344
       329   04 Jun 2027 08:32:02.296   04 Jun 2027 08:33:15.465            73.169                Anadyr2          2286.531
       330   04 Jun 2027 08:33:21.775   04 Jun 2027 08:33:39.511            17.736               Magadan1           554.250
       331   04 Jun 2027 08:34:25.063   04 Jun 2027 08:34:53.485            28.422                Anadyr2           888.187
       332   04 Jun 2027 09:16:01.226   04 Jun 2027 09:16:11.034             9.808            RioGallegos           306.500
       333   04 Jun 2027 09:17:46.317   04 Jun 2027 09:18:07.206            20.889            RioGallegos           652.781
       334   04 Jun 2027 09:20:27.244   04 Jun 2027 09:20:39.797            12.553            RioGallegos           392.281
       335   04 Jun 2027 10:04:02.010   04 Jun 2027 10:05:07.158            65.148               Magadan1          2035.875
       336   04 Jun 2027 10:05:33.211   04 Jun 2027 10:05:53.174            19.963               Magadan1           623.844
       337   04 Jun 2027 10:06:10.660   04 Jun 2027 10:06:46.186            35.526               Magadan2          1110.187
       338   04 Jun 2027 10:07:43.485   04 Jun 2027 10:08:10.321            26.836                Norilsk           838.625
       339   04 Jun 2027 10:08:21.204   04 Jun 2027 10:08:41.561            20.357                Norilsk           636.156
       340   04 Jun 2027 10:08:59.222   04 Jun 2027 10:10:13.761            74.539               Magadan2          2329.344
       341   04 Jun 2027 10:10:35.719   04 Jun 2027 10:10:42.593             6.874               Magadan2           214.813
       342   04 Jun 2027 10:11:21.075   04 Jun 2027 10:11:22.025             0.950                Norilsk            29.687
       343   04 Jun 2027 10:11:23.135   04 Jun 2027 10:11:39.892            16.757                Irkutsk           523.656
       344   04 Jun 2027 10:12:02.395   04 Jun 2027 10:12:03.947             1.552                Norilsk            48.500
       345   04 Jun 2027 10:12:24.629   04 Jun 2027 10:12:45.961            21.332                Norilsk           666.625
       346   04 Jun 2027 10:47:49.229   04 Jun 2027 10:48:03.898            14.669            RioGallegos           458.406
       347   04 Jun 2027 10:48:36.896   04 Jun 2027 10:48:39.955             3.059            RioGallegos            95.594
       348   04 Jun 2027 10:49:11.021   04 Jun 2027 10:49:54.125            43.104            RioGallegos          1347.000
       349   04 Jun 2027 11:25:20.318   04 Jun 2027 11:27:06.710           106.392                Sumatra          3324.750
       350   04 Jun 2027 11:41:48.708   04 Jun 2027 11:43:45.411           116.703               Magadan1          3646.969
       351   04 Jun 2027 11:44:43.992   04 Jun 2027 11:45:25.124            41.132                Irkutsk          1285.375
       352   04 Jun 2027 11:45:35.046   04 Jun 2027 11:45:41.145             6.099                Norilsk           190.594
       353   04 Jun 2027 11:45:43.323   04 Jun 2027 11:45:54.207            10.884                Novosib           340.125
       354   04 Jun 2027 11:45:56.153   04 Jun 2027 11:46:28.479            32.326                Norilsk          1010.188
       355   04 Jun 2027 11:46:35.665   04 Jun 2027 11:47:25.623            49.958                Irkutsk          1561.188
       356   04 Jun 2027 11:47:31.411   04 Jun 2027 11:47:50.121            18.710                Norilsk           584.688
       357   04 Jun 2027 11:47:57.086   04 Jun 2027 11:48:15.677            18.591                Norilsk           580.969
       358   04 Jun 2027 11:48:16.904   04 Jun 2027 11:48:40.449            23.545                Novosib           735.781
       359   04 Jun 2027 12:23:41.243   04 Jun 2027 12:24:43.183            61.940            RioGallegos          1935.625
       360   04 Jun 2027 12:26:56.680   04 Jun 2027 12:28:14.981            78.301            RioGallegos          2446.906
       361   04 Jun 2027 12:59:44.523   04 Jun 2027 13:00:34.259            49.736                Sumatra          1554.250
       362   04 Jun 2027 13:11:20.912   04 Jun 2027 13:12:23.421            62.509                  Delhi          1953.406
       363   04 Jun 2027 13:12:44.824   04 Jun 2027 13:13:36.215            51.391                Irkutsk          1605.969
       364   04 Jun 2027 13:15:24.339   04 Jun 2027 13:15:35.482            11.143                Novosib           348.219
       365   04 Jun 2027 13:16:48.920   04 Jun 2027 13:17:42.811            53.891                Irkutsk          1684.094
       366   04 Jun 2027 13:23:49.912   04 Jun 2027 13:24:13.829            23.917                Norilsk           747.406
       367   04 Jun 2027 14:04:59.940   04 Jun 2027 14:08:33.938           213.998            RioGallegos          6687.438
       368   04 Jun 2027 14:47:20.608   04 Jun 2027 14:47:25.449             4.841                  Delhi           151.281
       369   04 Jun 2027 14:50:40.910   04 Jun 2027 14:51:29.237            48.327                Novosib          1510.219
       370   04 Jun 2027 14:52:06.909   04 Jun 2027 14:54:15.580           128.671                Novosib          4020.969
       371   04 Jun 2027 14:54:40.460   04 Jun 2027 14:54:45.814             5.354                Norilsk           167.312
       372   04 Jun 2027 14:55:46.856   04 Jun 2027 14:55:49.329             2.473                Novosib            77.281
       373   04 Jun 2027 14:56:00.692   04 Jun 2027 14:56:51.747            51.055                Norilsk          1595.469
       374   04 Jun 2027 14:58:01.869   04 Jun 2027 15:00:59.074           177.205                Novosib          5537.656
       375   04 Jun 2027 16:27:57.787   04 Jun 2027 16:28:44.256            46.469                 Moscow          1452.156
       376   04 Jun 2027 16:30:16.118   04 Jun 2027 16:31:08.377            52.259              Murmansk1          1633.094
       377   04 Jun 2027 16:34:54.177   04 Jun 2027 16:39:27.158           272.981                Norilsk          8530.656
       378   04 Jun 2027 18:04:35.424   04 Jun 2027 18:05:38.100            62.676                 Moscow          1958.625
       379   04 Jun 2027 18:07:33.632   04 Jun 2027 18:08:36.053            62.421              Murmansk1          1950.656
       380   04 Jun 2027 18:08:48.966   04 Jun 2027 18:09:35.170            46.204                 Moscow          1443.875
       381   04 Jun 2027 18:11:09.017   04 Jun 2027 18:11:21.860            12.843              Murmansk2           401.344
       382   04 Jun 2027 18:11:21.860   04 Jun 2027 18:11:58.704            36.844              Murmansk1          1151.375
       383   04 Jun 2027 18:16:06.034   04 Jun 2027 18:17:04.061            58.027              Murmansk2          1813.344
       384   04 Jun 2027 18:25:14.135   04 Jun 2027 18:25:19.036             4.901                Anadyr2           153.156
       385   04 Jun 2027 18:25:57.640   04 Jun 2027 18:26:02.822             5.182                Anadyr2           161.938
       386   04 Jun 2027 18:26:13.326   04 Jun 2027 18:26:21.515             8.189                Anadyr2           255.906
       387   04 Jun 2027 18:29:48.325   04 Jun 2027 18:30:06.622            18.297                Anadyr1           571.781
       388   04 Jun 2027 18:30:23.080   04 Jun 2027 18:30:42.717            19.637                Anadyr1           613.656
       389   04 Jun 2027 19:16:23.302   04 Jun 2027 19:18:05.559           102.257               CapeTown          3195.531
       390   04 Jun 2027 19:24:22.067   04 Jun 2027 19:25:07.888            45.821               CapeTown          1431.906
       391   04 Jun 2027 19:47:13.007   04 Jun 2027 19:54:20.454           427.447              Murmansk1         13357.719
       392   04 Jun 2027 21:32:46.159   04 Jun 2027 21:34:25.615            99.456                Anadyr2          3108.000
       393   04 Jun 2027 21:34:34.443   04 Jun 2027 21:35:47.958            73.515                Anadyr1          2297.344
       394   04 Jun 2027 21:35:54.859   04 Jun 2027 21:36:07.431            12.572                Anadyr1           392.875
       395   04 Jun 2027 21:36:19.592   04 Jun 2027 21:38:33.608           134.016               Magadan1          4188.000
       396   04 Jun 2027 21:39:27.222   04 Jun 2027 21:40:26.289            59.067               Magadan2          1845.844
       397   04 Jun 2027 21:40:41.598   04 Jun 2027 21:40:50.338             8.740               Magadan2           273.125
       398   04 Jun 2027 21:44:52.992   04 Jun 2027 21:44:54.457             1.465               Magadan1            45.781
       399   04 Jun 2027 21:45:54.869   04 Jun 2027 21:46:07.224            12.355               Magadan1           386.094
       400   04 Jun 2027 22:29:05.058   04 Jun 2027 22:31:30.820           145.762            RioGallegos          4555.062
       401   04 Jun 2027 22:33:13.859   04 Jun 2027 22:33:49.999            36.140            RioGallegos          1129.375
       402   04 Jun 2027 23:08:36.279   04 Jun 2027 23:09:53.152            76.873                Anadyr1          2402.281
       403   04 Jun 2027 23:09:53.438   04 Jun 2027 23:10:29.253            35.815                Anadyr2          1119.219
       404   04 Jun 2027 23:10:42.922   04 Jun 2027 23:11:49.012            66.090                Norilsk          2065.312
       405   04 Jun 2027 23:12:10.117   04 Jun 2027 23:12:46.285            36.168               Magadan1          1130.250
       406   04 Jun 2027 23:12:52.483   04 Jun 2027 23:13:10.402            17.919                Norilsk           559.969
       407   04 Jun 2027 23:13:39.378   04 Jun 2027 23:13:46.026             6.648                Norilsk           207.750
       408   04 Jun 2027 23:14:00.339   04 Jun 2027 23:14:06.327             5.988               Magadan2           187.125
       409   04 Jun 2027 23:14:14.524   04 Jun 2027 23:15:22.688            68.164               Magadan1          2130.125
       410   04 Jun 2027 23:17:22.352   04 Jun 2027 23:17:51.328            28.976                Irkutsk           905.500
       411   04 Jun 2027 23:19:39.349   04 Jun 2027 23:19:55.559            16.210                Irkutsk           506.562
       412   04 Jun 2027 23:30:47.782   04 Jun 2027 23:32:45.370           117.588                Sumatra          3674.625
       413   04 Jun 2027 23:38:51.642   04 Jun 2027 23:39:09.053            17.411                Sumatra           544.094
       414   05 Jun 2027 00:09:44.622   05 Jun 2027 00:10:01.523            16.901            RioGallegos           528.156
       415   05 Jun 2027 00:10:28.393   05 Jun 2027 00:10:40.088            11.695            RioGallegos           365.469
       416   05 Jun 2027 00:11:06.770   05 Jun 2027 00:11:44.459            37.689            RioGallegos          1177.781
       417   05 Jun 2027 00:43:54.500   05 Jun 2027 00:44:43.566            49.066                Anadyr1          1533.313
       418   05 Jun 2027 00:45:21.170   05 Jun 2027 00:46:03.204            42.034                Anadyr1          1313.562
       419   05 Jun 2027 00:46:03.204   05 Jun 2027 00:46:10.198             6.994                Anadyr2           218.562
       420   05 Jun 2027 00:46:29.026   05 Jun 2027 00:48:16.097           107.071                Norilsk          3345.969
       421   05 Jun 2027 00:48:45.496   05 Jun 2027 00:49:07.095            21.599               Magadan2           674.969
       422   05 Jun 2027 00:50:25.076   05 Jun 2027 00:53:12.691           167.615                Irkutsk          5237.969
       423   05 Jun 2027 00:58:52.591   05 Jun 2027 00:58:59.179             6.588                Irkutsk           205.875
       424   05 Jun 2027 01:00:14.549   05 Jun 2027 01:00:37.803            23.254                Novosib           726.688
       425   05 Jun 2027 01:01:21.090   05 Jun 2027 01:01:44.248            23.158                  Delhi           723.687
       426   05 Jun 2027 01:02:21.604   05 Jun 2027 01:02:32.191            10.587                  Delhi           330.844
       427   05 Jun 2027 01:03:37.741   05 Jun 2027 01:05:45.676           127.935                  Delhi          3997.969
       428   05 Jun 2027 01:44:20.466   05 Jun 2027 01:44:26.057             5.591            RioGallegos           174.719
       429   05 Jun 2027 01:47:14.833   05 Jun 2027 01:47:36.960            22.127            RioGallegos           691.469
       430   05 Jun 2027 01:48:55.833   05 Jun 2027 01:49:42.800            46.967            RioGallegos          1467.719
       431   05 Jun 2027 02:19:15.245   05 Jun 2027 02:19:20.539             5.294                Anadyr1           165.437
       432   05 Jun 2027 02:19:27.380   05 Jun 2027 02:20:05.407            38.027                Anadyr1          1188.344
       433   05 Jun 2027 02:22:29.970   05 Jun 2027 02:23:49.987            80.017                Norilsk          2500.531
       434   05 Jun 2027 02:25:25.664   05 Jun 2027 02:26:29.814            64.150              Murmansk2          2004.688
       435   05 Jun 2027 02:26:31.529   05 Jun 2027 02:27:54.294            82.765                Irkutsk          2586.406
       436   05 Jun 2027 02:31:04.951   05 Jun 2027 02:31:22.454            17.503                Irkutsk           546.969
       437   05 Jun 2027 02:33:38.788   05 Jun 2027 02:34:19.979            41.191                  Delhi          1287.219
       438   05 Jun 2027 02:37:23.932   05 Jun 2027 02:39:04.711           100.779                  Delhi          3149.344
       439   05 Jun 2027 03:15:31.666   05 Jun 2027 03:15:34.827             3.161            RioGallegos            98.781
       440   05 Jun 2027 03:16:33.909   05 Jun 2027 03:17:53.463            79.554            RioGallegos          2486.062
       441   05 Jun 2027 03:18:38.847   05 Jun 2027 03:19:55.490            76.643            RioGallegos          2395.094
       442   05 Jun 2027 03:20:14.526   05 Jun 2027 03:20:23.086             8.560            RioGallegos           267.500
       443   05 Jun 2027 04:07:27.425   05 Jun 2027 04:09:19.859           112.434                Irkutsk          3513.562
       444   05 Jun 2027 04:09:29.660   05 Jun 2027 04:09:51.990            22.330                Norilsk           697.812
       445   05 Jun 2027 04:09:52.884   05 Jun 2027 04:11:23.658            90.774              Murmansk2          2836.688
       446   05 Jun 2027 04:11:57.496   05 Jun 2027 04:12:44.384            46.888                Novosib          1465.250
       447   05 Jun 2027 04:13:15.337   05 Jun 2027 04:13:57.531            42.194                Novosib          1318.563
       448   05 Jun 2027 04:14:10.953   05 Jun 2027 04:18:59.417           288.464                  Delhi          9014.500
       449   05 Jun 2027 05:43:34.162   05 Jun 2027 05:44:37.787            63.625                Novosib          1988.281
       450   05 Jun 2027 05:45:16.686   05 Jun 2027 05:45:42.839            26.153                Norilsk           817.281
       451   05 Jun 2027 05:47:12.499   05 Jun 2027 05:47:27.270            14.771                 Moscow           461.594
       452   05 Jun 2027 05:47:47.331   05 Jun 2027 05:48:42.924            55.593                 Moscow          1737.281
       453   05 Jun 2027 05:48:49.729   05 Jun 2027 05:49:19.190            29.461              Murmansk2           920.656
       454   05 Jun 2027 06:03:42.369   05 Jun 2027 06:06:18.223           155.854               CapeTown          4870.438
       455   05 Jun 2027 07:06:42.510   05 Jun 2027 07:07:34.965            52.455                Anadyr1          1639.219
       456   05 Jun 2027 07:07:43.956   05 Jun 2027 07:09:05.690            81.734                Anadyr2          2554.187
       457   05 Jun 2027 07:11:54.771   05 Jun 2027 07:12:26.958            32.187                Anadyr1          1005.844
       458   05 Jun 2027 07:43:20.423   05 Jun 2027 07:44:19.338            58.915               CapeTown          1841.094
       459   05 Jun 2027 08:42:47.003   05 Jun 2027 08:43:12.378            25.375                Anadyr2           792.969
       460   05 Jun 2027 08:43:16.678   05 Jun 2027 08:43:38.378            21.700                Anadyr2           678.125
       461   05 Jun 2027 08:44:00.190   05 Jun 2027 08:44:35.970            35.780               Magadan1          1118.125
       462   05 Jun 2027 08:44:57.031   05 Jun 2027 08:45:07.754            10.723               Magadan1           335.094
       463   05 Jun 2027 08:45:24.325   05 Jun 2027 08:46:47.934            83.609                Anadyr2          2612.781
       464   05 Jun 2027 10:17:08.045   05 Jun 2027 10:17:42.869            34.824               Magadan1          1088.250
       465   05 Jun 2027 10:18:04.074   05 Jun 2027 10:18:42.151            38.077               Magadan1          1189.906
       466   05 Jun 2027 10:18:51.873   05 Jun 2027 10:20:58.569           126.696               Magadan2          3959.250
       467   05 Jun 2027 10:22:02.987   05 Jun 2027 10:23:06.815            63.828               Magadan2          1994.625
       468   05 Jun 2027 10:23:19.835   05 Jun 2027 10:23:43.857            24.022               Magadan2           750.687
       469   05 Jun 2027 10:24:01.870   05 Jun 2027 10:24:17.719            15.849                Norilsk           495.281
       470   05 Jun 2027 10:24:25.530   05 Jun 2027 10:24:40.156            14.626                Norilsk           457.063
       471   05 Jun 2027 10:26:07.215   05 Jun 2027 10:26:40.308            33.093              Murmansk1          1034.156
       472   05 Jun 2027 10:59:38.884   05 Jun 2027 11:00:31.911            53.027            RioGallegos          1657.094
       473   05 Jun 2027 11:36:21.185   05 Jun 2027 11:38:18.778           117.593                Sumatra          3674.781
       474   05 Jun 2027 11:55:40.136   05 Jun 2027 11:56:23.040            42.904               Magadan1          1340.750
       475   05 Jun 2027 11:56:48.288   05 Jun 2027 11:57:24.373            36.085                Irkutsk          1127.656
       476   05 Jun 2027 11:57:48.248   05 Jun 2027 11:57:56.250             8.002                Norilsk           250.062
       477   05 Jun 2027 11:58:01.260   05 Jun 2027 11:58:06.543             5.283                Novosib           165.094
       478   05 Jun 2027 11:58:09.669   05 Jun 2027 11:58:51.752            42.083                Novosib          1315.094
       479   05 Jun 2027 11:59:08.834   05 Jun 2027 11:59:45.316            36.482                Irkutsk          1140.063
       480   05 Jun 2027 11:59:47.671   05 Jun 2027 11:59:51.871             4.200                Norilsk           131.250
       481   05 Jun 2027 11:59:58.776   05 Jun 2027 12:00:11.441            12.665                Novosib           395.781
       482   05 Jun 2027 12:00:12.253   05 Jun 2027 12:00:42.538            30.285                Irkutsk           946.406
