uniorb/output/strategy_4/Drop/Drop_KinoSat_111010.txt

KinoSat_111010
-------------------------
    Access    *     Start Time (UTCG)     *     Stop Time (UTCG)  *   Duration (s)        *       Station  *  Data (Mbytes)
         1   01 Jun 2027 04:16:29.285   01 Jun 2027 04:16:53.893            24.608                Anadyr1           769.000
         2   01 Jun 2027 04:16:55.923   01 Jun 2027 04:18:32.801            96.878                Anadyr1          3027.437
         3   01 Jun 2027 04:19:06.945   01 Jun 2027 04:19:12.594             5.649               Magadan2           176.531
         4   01 Jun 2027 04:19:39.658   01 Jun 2027 04:20:03.572            23.914               Magadan2           747.313
         5   01 Jun 2027 05:53:16.679   01 Jun 2027 05:54:16.232            59.553                Irkutsk          1861.031
         6   01 Jun 2027 05:54:34.444   01 Jun 2027 05:55:46.350            71.906               Magadan2          2247.062
         7   01 Jun 2027 07:29:30.413   01 Jun 2027 07:30:30.051            59.638               Magadan2          1863.688
         8   01 Jun 2027 07:30:30.801   01 Jun 2027 07:32:21.491           110.690                Irkutsk          3459.063
         9   01 Jun 2027 07:32:33.763   01 Jun 2027 07:32:46.441            12.678              Murmansk1           396.188
        10   01 Jun 2027 07:32:52.832   01 Jun 2027 07:33:06.069            13.237               Magadan1           413.656
        11   01 Jun 2027 07:33:19.887   01 Jun 2027 07:34:26.488            66.601                Novosib          2081.281
        12   01 Jun 2027 07:34:34.844   01 Jun 2027 07:36:44.941           130.097              Murmansk2          4065.531
        13   01 Jun 2027 07:38:14.637   01 Jun 2027 07:38:38.429            23.792              Murmansk1           743.500
        14   01 Jun 2027 08:08:08.528   01 Jun 2027 08:09:45.091            96.563            RioGallegos          3017.594
        15   01 Jun 2027 08:10:31.566   01 Jun 2027 08:11:25.620            54.054            RioGallegos          1689.188
        16   01 Jun 2027 08:43:42.163   01 Jun 2027 08:45:35.987           113.824                Sumatra          3557.000
        17   01 Jun 2027 09:05:32.097   01 Jun 2027 09:05:48.689            16.592                Irkutsk           518.500
        18   01 Jun 2027 09:06:06.305   01 Jun 2027 09:09:25.369           199.064                Irkutsk          6220.750
        19   01 Jun 2027 10:42:58.369   01 Jun 2027 10:43:01.563             3.194                Novosib            99.812
        20   01 Jun 2027 10:43:01.793   01 Jun 2027 10:43:27.860            26.067                Norilsk           814.594
        21   01 Jun 2027 10:43:46.972   01 Jun 2027 10:46:20.608           153.636              Murmansk1          4801.125
        22   01 Jun 2027 10:46:29.017   01 Jun 2027 10:47:09.417            40.400                Norilsk          1262.500
        23   01 Jun 2027 12:05:07.645   01 Jun 2027 12:05:09.048             1.403                  Delhi            43.844
        24   01 Jun 2027 12:05:44.275   01 Jun 2027 12:06:37.341            53.066                  Delhi          1658.313
        25   01 Jun 2027 12:07:16.147   01 Jun 2027 12:08:06.783            50.636                  Delhi          1582.375
        26   01 Jun 2027 12:09:10.936   01 Jun 2027 12:09:44.016            33.080                  Delhi          1033.750
        27   01 Jun 2027 12:12:03.052   01 Jun 2027 12:14:35.764           152.712                 Moscow          4772.250
        28   01 Jun 2027 12:15:08.506   01 Jun 2027 12:17:50.414           161.908              Murmansk1          5059.625
        29   01 Jun 2027 13:29:48.434   01 Jun 2027 13:30:40.144            51.710               CapeTown          1615.937
        30   01 Jun 2027 13:47:55.217   01 Jun 2027 13:49:24.824            89.607                 Moscow          2800.219
        31   01 Jun 2027 13:51:24.742   01 Jun 2027 13:52:51.859            87.117              Murmansk2          2722.406
        32   01 Jun 2027 13:52:52.576   01 Jun 2027 13:55:08.115           135.539              Murmansk1          4235.594
        33   01 Jun 2027 14:06:51.889   01 Jun 2027 14:08:32.354           100.465                Anadyr1          3139.531
        34   01 Jun 2027 14:09:01.172   01 Jun 2027 14:10:16.202            75.030                Anadyr2          2344.688
        35   01 Jun 2027 15:05:04.667   01 Jun 2027 15:05:24.174            19.507               CapeTown           609.594
        36   01 Jun 2027 15:07:05.104   01 Jun 2027 15:07:09.856             4.752               CapeTown           148.500
        37   01 Jun 2027 15:08:14.915   01 Jun 2027 15:08:47.948            33.033               CapeTown          1032.281
        38   01 Jun 2027 15:29:38.452   01 Jun 2027 15:30:44.719            66.267              Murmansk1          2070.844
        39   01 Jun 2027 15:32:30.815   01 Jun 2027 15:34:11.178           100.363              Murmansk2          3136.344
        40   01 Jun 2027 15:41:47.417   01 Jun 2027 15:42:20.674            33.257                Anadyr2          1039.281
        41   01 Jun 2027 15:42:20.674   01 Jun 2027 15:42:56.997            36.323                Anadyr1          1135.094
        42   01 Jun 2027 15:43:12.140   01 Jun 2027 15:43:35.089            22.949                Anadyr2           717.156
        43   01 Jun 2027 15:48:13.069   01 Jun 2027 15:48:27.836            14.767                Anadyr1           461.469
        44   01 Jun 2027 15:48:38.544   01 Jun 2027 15:50:27.974           109.430                Anadyr1          3419.688
        45   01 Jun 2027 17:11:04.738   01 Jun 2027 17:13:49.030           164.292              Murmansk1          5134.125
        46   01 Jun 2027 17:13:49.030   01 Jun 2027 17:14:14.057            25.027              Murmansk2           782.094
        47   01 Jun 2027 17:17:36.829   01 Jun 2027 17:17:58.896            22.067                Anadyr2           689.594
        48   01 Jun 2027 17:17:59.092   01 Jun 2027 17:18:13.811            14.719                Anadyr1           459.969
        49   01 Jun 2027 17:19:13.749   01 Jun 2027 17:20:15.761            62.012                Anadyr2          1937.875
        50   01 Jun 2027 17:22:24.731   01 Jun 2027 17:22:50.508            25.777               Magadan2           805.531
        51   01 Jun 2027 17:24:28.083   01 Jun 2027 17:24:35.132             7.049               Magadan2           220.281
        52   01 Jun 2027 17:25:32.284   01 Jun 2027 17:25:50.876            18.592               Magadan1           581.000
        53   01 Jun 2027 17:26:11.128   01 Jun 2027 17:28:18.520           127.392               Magadan2          3981.000
        54   01 Jun 2027 18:53:31.827   01 Jun 2027 18:55:23.451           111.624                Anadyr1          3488.250
        55   01 Jun 2027 18:55:48.695   01 Jun 2027 18:57:47.588           118.893               Magadan1          3715.406
        56   01 Jun 2027 18:58:08.522   01 Jun 2027 18:59:25.499            76.977                Norilsk          2405.531
        57   01 Jun 2027 19:05:48.145   01 Jun 2027 19:06:06.044            17.899               Magadan1           559.344
        58   01 Jun 2027 19:06:59.220   01 Jun 2027 19:07:18.366            19.146               Magadan1           598.312
        59   01 Jun 2027 19:48:11.904   01 Jun 2027 19:49:59.140           107.236            RioGallegos          3351.125
        60   01 Jun 2027 19:50:26.737   01 Jun 2027 19:51:39.823            73.086            RioGallegos          2283.938
        61   01 Jun 2027 19:57:26.756   01 Jun 2027 19:57:35.793             9.037            RioGallegos           282.406
        62   01 Jun 2027 20:29:11.203   01 Jun 2027 20:29:37.436            26.233                Anadyr2           819.781
        63   01 Jun 2027 20:31:23.663   01 Jun 2027 20:34:02.774           159.111                Norilsk          4972.219
        64   01 Jun 2027 20:34:53.361   01 Jun 2027 20:35:21.086            27.725                Norilsk           866.406
        65   01 Jun 2027 20:35:40.492   01 Jun 2027 20:36:16.661            36.169                Irkutsk          1130.281
        66   01 Jun 2027 20:36:53.805   01 Jun 2027 20:37:47.511            53.706                Irkutsk          1678.313
        67   01 Jun 2027 20:38:36.331   01 Jun 2027 20:40:03.970            87.639                Novosib          2738.719
        68   01 Jun 2027 20:50:32.775   01 Jun 2027 20:51:46.911            74.136                Sumatra          2316.750
        69   01 Jun 2027 20:53:45.214   01 Jun 2027 20:54:21.227            36.013                Sumatra          1125.406
        70   01 Jun 2027 22:04:31.063   01 Jun 2027 22:05:16.833            45.770                Anadyr2          1430.313
        71   01 Jun 2027 22:07:56.194   01 Jun 2027 22:09:22.057            85.863               Magadan1          2683.219
        72   01 Jun 2027 22:10:49.797   01 Jun 2027 22:10:52.629             2.832                Norilsk            88.500
        73   01 Jun 2027 22:11:20.297   01 Jun 2027 22:11:39.262            18.965               Magadan1           592.656
        74   01 Jun 2027 22:12:02.572   01 Jun 2027 22:12:16.819            14.247                Irkutsk           445.219
        75   01 Jun 2027 22:13:16.087   01 Jun 2027 22:13:26.857            10.770                Novosib           336.562
        76   01 Jun 2027 22:13:47.374   01 Jun 2027 22:15:04.981            77.607                Novosib          2425.219
        77   01 Jun 2027 22:19:25.126   01 Jun 2027 22:20:08.137            43.011                  Delhi          1344.094
        78   01 Jun 2027 22:20:09.381   01 Jun 2027 22:22:36.600           147.219                  Delhi          4600.594
        79   01 Jun 2027 23:40:29.232   01 Jun 2027 23:40:37.049             7.817                Anadyr2           244.281
        80   01 Jun 2027 23:42:51.727   01 Jun 2027 23:43:45.822            54.095                Anadyr2          1690.469
        81   01 Jun 2027 23:43:49.701   01 Jun 2027 23:45:07.377            77.676                Norilsk          2427.375
        82   01 Jun 2027 23:45:08.999   01 Jun 2027 23:45:49.422            40.423               Magadan2          1263.219
        83   01 Jun 2027 23:46:47.865   01 Jun 2027 23:49:26.074           158.209              Murmansk2          4944.031
        84   01 Jun 2027 23:51:07.757   01 Jun 2027 23:52:32.390            84.633                 Moscow          2644.781
        85   01 Jun 2027 23:55:14.769   01 Jun 2027 23:55:44.497            29.728                 Moscow           929.000
        86   02 Jun 2027 01:11:02.907   02 Jun 2027 01:11:58.737            55.830                Anadyr2          1744.687
        87   02 Jun 2027 01:12:11.600   02 Jun 2027 01:12:47.884            36.284                Anadyr2          1133.875
        88   02 Jun 2027 01:13:21.917   02 Jun 2027 01:13:55.310            33.393                Anadyr2          1043.531
        89   02 Jun 2027 01:14:28.503   02 Jun 2027 01:14:33.150             4.647                Anadyr2           145.219
        90   02 Jun 2027 01:16:18.844   02 Jun 2027 01:16:43.513            24.669                Anadyr2           770.906
        91   02 Jun 2027 01:16:52.407   02 Jun 2027 01:16:58.867             6.460                Anadyr1           201.875
        92   02 Jun 2027 01:17:20.677   02 Jun 2027 01:19:11.628           110.951               Magadan1          3467.219
        93   02 Jun 2027 01:19:57.555   02 Jun 2027 01:20:10.263            12.708               Magadan1           397.125
        94   02 Jun 2027 01:20:12.300   02 Jun 2027 01:20:21.646             9.346               Magadan1           292.063
        95   02 Jun 2027 01:21:04.409   02 Jun 2027 01:21:12.276             7.867               Magadan2           245.844
        96   02 Jun 2027 01:21:26.426   02 Jun 2027 01:22:40.091            73.665              Murmansk1          2302.031
        97   02 Jun 2027 01:22:40.091   02 Jun 2027 01:22:58.242            18.151              Murmansk2           567.219
        98   02 Jun 2027 01:23:41.222   02 Jun 2027 01:25:11.187            89.965              Murmansk2          2811.406
        99   02 Jun 2027 01:36:39.391   02 Jun 2027 01:36:43.337             3.946                 Moscow           123.312
       100   02 Jun 2027 01:49:25.477   02 Jun 2027 01:50:15.695            50.218               CapeTown          1569.313
       101   02 Jun 2027 01:56:30.675   02 Jun 2027 01:56:40.043             9.368               CapeTown           292.750
       102   02 Jun 2027 02:45:25.955   02 Jun 2027 02:45:56.798            30.843                Anadyr2           963.844
       103   02 Jun 2027 02:45:56.798   02 Jun 2027 02:47:50.397           113.599                Anadyr1          3549.969
       104   02 Jun 2027 02:48:07.935   02 Jun 2027 02:48:14.278             6.343               Magadan1           198.219
       105   02 Jun 2027 02:48:28.780   02 Jun 2027 02:49:11.580            42.800               Magadan2          1337.500
       106   02 Jun 2027 02:49:30.999   02 Jun 2027 02:49:38.440             7.441               Magadan2           232.531
       107   02 Jun 2027 02:51:46.943   02 Jun 2027 02:52:00.574            13.631               Magadan2           425.969
       108   02 Jun 2027 02:53:23.714   02 Jun 2027 02:53:35.338            11.624               Magadan2           363.250
       109   02 Jun 2027 02:54:32.248   02 Jun 2027 02:55:16.574            44.326                Norilsk          1385.187
       110   02 Jun 2027 02:57:24.466   02 Jun 2027 02:57:30.927             6.461              Murmansk2           201.906
       111   02 Jun 2027 02:57:49.535   02 Jun 2027 02:58:41.299            51.764              Murmansk1          1617.625
       112   02 Jun 2027 02:58:41.299   02 Jun 2027 02:58:55.622            14.323              Murmansk2           447.594
       113   02 Jun 2027 02:58:56.146   02 Jun 2027 02:59:09.138            12.992              Murmansk2           406.000
       114   02 Jun 2027 03:04:11.552   02 Jun 2027 03:04:54.148            42.596                 Moscow          1331.125
       115   02 Jun 2027 03:04:57.271   02 Jun 2027 03:05:28.201            30.930              Murmansk2           966.562
       116   02 Jun 2027 03:05:41.652   02 Jun 2027 03:06:17.375            35.723                 Moscow          1116.344
       117   02 Jun 2027 03:06:49.360   02 Jun 2027 03:08:18.606            89.246                 Moscow          2788.937
       118   02 Jun 2027 04:21:26.751   02 Jun 2027 04:22:44.166            77.415               Magadan1          2419.219
       119   02 Jun 2027 04:22:54.306   02 Jun 2027 04:23:03.983             9.677                Anadyr1           302.406
       120   02 Jun 2027 04:28:14.092   02 Jun 2027 04:28:24.477            10.385               Magadan1           324.531
       121   02 Jun 2027 04:28:26.743   02 Jun 2027 04:30:14.760           108.017                Anadyr1          3375.531
       122   02 Jun 2027 06:06:43.960   02 Jun 2027 06:07:48.734            64.774               Magadan1          2024.187
       123   02 Jun 2027 07:40:25.271   02 Jun 2027 07:40:31.133             5.862                Irkutsk           183.187
       124   02 Jun 2027 07:40:57.853   02 Jun 2027 07:41:25.888            28.035               Magadan2           876.094
       125   02 Jun 2027 07:41:48.369   02 Jun 2027 07:42:06.419            18.050               Magadan2           564.062
       126   02 Jun 2027 07:42:32.928   02 Jun 2027 07:44:56.366           143.438               Magadan2          4482.437
       127   02 Jun 2027 07:45:26.694   02 Jun 2027 07:46:07.770            41.076              Murmansk2          1283.625
       128   02 Jun 2027 08:20:09.218   02 Jun 2027 08:21:00.314            51.096            RioGallegos          1596.750
       129   02 Jun 2027 08:21:13.158   02 Jun 2027 08:21:40.866            27.708            RioGallegos           865.875
       130   02 Jun 2027 08:55:24.401   02 Jun 2027 08:57:55.921           151.520                Sumatra          4735.000
       131   02 Jun 2027 09:17:00.907   02 Jun 2027 09:17:15.350            14.443                Irkutsk           451.344
       132   02 Jun 2027 09:18:18.742   02 Jun 2027 09:18:59.230            40.488                Novosib          1265.250
       133   02 Jun 2027 09:19:28.222   02 Jun 2027 09:19:43.212            14.990                Irkutsk           468.438
       134   02 Jun 2027 09:20:00.037   02 Jun 2027 09:20:04.471             4.434                Novosib           138.562
       135   02 Jun 2027 09:20:40.238   02 Jun 2027 09:20:45.790             5.552                Novosib           173.500
       136   02 Jun 2027 09:21:17.303   02 Jun 2027 09:21:23.943             6.640                Irkutsk           207.500
       137   02 Jun 2027 09:58:19.939   02 Jun 2027 09:58:23.790             3.851            RioGallegos           120.344
       138   02 Jun 2027 09:58:35.587   02 Jun 2027 09:59:20.635            45.048            RioGallegos          1407.750
       139   02 Jun 2027 10:01:00.849   02 Jun 2027 10:01:04.446             3.597            RioGallegos           112.406
       140   02 Jun 2027 10:01:19.955   02 Jun 2027 10:01:35.018            15.063            RioGallegos           470.719
       141   02 Jun 2027 10:32:34.359   02 Jun 2027 10:32:53.162            18.803                Sumatra           587.594
       142   02 Jun 2027 10:33:15.858   02 Jun 2027 10:35:17.290           121.432                Sumatra          3794.750
       143   02 Jun 2027 10:53:34.375   02 Jun 2027 10:53:47.381            13.006                Novosib           406.438
       144   02 Jun 2027 10:54:39.081   02 Jun 2027 10:55:02.204            23.123                Norilsk           722.594
       145   02 Jun 2027 10:55:04.528   02 Jun 2027 10:55:07.465             2.937                Novosib            91.781
       146   02 Jun 2027 10:55:16.373   02 Jun 2027 10:55:27.559            11.186                Norilsk           349.562
       147   02 Jun 2027 10:55:30.458   02 Jun 2027 10:55:46.897            16.439                Norilsk           513.719
       148   02 Jun 2027 10:56:07.286   02 Jun 2027 10:56:39.924            32.638                Norilsk          1019.938
       149   02 Jun 2027 10:56:43.164   02 Jun 2027 10:56:43.351             0.187                Novosib             5.844
       150   02 Jun 2027 10:56:50.956   02 Jun 2027 10:57:05.406            14.450                Norilsk           451.563
       151   02 Jun 2027 12:18:06.554   02 Jun 2027 12:19:59.524           112.970                  Delhi          3530.312
       152   02 Jun 2027 12:20:10.518   02 Jun 2027 12:22:15.833           125.315                  Delhi          3916.094
       153   02 Jun 2027 12:29:33.141   02 Jun 2027 12:30:38.574            65.433                Norilsk          2044.781
       154   02 Jun 2027 12:35:42.182   02 Jun 2027 12:36:08.788            26.606              Murmansk2           831.438
       155   02 Jun 2027 13:40:01.717   02 Jun 2027 13:42:12.644           130.927               CapeTown          4091.469
       156   02 Jun 2027 13:43:41.254   02 Jun 2027 13:44:12.397            31.143               CapeTown           973.219
       157   02 Jun 2027 13:45:18.243   02 Jun 2027 13:46:25.967            67.724               CapeTown          2116.375
       158   02 Jun 2027 14:03:36.258   02 Jun 2027 14:05:20.747           104.489              Murmansk1          3265.281
       159   02 Jun 2027 14:06:25.024   02 Jun 2027 14:06:32.466             7.442              Murmansk1           232.562
       160   02 Jun 2027 14:07:42.130   02 Jun 2027 14:08:14.148            32.018              Murmansk2          1000.562
       161   02 Jun 2027 14:08:40.943   02 Jun 2027 14:08:42.871             1.928              Murmansk2            60.250
       162   02 Jun 2027 14:10:16.242   02 Jun 2027 14:10:21.776             5.534              Murmansk2           172.937
       163   02 Jun 2027 14:10:24.779   02 Jun 2027 14:10:48.528            23.749              Murmansk2           742.156
       164   02 Jun 2027 14:18:36.570   02 Jun 2027 14:20:31.483           114.913                Anadyr1          3591.031
       165   02 Jun 2027 14:20:58.350   02 Jun 2027 14:22:16.771            78.421                Anadyr2          2450.656
       166   02 Jun 2027 15:41:11.558   02 Jun 2027 15:41:31.283            19.725                 Moscow           616.406
       167   02 Jun 2027 15:42:07.532   02 Jun 2027 15:43:18.890            71.358              Murmansk2          2229.937
       168   02 Jun 2027 15:43:18.890   02 Jun 2027 15:43:22.511             3.621              Murmansk1           113.156
       169   02 Jun 2027 15:44:32.573   02 Jun 2027 15:45:01.349            28.776              Murmansk2           899.250
       170   02 Jun 2027 15:50:00.448   02 Jun 2027 15:50:19.889            19.441              Murmansk1           607.531
       171   02 Jun 2027 15:53:46.818   02 Jun 2027 15:56:22.097           155.279                Anadyr2          4852.469
       172   02 Jun 2027 15:58:44.477   02 Jun 2027 16:01:55.460           190.983               Magadan2          5968.219
       173   02 Jun 2027 17:25:00.683   02 Jun 2027 17:25:28.050            27.367              Murmansk2           855.219
       174   02 Jun 2027 17:29:38.238   02 Jun 2027 17:32:16.414           158.176                Anadyr1          4943.000
       175   02 Jun 2027 17:32:29.767   02 Jun 2027 17:33:43.936            74.169               Magadan2          2317.781
       176   02 Jun 2027 17:33:51.532   02 Jun 2027 17:34:02.371            10.839               Magadan1           338.719
       177   02 Jun 2027 17:38:19.924   02 Jun 2027 17:38:39.717            19.793               Magadan1           618.531
       178   02 Jun 2027 19:05:32.497   02 Jun 2027 19:07:24.894           112.397                Anadyr1          3512.406
       179   02 Jun 2027 19:07:45.692   02 Jun 2027 19:09:27.314           101.622                Anadyr2          3175.687
       180   02 Jun 2027 19:09:38.624   02 Jun 2027 19:11:36.173           117.549               Magadan2          3673.406
       181   02 Jun 2027 19:13:35.218   02 Jun 2027 19:13:49.770            14.552               Magadan1           454.750
       182   02 Jun 2027 19:14:57.966   02 Jun 2027 19:15:08.157            10.191               Magadan2           318.469
       183   02 Jun 2027 19:15:52.478   02 Jun 2027 19:16:47.963            55.485               Magadan2          1733.906
       184   02 Jun 2027 19:59:58.989   02 Jun 2027 20:03:33.841           214.852            RioGallegos          6714.125
       185   02 Jun 2027 20:43:52.854   02 Jun 2027 20:46:04.652           131.798                Norilsk          4118.688
       186   02 Jun 2027 20:47:22.309   02 Jun 2027 20:47:46.408            24.099                Norilsk           753.094
       187   02 Jun 2027 20:47:57.652   02 Jun 2027 20:48:28.549            30.897                Norilsk           965.531
       188   02 Jun 2027 20:48:58.248   02 Jun 2027 20:49:34.785            36.537                Irkutsk          1141.781
       189   02 Jun 2027 20:50:05.848   02 Jun 2027 20:51:13.914            68.066                Novosib          2127.063
       190   02 Jun 2027 20:52:25.430   02 Jun 2027 20:53:45.349            79.919                Novosib          2497.469
       191   02 Jun 2027 21:01:18.021   02 Jun 2027 21:02:21.164            63.143                Sumatra          1973.219
       192   02 Jun 2027 21:04:03.190   02 Jun 2027 21:05:04.387            61.197                Sumatra          1912.406
       193   02 Jun 2027 22:19:20.826   02 Jun 2027 22:19:42.797            21.971                Norilsk           686.594
       194   02 Jun 2027 22:19:58.212   02 Jun 2027 22:20:57.494            59.282               Magadan1          1852.563
       195   02 Jun 2027 22:22:01.652   02 Jun 2027 22:22:08.080             6.428                Norilsk           200.875
       196   02 Jun 2027 22:22:39.331   02 Jun 2027 22:23:12.270            32.939                Norilsk          1029.344
       197   02 Jun 2027 22:23:12.796   02 Jun 2027 22:23:44.140            31.344                Irkutsk           979.500
       198   02 Jun 2027 22:23:58.724   02 Jun 2027 22:24:02.994             4.270                Irkutsk           133.437
       199   02 Jun 2027 22:24:49.455   02 Jun 2027 22:25:12.128            22.673                Novosib           708.531
       200   02 Jun 2027 22:25:26.775   02 Jun 2027 22:25:45.428            18.653                Novosib           582.906
       201   02 Jun 2027 22:28:59.783   02 Jun 2027 22:29:46.432            46.649                Novosib          1457.781
       202   02 Jun 2027 22:31:05.843   02 Jun 2027 22:32:50.561           104.718                  Delhi          3272.438
       203   02 Jun 2027 22:37:27.556   02 Jun 2027 22:37:28.414             0.858                  Delhi            26.812
       204   02 Jun 2027 23:49:22.478   02 Jun 2027 23:49:30.709             8.231                Anadyr1           257.219
       205   02 Jun 2027 23:50:04.367   02 Jun 2027 23:50:34.277            29.910                Anadyr1           934.687
       206   02 Jun 2027 23:50:34.277   02 Jun 2027 23:51:31.326            57.049                Anadyr2          1782.781
       207   02 Jun 2027 23:55:19.853   02 Jun 2027 23:55:23.351             3.498                Norilsk           109.313
       208   02 Jun 2027 23:55:24.708   02 Jun 2027 23:57:15.181           110.473               Magadan2          3452.281
       209   02 Jun 2027 23:57:41.946   03 Jun 2027 00:00:11.863           149.917              Murmansk1          4684.906
       210   03 Jun 2027 00:01:03.328   03 Jun 2027 00:01:18.861            15.533              Murmansk1           485.406
       211   03 Jun 2027 00:02:25.671   03 Jun 2027 00:02:32.613             6.942              Murmansk1           216.937
       212   03 Jun 2027 00:03:00.792   03 Jun 2027 00:03:34.189            33.397                 Moscow          1043.656
       213   03 Jun 2027 00:04:15.711   03 Jun 2027 00:05:20.041            64.330                 Moscow          2010.313
       214   03 Jun 2027 00:05:27.975   03 Jun 2027 00:06:33.737            65.762              Murmansk2          2055.062
       215   03 Jun 2027 01:22:48.043   03 Jun 2027 01:24:07.680            79.637                Anadyr2          2488.656
       216   03 Jun 2027 01:24:47.553   03 Jun 2027 01:25:09.767            22.214                Anadyr2           694.188
       217   03 Jun 2027 01:25:46.443   03 Jun 2027 01:26:09.567            23.124                Anadyr1           722.625
       218   03 Jun 2027 01:27:50.117   03 Jun 2027 01:29:40.659           110.542               Magadan2          3454.437
       219   03 Jun 2027 01:29:58.771   03 Jun 2027 01:30:29.253            30.482               Magadan2           952.562
       220   03 Jun 2027 01:33:27.823   03 Jun 2027 01:35:07.118            99.295              Murmansk1          3102.969
       221   03 Jun 2027 01:35:42.257   03 Jun 2027 01:35:48.255             5.998                Novosib           187.437
       222   03 Jun 2027 01:35:59.839   03 Jun 2027 01:37:02.984            63.145                Novosib          1973.281
       223   03 Jun 2027 01:44:32.022   03 Jun 2027 01:44:41.648             9.626                 Moscow           300.813
       224   03 Jun 2027 01:48:03.066   03 Jun 2027 01:48:26.586            23.520                 Moscow           735.000
       225   03 Jun 2027 02:01:06.153   03 Jun 2027 02:02:14.491            68.338               CapeTown          2135.563
       226   03 Jun 2027 02:08:14.536   03 Jun 2027 02:08:48.949            34.413               CapeTown          1075.406
       227   03 Jun 2027 02:57:22.610   03 Jun 2027 02:59:07.815           105.205                Anadyr2          3287.656
       228   03 Jun 2027 02:59:37.186   03 Jun 2027 02:59:44.939             7.753                Anadyr2           242.281
       229   03 Jun 2027 03:00:00.180   03 Jun 2027 03:00:39.283            39.103                Anadyr1          1221.969
       230   03 Jun 2027 03:04:36.506   03 Jun 2027 03:10:14.910           338.404                Anadyr1         10575.125
       231   03 Jun 2027 04:33:17.431   03 Jun 2027 04:33:27.298             9.867               Magadan2           308.344
       232   03 Jun 2027 04:39:19.073   03 Jun 2027 04:39:56.423            37.350               Magadan1          1167.188
       233   03 Jun 2027 04:39:56.423   03 Jun 2027 04:40:15.954            19.531               Magadan2           610.344
       234   03 Jun 2027 04:40:17.794   03 Jun 2027 04:40:53.777            35.983               Magadan2          1124.469
       235   03 Jun 2027 04:41:03.555   03 Jun 2027 04:41:34.160            30.605               Magadan2           956.406
       236   03 Jun 2027 04:41:34.160   03 Jun 2027 04:41:53.896            19.736               Magadan1           616.750
       237   03 Jun 2027 04:42:15.845   03 Jun 2027 04:43:12.584            56.739                Anadyr1          1773.094
       238   03 Jun 2027 04:43:22.130   03 Jun 2027 04:45:23.515           121.385               Magadan2          3793.281
       239   03 Jun 2027 06:16:02.018   03 Jun 2027 06:16:10.954             8.936               Magadan1           279.250
       240   03 Jun 2027 06:16:23.240   03 Jun 2027 06:17:38.180            74.940                Anadyr1          2341.875
       241   03 Jun 2027 06:17:53.117   03 Jun 2027 06:18:04.470            11.353               Magadan2           354.781
       242   03 Jun 2027 06:18:04.470   03 Jun 2027 06:18:56.333            51.863               Magadan1          1620.719
       243   03 Jun 2027 06:19:01.221   03 Jun 2027 06:19:18.444            17.223               Magadan1           538.219
       244   03 Jun 2027 06:19:38.027   03 Jun 2027 06:20:05.764            27.737                Anadyr1           866.781
       245   03 Jun 2027 06:20:32.043   03 Jun 2027 06:20:59.713            27.670                Anadyr2           864.687
       246   03 Jun 2027 07:50:22.625   03 Jun 2027 07:50:48.633            26.008               Magadan2           812.750
       247   03 Jun 2027 07:52:46.801   03 Jun 2027 07:52:48.255             1.454                Irkutsk            45.437
       248   03 Jun 2027 07:52:54.417   03 Jun 2027 07:53:25.759            31.342                Irkutsk           979.438
       249   03 Jun 2027 07:54:08.343   03 Jun 2027 07:55:03.032            54.689               Magadan1          1709.031
       250   03 Jun 2027 07:55:09.120   03 Jun 2027 07:55:53.332            44.212                Irkutsk          1381.625
       251   03 Jun 2027 07:56:02.640   03 Jun 2027 07:56:07.115             4.475               Magadan2           139.844
       252   03 Jun 2027 07:56:29.471   03 Jun 2027 07:57:22.003            52.532                Novosib          1641.625
       253   03 Jun 2027 07:57:26.406   03 Jun 2027 07:58:02.042            35.636              Murmansk1          1113.625
       254   03 Jun 2027 08:32:13.276   03 Jun 2027 08:32:17.690             4.414            RioGallegos           137.937
       255   03 Jun 2027 08:33:19.758   03 Jun 2027 08:34:15.436            55.678            RioGallegos          1739.937
       256   03 Jun 2027 09:07:13.176   03 Jun 2027 09:08:12.949            59.773                Sumatra          1867.906
       257   03 Jun 2027 09:27:39.973   03 Jun 2027 09:27:49.706             9.733                Irkutsk           304.156
       258   03 Jun 2027 09:28:25.017   03 Jun 2027 09:28:33.403             8.386                Irkutsk           262.063
       259   03 Jun 2027 09:30:41.630   03 Jun 2027 09:30:43.219             1.589                Irkutsk            49.656
       260   03 Jun 2027 09:31:06.052   03 Jun 2027 09:31:14.247             8.195                Irkutsk           256.094
       261   03 Jun 2027 09:31:17.221   03 Jun 2027 09:31:23.508             6.287                Irkutsk           196.469
       262   03 Jun 2027 09:31:31.911   03 Jun 2027 09:32:03.179            31.268                Irkutsk           977.125
       263   03 Jun 2027 09:32:23.810   03 Jun 2027 09:32:35.011            11.201              Murmansk2           350.031
       264   03 Jun 2027 09:32:46.631   03 Jun 2027 09:33:23.548            36.917                Novosib          1153.656
       265   03 Jun 2027 10:11:32.563   03 Jun 2027 10:12:01.491            28.928            RioGallegos           904.000
       266   03 Jun 2027 10:15:17.069   03 Jun 2027 10:15:35.198            18.129            RioGallegos           566.531
       267   03 Jun 2027 10:45:31.353   03 Jun 2027 10:47:04.719            93.366                Sumatra          2917.687
       268   03 Jun 2027 11:05:15.077   03 Jun 2027 11:05:44.843            29.766                Novosib           930.187
       269   03 Jun 2027 11:06:16.734   03 Jun 2027 11:06:29.086            12.352                Novosib           386.000
       270   03 Jun 2027 11:06:41.157   03 Jun 2027 11:07:02.927            21.770                Norilsk           680.312
       271   03 Jun 2027 11:07:26.540   03 Jun 2027 11:07:28.714             2.174                Norilsk            67.937
       272   03 Jun 2027 11:08:21.540   03 Jun 2027 11:08:28.152             6.612                Novosib           206.625
       273   03 Jun 2027 11:08:32.514   03 Jun 2027 11:08:51.782            19.268                Novosib           602.125
       274   03 Jun 2027 11:08:55.560   03 Jun 2027 11:09:02.416             6.856                Novosib           214.250
       275   03 Jun 2027 12:31:41.080   03 Jun 2027 12:33:57.436           136.356                  Delhi          4261.125
       276   03 Jun 2027 12:34:18.982   03 Jun 2027 12:34:41.523            22.541                  Delhi           704.406
       277   03 Jun 2027 12:38:24.207   03 Jun 2027 12:38:29.609             5.402                 Moscow           168.812
       278   03 Jun 2027 12:38:58.597   03 Jun 2027 12:39:06.820             8.223                 Moscow           256.969
       279   03 Jun 2027 12:39:07.134   03 Jun 2027 12:39:28.865            21.731              Murmansk2           679.094
       280   03 Jun 2027 12:39:52.583   03 Jun 2027 12:40:15.986            23.403              Murmansk1           731.344
       281   03 Jun 2027 12:40:58.233   03 Jun 2027 12:41:38.046            39.813              Murmansk1          1244.156
       282   03 Jun 2027 12:41:48.567   03 Jun 2027 12:42:16.079            27.512                Novosib           859.750
       283   03 Jun 2027 12:42:31.736   03 Jun 2027 12:42:59.185            27.449                Norilsk           857.781
       284   03 Jun 2027 12:47:01.632   03 Jun 2027 12:47:15.882            14.250                Norilsk           445.313
       285   03 Jun 2027 13:51:09.481   03 Jun 2027 13:53:52.666           163.185               CapeTown          5099.531
       286   03 Jun 2027 13:56:20.455   03 Jun 2027 13:57:23.483            63.028               CapeTown          1969.625
       287   03 Jun 2027 14:15:49.673   03 Jun 2027 14:17:01.929            72.256              Murmansk1          2258.000
       288   03 Jun 2027 14:17:16.712   03 Jun 2027 14:18:26.697            69.985              Murmansk2          2187.031
       289   03 Jun 2027 14:20:15.958   03 Jun 2027 14:20:29.844            13.886              Murmansk1           433.938
       290   03 Jun 2027 14:21:00.872   03 Jun 2027 14:21:13.802            12.930              Murmansk1           404.063
       291   03 Jun 2027 14:30:25.890   03 Jun 2027 14:32:31.137           125.247                Anadyr2          3913.969
       292   03 Jun 2027 14:32:43.102   03 Jun 2027 14:34:05.446            82.344                Anadyr1          2573.250
       293   03 Jun 2027 15:54:39.411   03 Jun 2027 15:55:35.605            56.194              Murmansk1          1756.063
       294   03 Jun 2027 15:56:13.403   03 Jun 2027 15:56:22.185             8.782              Murmansk2           274.438
       295   03 Jun 2027 15:56:34.465   03 Jun 2027 15:57:07.574            33.109              Murmansk1          1034.656
       296   03 Jun 2027 15:58:05.112   03 Jun 2027 15:58:16.275            11.163              Murmansk1           348.844
       297   03 Jun 2027 15:58:30.502   03 Jun 2027 15:59:00.366            29.864              Murmansk2           933.250
       298   03 Jun 2027 16:05:46.705   03 Jun 2027 16:07:47.373           120.668                Anadyr1          3770.875
       299   03 Jun 2027 16:08:23.442   03 Jun 2027 16:08:34.449            11.007                Anadyr2           343.969
       300   03 Jun 2027 16:09:52.628   03 Jun 2027 16:14:13.010           260.382               Magadan2          8136.937
       301   03 Jun 2027 17:41:39.679   03 Jun 2027 17:43:30.981           111.302                Anadyr1          3478.188
       302   03 Jun 2027 17:43:44.188   03 Jun 2027 17:44:07.181            22.993                Anadyr1           718.531
       303   03 Jun 2027 17:44:10.392   03 Jun 2027 17:45:38.318            87.926               Magadan2          2747.687
       304   03 Jun 2027 17:45:38.666   03 Jun 2027 17:46:06.113            27.447               Magadan2           857.719
       305   03 Jun 2027 17:55:05.428   03 Jun 2027 17:55:17.565            12.137               Magadan1           379.281
       306   03 Jun 2027 19:17:32.890   03 Jun 2027 19:19:26.242           113.352                Anadyr1          3542.250
       307   03 Jun 2027 19:19:35.470   03 Jun 2027 19:21:00.075            84.605                Anadyr2          2643.906
       308   03 Jun 2027 19:21:11.878   03 Jun 2027 19:23:09.332           117.454               Magadan1          3670.438
       309   03 Jun 2027 19:24:11.817   03 Jun 2027 19:25:31.519            79.702                Norilsk          2490.687
       310   03 Jun 2027 19:26:19.480   03 Jun 2027 19:26:49.482            30.002                Irkutsk           937.562
       311   03 Jun 2027 19:27:09.833   03 Jun 2027 19:28:34.279            84.446                Irkutsk          2638.937
       312   03 Jun 2027 19:29:44.205   03 Jun 2027 19:30:11.079            26.874                Irkutsk           839.812
       313   03 Jun 2027 20:11:58.201   03 Jun 2027 20:13:01.638            63.437            RioGallegos          1982.406
       314   03 Jun 2027 20:55:12.761   03 Jun 2027 20:55:18.028             5.267                Anadyr1           164.594
       315   03 Jun 2027 20:55:24.629   03 Jun 2027 20:57:15.790           111.161                Norilsk          3473.781
       316   03 Jun 2027 20:57:31.162   03 Jun 2027 20:57:58.531            27.369               Magadan2           855.281
       317   03 Jun 2027 20:59:20.324   03 Jun 2027 20:59:24.377             4.053               Magadan2           126.656
       318   03 Jun 2027 20:59:28.898   03 Jun 2027 21:01:03.555            94.657                Irkutsk          2958.031
       319   03 Jun 2027 21:01:32.386   03 Jun 2027 21:03:57.714           145.328                Novosib          4541.500
       320   03 Jun 2027 21:05:38.312   03 Jun 2027 21:05:52.300            13.988                Novosib           437.125
       321   03 Jun 2027 21:13:09.798   03 Jun 2027 21:15:15.105           125.307                Sumatra          3915.844
       322   03 Jun 2027 22:31:22.825   03 Jun 2027 22:31:30.611             7.786                Norilsk           243.312
       323   03 Jun 2027 22:31:59.837   03 Jun 2027 22:33:18.882            79.045               Magadan1          2470.156
       324   03 Jun 2027 22:35:16.148   03 Jun 2027 22:35:52.692            36.544                Irkutsk          1142.000
       325   03 Jun 2027 22:36:58.377   03 Jun 2027 22:37:34.502            36.125                Novosib          1128.906
       326   03 Jun 2027 22:38:05.846   03 Jun 2027 22:38:14.743             8.897                Irkutsk           278.031
       327   03 Jun 2027 22:38:21.820   03 Jun 2027 22:40:52.808           150.988                Novosib          4718.375
       328   03 Jun 2027 22:42:52.141   03 Jun 2027 22:44:05.025            72.884                  Delhi          2277.625
       329   03 Jun 2027 22:46:31.675   03 Jun 2027 22:46:37.251             5.576                  Delhi           174.250
       330   03 Jun 2027 22:54:37.969   03 Jun 2027 22:54:43.276             5.307                  Delhi           165.844
       331   04 Jun 2027 00:02:35.421   04 Jun 2027 00:03:30.932            55.511                Anadyr2          1734.719
       332   04 Jun 2027 00:07:11.551   04 Jun 2027 00:08:04.856            53.305               Magadan2          1665.781
       333   04 Jun 2027 00:08:05.083   04 Jun 2027 00:08:27.287            22.204               Magadan1           693.875
       334   04 Jun 2027 00:08:48.106   04 Jun 2027 00:09:49.861            61.755               Magadan1          1929.844
       335   04 Jun 2027 00:09:51.860   04 Jun 2027 00:13:08.588           196.728              Murmansk1          6147.750
       336   04 Jun 2027 00:14:04.068   04 Jun 2027 00:15:13.015            68.947                 Moscow          2154.594
       337   04 Jun 2027 00:15:25.247   04 Jun 2027 00:15:32.113             6.866                 Moscow           214.563
       338   04 Jun 2027 00:17:57.969   04 Jun 2027 00:18:25.023            27.054                 Moscow           845.437
       339   04 Jun 2027 00:19:12.044   04 Jun 2027 00:19:29.172            17.128                 Moscow           535.250
       340   04 Jun 2027 00:43:14.365   04 Jun 2027 00:44:40.201            85.836               CapeTown          2682.375
       341   04 Jun 2027 01:36:45.708   04 Jun 2027 01:36:51.999             6.291                Anadyr2           196.594
       342   04 Jun 2027 01:36:51.999   04 Jun 2027 01:37:13.771            21.772                Anadyr1           680.375
       343   04 Jun 2027 01:37:59.370   04 Jun 2027 01:38:10.558            11.188                Anadyr1           349.625
       344   04 Jun 2027 01:39:18.058   04 Jun 2027 01:41:22.775           124.717               Magadan1          3897.406
       345   04 Jun 2027 01:43:17.002   04 Jun 2027 01:43:50.050            33.048               Magadan2          1032.750
       346   04 Jun 2027 01:45:29.370   04 Jun 2027 01:45:53.645            24.275              Murmansk2           758.594
       347   04 Jun 2027 01:45:58.773   04 Jun 2027 01:47:14.262            75.489              Murmansk1          2359.031
       348   04 Jun 2027 01:48:37.336   04 Jun 2027 01:48:46.903             9.567              Murmansk2           298.969
       349   04 Jun 2027 01:50:28.128   04 Jun 2027 01:50:53.315            25.187                 Moscow           787.094
       350   04 Jun 2027 01:54:16.135   04 Jun 2027 01:54:19.040             2.905                 Moscow            90.781
       351   04 Jun 2027 01:55:28.398   04 Jun 2027 01:55:47.425            19.027                 Moscow           594.594
       352   04 Jun 2027 01:57:01.866   04 Jun 2027 01:57:14.105            12.239                 Moscow           382.469
       353   04 Jun 2027 02:00:33.155   04 Jun 2027 02:00:49.053            15.898                 Moscow           496.813
       354   04 Jun 2027 02:12:52.264   04 Jun 2027 02:14:10.357            78.093               CapeTown          2440.406
       355   04 Jun 2027 02:22:19.357   04 Jun 2027 02:23:34.008            74.651               CapeTown          2332.844
       356   04 Jun 2027 03:15:58.504   04 Jun 2027 03:17:43.559           105.055               Magadan1          3282.969
       357   04 Jun 2027 03:18:50.400   04 Jun 2027 03:18:55.605             5.205                Anadyr2           162.656
       358   04 Jun 2027 03:18:57.243   04 Jun 2027 03:19:19.755            22.512               Magadan1           703.500
       359   04 Jun 2027 03:20:44.098   04 Jun 2027 03:20:45.980             1.882                Anadyr1            58.812
       360   04 Jun 2027 03:20:53.726   04 Jun 2027 03:21:26.239            32.513               Magadan1          1016.031
       361   04 Jun 2027 04:53:56.468   04 Jun 2027 04:57:53.169           236.701               Magadan1          7396.906
       362   04 Jun 2027 06:25:41.750   04 Jun 2027 06:25:51.046             9.296                Anadyr2           290.500
       363   04 Jun 2027 06:25:52.554   04 Jun 2027 06:25:54.013             1.459               Magadan2            45.594
       364   04 Jun 2027 06:26:04.824   04 Jun 2027 06:26:10.858             6.034               Magadan2           188.562
       365   04 Jun 2027 06:26:12.467   04 Jun 2027 06:26:46.659            34.192                Anadyr1          1068.500
       366   04 Jun 2027 06:27:19.147   04 Jun 2027 06:28:23.834            64.687                Anadyr1          2021.469
       367   04 Jun 2027 06:28:30.612   04 Jun 2027 06:28:34.528             3.916               Magadan1           122.375
       368   04 Jun 2027 06:28:42.215   04 Jun 2027 06:29:50.998            68.783                Anadyr2          2149.469
       369   04 Jun 2027 06:29:53.520   04 Jun 2027 06:30:07.573            14.053               Magadan2           439.156
       370   04 Jun 2027 06:30:12.642   04 Jun 2027 06:30:32.541            19.899                Anadyr1           621.844
       371   04 Jun 2027 06:31:07.535   04 Jun 2027 06:31:11.721             4.186               Magadan1           130.812
       372   04 Jun 2027 06:31:17.113   04 Jun 2027 06:31:34.632            17.519               Magadan1           547.469
       373   04 Jun 2027 06:31:45.165   04 Jun 2027 06:31:52.866             7.701               Magadan2           240.656
       374   04 Jun 2027 06:32:02.667   04 Jun 2027 06:33:42.687           100.020               Magadan1          3125.625
       375   04 Jun 2027 08:02:50.731   04 Jun 2027 08:03:59.377            68.646               Magadan2          2145.187
       376   04 Jun 2027 08:04:15.592   04 Jun 2027 08:05:04.620            49.028               Magadan1          1532.125
       377   04 Jun 2027 08:05:34.120   04 Jun 2027 08:06:09.953            35.833               Magadan2          1119.781
       378   04 Jun 2027 08:06:26.546   04 Jun 2027 08:06:29.843             3.297                Irkutsk           103.031
       379   04 Jun 2027 08:06:46.799   04 Jun 2027 08:07:04.505            17.706                Novosib           553.312
       380   04 Jun 2027 08:07:37.665   04 Jun 2027 08:08:09.835            32.170               Magadan2          1005.313
       381   04 Jun 2027 08:08:19.595   04 Jun 2027 08:09:24.684            65.089                Irkutsk          2034.031
       382   04 Jun 2027 08:09:29.956   04 Jun 2027 08:09:57.029            27.073              Murmansk1           846.031
       383   04 Jun 2027 08:44:20.826   04 Jun 2027 08:45:25.394            64.568            RioGallegos          2017.750
       384   04 Jun 2027 09:19:07.845   04 Jun 2027 09:20:29.040            81.195                Sumatra          2537.344
       385   04 Jun 2027 09:41:34.084   04 Jun 2027 09:42:15.805            41.721                Irkutsk          1303.781
       386   04 Jun 2027 09:42:49.024   04 Jun 2027 09:42:58.372             9.348                Irkutsk           292.125
       387   04 Jun 2027 09:43:01.762   04 Jun 2027 09:43:06.979             5.217                Irkutsk           163.031
       388   04 Jun 2027 09:43:34.829   04 Jun 2027 09:44:04.822            29.993                Irkutsk           937.281
       389   04 Jun 2027 09:44:13.927   04 Jun 2027 09:44:58.614            44.687                Irkutsk          1396.469
       390   04 Jun 2027 09:45:28.841   04 Jun 2027 09:46:18.367            49.526                Novosib          1547.687
       391   04 Jun 2027 10:24:54.537   04 Jun 2027 10:25:32.394            37.857            RioGallegos          1183.031
       392   04 Jun 2027 10:59:18.159   04 Jun 2027 11:00:20.425            62.266                Sumatra          1945.813
       393   04 Jun 2027 11:12:59.275   04 Jun 2027 11:13:01.104             1.829                  Delhi            57.156
       394   04 Jun 2027 11:17:27.023   04 Jun 2027 11:17:44.895            17.872                Norilsk           558.500
       395   04 Jun 2027 11:18:12.878   04 Jun 2027 11:18:43.241            30.363                Norilsk           948.844
       396   04 Jun 2027 11:18:59.791   04 Jun 2027 11:19:15.146            15.355                Novosib           479.844
       397   04 Jun 2027 11:20:09.844   04 Jun 2027 11:20:11.159             1.315                Novosib            41.094
       398   04 Jun 2027 11:20:28.128   04 Jun 2027 11:20:55.158            27.030                Novosib           844.688
       399   04 Jun 2027 11:20:59.473   04 Jun 2027 11:21:04.097             4.624                Novosib           144.500
       400   04 Jun 2027 11:21:04.497   04 Jun 2027 11:21:20.978            16.481                Norilsk           515.031
       401   04 Jun 2027 12:47:44.369   04 Jun 2027 12:48:48.651            64.282                 Moscow          2008.813
       402   04 Jun 2027 12:50:14.695   04 Jun 2027 12:51:28.072            73.377                 Moscow          2293.031
       403   04 Jun 2027 12:51:53.720   04 Jun 2027 12:52:03.572             9.852              Murmansk2           307.875
       404   04 Jun 2027 12:52:21.648   04 Jun 2027 12:52:59.935            38.287              Murmansk1          1196.469
       405   04 Jun 2027 12:53:08.814   04 Jun 2027 12:53:32.988            24.174              Murmansk1           755.437
       406   04 Jun 2027 12:54:48.867   04 Jun 2027 12:54:52.714             3.847              Murmansk1           120.219
       407   04 Jun 2027 12:55:01.470   04 Jun 2027 12:56:20.503            79.033                Norilsk          2469.781
       408   04 Jun 2027 12:56:44.306   04 Jun 2027 12:58:07.682            83.376                Norilsk          2605.500
       409   04 Jun 2027 14:04:17.162   04 Jun 2027 14:05:15.612            58.450               CapeTown          1826.562
       410   04 Jun 2027 14:24:51.284   04 Jun 2027 14:25:38.061            46.777                 Moscow          1461.781
       411   04 Jun 2027 14:28:05.051   04 Jun 2027 14:29:59.059           114.008              Murmansk2          3562.750
       412   04 Jun 2027 14:37:00.195   04 Jun 2027 14:37:29.853            29.658              Murmansk2           926.813
       413   04 Jun 2027 14:42:18.203   04 Jun 2027 14:44:31.207           133.004                Anadyr2          4156.375
       414   04 Jun 2027 14:47:08.744   04 Jun 2027 14:47:52.188            43.444                Anadyr1          1357.625
       415   04 Jun 2027 15:37:10.322   04 Jun 2027 15:39:04.471           114.149               CapeTown          3567.156
       416   04 Jun 2027 16:07:14.349   04 Jun 2027 16:07:50.647            36.298              Murmansk2          1134.313
       417   04 Jun 2027 16:08:14.293   04 Jun 2027 16:08:36.451            22.158              Murmansk1           692.438
       418   04 Jun 2027 16:12:01.320   04 Jun 2027 16:12:16.008            14.688              Murmansk2           459.000
       419   04 Jun 2027 16:17:46.988   04 Jun 2027 16:20:01.230           134.242                Anadyr2          4195.062
       420   04 Jun 2027 16:20:59.918   04 Jun 2027 16:21:44.741            44.823                Anadyr2          1400.719
       421   04 Jun 2027 16:21:47.393   04 Jun 2027 16:25:06.879           199.486               Magadan1          6233.937
       422   04 Jun 2027 16:26:15.734   04 Jun 2027 16:27:00.112            44.378               Magadan2          1386.813
       423   04 Jun 2027 17:53:41.116   04 Jun 2027 17:55:31.758           110.642                Anadyr2          3457.563
       424   04 Jun 2027 17:55:48.910   04 Jun 2027 17:56:20.181            31.271                Anadyr2           977.219
       425   04 Jun 2027 17:57:12.660   04 Jun 2027 17:59:58.430           165.770               Magadan1          5180.313
       426   04 Jun 2027 19:29:32.960   04 Jun 2027 19:33:35.709           242.749                Anadyr2          7585.906
       427   04 Jun 2027 19:33:37.105   04 Jun 2027 19:34:59.186            82.081               Magadan1          2565.031
       428   04 Jun 2027 19:35:10.198   04 Jun 2027 19:35:36.589            26.391                Norilsk           824.719
       429   04 Jun 2027 19:36:58.262   04 Jun 2027 19:37:24.645            26.383               Magadan2           824.469
       430   04 Jun 2027 19:37:25.936   04 Jun 2027 19:40:16.665           170.729                Irkutsk          5335.281
       431   04 Jun 2027 19:40:51.581   04 Jun 2027 19:41:18.694            27.113                Irkutsk           847.281
       432   04 Jun 2027 19:41:48.762   04 Jun 2027 19:42:20.146            31.384                Irkutsk           980.750
       433   04 Jun 2027 19:42:56.423   04 Jun 2027 19:43:48.595            52.172                Irkutsk          1630.375
       434   04 Jun 2027 19:53:58.496   04 Jun 2027 19:54:45.332            46.836                Sumatra          1463.625
       435   04 Jun 2027 21:08:07.627   04 Jun 2027 21:08:34.076            26.449                Norilsk           826.531
       436   04 Jun 2027 21:08:39.481   04 Jun 2027 21:08:56.638            17.157               Magadan1           536.156
       437   04 Jun 2027 21:09:11.597   04 Jun 2027 21:09:26.619            15.022               Magadan1           469.438
       438   04 Jun 2027 21:10:52.442   04 Jun 2027 21:11:17.396            24.954               Magadan2           779.812
       439   04 Jun 2027 21:11:25.551   04 Jun 2027 21:12:43.381            77.830                Irkutsk          2432.187
       440   04 Jun 2027 21:12:54.573   04 Jun 2027 21:14:01.033            66.460                Novosib          2076.875
       441   04 Jun 2027 21:16:15.771   04 Jun 2027 21:16:34.286            18.515                Novosib           578.594
       442   04 Jun 2027 21:16:56.838   04 Jun 2027 21:17:22.687            25.849                Novosib           807.781
       443   04 Jun 2027 21:25:07.293   04 Jun 2027 21:25:53.860            46.567                Sumatra          1455.219
       444   04 Jun 2027 21:30:59.243   04 Jun 2027 21:31:54.916            55.673                Sumatra          1739.781
       445   04 Jun 2027 21:33:54.531   04 Jun 2027 21:34:30.649            36.118                Sumatra          1128.687
       446   04 Jun 2027 22:39:58.524   04 Jun 2027 22:40:38.417            39.893                Anadyr1          1246.656
       447   04 Jun 2027 22:43:24.810   04 Jun 2027 22:43:30.897             6.087                Norilsk           190.219
       448   04 Jun 2027 22:44:00.933   04 Jun 2027 22:44:47.746            46.813               Magadan1          1462.906
       449   04 Jun 2027 22:47:10.370   04 Jun 2027 22:49:46.643           156.273              Murmansk1          4883.531
       450   04 Jun 2027 22:54:42.967   04 Jun 2027 22:56:38.663           115.696                  Delhi          3615.500
       451   04 Jun 2027 23:02:40.449   04 Jun 2027 23:04:12.938            92.489                  Delhi          2890.281
       452   05 Jun 2027 00:12:49.046   05 Jun 2027 00:12:50.718             1.672                Anadyr2            52.250
       453   05 Jun 2027 00:14:10.843   05 Jun 2027 00:14:36.674            25.831                Anadyr1           807.219
       454   05 Jun 2027 00:15:14.703   05 Jun 2027 00:15:32.167            17.464                Anadyr2           545.750
       455   05 Jun 2027 00:18:54.050   05 Jun 2027 00:20:47.534           113.484               Magadan1          3546.375
       456   05 Jun 2027 00:21:39.070   05 Jun 2027 00:24:57.608           198.538              Murmansk1          6204.312
       457   05 Jun 2027 00:25:21.794   05 Jun 2027 00:25:34.974            13.180              Murmansk1           411.875
       458   05 Jun 2027 00:25:46.438   05 Jun 2027 00:26:29.851            43.413                 Moscow          1356.656
       459   05 Jun 2027 00:28:55.817   05 Jun 2027 00:29:14.060            18.243                 Moscow           570.094
       460   05 Jun 2027 00:29:42.059   05 Jun 2027 00:30:27.540            45.481                 Moscow          1421.281
       461   05 Jun 2027 00:31:16.197   05 Jun 2027 00:31:37.814            21.617                 Moscow           675.531
       462   05 Jun 2027 00:53:17.282   05 Jun 2027 00:54:44.379            87.097               CapeTown          2721.781
       463   05 Jun 2027 00:56:32.360   05 Jun 2027 00:57:26.272            53.912               CapeTown          1684.750
       464   05 Jun 2027 01:50:46.368   05 Jun 2027 01:52:07.178            80.810               Magadan2          2525.312
       465   05 Jun 2027 01:52:11.404   05 Jun 2027 01:53:06.840            55.436               Magadan2          1732.375
       466   05 Jun 2027 01:57:31.021   05 Jun 2027 01:57:50.218            19.197              Murmansk2           599.906
       467   05 Jun 2027 01:57:51.719   05 Jun 2027 01:59:02.863            71.144              Murmansk1          2223.250
       468   05 Jun 2027 01:59:47.053   05 Jun 2027 01:59:58.088            11.035                Novosib           344.844
       469   05 Jun 2027 02:00:24.701   05 Jun 2027 02:00:43.405            18.704                Novosib           584.500
       470   05 Jun 2027 02:03:00.031   05 Jun 2027 02:03:08.938             8.907                 Moscow           278.344
       471   05 Jun 2027 02:03:54.972   05 Jun 2027 02:04:33.781            38.809                 Moscow          1212.781
       472   05 Jun 2027 02:12:20.215   05 Jun 2027 02:12:40.508            20.293                 Moscow           634.156
       473   05 Jun 2027 02:24:43.508   05 Jun 2027 02:25:39.859            56.351               CapeTown          1760.969
       474   05 Jun 2027 02:35:28.966   05 Jun 2027 02:37:07.290            98.324               CapeTown          3072.625
       475   05 Jun 2027 03:27:46.349   05 Jun 2027 03:30:14.266           147.917               Magadan1          4622.406
       476   05 Jun 2027 03:30:17.725   05 Jun 2027 03:31:20.953            63.228               Magadan2          1975.875
       477   05 Jun 2027 03:31:27.650   05 Jun 2027 03:32:28.257            60.607                Anadyr2          1893.969
       478   05 Jun 2027 03:32:29.551   05 Jun 2027 03:33:14.407            44.856               Magadan2          1401.750
       479   05 Jun 2027 05:04:59.656   05 Jun 2027 05:06:17.293            77.637                Anadyr2          2426.156
       480   05 Jun 2027 05:06:37.665   05 Jun 2027 05:07:51.514            73.849               Magadan2          2307.781
       481   05 Jun 2027 05:07:51.514   05 Jun 2027 05:08:01.132             9.618               Magadan1           300.563
       482   05 Jun 2027 05:08:13.918   05 Jun 2027 05:10:07.778           113.860                Anadyr2          3558.125
