uniorb/output/strategy_4/Drop/Drop_KinoSat_110510.txt

KinoSat_110510
-------------------------
    Access    *     Start Time (UTCG)     *     Stop Time (UTCG)  *   Duration (s)        *       Station  *  Data (Mbytes)
         1   01 Jun 2027 03:00:38.155   01 Jun 2027 03:01:13.369            35.214                Anadyr2          3511.500
         2   01 Jun 2027 03:01:28.763   01 Jun 2027 03:02:01.530            32.767                Anadyr1          4095.875
         3   01 Jun 2027 03:02:26.641   01 Jun 2027 03:03:11.353            44.712               Magadan2          5589.000
         4   01 Jun 2027 03:03:27.938   01 Jun 2027 03:03:51.803            23.865                Anadyr1          2983.125
         5   01 Jun 2027 03:04:13.851   01 Jun 2027 03:04:35.882            22.031                Anadyr2          2753.875
         6   01 Jun 2027 03:05:15.437   01 Jun 2027 03:05:23.284             7.847                Anadyr2           980.875
         7   01 Jun 2027 03:06:20.668   01 Jun 2027 03:06:54.669            34.001                Anadyr1          4250.125
         8   01 Jun 2027 04:37:36.696   01 Jun 2027 04:38:10.155            33.459                Novosib          4182.375
         9   01 Jun 2027 04:38:18.880   01 Jun 2027 04:38:38.851            19.971                Novosib          2496.375
        10   01 Jun 2027 04:38:50.897   01 Jun 2027 04:39:15.880            24.983                Novosib          3122.875
        11   01 Jun 2027 04:39:23.027   01 Jun 2027 04:40:00.016            36.989                Norilsk          4623.625
        12   01 Jun 2027 04:40:21.701   01 Jun 2027 04:41:43.666            81.965                Norilsk         10245.625
        13   01 Jun 2027 04:41:51.288   01 Jun 2027 04:42:21.221            29.933                Irkutsk          3741.625
        14   01 Jun 2027 04:42:23.149   01 Jun 2027 04:43:24.698            61.549                Novosib          7693.625
        15   01 Jun 2027 05:53:18.144   01 Jun 2027 05:54:11.749            53.605                Sumatra          6700.625
        16   01 Jun 2027 06:14:10.815   01 Jun 2027 06:14:52.758            41.943                Norilsk          5242.875
        17   01 Jun 2027 06:15:09.599   01 Jun 2027 06:15:52.386            42.787                Norilsk          5348.375
        18   01 Jun 2027 06:16:09.030   01 Jun 2027 06:16:33.877            24.847              Murmansk1          3105.875
        19   01 Jun 2027 06:16:39.829   01 Jun 2027 06:18:33.198           113.369                Irkutsk         14171.125
        20   01 Jun 2027 07:38:47.025   01 Jun 2027 07:40:52.207           125.182                  Delhi         15647.750
        21   01 Jun 2027 07:52:37.222   01 Jun 2027 07:53:33.474            56.252                Irkutsk          7031.500
        22   01 Jun 2027 07:53:59.670   01 Jun 2027 07:54:52.385            52.715                 Moscow          6589.375
        23   01 Jun 2027 07:56:17.008   01 Jun 2027 07:57:02.779            45.771                 Moscow          5721.375
        24   01 Jun 2027 09:28:38.941   01 Jun 2027 09:29:32.520            53.579                Novosib          6697.375
        25   01 Jun 2027 09:29:47.312   01 Jun 2027 09:33:33.677           226.365                 Moscow         28295.625
        26   01 Jun 2027 09:33:36.702   01 Jun 2027 09:35:25.410           108.708                Norilsk         13588.500
        27   01 Jun 2027 09:35:57.397   01 Jun 2027 09:37:07.766            70.369              Murmansk1          8796.125
        28   01 Jun 2027 10:58:29.433   01 Jun 2027 11:03:13.363           283.930                 Moscow         35491.250
        29   01 Jun 2027 11:16:27.658   01 Jun 2027 11:19:57.988           210.330                Anadyr1         26291.250
        30   01 Jun 2027 12:56:17.274   01 Jun 2027 12:57:53.578            96.304                Anadyr2         12038.000
        31   01 Jun 2027 14:29:27.764   01 Jun 2027 14:33:18.348           230.584               Magadan2         28823.000
        32   01 Jun 2027 14:33:31.657   01 Jun 2027 14:35:55.107           143.450               Magadan2         17931.250
        33   01 Jun 2027 16:57:40.578   01 Jun 2027 17:03:00.549           319.971            RioGallegos         39996.375
        34   01 Jun 2027 17:04:02.236   01 Jun 2027 17:04:21.825            19.589            RioGallegos          2448.625
        35   01 Jun 2027 17:49:04.622   01 Jun 2027 17:53:30.506           265.884                Irkutsk         33235.500
        36   01 Jun 2027 18:03:40.843   01 Jun 2027 18:04:23.747            42.904                Sumatra          5363.000
        37   01 Jun 2027 18:05:49.298   01 Jun 2027 18:05:58.723             9.425                Sumatra          1178.125
        38   01 Jun 2027 19:29:02.699   01 Jun 2027 19:32:14.373           191.674                  Delhi         21839.625
        39   02 Jun 2027 04:53:41.781   02 Jun 2027 04:54:13.806            32.025               Magadan1          4003.125
        40   02 Jun 2027 04:54:13.839   02 Jun 2027 04:54:27.326            13.487                Irkutsk          1685.875
        41   02 Jun 2027 04:57:55.688   02 Jun 2027 04:59:10.957            75.269              Murmansk1          9408.625
        42   02 Jun 2027 04:59:14.195   02 Jun 2027 04:59:41.555            27.360                Norilsk          3420.000
        43   02 Jun 2027 05:01:15.792   02 Jun 2027 05:03:31.835           136.043              Murmansk2         17005.375
        44   02 Jun 2027 05:37:00.540   02 Jun 2027 05:42:08.614           308.074            RioGallegos         38509.250
        45   02 Jun 2027 06:13:51.199   02 Jun 2027 06:15:54.190           122.991                Sumatra         15373.875
        46   02 Jun 2027 06:30:29.215   02 Jun 2027 06:35:32.288           303.073                Norilsk         37884.125
        47   02 Jun 2027 06:36:53.854   02 Jun 2027 06:38:05.390            71.536              Murmansk2          8942.000
        48   02 Jun 2027 07:11:23.596   02 Jun 2027 07:17:20.897           357.301            RioGallegos         44662.625
        49   02 Jun 2027 07:43:39.059   02 Jun 2027 07:51:26.128           467.069                Sumatra         58383.625
        50   02 Jun 2027 07:55:21.692   02 Jun 2027 07:56:13.173            51.481                Novosib          6435.125
        51   02 Jun 2027 07:56:29.858   02 Jun 2027 08:00:13.418           223.560                Irkutsk         27945.000
        52   02 Jun 2027 08:06:28.912   02 Jun 2027 08:11:31.966           303.054                Norilsk         37881.750
        53   02 Jun 2027 08:12:48.086   02 Jun 2027 08:13:22.787            34.701              Murmansk1          4337.625
        54   02 Jun 2027 09:26:14.526   02 Jun 2027 09:35:23.000           548.474                  Delhi         68559.250
        55   02 Jun 2027 09:35:24.589   02 Jun 2027 09:38:13.547           168.958                Novosib         21119.750
        56   02 Jun 2027 09:42:55.647   02 Jun 2027 09:47:25.081           269.434                Norilsk         33679.250
        57   02 Jun 2027 09:47:52.926   02 Jun 2027 09:49:08.783            75.857              Murmansk2          9482.125
        58   02 Jun 2027 11:10:43.651   02 Jun 2027 11:11:08.818            25.167                 Moscow          3145.875
        59   02 Jun 2027 11:15:05.100   02 Jun 2027 11:25:06.251           601.151              Murmansk2         75143.875
        60   02 Jun 2027 11:28:02.312   02 Jun 2027 11:31:15.306           192.994                Anadyr1         24124.250
        61   02 Jun 2027 14:41:21.800   02 Jun 2027 14:45:19.832           238.032               Magadan2         29754.000
        62   02 Jun 2027 14:49:37.218   02 Jun 2027 14:50:52.689            75.471               Magadan2          9433.875
        63   02 Jun 2027 17:11:55.741   02 Jun 2027 17:15:34.205           218.464            RioGallegos         27308.000
        64   02 Jun 2027 18:00:00.360   02 Jun 2027 18:02:01.773           121.413                Novosib         15176.625
        65   02 Jun 2027 18:16:44.744   02 Jun 2027 18:17:08.011            23.267                Sumatra          2908.375
        66   02 Jun 2027 19:43:57.799   02 Jun 2027 19:47:20.951           203.152                  Delhi         25394.000
        67   02 Jun 2027 21:08:09.647   02 Jun 2027 21:13:29.981           320.334              Murmansk2         40041.750
        68   03 Jun 2027 05:08:40.138   03 Jun 2027 05:08:43.502             3.364              Murmansk2           420.500
        69   03 Jun 2027 05:09:46.022   03 Jun 2027 05:11:39.126           113.104              Murmansk1         14138.000
        70   03 Jun 2027 05:13:13.377   03 Jun 2027 05:15:20.503           127.126              Murmansk2         15890.750
        71   03 Jun 2027 05:48:58.234   03 Jun 2027 05:54:09.226           310.992            RioGallegos         38874.000
        72   03 Jun 2027 06:27:30.436   03 Jun 2027 06:28:47.548            77.112                Sumatra          9639.000
        73   03 Jun 2027 06:31:03.066   03 Jun 2027 06:36:14.175           311.109                Irkutsk         38888.625
        74   03 Jun 2027 06:42:15.131   03 Jun 2027 06:42:42.887            27.756              Murmansk1          3469.500
        75   03 Jun 2027 06:43:08.115   03 Jun 2027 06:47:33.849           265.734                Norilsk         33216.750
        76   03 Jun 2027 06:48:54.523   03 Jun 2027 06:49:59.656            65.133              Murmansk2          8141.625
        77   03 Jun 2027 07:22:48.633   03 Jun 2027 07:29:06.577           377.944            RioGallegos         47243.000
        78   03 Jun 2027 07:53:44.216   03 Jun 2027 08:02:44.181           539.965                Sumatra         67495.625
        79   03 Jun 2027 08:07:33.412   03 Jun 2027 08:07:57.587            24.175                Novosib          3021.875
        80   03 Jun 2027 08:08:28.278   03 Jun 2027 08:13:11.205           282.927                  Delhi         35365.875
        81   03 Jun 2027 08:13:29.728   03 Jun 2027 08:14:19.027            49.299                Irkutsk          6162.375
        82   03 Jun 2027 08:18:10.829   03 Jun 2027 08:18:56.249            45.420              Murmansk2          5677.500
        83   03 Jun 2027 08:19:07.430   03 Jun 2027 08:23:33.722           266.292                Norilsk         33286.500
        84   03 Jun 2027 08:24:48.966   03 Jun 2027 08:25:21.694            32.728              Murmansk1          4091.000
        85   03 Jun 2027 09:39:07.273   03 Jun 2027 09:46:37.412           450.139                  Delhi         56267.375
        86   03 Jun 2027 09:47:40.232   03 Jun 2027 09:49:47.673           127.441                Novosib         15930.125
        87   03 Jun 2027 09:53:50.554   03 Jun 2027 09:54:07.938            17.384                Novosib          2173.000
        88   03 Jun 2027 09:55:04.739   03 Jun 2027 09:59:24.031           259.292                Norilsk         32411.500
        89   03 Jun 2027 09:59:37.770   03 Jun 2027 10:01:09.971            92.201              Murmansk1         11525.125
        90   03 Jun 2027 11:23:52.956   03 Jun 2027 11:24:30.831            37.875                 Moscow          4734.375
        91   03 Jun 2027 11:27:32.038   03 Jun 2027 11:28:14.507            42.469              Murmansk1          5308.625
        92   03 Jun 2027 11:28:54.376   03 Jun 2027 11:33:25.073           270.697                 Moscow         33837.125
        93   03 Jun 2027 11:33:41.875   03 Jun 2027 11:37:07.842           205.967              Murmansk1         25745.875
        94   03 Jun 2027 11:43:42.624   03 Jun 2027 11:47:02.304           199.680                Anadyr2         24960.000
        95   03 Jun 2027 12:41:40.445   03 Jun 2027 12:47:02.467           322.022               CapeTown         40252.750
        96   03 Jun 2027 13:20:02.921   03 Jun 2027 13:21:32.968            90.047               Magadan2         11255.875
        97   03 Jun 2027 14:54:56.262   03 Jun 2027 14:55:24.379            28.117               Magadan2          3514.625
        98   03 Jun 2027 17:25:07.909   03 Jun 2027 17:27:04.435           116.526            RioGallegos         14565.750
        99   03 Jun 2027 18:08:37.844   03 Jun 2027 18:09:02.061            24.217                Norilsk          3027.125
       100   03 Jun 2027 18:10:40.295   03 Jun 2027 18:15:57.311           317.016                Novosib         39627.000
       101   03 Jun 2027 19:57:20.530   03 Jun 2027 19:58:33.913            73.383                  Delhi          9172.875
       102   03 Jun 2027 21:20:02.341   03 Jun 2027 21:20:53.507            51.166              Murmansk2          6395.750
       103   03 Jun 2027 21:21:02.565   03 Jun 2027 21:25:28.590           266.025              Murmansk1         33253.125
       104   03 Jun 2027 21:26:15.069   03 Jun 2027 21:30:24.777           249.708                 Moscow         31213.500
       105   04 Jun 2027 03:41:00.087   04 Jun 2027 03:42:31.082            90.995               Magadan2         11374.375
       106   04 Jun 2027 05:18:39.129   04 Jun 2027 05:19:20.261            41.132                Novosib          5141.500
       107   04 Jun 2027 05:19:47.405   04 Jun 2027 05:19:48.740             1.335                Novosib           166.875
       108   04 Jun 2027 05:20:35.962   04 Jun 2027 05:21:25.975            50.013              Murmansk2          6251.625
       109   04 Jun 2027 05:21:37.073   04 Jun 2027 05:23:26.766           109.693              Murmansk1         13711.625
       110   04 Jun 2027 05:25:11.483   04 Jun 2027 05:27:09.749           118.266              Murmansk2         14783.250
       111   04 Jun 2027 06:00:54.546   04 Jun 2027 06:06:08.824           314.278            RioGallegos         39284.750
       112   04 Jun 2027 06:35:43.578   04 Jun 2027 06:40:56.010           312.432                Sumatra         39054.000
       113   04 Jun 2027 06:43:21.938   04 Jun 2027 06:48:32.272           310.334                Irkutsk         38791.750
       114   04 Jun 2027 06:54:32.903   04 Jun 2027 06:59:35.531           302.628                Norilsk         37828.500
       115   04 Jun 2027 07:00:55.419   04 Jun 2027 07:01:54.636            59.217              Murmansk2          7402.125
       116   04 Jun 2027 07:33:46.474   04 Jun 2027 07:40:47.274           420.800            RioGallegos         52600.000
       117   04 Jun 2027 08:06:31.471   04 Jun 2027 08:13:43.933           432.462                Sumatra         54057.750
       118   04 Jun 2027 08:19:45.501   04 Jun 2027 08:25:10.899           325.398                  Delhi         40674.750
       119   04 Jun 2027 08:25:17.344   04 Jun 2027 08:26:27.472            70.128                Irkutsk          8766.000
       120   04 Jun 2027 08:30:05.926   04 Jun 2027 08:31:53.536           107.610                Novosib         13451.250
       121   04 Jun 2027 08:31:56.608   04 Jun 2027 08:35:35.367           218.759                Norilsk         27344.875
       122   04 Jun 2027 08:36:50.047   04 Jun 2027 08:37:21.011            30.964              Murmansk2          3870.500
       123   04 Jun 2027 09:52:36.117   04 Jun 2027 09:57:21.693           285.576                  Delhi         35697.000
       124   04 Jun 2027 10:05:49.455   04 Jun 2027 10:06:02.597            13.142              Murmansk2          1642.750
       125   04 Jun 2027 10:06:09.534   04 Jun 2027 10:06:41.267            31.733                Norilsk          3966.625
       126   04 Jun 2027 10:07:43.485   04 Jun 2027 10:11:22.025           218.540                Norilsk         27317.500
       127   04 Jun 2027 10:11:45.924   04 Jun 2027 10:13:11.303            85.379              Murmansk2         10672.375
       128   04 Jun 2027 11:35:49.800   04 Jun 2027 11:36:51.970            62.170                 Moscow          7771.250
       129   04 Jun 2027 11:39:33.614   04 Jun 2027 11:40:13.489            39.875              Murmansk1          4984.375
       130   04 Jun 2027 11:40:37.149   04 Jun 2027 11:45:20.881           283.732                 Moscow         35466.500
       131   04 Jun 2027 11:45:39.556   04 Jun 2027 11:49:09.341           209.785              Murmansk1         26223.125
       132   04 Jun 2027 11:56:15.032   04 Jun 2027 11:59:47.436           212.404                Anadyr1         26550.500
       133   04 Jun 2027 12:53:25.710   04 Jun 2027 12:59:01.030           335.320               CapeTown         41915.000
       134   04 Jun 2027 13:15:43.851   04 Jun 2027 13:24:56.897           553.046              Murmansk2         69130.750
       135   04 Jun 2027 13:26:54.229   04 Jun 2027 13:30:27.267           213.038                Anadyr2         26629.750
       136   04 Jun 2027 13:31:04.899   04 Jun 2027 13:34:22.738           197.839               Magadan1         24729.875
       137   04 Jun 2027 16:47:36.585   04 Jun 2027 16:51:23.387           226.802                Irkutsk         28350.250
       138   04 Jun 2027 18:18:39.889   04 Jun 2027 18:20:55.012           135.123                Norilsk         16890.375
       139   04 Jun 2027 18:22:03.255   04 Jun 2027 18:29:06.695           423.440                Novosib         52930.000
       140   04 Jun 2027 21:31:40.101   04 Jun 2027 21:33:34.010           113.909              Murmansk1         14238.625
       141   04 Jun 2027 21:33:49.016   04 Jun 2027 21:36:09.920           140.904              Murmansk1         17613.000
       142   04 Jun 2027 21:36:45.030   04 Jun 2027 21:38:14.958            89.928                 Moscow         11241.000
       143   04 Jun 2027 21:41:29.858   04 Jun 2027 21:43:06.872            97.014                 Moscow         12126.750
       144   04 Jun 2027 22:05:20.857   04 Jun 2027 22:06:27.818            66.961               CapeTown          8370.125
       145   05 Jun 2027 03:53:20.111   05 Jun 2027 03:54:49.858            89.747               Magadan1         11218.375
       146   05 Jun 2027 03:54:50.841   05 Jun 2027 03:55:37.705            46.864                Norilsk          5858.000
       147   05 Jun 2027 03:55:56.221   05 Jun 2027 03:57:32.392            96.171              Murmansk2         12021.375
       148   05 Jun 2027 05:30:45.589   05 Jun 2027 05:31:55.059            69.470                Novosib          8683.750
       149   05 Jun 2027 05:32:32.425   05 Jun 2027 05:33:19.565            47.140              Murmansk2          5892.500
       150   05 Jun 2027 05:33:28.859   05 Jun 2027 05:35:18.703           109.844              Murmansk1         13730.500
       151   05 Jun 2027 05:35:19.989   05 Jun 2027 05:35:41.677            21.688                Norilsk          2711.000
       152   05 Jun 2027 05:37:10.065   05 Jun 2027 05:38:59.641           109.576              Murmansk2         13697.000
       153   05 Jun 2027 06:12:49.216   05 Jun 2027 06:18:07.313           318.097            RioGallegos         39762.125
       154   05 Jun 2027 06:47:31.112   05 Jun 2027 06:52:58.728           327.616                Sumatra         40952.000
       155   05 Jun 2027 06:55:46.366   05 Jun 2027 07:00:10.183           263.817                Irkutsk         32977.125
       156   05 Jun 2027 07:06:45.057   05 Jun 2027 07:11:37.298           292.241                Norilsk         36530.125
       157   05 Jun 2027 07:12:56.525   05 Jun 2027 07:13:50.285            53.760              Murmansk2          6720.000
       158   05 Jun 2027 07:44:59.909   05 Jun 2027 07:52:20.253           440.344            RioGallegos         55043.000
       159   05 Jun 2027 08:20:08.190   05 Jun 2027 08:24:00.259           232.069                Sumatra         29008.625
       160   05 Jun 2027 08:31:30.879   05 Jun 2027 08:37:07.207           336.328                  Delhi         42041.000
       161   05 Jun 2027 08:37:30.644   05 Jun 2027 08:38:09.427            38.783                Irkutsk          4847.875
       162   05 Jun 2027 08:42:32.190   05 Jun 2027 08:47:36.851           304.661                Norilsk         38082.625
       163   05 Jun 2027 08:48:51.289   05 Jun 2027 08:49:20.691            29.402              Murmansk1          3675.250
       164   05 Jun 2027 10:11:33.273   05 Jun 2027 10:12:07.911            34.638                 Moscow          4329.750
       165   05 Jun 2027 10:17:48.582   05 Jun 2027 10:23:18.719           330.137                Norilsk         41267.125
       166   05 Jun 2027 10:23:31.664   05 Jun 2027 10:25:12.759           101.095              Murmansk1         12636.875
       167   05 Jun 2027 11:47:45.320   05 Jun 2027 11:48:56.901            71.581                 Moscow          8947.625
       168   05 Jun 2027 11:51:05.412   05 Jun 2027 11:51:45.417            40.005              Murmansk2          5000.625
       169   05 Jun 2027 11:51:45.417   05 Jun 2027 12:01:10.718           565.301              Murmansk1         70662.625
       170   05 Jun 2027 12:08:43.811   05 Jun 2027 12:12:27.004           223.193                Anadyr2         27899.125
       171   05 Jun 2027 13:05:05.489   05 Jun 2027 13:10:54.653           349.164               CapeTown         43645.500
       172   05 Jun 2027 13:28:18.408   05 Jun 2027 13:36:54.408           516.000              Murmansk1         64500.000
       173   05 Jun 2027 13:38:54.358   05 Jun 2027 13:46:05.586           431.228                Anadyr1         53903.500
       174   05 Jun 2027 13:46:21.368   05 Jun 2027 13:49:28.870           187.502               Magadan1         23437.750
       175   05 Jun 2027 16:58:38.247   05 Jun 2027 17:04:53.754           375.507                Irkutsk         46938.375
       176   05 Jun 2027 17:15:22.182   05 Jun 2027 17:17:36.992           134.810                Sumatra         16851.250
       177   05 Jun 2027 18:33:39.097   05 Jun 2027 18:40:00.209           381.112                Novosib         47639.000
       178   05 Jun 2027 21:42:46.859   05 Jun 2027 21:44:12.530            85.671              Murmansk1         10708.875
       179   05 Jun 2027 21:46:30.690   05 Jun 2027 21:48:05.865            95.175              Murmansk2         11896.875
       180   05 Jun 2027 21:48:22.958   05 Jun 2027 21:50:48.615           145.657                 Moscow         18207.125
       181   05 Jun 2027 21:53:34.050   05 Jun 2027 21:55:09.700            95.650                 Moscow         11956.250
       182   05 Jun 2027 22:14:32.481   05 Jun 2027 22:15:59.552            87.071               CapeTown           686.000
       183   06 Jun 2027 04:05:28.403   06 Jun 2027 04:05:57.451            29.048               Magadan1          3631.000
       184   06 Jun 2027 04:06:45.996   06 Jun 2027 04:06:47.895             1.899               Magadan1           237.375
       185   06 Jun 2027 04:06:49.671   06 Jun 2027 04:12:01.196           311.525                Norilsk         38940.625
       186   06 Jun 2027 04:12:15.776   06 Jun 2027 04:16:35.799           260.023              Murmansk1         32502.875
       187   06 Jun 2027 05:20:17.294   06 Jun 2027 05:20:53.030            35.736                Sumatra          4467.000
       188   06 Jun 2027 05:23:08.173   06 Jun 2027 05:25:30.730           142.557                Sumatra         17819.625
       189   06 Jun 2027 05:43:00.942   06 Jun 2027 05:44:01.378            60.436                Norilsk          7554.500
       190   06 Jun 2027 05:44:29.480   06 Jun 2027 05:45:12.088            42.608              Murmansk2          5326.000
       191   06 Jun 2027 05:45:21.402   06 Jun 2027 05:47:32.907           131.505              Murmansk1         16438.125
       192   06 Jun 2027 05:47:36.256   06 Jun 2027 05:47:42.292             6.036                Norilsk           754.500
       193   06 Jun 2027 05:49:09.094   06 Jun 2027 05:50:50.224           101.130              Murmansk2         12641.250
       194   06 Jun 2027 06:24:41.916   06 Jun 2027 06:30:04.533           322.617            RioGallegos         40327.125
       195   06 Jun 2027 06:59:11.966   06 Jun 2027 07:04:55.868           343.902                Sumatra         42987.750
       196   06 Jun 2027 07:07:20.565   06 Jun 2027 07:09:14.174           113.609                Novosib         14201.125
       197   06 Jun 2027 07:09:45.861   06 Jun 2027 07:12:08.043           142.182                Irkutsk         17772.750
       198   06 Jun 2027 07:17:51.204   06 Jun 2027 07:18:08.888            17.684                Novosib          2210.500
       199   06 Jun 2027 07:18:59.947   06 Jun 2027 07:23:39.133           279.186                Norilsk         34898.250
       200   06 Jun 2027 07:24:57.799   06 Jun 2027 07:25:46.581            48.782              Murmansk2          6097.750
       201   06 Jun 2027 07:58:10.704   06 Jun 2027 08:03:38.860           328.156            RioGallegos         41019.500
       202   06 Jun 2027 08:43:10.461   06 Jun 2027 08:48:59.848           349.387                  Delhi         43673.375
       203   06 Jun 2027 08:49:08.537   06 Jun 2027 08:49:33.664            25.127                Novosib          3140.875
       204   06 Jun 2027 08:50:02.588   06 Jun 2027 08:50:37.179            34.591                Norilsk          4323.875
       205   06 Jun 2027 08:54:22.631   06 Jun 2027 08:54:39.402            16.771              Murmansk1          2096.375
       206   06 Jun 2027 08:55:07.629   06 Jun 2027 08:55:42.955            35.326                Novosib          4415.750
       207   06 Jun 2027 08:55:45.397   06 Jun 2027 08:59:38.128           232.731                Norilsk         29091.375
       208   06 Jun 2027 09:00:52.679   06 Jun 2027 09:01:20.704            28.025              Murmansk1          3503.125
       209   06 Jun 2027 10:23:29.809   06 Jun 2027 10:24:09.563            39.754                 Moscow          4969.250
       210   06 Jun 2027 10:30:26.513   06 Jun 2027 10:33:44.999           198.486                 Moscow         24810.750
       211   06 Jun 2027 10:33:46.424   06 Jun 2027 10:35:13.562            87.138                Norilsk         10892.250
       212   06 Jun 2027 10:35:24.833   06 Jun 2027 10:37:14.308           109.475              Murmansk2         13684.375
       213   06 Jun 2027 11:59:39.236   06 Jun 2027 12:00:57.067            77.831                 Moscow          9728.875
       214   06 Jun 2027 12:01:19.850   06 Jun 2027 12:09:07.486           467.636                 Moscow         58454.500
       215   06 Jun 2027 12:09:36.474   06 Jun 2027 12:13:11.915           215.441              Murmansk2         26930.125
       216   06 Jun 2027 12:15:20.817   06 Jun 2027 12:25:02.005           581.188                Anadyr1         72648.500
       217   06 Jun 2027 13:13:18.231   06 Jun 2027 13:22:43.261           565.030               CapeTown         70628.750
       218   06 Jun 2027 13:40:56.345   06 Jun 2027 13:41:38.513            42.168              Murmansk2          5271.000
       219   06 Jun 2027 13:54:14.930   06 Jun 2027 14:00:38.864           383.934               Magadan1         47991.750
       220   06 Jun 2027 16:24:04.384   06 Jun 2027 16:26:12.102           127.718            RioGallegos         15964.750
       221   06 Jun 2027 17:10:04.851   06 Jun 2027 17:13:35.519           210.668                Irkutsk         26333.500
       222   06 Jun 2027 17:14:38.907   06 Jun 2027 17:16:07.472            88.565                Irkutsk         11070.625
       223   06 Jun 2027 17:17:45.009   06 Jun 2027 17:17:48.535             3.526                Irkutsk           440.750
       224   06 Jun 2027 17:25:33.454   06 Jun 2027 17:27:34.503           121.049                Sumatra         15131.125
       225   06 Jun 2027 17:29:21.843   06 Jun 2027 17:31:30.022           128.179                Sumatra         16022.375
       226   06 Jun 2027 18:47:12.611   06 Jun 2027 18:48:44.991            92.380                Novosib         11547.500
       227   06 Jun 2027 18:52:03.783   06 Jun 2027 18:53:39.273            95.490                Novosib         11936.250
       228   06 Jun 2027 18:57:28.965   06 Jun 2027 18:57:30.686             1.721                  Delhi           215.125
       229   06 Jun 2027 20:21:05.536   06 Jun 2027 20:21:45.934            40.398              Murmansk2          5049.750
       230   06 Jun 2027 21:55:58.920   06 Jun 2027 21:56:53.340            54.420              Murmansk1          6802.500
       231   06 Jun 2027 21:58:42.223   06 Jun 2027 22:00:33.024           110.801                 Moscow         13850.125
       232   06 Jun 2027 22:01:46.088   06 Jun 2027 22:02:16.778            30.690                 Moscow          3836.250
       233   06 Jun 2027 22:02:43.578   06 Jun 2027 22:04:49.949           126.371                 Moscow          2992.875
       234   07 Jun 2027 04:17:36.467   07 Jun 2027 04:17:55.159            18.692               Magadan1          2336.500
       235   07 Jun 2027 04:18:48.907   07 Jun 2027 04:19:47.152            58.245                Norilsk          7280.625
       236   07 Jun 2027 04:19:47.400   07 Jun 2027 04:26:17.062           389.662              Murmansk2         48707.750
       237   07 Jun 2027 05:30:59.490   07 Jun 2027 05:33:11.117           131.627                Sumatra         16453.375
       238   07 Jun 2027 05:54:51.119   07 Jun 2027 05:55:00.643             9.524                Novosib          1190.500
       239   07 Jun 2027 05:55:40.843   07 Jun 2027 05:56:05.876            25.033                Novosib          3129.125
       240   07 Jun 2027 05:56:27.097   07 Jun 2027 05:59:39.620           192.523              Murmansk1         24065.375
       241   07 Jun 2027 06:01:08.521   07 Jun 2027 06:02:41.533            93.012              Murmansk2         11626.500
       242   07 Jun 2027 06:36:32.146   07 Jun 2027 06:42:00.283           328.137            RioGallegos         41017.125
       243   07 Jun 2027 07:10:44.834   07 Jun 2027 07:16:47.301           362.467                Sumatra         45308.375
       244   07 Jun 2027 07:19:00.066   07 Jun 2027 07:20:18.986            78.920                Irkutsk          9865.000
       245   07 Jun 2027 07:20:43.236   07 Jun 2027 07:25:33.689           290.453                Irkutsk         36306.625
       246   07 Jun 2027 07:30:31.434   07 Jun 2027 07:31:56.077            84.643                 Moscow         10580.375
       247   07 Jun 2027 07:32:08.479   07 Jun 2027 07:33:35.671            87.192              Murmansk2         10899.000
       248   07 Jun 2027 07:33:35.671   07 Jun 2027 07:35:25.245           109.574              Murmansk1         13696.750
       249   07 Jun 2027 07:36:59.215   07 Jun 2027 07:37:43.478            44.263              Murmansk2          5532.875
       250   07 Jun 2027 08:12:15.470   07 Jun 2027 08:14:06.703           111.233            RioGallegos         13904.125
       251   07 Jun 2027 08:54:42.262   07 Jun 2027 09:00:48.319           366.057                  Delhi         45757.125
       252   07 Jun 2027 09:00:50.456   07 Jun 2027 09:01:33.862            43.406                Novosib          5425.750
       253   07 Jun 2027 09:06:15.537   07 Jun 2027 09:06:34.154            18.617              Murmansk2          2327.125
       254   07 Jun 2027 09:06:43.407   07 Jun 2027 09:07:34.831            51.424                Novosib          6428.000
       255   07 Jun 2027 09:07:35.883   07 Jun 2027 09:11:39.130           243.247                Norilsk         30405.875
       256   07 Jun 2027 09:11:58.685   07 Jun 2027 09:13:21.010            82.325              Murmansk2         10290.625
       257   07 Jun 2027 10:35:24.965   07 Jun 2027 10:38:07.534           162.569                 Moscow         20321.125
       258   07 Jun 2027 10:41:21.168   07 Jun 2027 10:45:45.551           264.383                 Moscow         33047.875
       259   07 Jun 2027 10:45:48.377   07 Jun 2027 10:47:05.617            77.240                Norilsk          9655.000
       260   07 Jun 2027 10:47:39.659   07 Jun 2027 10:49:15.924            96.265              Murmansk2         12033.125
       261   07 Jun 2027 12:11:31.124   07 Jun 2027 12:20:57.343           566.219                 Moscow         70777.375
       262   07 Jun 2027 12:21:35.617   07 Jun 2027 12:25:12.891           217.274              Murmansk1         27159.250
       263   07 Jun 2027 12:27:34.018   07 Jun 2027 12:37:33.076           599.058                Anadyr2         74882.250
       264   07 Jun 2027 14:06:00.717   07 Jun 2027 14:11:23.992           323.275               Magadan2         40409.375
       265   07 Jun 2027 16:34:55.372   07 Jun 2027 16:37:56.393           181.021            RioGallegos         22627.625
       266   07 Jun 2027 17:22:23.704   07 Jun 2027 17:27:07.865           284.161                Irkutsk         35520.125
       267   07 Jun 2027 17:36:31.805   07 Jun 2027 17:39:15.680           163.875                Sumatra         20484.375
       268   07 Jun 2027 17:41:04.344   07 Jun 2027 17:42:34.246            89.902                Sumatra         11237.750
       269   07 Jun 2027 17:43:32.790   07 Jun 2027 17:45:31.115           118.325                Sumatra         14790.625
       270   07 Jun 2027 19:06:55.057   07 Jun 2027 19:09:06.852           131.795                  Delhi         16474.375
       271   07 Jun 2027 19:11:11.482   07 Jun 2027 19:13:00.555           109.073                  Delhi         13634.125
       272   07 Jun 2027 20:33:55.702   07 Jun 2027 20:35:08.784            73.082              Murmansk2          9135.250
       273   07 Jun 2027 22:10:32.018   07 Jun 2027 22:11:16.426            44.408                 Moscow          5162.376
       274   08 Jun 2027 04:30:45.905   08 Jun 2027 04:38:28.241           462.336              Murmansk2         57792.000
       275   08 Jun 2027 05:42:08.669   08 Jun 2027 05:44:21.400           132.731                Sumatra         16591.375
       276   08 Jun 2027 06:06:40.486   08 Jun 2027 06:08:16.374            95.888                Norilsk         11986.000
       277   08 Jun 2027 06:08:25.227   08 Jun 2027 06:09:31.487            66.260              Murmansk2          8282.500
       278   08 Jun 2027 06:09:31.487   08 Jun 2027 06:11:29.451           117.964              Murmansk1         14745.500
       279   08 Jun 2027 06:11:43.958   08 Jun 2027 06:11:44.228             0.270                Norilsk            33.750
       280   08 Jun 2027 06:13:08.311   08 Jun 2027 06:14:33.583            85.272              Murmansk2         10659.000
       281   08 Jun 2027 06:48:19.171   08 Jun 2027 06:53:54.297           335.126            RioGallegos         41890.750
       282   08 Jun 2027 07:22:07.353   08 Jun 2027 07:28:32.563           385.210                Sumatra         48151.250
       283   08 Jun 2027 07:31:28.586   08 Jun 2027 07:32:18.863            50.277                Irkutsk          6284.625
       284   08 Jun 2027 07:32:45.677   08 Jun 2027 07:33:14.086            28.409                Novosib          3551.125
       285   08 Jun 2027 07:33:30.958   08 Jun 2027 07:37:23.283           232.325                Irkutsk         29040.625
       286   08 Jun 2027 07:42:13.023   08 Jun 2027 07:43:33.565            80.542                 Moscow         10067.750
       287   08 Jun 2027 07:44:09.369   08 Jun 2027 07:47:27.803           198.434              Murmansk1         24804.250
       288   08 Jun 2027 07:49:00.750   08 Jun 2027 07:49:40.940            40.190              Murmansk2          5023.750
       289   08 Jun 2027 09:06:02.391   08 Jun 2027 09:12:31.796           389.405                  Delhi         48675.625
       290   08 Jun 2027 09:12:48.714   08 Jun 2027 09:13:02.299            13.585                Novosib          1698.125
       291   08 Jun 2027 09:13:19.939   08 Jun 2027 09:13:36.960            17.021                Novosib          2127.625
       292   08 Jun 2027 09:18:07.472   08 Jun 2027 09:19:20.328            72.856              Murmansk2          9107.000
       293   08 Jun 2027 09:19:27.054   08 Jun 2027 09:23:39.798           252.744                Norilsk         31593.000
       294   08 Jun 2027 09:23:48.593   08 Jun 2027 09:25:21.590            92.997              Murmansk1         11624.625
       295   08 Jun 2027 10:48:11.038   08 Jun 2027 10:50:05.149           114.111                 Moscow         14263.875
       296   08 Jun 2027 10:51:17.837   08 Jun 2027 10:52:05.450            47.613              Murmansk2          5951.625
       297   08 Jun 2027 10:52:51.719   08 Jun 2027 10:57:45.394           293.675                 Moscow         36709.375
       298   08 Jun 2027 10:57:50.266   08 Jun 2027 10:58:52.917            62.651                Norilsk          7831.375
       299   08 Jun 2027 10:59:03.917   08 Jun 2027 11:01:17.581           133.664              Murmansk2         16708.000
       300   08 Jun 2027 11:05:33.710   08 Jun 2027 11:07:47.868           134.158                Anadyr1         16769.750
       301   08 Jun 2027 12:08:14.013   08 Jun 2027 12:10:50.607           156.594               CapeTown         19574.250
       302   08 Jun 2027 12:23:32.063   08 Jun 2027 12:29:38.522           366.459                 Moscow         45807.375
       303   08 Jun 2027 12:40:04.353   08 Jun 2027 12:41:32.178            87.825                Anadyr1         10978.125
       304   08 Jun 2027 14:17:50.204   08 Jun 2027 14:21:57.460           247.256               Magadan1         30907.000
       305   08 Jun 2027 14:24:50.844   08 Jun 2027 14:26:24.511            93.667               Magadan2         11708.375
       306   08 Jun 2027 16:46:18.482   08 Jun 2027 16:49:44.611           206.129            RioGallegos         25766.125
       307   08 Jun 2027 17:36:12.265   08 Jun 2027 17:37:21.117            68.852                Irkutsk          8606.500
       308   08 Jun 2027 17:39:31.654   08 Jun 2027 17:39:33.387             1.733                Irkutsk           216.625
       309   08 Jun 2027 17:47:49.073   08 Jun 2027 17:48:17.568            28.495                Sumatra          3561.875
       310   08 Jun 2027 17:49:22.417   08 Jun 2027 17:51:54.458           152.041                Sumatra         19005.125
       311   08 Jun 2027 17:52:36.499   08 Jun 2027 17:53:56.456            79.957                Sumatra          9994.625
       312   08 Jun 2027 19:17:55.717   08 Jun 2027 19:20:49.620           173.903                  Delhi         21737.875
       313   08 Jun 2027 19:24:58.534   08 Jun 2027 19:26:13.353            74.819                  Delhi          9352.375
       314   08 Jun 2027 20:44:45.486   08 Jun 2027 20:47:07.288           141.802              Murmansk2         17725.250
       315   08 Jun 2027 22:22:02.579   08 Jun 2027 22:23:07.751            65.172              Murmansk2          8146.500
       316   08 Jun 2027 22:25:31.609   08 Jun 2027 22:25:31.697             0.088              Murmansk1            11.000
       317   08 Jun 2027 22:51:32.633   08 Jun 2027 22:53:07.132            94.499               CapeTown          9103.250
       318   09 Jun 2027 04:42:48.452   09 Jun 2027 04:47:56.800           308.348                Norilsk         38543.500
       319   09 Jun 2027 04:49:33.671   09 Jun 2027 04:51:58.151           144.480              Murmansk2         18060.000
       320   09 Jun 2027 05:17:33.563   09 Jun 2027 05:26:13.923           520.360            RioGallegos         65045.000
       321   09 Jun 2027 06:18:42.133   09 Jun 2027 06:20:13.320            91.187                Norilsk         11398.375
       322   09 Jun 2027 06:20:23.829   09 Jun 2027 06:22:02.138            98.309              Murmansk2         12288.625
       323   09 Jun 2027 06:22:02.138   09 Jun 2027 06:23:27.914            85.776              Murmansk1         10722.000
       324   09 Jun 2027 06:23:32.530   09 Jun 2027 06:23:45.492            12.962                Norilsk          1620.250
       325   09 Jun 2027 06:25:08.431   09 Jun 2027 06:26:26.389            77.958              Murmansk2          9744.750
       326   09 Jun 2027 07:00:01.799   09 Jun 2027 07:05:46.178           344.379            RioGallegos         43047.375
       327   09 Jun 2027 07:33:14.601   09 Jun 2027 07:40:10.771           416.170                Sumatra         52021.250
       328   09 Jun 2027 07:44:24.417   09 Jun 2027 07:44:41.213            16.796                Irkutsk          2099.500
       329   09 Jun 2027 07:45:46.036   09 Jun 2027 07:49:31.951           225.915                Novosib         28239.375
       330   09 Jun 2027 07:54:14.718   09 Jun 2027 07:55:54.827           100.109                 Moscow         12513.625
       331   09 Jun 2027 07:56:10.467   09 Jun 2027 07:57:49.991            99.524              Murmansk1         12440.500
       332   09 Jun 2027 07:57:49.991   09 Jun 2027 07:59:58.000           128.009              Murmansk2         16001.125
       333   09 Jun 2027 08:01:02.149   09 Jun 2027 08:01:38.925            36.776              Murmansk2          4597.000
       334   09 Jun 2027 09:17:00.704   09 Jun 2027 09:24:08.902           428.198                  Delhi         53524.750
       335   09 Jun 2027 09:24:10.392   09 Jun 2027 09:25:58.433           108.041                Novosib         13505.125
       336   09 Jun 2027 09:30:03.889   09 Jun 2027 09:33:48.339           224.450                 Moscow         28056.250
       337   09 Jun 2027 09:33:51.950   09 Jun 2027 09:35:40.025           108.075                Norilsk         13509.375
       338   09 Jun 2027 09:36:08.615   09 Jun 2027 09:37:22.396            73.781              Murmansk1          9222.625
       339   09 Jun 2027 11:00:10.736   09 Jun 2027 11:02:00.974           110.238                 Moscow         13779.750
       340   09 Jun 2027 11:03:18.959   09 Jun 2027 11:04:35.631            76.672              Murmansk1          9584.000
       341   09 Jun 2027 11:04:35.631   09 Jun 2027 11:13:19.244           523.613              Murmansk2         65451.625
       342   09 Jun 2027 11:18:39.883   09 Jun 2027 11:21:21.053           161.170                Anadyr2         20146.250
       343   09 Jun 2027 14:29:42.302   09 Jun 2027 14:32:33.648           171.346               Magadan1         21418.250
       344   09 Jun 2027 14:33:46.919   09 Jun 2027 14:36:09.991           143.072               Magadan2         17884.000
       345   09 Jun 2027 14:36:52.994   09 Jun 2027 14:38:25.141            92.147               Magadan2         11518.375
       346   09 Jun 2027 16:57:59.033   09 Jun 2027 17:03:15.521           316.488            RioGallegos         39561.000
       347   09 Jun 2027 17:04:17.066   09 Jun 2027 17:04:35.684            18.618            RioGallegos          2327.250
       348   09 Jun 2027 17:43:01.577   09 Jun 2027 17:44:25.414            83.837                Norilsk         10479.625
       349   09 Jun 2027 18:03:56.531   09 Jun 2027 18:06:12.604           136.073                Sumatra         17009.125
       350   09 Jun 2027 19:29:16.929   09 Jun 2027 19:32:37.519           200.590                  Delhi         25073.750
       351   09 Jun 2027 19:34:45.050   09 Jun 2027 19:36:54.039           128.989                  Delhi         16123.625
       352   09 Jun 2027 20:59:08.326   09 Jun 2027 20:59:11.193             2.867              Murmansk2           358.375
       353   09 Jun 2027 23:04:27.739   09 Jun 2027 23:06:06.875            99.136               CapeTown         12392.000
       354   10 Jun 2027 04:58:10.201   10 Jun 2027 04:59:25.702            75.501              Murmansk1          9437.625
       355   10 Jun 2027 04:59:29.226   10 Jun 2027 04:59:56.168            26.942                Norilsk          3367.750
       356   10 Jun 2027 05:01:30.708   10 Jun 2027 05:03:46.316           135.608              Murmansk2         16951.000
       357   10 Jun 2027 05:37:15.159   10 Jun 2027 05:42:23.245           308.086            RioGallegos         38510.750
       358   10 Jun 2027 06:16:08.618   10 Jun 2027 06:16:47.621            39.003                Sumatra          4875.375
       359   10 Jun 2027 06:19:53.309   10 Jun 2027 06:20:13.734            20.425                Irkutsk          2553.125
       360   10 Jun 2027 06:21:13.269   10 Jun 2027 06:25:17.500           244.231                Irkutsk         30528.875
       361   10 Jun 2027 06:30:43.878   10 Jun 2027 06:35:46.924           303.046                Norilsk         37880.750
       362   10 Jun 2027 06:37:08.844   10 Jun 2027 06:38:19.938            71.094              Murmansk2          8886.750
       363   10 Jun 2027 07:11:37.888   10 Jun 2027 07:17:35.362           357.474            RioGallegos         44684.250
       364   10 Jun 2027 07:43:52.322   10 Jun 2027 07:51:40.314           467.992                Sumatra         58499.000
       365   10 Jun 2027 07:55:36.431   10 Jun 2027 07:56:27.798            51.367                Novosib          6420.875
       366   10 Jun 2027 07:56:27.959   10 Jun 2027 07:59:02.474           154.515                  Delhi         19314.375
       367   10 Jun 2027 08:06:43.571   10 Jun 2027 08:11:46.603           303.032                Norilsk         37879.000
       368   10 Jun 2027 08:13:02.810   10 Jun 2027 08:13:37.390            34.580              Murmansk1          4322.500
       369   10 Jun 2027 09:26:28.799   10 Jun 2027 09:35:37.165           548.366                  Delhi         68545.750
       370   10 Jun 2027 09:35:39.696   10 Jun 2027 09:38:28.614           168.918                Novosib         21114.750
       371   10 Jun 2027 09:43:11.815   10 Jun 2027 09:47:39.686           267.871                Norilsk         33483.875
       372   10 Jun 2027 09:48:08.040   10 Jun 2027 09:49:23.409            75.369              Murmansk2          9421.125
       373   10 Jun 2027 11:10:58.181   10 Jun 2027 11:11:24.133            25.952                 Moscow          3244.000
       374   10 Jun 2027 11:15:45.039   10 Jun 2027 11:16:36.923            51.884              Murmansk2          6485.500
       375   10 Jun 2027 11:16:57.082   10 Jun 2027 11:21:42.579           285.497                 Moscow         35687.125
       376   10 Jun 2027 11:22:00.618   10 Jun 2027 11:25:20.886           200.268              Murmansk1         25033.500
       377   10 Jun 2027 11:31:21.209   10 Jun 2027 11:34:25.064           183.855                Anadyr1         22981.875
       378   10 Jun 2027 12:30:04.586   10 Jun 2027 12:32:03.934           119.348               CapeTown         14918.500
       379   10 Jun 2027 14:41:36.359   10 Jun 2027 14:43:48.741           132.382               Magadan2         16547.750
       380   10 Jun 2027 17:12:11.460   10 Jun 2027 17:15:48.409           216.949            RioGallegos         27118.625
       381   10 Jun 2027 18:00:13.062   10 Jun 2027 18:02:18.752           125.690                Novosib         15711.250
       382   10 Jun 2027 18:17:00.027   10 Jun 2027 18:17:22.125            22.098                Sumatra          2762.250
       383   10 Jun 2027 19:44:13.814   10 Jun 2027 19:47:34.875           201.061                  Delhi         25132.625
       384   10 Jun 2027 21:08:24.988   10 Jun 2027 21:12:48.657           263.669              Murmansk1         32958.625
       385   10 Jun 2027 21:13:00.966   10 Jun 2027 21:15:30.812           149.846                 Moscow         18730.750
       386   11 Jun 2027 05:08:54.878   11 Jun 2027 05:08:57.170             2.292              Murmansk2           286.500
       387   11 Jun 2027 05:10:00.544   11 Jun 2027 05:11:53.618           113.074              Murmansk1         14134.250
       388   11 Jun 2027 05:13:28.306   11 Jun 2027 05:15:34.991           126.685              Murmansk2         15835.625
       389   11 Jun 2027 05:49:12.837   11 Jun 2027 05:54:23.844           311.007            RioGallegos         38875.875
       390   11 Jun 2027 06:27:44.748   11 Jun 2027 06:29:02.303            77.555                Sumatra          9694.375
       391   11 Jun 2027 06:31:17.354   11 Jun 2027 06:36:27.319           309.965                Irkutsk         38745.625
       392   11 Jun 2027 06:42:29.714   11 Jun 2027 06:43:00.157            30.443              Murmansk2          3805.375
       393   11 Jun 2027 06:43:23.556   11 Jun 2027 06:47:48.485           264.929                Norilsk         33116.125
       394   11 Jun 2027 06:49:09.519   11 Jun 2027 06:50:14.211            64.692              Murmansk1          8086.500
       395   11 Jun 2027 07:23:02.726   11 Jun 2027 07:29:20.991           378.265            RioGallegos         47283.125
       396   11 Jun 2027 07:53:58.377   11 Jun 2027 08:02:58.202           539.825                Sumatra         67478.125
       397   11 Jun 2027 08:07:48.191   11 Jun 2027 08:08:22.904            34.713                Novosib          4339.125
       398   11 Jun 2027 08:08:43.088   11 Jun 2027 08:13:25.834           282.746                  Delhi         35343.250
       399   11 Jun 2027 08:13:44.226   11 Jun 2027 08:14:35.447            51.221                Irkutsk          6402.625
       400   11 Jun 2027 08:18:23.176   11 Jun 2027 08:23:48.357           325.181                Norilsk         40647.625
       401   11 Jun 2027 08:25:03.688   11 Jun 2027 08:25:36.302            32.614              Murmansk1          4076.750
       402   11 Jun 2027 09:39:22.710   11 Jun 2027 09:46:51.347           448.637                  Delhi         56079.625
       403   11 Jun 2027 09:47:55.652   11 Jun 2027 09:50:04.855           129.203                Novosib         16150.375
       404   11 Jun 2027 09:54:05.925   11 Jun 2027 09:54:32.647            26.722                 Moscow          3340.250
       405   11 Jun 2027 09:55:19.380   11 Jun 2027 09:59:38.623           259.243                Norilsk         32405.375
       406   11 Jun 2027 09:59:53.259   11 Jun 2027 10:01:24.603            91.344              Murmansk1         11418.000
       407   11 Jun 2027 11:24:07.540   11 Jun 2027 11:24:46.860            39.320                 Moscow          4915.000
       408   11 Jun 2027 11:27:46.673   11 Jun 2027 11:28:30.771            44.098              Murmansk1          5512.250
       409   11 Jun 2027 11:29:10.987   11 Jun 2027 11:33:39.645           268.658                 Moscow         33582.250
       410   11 Jun 2027 11:33:57.757   11 Jun 2027 11:37:22.475           204.718              Murmansk1         25589.750
       411   11 Jun 2027 11:43:57.694   11 Jun 2027 11:47:17.495           199.801                Anadyr1         24975.125
       412   11 Jun 2027 12:41:54.932   11 Jun 2027 12:46:41.984           287.052               CapeTown         35881.500
       413   11 Jun 2027 13:20:16.418   11 Jun 2027 13:23:04.360           167.942               Magadan1         20992.750
       414   11 Jun 2027 14:55:11.172   11 Jun 2027 14:55:39.134            27.962               Magadan1          3495.250
       415   11 Jun 2027 17:25:23.314   11 Jun 2027 17:27:18.782           115.468            RioGallegos         14433.500
       416   11 Jun 2027 18:06:24.472   11 Jun 2027 18:09:16.717           172.245                Norilsk         21530.625
       417   11 Jun 2027 18:10:54.352   11 Jun 2027 18:16:12.897           318.545                Novosib         39818.125
       418   11 Jun 2027 19:57:35.988   11 Jun 2027 19:58:48.080            72.092                  Delhi          9011.500
       419   11 Jun 2027 21:20:18.608   11 Jun 2027 21:21:07.756            49.148              Murmansk1          6143.500
       420   11 Jun 2027 21:21:17.810   11 Jun 2027 21:25:59.082           281.272              Murmansk2         35159.000
       421   11 Jun 2027 21:26:29.883   11 Jun 2027 21:27:18.921            49.038                 Moscow          6129.750
       422   11 Jun 2027 21:29:37.598   11 Jun 2027 21:30:40.144            62.546                 Moscow          7818.250
       423   12 Jun 2027 05:18:57.592   12 Jun 2027 05:20:03.442            65.850                Novosib          8231.250
       424   12 Jun 2027 05:20:50.713   12 Jun 2027 05:21:41.453            50.740              Murmansk1          6342.500
       425   12 Jun 2027 05:21:51.605   12 Jun 2027 05:23:41.262           109.657              Murmansk2         13707.125
       426   12 Jun 2027 05:25:26.424   12 Jun 2027 05:27:24.244           117.820              Murmansk1         14727.500
       427   12 Jun 2027 06:01:09.129   12 Jun 2027 06:06:23.428           314.299            RioGallegos         39287.375
       428   12 Jun 2027 06:35:58.099   12 Jun 2027 06:41:10.692           312.593                Sumatra         39074.125
       429   12 Jun 2027 06:43:38.835   12 Jun 2027 06:48:46.891           308.056                Irkutsk         38507.000
       430   12 Jun 2027 06:54:47.566   12 Jun 2027 06:59:50.168           302.602                Norilsk         37825.250
       431   12 Jun 2027 07:01:10.421   12 Jun 2027 07:02:09.200            58.779              Murmansk2          7347.375
       432   12 Jun 2027 07:33:59.921   12 Jun 2027 07:41:01.612           421.691            RioGallegos         52711.375
       433   12 Jun 2027 08:06:46.898   12 Jun 2027 08:13:57.658           430.760                Sumatra         53845.000
       434   12 Jun 2027 08:19:59.987   12 Jun 2027 08:25:25.487           325.500                  Delhi         40687.500
       435   12 Jun 2027 08:25:31.795   12 Jun 2027 08:26:43.832            72.037                Irkutsk          9004.625
       436   12 Jun 2027 08:30:19.567   12 Jun 2027 08:35:49.999           330.432                Norilsk         41304.000
       437   12 Jun 2027 08:37:04.773   12 Jun 2027 08:37:35.623            30.850              Murmansk2          3856.250
       438   12 Jun 2027 09:52:52.204   12 Jun 2027 09:57:35.002           282.798                  Delhi         35349.750
       439   12 Jun 2027 10:05:53.891   12 Jun 2027 10:06:17.568            23.677              Murmansk1          2959.625
       440   12 Jun 2027 10:06:25.081   12 Jun 2027 10:06:56.735            31.654                Norilsk          3956.750
       441   12 Jun 2027 10:07:59.531   12 Jun 2027 10:11:36.601           217.070                Norilsk         27133.750
       442   12 Jun 2027 10:11:54.667   12 Jun 2027 10:13:25.936            91.269              Murmansk2         11408.625
       443   12 Jun 2027 11:36:04.368   12 Jun 2027 11:37:09.253            64.885                 Moscow          8110.625
       444   12 Jun 2027 11:39:48.247   12 Jun 2027 11:40:29.095            40.848              Murmansk1          5106.000
       445   12 Jun 2027 11:41:22.378   12 Jun 2027 11:45:35.435           253.057                 Moscow         31632.125
       446   12 Jun 2027 11:45:55.461   12 Jun 2027 11:49:23.972           208.511              Murmansk1         26063.875
       447   12 Jun 2027 11:56:30.053   12 Jun 2027 12:00:02.551           212.498                Anadyr2         26562.250
       448   12 Jun 2027 12:53:40.131   12 Jun 2027 12:59:15.596           335.465               CapeTown         41933.125
       449   12 Jun 2027 13:15:58.870   12 Jun 2027 13:25:11.481           552.611              Murmansk1         69076.375
       450   12 Jun 2027 13:27:08.848   12 Jun 2027 13:30:00.388           171.540                Anadyr2         21442.500
       451   12 Jun 2027 13:31:19.073   12 Jun 2027 13:33:46.403           147.330               Magadan1         18416.250
       452   12 Jun 2027 13:33:57.338   12 Jun 2027 13:36:30.978           153.640               Magadan1         19205.000
       453   12 Jun 2027 16:47:50.191   12 Jun 2027 16:51:39.422           229.231                Irkutsk         28653.875
       454   12 Jun 2027 18:22:17.534   12 Jun 2027 18:29:22.021           424.487                Novosib         53060.875
       455   12 Jun 2027 21:31:54.832   12 Jun 2027 21:33:49.116           114.284              Murmansk1         14285.500
       456   12 Jun 2027 21:34:04.190   12 Jun 2027 21:36:24.519           140.329              Murmansk1         17541.125
       457   12 Jun 2027 21:36:59.943   12 Jun 2027 21:40:12.830           192.887                 Moscow         24110.875
       458   12 Jun 2027 21:43:21.912   12 Jun 2027 21:43:26.787             4.875                 Moscow           609.375
       459   12 Jun 2027 22:04:54.151   12 Jun 2027 22:06:45.315           111.164               CapeTown         13221.123
       460   13 Jun 2027 03:53:34.715   13 Jun 2027 03:55:04.453            89.738               Magadan1         11217.250
       461   13 Jun 2027 03:55:05.463   13 Jun 2027 03:55:54.440            48.977                Norilsk          6122.125
       462   13 Jun 2027 03:56:11.357   13 Jun 2027 03:57:46.962            95.605              Murmansk1         11950.625
       463   13 Jun 2027 05:31:04.105   13 Jun 2027 05:32:09.752            65.647                Novosib          8205.875
       464   13 Jun 2027 05:32:47.189   13 Jun 2027 05:33:35.001            47.812              Murmansk2          5976.500
       465   13 Jun 2027 05:33:43.401   13 Jun 2027 05:35:37.706           114.305              Murmansk1         14288.125
       466   13 Jun 2027 05:37:25.017   13 Jun 2027 05:39:14.145           109.128              Murmansk2         13641.000
       467   13 Jun 2027 06:13:03.776   13 Jun 2027 06:18:21.902           318.126            RioGallegos         39765.750
       468   13 Jun 2027 06:47:45.553   13 Jun 2027 06:53:13.343           327.790                Sumatra         40973.750
       469   13 Jun 2027 06:56:02.915   13 Jun 2027 07:00:25.250           262.335                Irkutsk         32791.875
       470   13 Jun 2027 07:06:34.541   13 Jun 2027 07:06:39.315             4.774                Irkutsk           596.750
       471   13 Jun 2027 07:07:00.493   13 Jun 2027 07:11:51.935           291.442                Norilsk         36430.250
       472   13 Jun 2027 07:13:11.533   13 Jun 2027 07:14:04.857            53.324              Murmansk2          6665.500
       473   13 Jun 2027 07:45:15.258   13 Jun 2027 07:52:34.468           439.210            RioGallegos         54901.250
       474   13 Jun 2027 08:20:24.635   13 Jun 2027 08:24:12.951           228.316                Sumatra         28539.500
       475   13 Jun 2027 08:31:45.301   13 Jun 2027 08:37:21.752           336.451                  Delhi         42056.375
       476   13 Jun 2027 08:37:45.870   13 Jun 2027 08:38:24.735            38.865                Irkutsk          4858.125
       477   13 Jun 2027 08:42:46.835   13 Jun 2027 08:47:51.480           304.645                Norilsk         38080.625
       478   13 Jun 2027 08:49:06.017   13 Jun 2027 08:49:35.303            29.286              Murmansk1          3660.750
       479   13 Jun 2027 10:11:47.944   13 Jun 2027 10:12:07.909            19.965                 Moscow          2495.625
       480   13 Jun 2027 10:18:05.283   13 Jun 2027 10:23:33.274           327.991                Norilsk         40998.875
       481   13 Jun 2027 10:23:48.546   13 Jun 2027 10:25:27.393            98.847              Murmansk2         12355.875
       482   13 Jun 2027 11:47:59.869   13 Jun 2027 11:49:11.623            71.754                 Moscow          8969.250
