uniorb/output/strategy_4/Drop/Drop_KinoSat_110102.txt

KinoSat_110102
-------------------------
    Access    *     Start Time (UTCG)     *     Stop Time (UTCG)  *   Duration (s)        *       Station  *  Data (Mbytes)
         1   01 Jun 2027 03:00:34.495   01 Jun 2027 03:02:13.812            99.317                Irkutsk         12414.625
         2   01 Jun 2027 03:02:26.641   01 Jun 2027 03:03:11.353            44.712               Magadan1          5589.000
         3   01 Jun 2027 03:03:28.455   01 Jun 2027 03:03:34.709             6.254               Magadan2           781.750
         4   01 Jun 2027 03:03:53.053   01 Jun 2027 03:04:28.110            35.057              Murmansk2          4382.125
         5   01 Jun 2027 03:04:44.506   01 Jun 2027 03:05:06.727            22.221                Novosib          2777.625
         6   01 Jun 2027 03:05:27.290   01 Jun 2027 03:05:39.879            12.589                Norilsk          1573.625
         7   01 Jun 2027 03:05:47.471   01 Jun 2027 03:05:49.161             1.690                Irkutsk           211.250
         8   01 Jun 2027 03:05:50.583   01 Jun 2027 03:06:16.329            25.746              Murmansk1          3218.250
         9   01 Jun 2027 03:07:30.067   01 Jun 2027 03:07:51.998            21.931                Norilsk          2741.375
        10   01 Jun 2027 03:09:48.043   01 Jun 2027 03:10:18.679            30.636                Norilsk          3829.500
        11   01 Jun 2027 03:41:12.322   01 Jun 2027 03:41:12.632             0.310            RioGallegos            38.750
        12   01 Jun 2027 03:43:52.948   01 Jun 2027 03:45:23.211            90.263            RioGallegos         11282.875
        13   01 Jun 2027 04:15:48.148   01 Jun 2027 04:18:11.355           143.207                Sumatra         15530.750
        14   01 Jun 2027 04:38:05.490   01 Jun 2027 04:38:33.429            27.939              Murmansk1          3492.375
        15   01 Jun 2027 04:38:40.415   01 Jun 2027 04:38:51.801            11.386              Murmansk1          1423.250
        16   01 Jun 2027 04:38:55.919   01 Jun 2027 04:38:58.142             2.223                Norilsk           277.875
        17   01 Jun 2027 04:39:13.276   01 Jun 2027 04:40:05.731            52.455                 Moscow          6556.875
        18   01 Jun 2027 04:40:18.169   01 Jun 2027 04:40:21.701             3.532                Norilsk           441.500
        19   01 Jun 2027 04:40:27.388   01 Jun 2027 04:42:23.149           115.761                Novosib         14470.125
        20   01 Jun 2027 06:00:11.412   01 Jun 2027 06:02:35.064           143.652                  Delhi         17956.500
        21   01 Jun 2027 06:06:10.948   01 Jun 2027 06:07:49.251            98.303                  Delhi         12287.875
        22   01 Jun 2027 06:16:23.576   01 Jun 2027 06:17:26.981            63.405                Novosib          7925.625
        23   01 Jun 2027 06:17:52.109   01 Jun 2027 06:18:23.186            31.077                Novosib          3884.625
        24   01 Jun 2027 06:19:28.685   01 Jun 2027 06:19:43.926            15.241              Murmansk1          1905.125
        25   01 Jun 2027 07:51:46.616   01 Jun 2027 07:52:35.665            49.049              Murmansk2          6131.125
        26   01 Jun 2027 07:52:38.067   01 Jun 2027 07:52:55.619            17.552                 Moscow          2194.000
        27   01 Jun 2027 07:53:13.320   01 Jun 2027 07:54:21.257            67.937              Murmansk2          8492.125
        28   01 Jun 2027 07:54:26.907   01 Jun 2027 07:54:52.385            25.478                 Moscow          3184.750
        29   01 Jun 2027 08:58:49.548   01 Jun 2027 09:05:36.025           406.477               CapeTown         50809.625
        30   01 Jun 2027 12:54:48.202   01 Jun 2027 12:55:29.002            40.800               Magadan2          5100.000
        31   01 Jun 2027 12:59:17.980   01 Jun 2027 13:02:17.024           179.044               Magadan2         22380.500
        32   01 Jun 2027 14:28:35.408   01 Jun 2027 14:28:35.948             0.540               Magadan2            67.500
        33   01 Jun 2027 15:20:16.747   01 Jun 2027 15:22:10.675           113.928            RioGallegos         14241.000
        34   01 Jun 2027 15:28:39.209   01 Jun 2027 15:29:48.245            69.036            RioGallegos          8629.500
        35   01 Jun 2027 16:11:05.105   01 Jun 2027 16:13:02.891           117.786                Irkutsk         14723.250
        36   01 Jun 2027 16:21:50.443   01 Jun 2027 16:23:46.091           115.648                Sumatra         14456.000
        37   01 Jun 2027 16:29:30.692   01 Jun 2027 16:31:31.610           120.918                Sumatra         15114.750
        38   01 Jun 2027 17:43:55.755   01 Jun 2027 17:44:32.681            36.926                Novosib          4615.750
        39   01 Jun 2027 17:47:36.986   01 Jun 2027 17:48:49.240            72.254                Novosib          9031.750
        40   01 Jun 2027 17:51:17.558   01 Jun 2027 17:54:03.514           165.956                  Delhi         20744.500
        41   01 Jun 2027 18:00:49.087   01 Jun 2027 18:00:50.398             1.311                  Delhi           163.875
        42   01 Jun 2027 19:28:35.945   01 Jun 2027 19:29:02.699            26.754                  Delhi          3344.250
        43   01 Jun 2027 19:34:55.825   01 Jun 2027 19:36:40.841           105.016                  Delhi          2093.500
        44   02 Jun 2027 03:18:22.180   02 Jun 2027 03:19:39.142            76.962                Novosib          9620.250
        45   02 Jun 2027 03:19:50.196   02 Jun 2027 03:21:15.632            85.436                Norilsk         10679.500
        46   02 Jun 2027 04:27:54.179   02 Jun 2027 04:30:52.032           177.853                Sumatra         22231.625
        47   02 Jun 2027 04:52:36.428   02 Jun 2027 04:53:43.460            67.032                Irkutsk          8379.000
        48   02 Jun 2027 04:54:06.720   02 Jun 2027 04:59:10.957           304.237              Murmansk2         38029.625
        49   02 Jun 2027 05:00:13.890   02 Jun 2027 05:01:10.049            56.159              Murmansk1          7019.875
        50   02 Jun 2027 06:12:27.535   02 Jun 2027 06:19:38.141           430.606                  Delhi         53825.750
        51   02 Jun 2027 06:20:34.609   02 Jun 2027 06:20:58.424            23.815                Novosib          2976.875
        52   02 Jun 2027 06:21:39.097   02 Jun 2027 06:22:26.187            47.090                Novosib          5886.250
        53   02 Jun 2027 06:29:51.969   02 Jun 2027 06:30:23.758            31.789                Norilsk          3973.625
        54   02 Jun 2027 06:30:25.500   02 Jun 2027 06:34:51.353           265.853              Murmansk2         33231.625
        55   02 Jun 2027 06:35:04.549   02 Jun 2027 06:35:12.376             7.827                Norilsk           978.375
        56   02 Jun 2027 06:35:35.695   02 Jun 2027 06:35:52.831            17.136              Murmansk2          2142.000
        57   02 Jun 2027 06:36:17.296   02 Jun 2027 06:36:42.706            25.410              Murmansk2          3176.250
        58   02 Jun 2027 07:59:43.592   02 Jun 2027 08:00:15.095            31.503                 Moscow          3937.875
        59   02 Jun 2027 08:05:01.917   02 Jun 2027 08:10:38.033           336.116                Norilsk         42014.500
        60   02 Jun 2027 08:10:47.701   02 Jun 2027 08:11:35.981            48.280              Murmansk2          6035.000
        61   02 Jun 2027 08:12:48.086   02 Jun 2027 08:12:49.044             0.958              Murmansk1           119.750
        62   02 Jun 2027 09:10:31.585   02 Jun 2027 09:16:41.614           370.029               CapeTown         46253.625
        63   02 Jun 2027 09:37:22.452   02 Jun 2027 09:38:16.478            54.026              Murmansk1          6753.250
        64   02 Jun 2027 09:39:33.416   02 Jun 2027 09:40:07.557            34.141              Murmansk1          4267.625
        65   02 Jun 2027 09:44:04.782   02 Jun 2027 09:45:46.470           101.688              Murmansk2         12711.000
        66   02 Jun 2027 09:50:48.575   02 Jun 2027 09:55:55.540           306.965                Anadyr2         38370.625
        67   02 Jun 2027 09:56:36.005   02 Jun 2027 10:00:20.702           224.697                Anadyr1         28087.125
        68   02 Jun 2027 11:26:28.432   02 Jun 2027 11:26:39.042            10.610                Anadyr2          1326.250
        69   02 Jun 2027 13:04:42.452   02 Jun 2027 13:10:52.147           369.695               Magadan1         46211.875
        70   02 Jun 2027 14:50:10.809   02 Jun 2027 14:50:14.032             3.223               Magadan2           402.875
        71   02 Jun 2027 15:00:24.924   02 Jun 2027 15:02:37.098           132.174                Sumatra         16521.750
        72   02 Jun 2027 15:32:13.132   02 Jun 2027 15:33:37.661            84.529            RioGallegos         10566.125
        73   02 Jun 2027 15:41:40.159   02 Jun 2027 15:42:53.441            73.282            RioGallegos          9160.250
        74   02 Jun 2027 16:33:59.410   02 Jun 2027 16:35:06.740            67.330                Sumatra          8416.250
        75   02 Jun 2027 16:35:28.554   02 Jun 2027 16:36:45.848            77.294                  Delhi          9661.750
        76   02 Jun 2027 16:41:40.880   02 Jun 2027 16:42:50.274            69.394                Sumatra          8674.250
        77   02 Jun 2027 17:56:23.719   02 Jun 2027 17:57:26.668            62.949                Novosib          7868.625
        78   02 Jun 2027 18:03:15.813   02 Jun 2027 18:05:10.914           115.101                  Delhi         14387.625
        79   02 Jun 2027 18:10:41.670   02 Jun 2027 18:12:51.298           129.628                  Delhi         16203.500
        80   02 Jun 2027 19:39:40.671   02 Jun 2027 19:39:46.513             5.842                 Moscow           730.250
        81   02 Jun 2027 21:09:27.258   02 Jun 2027 21:09:48.984            21.726                 Moscow          2715.750
        82   02 Jun 2027 21:11:06.200   02 Jun 2027 21:11:13.610             7.410              Murmansk1           926.250
        83   02 Jun 2027 21:11:20.336   02 Jun 2027 21:12:45.933            85.597                 Moscow         10699.625
        84   02 Jun 2027 21:35:05.389   02 Jun 2027 21:35:34.712            29.323               CapeTown          3665.375
        85   02 Jun 2027 21:36:33.411   02 Jun 2027 21:38:21.594           108.183               CapeTown         13522.875
        86   03 Jun 2027 03:05:51.546   03 Jun 2027 03:09:26.482           214.936                Sumatra         19662.251
        87   03 Jun 2027 03:30:06.933   03 Jun 2027 03:30:27.041            20.108              Murmansk2          2513.500
        88   03 Jun 2027 04:40:06.227   03 Jun 2027 04:40:51.348            45.121                Sumatra          5640.125
        89   03 Jun 2027 04:42:41.561   03 Jun 2027 04:44:10.237            88.676                Sumatra         11084.500
        90   03 Jun 2027 05:05:19.567   03 Jun 2027 05:06:33.268            73.701                Novosib          9212.625
        91   03 Jun 2027 05:06:34.593   03 Jun 2027 05:07:50.465            75.872                Norilsk          9484.000
        92   03 Jun 2027 05:07:55.259   03 Jun 2027 05:08:41.849            46.590                 Moscow          5823.750
        93   03 Jun 2027 05:09:46.022   03 Jun 2027 05:11:39.126           113.104              Murmansk1         14138.000
        94   03 Jun 2027 06:26:41.982   03 Jun 2027 06:28:49.153           127.171                  Delhi         15896.375
        95   03 Jun 2027 06:33:08.188   03 Jun 2027 06:36:29.092           200.904                Novosib         25113.000
        96   03 Jun 2027 06:41:47.827   03 Jun 2027 06:47:13.075           325.248                Norilsk         40656.000
        97   03 Jun 2027 06:47:23.161   03 Jun 2027 06:48:54.523            91.362              Murmansk1         11420.250
        98   03 Jun 2027 08:08:31.054   03 Jun 2027 08:08:44.705            13.651                 Moscow          1706.375
        99   03 Jun 2027 08:10:29.544   03 Jun 2027 08:13:09.767           160.223                 Moscow         20027.875
       100   03 Jun 2027 08:15:14.890   03 Jun 2027 08:15:20.868             5.978              Murmansk2           747.250
       101   03 Jun 2027 08:16:26.379   03 Jun 2027 08:18:11.916           105.537                 Moscow         13192.125
       102   03 Jun 2027 08:18:29.181   03 Jun 2027 08:22:24.772           235.591                Norilsk         29448.875
       103   03 Jun 2027 08:28:54.259   03 Jun 2027 08:31:38.412           164.153                Anadyr1         20519.125
       104   03 Jun 2027 09:27:34.628   03 Jun 2027 09:28:05.790            31.162               CapeTown          3895.250
       105   03 Jun 2027 10:02:45.695   03 Jun 2027 10:06:24.925           219.230                Anadyr2         27403.750
       106   03 Jun 2027 10:06:43.547   03 Jun 2027 10:07:47.541            63.994                Anadyr2          7999.250
       107   03 Jun 2027 10:09:05.116   03 Jun 2027 10:12:18.572           193.456                Anadyr1         24182.000
       108   03 Jun 2027 11:38:29.457   03 Jun 2027 11:38:37.127             7.670                Anadyr1           958.750
       109   03 Jun 2027 11:41:21.615   03 Jun 2027 11:44:29.785           188.170               Magadan2         23521.250
       110   03 Jun 2027 13:16:42.435   03 Jun 2027 13:20:02.921           200.486               Magadan2         25060.750
       111   03 Jun 2027 15:11:17.352   03 Jun 2027 15:17:05.664           348.312                Sumatra         43539.000
       112   03 Jun 2027 15:18:27.534   03 Jun 2027 15:19:39.675            72.141                Sumatra          9017.625
       113   03 Jun 2027 16:37:44.033   03 Jun 2027 16:38:29.325            45.292                Novosib          5661.500
       114   03 Jun 2027 16:46:14.748   03 Jun 2027 16:46:38.258            23.510                Sumatra          2938.750
       115   03 Jun 2027 16:48:16.049   03 Jun 2027 16:48:33.969            17.920                Sumatra          2240.000
       116   03 Jun 2027 16:55:56.049   03 Jun 2027 16:57:52.749           116.700                Sumatra         14587.500
       117   03 Jun 2027 18:07:56.733   03 Jun 2027 18:08:16.969            20.236                Novosib          2529.500
       118   03 Jun 2027 18:15:17.376   03 Jun 2027 18:16:35.482            78.106                  Delhi          9763.250
       119   03 Jun 2027 18:18:27.879   03 Jun 2027 18:20:12.030           104.151                  Delhi         13018.875
       120   03 Jun 2027 19:49:11.535   03 Jun 2027 19:50:18.596            67.061                 Moscow          8382.625
       121   03 Jun 2027 19:51:24.369   03 Jun 2027 19:52:56.804            92.435                 Moscow         11554.375
       122   03 Jun 2027 21:21:28.583   03 Jun 2027 21:21:43.647            15.064                 Moscow          1883.000
       123   03 Jun 2027 21:24:02.593   03 Jun 2027 21:24:15.936            13.343              Murmansk2          1667.875
       124   03 Jun 2027 21:27:24.015   03 Jun 2027 21:29:22.622           118.607                 Moscow         14825.875
       125   03 Jun 2027 21:51:37.315   03 Jun 2027 21:53:17.147            99.832               CapeTown         12479.000
       126   04 Jun 2027 03:17:01.361   04 Jun 2027 03:17:22.773            21.412                Sumatra          2676.500
       127   04 Jun 2027 03:18:30.945   04 Jun 2027 03:24:36.235           365.290                Sumatra         11592.000
       128   04 Jun 2027 04:52:25.136   04 Jun 2027 04:52:27.220             2.084                Sumatra           260.500
       129   04 Jun 2027 04:54:24.663   04 Jun 2027 04:56:36.272           131.609                Sumatra         16451.125
       130   04 Jun 2027 05:18:03.646   04 Jun 2027 05:20:51.128           167.482                 Moscow         20935.250
       131   04 Jun 2027 05:21:37.073   04 Jun 2027 05:22:19.567            42.494              Murmansk2          5311.750
       132   04 Jun 2027 05:22:48.114   04 Jun 2027 05:23:13.660            25.546                Norilsk          3193.250
       133   04 Jun 2027 06:46:05.926   04 Jun 2027 06:49:10.485           184.559                Novosib         23069.875
       134   04 Jun 2027 06:49:22.738   04 Jun 2027 06:49:39.539            16.801                 Moscow          2100.125
       135   04 Jun 2027 06:53:43.034   04 Jun 2027 06:54:32.903            49.869                Norilsk          6233.625
       136   04 Jun 2027 06:54:34.197   04 Jun 2027 06:57:21.621           167.424                 Moscow         20928.000
       137   04 Jun 2027 06:57:53.482   04 Jun 2027 06:58:46.792            53.310              Murmansk1          6663.750
       138   04 Jun 2027 08:20:39.346   04 Jun 2027 08:25:11.984           272.638                 Moscow         34079.750
       139   04 Jun 2027 08:28:11.578   04 Jun 2027 08:29:20.478            68.900                 Moscow          8612.500
       140   04 Jun 2027 08:29:53.401   04 Jun 2027 08:30:22.785            29.384                 Moscow          3673.000
       141   04 Jun 2027 08:32:13.418   04 Jun 2027 08:34:36.181           142.763              Murmansk2         17845.375
       142   04 Jun 2027 08:40:09.767   04 Jun 2027 08:45:04.088           294.321                Anadyr2         36790.125
       143   04 Jun 2027 10:14:43.738   04 Jun 2027 10:15:38.218            54.480                Anadyr1          6810.000
       144   04 Jun 2027 10:19:22.044   04 Jun 2027 10:21:21.758           119.714                Anadyr2         14964.250
       145   04 Jun 2027 10:22:05.530   04 Jun 2027 10:24:17.218           131.688                Anadyr2         16461.000
       146   04 Jun 2027 11:55:33.729   04 Jun 2027 11:56:07.677            33.948               Magadan2          4243.500
       147   04 Jun 2027 12:02:38.515   04 Jun 2027 12:02:43.955             5.440               Magadan2           680.000
       148   04 Jun 2027 13:28:42.902   04 Jun 2027 13:29:01.414            18.512               Magadan2          2314.000
       149   04 Jun 2027 13:30:17.994   04 Jun 2027 13:31:04.899            46.905               Magadan1          5863.125
       150   04 Jun 2027 13:31:58.433   04 Jun 2027 13:33:42.169           103.736               Magadan1         12967.000
       151   04 Jun 2027 13:36:15.905   04 Jun 2027 13:36:23.942             8.037               Magadan2          1004.625
       152   04 Jun 2027 13:38:18.083   04 Jun 2027 13:38:32.588            14.505               Magadan2          1813.125
       153   04 Jun 2027 13:40:13.301   04 Jun 2027 13:40:14.351             1.050               Magadan1           131.250
       154   04 Jun 2027 15:10:15.877   04 Jun 2027 15:13:17.731           181.854                Irkutsk         22731.750
       155   04 Jun 2027 15:24:19.316   04 Jun 2027 15:29:52.944           333.628                Sumatra         41703.500
       156   04 Jun 2027 16:47:34.044   04 Jun 2027 16:48:57.544            83.500                Novosib         10437.500
       157   04 Jun 2027 16:52:45.540   04 Jun 2027 17:01:35.580           530.040                  Delhi         66255.000
       158   04 Jun 2027 20:05:13.719   04 Jun 2027 20:06:53.148            99.429                 Moscow         12428.625
       159   04 Jun 2027 22:00:11.544   04 Jun 2027 22:02:08.190           116.646               CapeTown         14580.750
       160   05 Jun 2027 03:28:36.260   05 Jun 2027 03:30:32.162           115.902                Sumatra          1569.000
       161   05 Jun 2027 05:19:25.485   05 Jun 2027 05:21:36.966           131.481                  Delhi         16435.125
       162   05 Jun 2027 05:30:09.209   05 Jun 2027 05:30:14.398             5.189                 Moscow           648.625
       163   05 Jun 2027 05:30:26.305   05 Jun 2027 05:31:08.073            41.768                Norilsk          5221.000
       164   05 Jun 2027 05:31:20.743   05 Jun 2027 05:31:46.236            25.493                Novosib          3186.625
       165   05 Jun 2027 05:32:02.249   05 Jun 2027 05:32:59.235            56.986                 Moscow          7123.250
       166   05 Jun 2027 05:33:28.859   05 Jun 2027 05:35:14.796           105.937              Murmansk1         13242.125
       167   05 Jun 2027 05:35:15.278   05 Jun 2027 05:35:19.989             4.711                Norilsk           588.875
       168   05 Jun 2027 06:58:36.567   05 Jun 2027 07:00:07.613            91.046                Novosib         11380.750
       169   05 Jun 2027 07:00:38.658   05 Jun 2027 07:01:39.518            60.860                 Moscow          7607.500
       170   05 Jun 2027 07:06:34.800   05 Jun 2027 07:06:45.057            10.257                Norilsk          1282.125
       171   05 Jun 2027 07:06:45.353   05 Jun 2027 07:11:44.133           298.780              Murmansk2         37347.500
       172   05 Jun 2027 08:14:35.019   05 Jun 2027 08:17:25.498           170.479               CapeTown         21309.875
       173   05 Jun 2027 08:32:50.892   05 Jun 2027 08:37:13.889           262.997                 Moscow         32874.625
       174   05 Jun 2027 08:39:15.752   05 Jun 2027 08:41:32.010           136.258              Murmansk2         17032.250
       175   05 Jun 2027 08:41:47.473   05 Jun 2027 08:42:25.095            37.622              Murmansk2          4702.750
       176   05 Jun 2027 08:44:13.907   05 Jun 2027 08:45:29.914            76.007              Murmansk1          9500.875
       177   05 Jun 2027 08:51:46.460   05 Jun 2027 08:58:06.028           379.568                Anadyr2         47446.000
       178   05 Jun 2027 10:26:42.521   05 Jun 2027 10:28:31.060           108.539                Anadyr1         13567.375
       179   05 Jun 2027 12:05:08.440   05 Jun 2027 12:06:21.433            72.993               Magadan2          9124.125
       180   05 Jun 2027 12:06:21.433   05 Jun 2027 12:07:22.542            61.109               Magadan1          7638.625
       181   05 Jun 2027 12:14:04.170   05 Jun 2027 12:14:39.515            35.345               Magadan1          4418.125
       182   05 Jun 2027 13:40:43.790   05 Jun 2027 13:42:34.814           111.024               Magadan2         13878.000
       183   05 Jun 2027 13:44:02.861   05 Jun 2027 13:45:30.919            88.058               Magadan1         11007.250
       184   05 Jun 2027 15:21:37.663   05 Jun 2027 15:22:05.400            27.737                Irkutsk          3467.125
       185   05 Jun 2027 15:24:54.822   05 Jun 2027 15:26:55.332           120.510                Irkutsk         15063.750
       186   05 Jun 2027 15:34:26.658   05 Jun 2027 15:40:51.854           385.196                Sumatra         48149.500
       187   05 Jun 2027 17:03:58.855   05 Jun 2027 17:05:50.441           111.586                Novosib         13948.250
       188   05 Jun 2027 17:06:11.372   05 Jun 2027 17:13:38.053           446.681                  Delhi         55835.125
       189   05 Jun 2027 20:18:21.884   05 Jun 2027 20:19:18.947            57.063                 Moscow          7132.875
       190   05 Jun 2027 21:52:26.208   05 Jun 2027 21:53:34.050            67.842                 Moscow          8480.250
       191   05 Jun 2027 22:09:56.776   05 Jun 2027 22:12:17.784           141.008               CapeTown          6377.250
       192   06 Jun 2027 05:17:31.405   06 Jun 2027 05:18:58.662            87.257                Sumatra         10907.125
       193   06 Jun 2027 05:24:12.931   06 Jun 2027 05:24:24.886            11.955                  Delhi          1494.375
       194   06 Jun 2027 05:29:38.486   06 Jun 2027 05:31:43.101           124.615                  Delhi         15576.875
       195   06 Jun 2027 05:41:44.299   06 Jun 2027 05:42:33.699            49.400              Murmansk2          6175.000
       196   06 Jun 2027 05:42:37.586   06 Jun 2027 05:44:01.378            83.792                Norilsk         10474.000
       197   06 Jun 2027 05:44:06.479   06 Jun 2027 05:45:06.428            59.949                 Moscow          7493.625
       198   06 Jun 2027 05:45:21.402   06 Jun 2027 05:46:37.669            76.267              Murmansk1          9533.375
       199   06 Jun 2027 07:11:27.586   06 Jun 2027 07:12:06.197            38.611                 Moscow          4826.375
       200   06 Jun 2027 07:12:44.749   06 Jun 2027 07:13:36.198            51.449                 Moscow          6431.125
       201   06 Jun 2027 07:17:37.702   06 Jun 2027 07:17:51.204            13.502                Novosib          1687.750
       202   06 Jun 2027 07:18:46.215   06 Jun 2027 07:22:28.863           222.648              Murmansk2         27831.000
       203   06 Jun 2027 07:22:49.906   06 Jun 2027 07:23:11.930            22.024                Norilsk          2753.000
       204   06 Jun 2027 07:24:04.595   06 Jun 2027 07:24:57.799            53.204              Murmansk2          6650.500
       205   06 Jun 2027 08:24:53.988   06 Jun 2027 08:31:24.617           390.629               CapeTown         48828.625
       206   06 Jun 2027 08:47:47.329   06 Jun 2027 08:48:11.638            24.309                 Moscow          3038.625
       207   06 Jun 2027 08:51:17.028   06 Jun 2027 08:53:36.600           139.572              Murmansk2         17446.500
       208   06 Jun 2027 08:56:14.642   06 Jun 2027 08:57:31.295            76.653              Murmansk1          9581.625
       209   06 Jun 2027 09:03:31.304   06 Jun 2027 09:09:51.591           380.287                Anadyr2         47535.875
       210   06 Jun 2027 09:10:17.433   06 Jun 2027 09:10:57.302            39.869                Anadyr1          4983.625
       211   06 Jun 2027 10:27:38.526   06 Jun 2027 10:29:21.852           103.326              Murmansk1         12915.750
       212   06 Jun 2027 10:43:36.675   06 Jun 2027 10:45:34.872           118.197               Magadan1         14774.625
       213   06 Jun 2027 12:17:04.267   06 Jun 2027 12:18:36.319            92.052               Magadan2         11506.500
       214   06 Jun 2027 12:21:59.946   06 Jun 2027 12:23:01.041            61.095               Magadan2          7636.875
       215   06 Jun 2027 12:23:01.041   06 Jun 2027 12:23:26.975            25.934               Magadan1          3241.750
       216   06 Jun 2027 12:24:36.630   06 Jun 2027 12:26:36.300           119.670               Magadan1         14958.750
       217   06 Jun 2027 14:00:38.864   06 Jun 2027 14:02:20.743           101.879               Magadan1         12734.875
       218   06 Jun 2027 14:47:58.057   06 Jun 2027 14:49:01.348            63.291            RioGallegos          7911.375
       219   06 Jun 2027 15:34:30.778   06 Jun 2027 15:34:57.445            26.667                Irkutsk          3333.375
       220   06 Jun 2027 15:39:33.179   06 Jun 2027 15:41:59.110           145.931                Irkutsk         18241.375
       221   06 Jun 2027 15:46:12.540   06 Jun 2027 15:48:58.783           166.243                Sumatra         20780.375
       222   06 Jun 2027 17:08:15.296   06 Jun 2027 17:10:42.898           147.602                Novosib         18450.250
       223   06 Jun 2027 17:16:00.192   06 Jun 2027 17:22:15.710           375.518                  Delhi         46939.750
       224   06 Jun 2027 18:59:16.531   06 Jun 2027 19:01:06.096           109.565                  Delhi         13695.625
       225   06 Jun 2027 20:21:43.985   06 Jun 2027 20:22:49.636            65.651                 Moscow          8206.375
       226   06 Jun 2027 20:28:09.139   06 Jun 2027 20:29:42.165            93.026                 Moscow          6057.375
       227   07 Jun 2027 05:36:12.055   07 Jun 2027 05:38:23.841           131.786                  Delhi         16473.250
       228   07 Jun 2027 05:43:56.056   07 Jun 2027 05:45:49.698           113.642                  Delhi         14205.250
       229   07 Jun 2027 05:54:12.094   07 Jun 2027 05:54:53.150            41.056              Murmansk1          5132.000
       230   07 Jun 2027 05:54:54.484   07 Jun 2027 05:58:54.533           240.049                Norilsk         30006.125
       231   07 Jun 2027 07:20:42.618   07 Jun 2027 07:23:12.265           149.647                 Moscow         18705.875
       232   07 Jun 2027 07:29:40.715   07 Jun 2027 07:30:12.075            31.360              Murmansk1          3920.000
       233   07 Jun 2027 07:31:05.313   07 Jun 2027 07:35:09.872           244.559                Norilsk         30569.875
       234   07 Jun 2027 07:35:25.245   07 Jun 2027 07:36:59.215            93.970              Murmansk1         11746.250
       235   07 Jun 2027 08:36:02.792   07 Jun 2027 08:44:31.476           508.684               CapeTown         63585.500
       236   07 Jun 2027 08:57:24.609   07 Jun 2027 08:59:37.113           132.504                 Moscow         16563.000
       237   07 Jun 2027 09:00:45.345   07 Jun 2027 09:01:29.946            44.601              Murmansk2          5575.125
       238   07 Jun 2027 09:03:46.205   07 Jun 2027 09:04:42.139            55.934              Murmansk1          6991.750
       239   07 Jun 2027 09:04:43.065   07 Jun 2027 09:06:06.330            83.265                 Moscow         10408.125
       240   07 Jun 2027 09:08:15.593   07 Jun 2027 09:08:25.431             9.838              Murmansk2          1229.750
       241   07 Jun 2027 09:08:31.787   07 Jun 2027 09:08:51.023            19.236              Murmansk2          2404.500
       242   07 Jun 2027 09:15:20.710   07 Jun 2027 09:23:41.552           500.842                Anadyr2         62605.250
       243   07 Jun 2027 10:54:46.427   07 Jun 2027 10:57:58.202           191.775               Magadan1         23971.875
       244   07 Jun 2027 12:26:34.711   07 Jun 2027 12:26:35.424             0.713                Anadyr1            89.125
       245   07 Jun 2027 12:29:01.275   07 Jun 2027 12:30:09.706            68.431               Magadan1          8553.875
       246   07 Jun 2027 12:31:15.133   07 Jun 2027 12:31:18.888             3.755                Anadyr2           469.375
       247   07 Jun 2027 12:34:35.169   07 Jun 2027 12:39:29.329           294.160               Magadan2         36770.000
       248   07 Jun 2027 14:58:13.082   07 Jun 2027 15:02:14.229           241.147            RioGallegos         30143.375
       249   07 Jun 2027 15:52:53.006   07 Jun 2027 15:53:55.495            62.489                Irkutsk          7811.125
       250   07 Jun 2027 15:58:04.549   07 Jun 2027 16:01:08.251           183.702                Sumatra         22962.750
       251   07 Jun 2027 17:20:12.805   07 Jun 2027 17:21:14.919            62.114                Novosib          7764.250
       252   07 Jun 2027 17:22:59.127   07 Jun 2027 17:25:13.208           134.081                Novosib         16760.125
       253   07 Jun 2027 17:27:46.668   07 Jun 2027 17:33:37.305           350.637                  Delhi         43829.625
       254   07 Jun 2027 20:33:42.312   07 Jun 2027 20:35:43.734           121.422                 Moscow         15177.750
       255   07 Jun 2027 22:34:54.009   07 Jun 2027 22:35:32.150            38.141               CapeTown          1964.625
       256   08 Jun 2027 05:44:21.400   08 Jun 2027 05:45:08.812            47.412                Sumatra          5926.500
       257   08 Jun 2027 05:46:51.559   08 Jun 2027 05:47:21.729            30.170                Sumatra          3771.250
       258   08 Jun 2027 05:48:16.551   08 Jun 2027 05:49:45.714            89.163                  Delhi         11145.375
       259   08 Jun 2027 05:51:23.257   08 Jun 2027 05:53:08.404           105.147                  Delhi         13143.375
       260   08 Jun 2027 06:06:09.920   08 Jun 2027 06:06:55.097            45.177              Murmansk1          5647.125
       261   08 Jun 2027 06:06:56.112   08 Jun 2027 06:09:18.696           142.584                 Moscow         17823.000
       262   08 Jun 2027 06:09:31.487   08 Jun 2027 06:11:29.451           117.964              Murmansk1         14745.500
       263   08 Jun 2027 07:32:39.224   08 Jun 2027 07:32:58.457            19.233                 Moscow          2404.125
       264   08 Jun 2027 07:35:25.053   08 Jun 2027 07:35:39.317            14.264                 Moscow          1783.000
       265   08 Jun 2027 07:42:58.524   08 Jun 2027 07:47:06.469           247.945                Norilsk         30993.125
       266   08 Jun 2027 07:47:16.892   08 Jun 2027 07:49:00.750           103.858              Murmansk2         12982.250
       267   08 Jun 2027 08:47:28.571   08 Jun 2027 08:56:42.929           554.358               CapeTown         69294.750
       268   08 Jun 2027 09:09:47.385   08 Jun 2027 09:13:37.871           230.486                 Moscow         28810.750
       269   08 Jun 2027 09:14:22.065   08 Jun 2027 09:14:39.792            17.727              Murmansk2          2215.875
       270   08 Jun 2027 09:14:47.766   08 Jun 2027 09:15:19.961            32.195              Murmansk2          4024.375
       271   08 Jun 2027 09:15:19.961   08 Jun 2027 09:18:29.594           189.633              Murmansk1         23704.125
       272   08 Jun 2027 09:20:16.730   08 Jun 2027 09:21:46.104            89.374              Murmansk1         11171.750
       273   08 Jun 2027 09:27:13.066   08 Jun 2027 09:36:20.432           547.366                Anadyr1         68420.750
       274   08 Jun 2027 11:06:18.549   08 Jun 2027 11:09:48.071           209.522               Magadan1         26190.250
       275   08 Jun 2027 12:40:59.238   08 Jun 2027 12:43:28.695           149.457               Magadan1         18682.125
       276   08 Jun 2027 12:45:49.870   08 Jun 2027 12:45:57.401             7.531               Magadan2           941.375
       277   08 Jun 2027 12:47:06.693   08 Jun 2027 12:48:11.623            64.930               Magadan1          8116.250
       278   08 Jun 2027 12:50:14.004   08 Jun 2027 12:52:20.470           126.466               Magadan2         15808.250
       279   08 Jun 2027 15:08:36.830   08 Jun 2027 15:10:38.763           121.933            RioGallegos         15241.625
       280   08 Jun 2027 15:15:28.305   08 Jun 2027 15:18:07.043           158.738            RioGallegos         19842.250
       281   08 Jun 2027 16:05:51.039   08 Jun 2027 16:05:53.215             2.176                Irkutsk           272.000
       282   08 Jun 2027 16:10:02.254   08 Jun 2027 16:12:55.654           173.400                Sumatra         21675.000
       283   08 Jun 2027 17:32:11.330   08 Jun 2027 17:32:59.065            47.735                Novosib          5966.875
       284   08 Jun 2027 17:34:34.194   08 Jun 2027 17:37:07.866           153.672                Novosib         19209.000
       285   08 Jun 2027 17:39:37.640   08 Jun 2027 17:43:55.570           257.930                  Delhi         32241.250
       286   08 Jun 2027 20:42:26.091   08 Jun 2027 20:42:52.343            26.252              Murmansk1          3281.500
       287   08 Jun 2027 20:45:41.539   08 Jun 2027 20:46:20.191            38.652                 Moscow          4831.500
       288   08 Jun 2027 20:48:50.266   08 Jun 2027 20:50:35.459           105.193                 Moscow         13149.125
       289   09 Jun 2027 04:16:03.203   09 Jun 2027 04:18:25.281           142.078                Sumatra         17759.750
       290   09 Jun 2027 04:23:38.309   09 Jun 2027 04:25:42.141           123.832                Sumatra         15479.000
       291   09 Jun 2027 04:41:31.809   09 Jun 2027 04:41:45.319            13.510                Norilsk          1688.750
       292   09 Jun 2027 04:42:33.381   09 Jun 2027 04:48:45.063           371.682              Murmansk1         46460.250
       293   09 Jun 2027 06:00:26.667   09 Jun 2027 06:05:01.656           274.989                  Delhi         34373.625
       294   09 Jun 2027 06:08:21.904   09 Jun 2027 06:12:09.841           227.937                Novosib         28492.125
       295   09 Jun 2027 06:12:21.067   09 Jun 2027 06:13:42.267            81.200                 Moscow         10150.000
       296   09 Jun 2027 06:18:06.286   09 Jun 2027 06:18:43.929            37.643                Novosib          4705.375
       297   09 Jun 2027 06:18:51.059   09 Jun 2027 06:20:44.092           113.033              Murmansk2         14129.125
       298   09 Jun 2027 06:20:44.092   09 Jun 2027 06:24:02.957           198.865              Murmansk1         24858.125
       299   09 Jun 2027 07:44:38.630   09 Jun 2027 07:45:54.279            75.649                 Moscow          9456.125
       300   09 Jun 2027 07:47:44.333   09 Jun 2027 07:50:41.827           177.494                 Moscow         22186.750
       301   09 Jun 2027 07:54:02.057   09 Jun 2027 08:01:02.377           420.320              Murmansk1         52540.000
       302   09 Jun 2027 08:59:52.560   09 Jun 2027 09:05:49.639           357.079               CapeTown         44634.875
       303   09 Jun 2027 09:27:21.560   09 Jun 2027 09:28:56.476            94.916              Murmansk1         11864.500
       304   09 Jun 2027 09:28:56.476   09 Jun 2027 09:30:11.453            74.977              Murmansk2          9372.125
       305   09 Jun 2027 09:39:07.502   09 Jun 2027 09:44:21.224           313.722                Anadyr1         39215.250
       306   09 Jun 2027 09:46:24.924   09 Jun 2027 09:48:38.680           133.756                Anadyr2         16719.500
       307   09 Jun 2027 11:14:42.593   09 Jun 2027 11:14:56.514            13.921                Anadyr1          1740.125
       308   09 Jun 2027 11:17:59.827   09 Jun 2027 11:19:47.343           107.516               Magadan1         13439.500
       309   09 Jun 2027 12:52:57.994   09 Jun 2027 12:59:31.068           393.074               Magadan1         49134.250
       310   09 Jun 2027 14:49:45.384   09 Jun 2027 14:49:55.996            10.612                Sumatra          1326.500
       311   09 Jun 2027 15:20:31.629   09 Jun 2027 15:22:24.789           113.160            RioGallegos         14145.000
       312   09 Jun 2027 15:28:54.927   09 Jun 2027 15:30:03.155            68.228            RioGallegos          8528.500
       313   09 Jun 2027 16:11:20.314   09 Jun 2027 16:13:17.606           117.292                Irkutsk         14661.500
       314   09 Jun 2027 16:22:05.555   09 Jun 2027 16:24:00.143           114.588                Sumatra         14323.500
       315   09 Jun 2027 17:44:47.237   09 Jun 2027 17:47:21.195           153.958                Novosib         19244.750
       316   09 Jun 2027 17:51:32.467   09 Jun 2027 17:54:17.275           164.808                  Delhi         20601.000
       317   09 Jun 2027 18:01:04.924   09 Jun 2027 18:01:05.365             0.441                  Delhi            55.125
       318   09 Jun 2027 19:28:51.686   09 Jun 2027 19:29:16.929            25.243                  Delhi          3155.375
       319   09 Jun 2027 19:32:29.437   09 Jun 2027 19:32:37.519             8.082                  Delhi          1010.250
       320   09 Jun 2027 20:55:29.387   09 Jun 2027 20:55:53.949            24.562              Murmansk1          3070.250
       321   09 Jun 2027 20:57:24.159   09 Jun 2027 20:59:08.326           104.167              Murmansk2         13020.875
       322   09 Jun 2027 21:00:57.132   09 Jun 2027 21:02:32.584            95.452                 Moscow         11931.500
       323   09 Jun 2027 21:24:19.355   09 Jun 2027 21:24:47.704            28.349               CapeTown          3543.625
       324   10 Jun 2027 02:55:05.311   10 Jun 2027 02:56:25.265            79.954                Sumatra          9994.250
       325   10 Jun 2027 03:18:40.154   10 Jun 2027 03:19:54.215            74.061                Novosib          9257.625
       326   10 Jun 2027 03:20:07.182   10 Jun 2027 03:22:09.898           122.716                Norilsk         15339.500
       327   10 Jun 2027 03:22:15.013   10 Jun 2027 03:22:49.684            34.671              Murmansk2          4333.875
       328   10 Jun 2027 04:28:09.351   10 Jun 2027 04:29:38.966            89.615                Sumatra         11201.875
       329   10 Jun 2027 04:35:51.544   10 Jun 2027 04:37:53.058           121.514                Sumatra         15189.250
       330   10 Jun 2027 04:53:01.349   10 Jun 2027 04:53:15.793            14.444              Murmansk1          1805.500
       331   10 Jun 2027 04:54:21.197   10 Jun 2027 04:54:37.523            16.326              Murmansk2          2040.750
       332   10 Jun 2027 04:54:46.319   10 Jun 2027 04:56:02.346            76.027                Novosib          9503.375
       333   10 Jun 2027 04:56:04.408   10 Jun 2027 04:57:01.008            56.600                Norilsk          7075.000
       334   10 Jun 2027 04:57:35.005   10 Jun 2027 04:59:25.582           110.577                Norilsk         13822.125
       335   10 Jun 2027 05:00:02.789   10 Jun 2027 05:00:26.496            23.707              Murmansk1          2963.375
       336   10 Jun 2027 06:12:42.926   10 Jun 2027 06:15:06.409           143.483                  Delhi         17935.375
       337   10 Jun 2027 06:19:05.588   10 Jun 2027 06:19:16.405            10.817                  Delhi          1352.125
       338   10 Jun 2027 06:20:49.763   10 Jun 2027 06:22:14.283            84.520                  Delhi         10565.000
       339   10 Jun 2027 06:22:21.176   10 Jun 2027 06:24:25.179           124.003                Novosib         15500.375
       340   10 Jun 2027 06:24:41.128   10 Jun 2027 06:25:10.719            29.591                 Moscow          3698.875
       341   10 Jun 2027 06:30:09.300   10 Jun 2027 06:34:51.008           281.708                Norilsk         35213.500
       342   10 Jun 2027 06:35:20.419   10 Jun 2027 06:35:50.750            30.331              Murmansk2          3791.375
       343   10 Jun 2027 06:36:57.166   10 Jun 2027 06:37:08.844            11.678              Murmansk2          1459.750
       344   10 Jun 2027 07:59:58.592   10 Jun 2027 08:01:16.763            78.171                 Moscow          9771.375
       345   10 Jun 2027 08:01:33.336   10 Jun 2027 08:02:22.866            49.530              Murmansk1          6191.250
       346   10 Jun 2027 08:05:17.927   10 Jun 2027 08:10:52.854           334.927                Norilsk         41865.875
       347   10 Jun 2027 08:11:02.440   10 Jun 2027 08:13:04.067           121.627              Murmansk2         15203.375
       348   10 Jun 2027 09:10:46.245   10 Jun 2027 09:16:55.698           369.453               CapeTown         46181.625
       349   10 Jun 2027 09:37:37.858   10 Jun 2027 09:38:37.057            59.199              Murmansk1          7399.875
       350   10 Jun 2027 09:39:23.215   10 Jun 2027 09:41:54.495           151.280              Murmansk2         18910.000
       351   10 Jun 2027 09:42:22.418   10 Jun 2027 09:43:00.858            38.440              Murmansk2          4805.000
       352   10 Jun 2027 09:44:19.440   10 Jun 2027 09:46:01.901           102.461              Murmansk2         12807.625
       353   10 Jun 2027 09:51:03.469   10 Jun 2027 09:52:54.767           111.298                Anadyr2         13912.250
       354   10 Jun 2027 09:54:15.407   10 Jun 2027 09:56:10.184           114.777                Anadyr1         14347.125
       355   10 Jun 2027 09:56:59.283   10 Jun 2027 10:00:35.614           216.331                Anadyr2         27041.375
       356   10 Jun 2027 11:26:43.428   10 Jun 2027 11:26:53.711            10.283                Anadyr2          1285.375
       357   10 Jun 2027 11:29:46.374   10 Jun 2027 11:33:14.414           208.040               Magadan1         26005.000
       358   10 Jun 2027 13:04:57.424   10 Jun 2027 13:05:28.844            31.420               Magadan2          3927.500
       359   10 Jun 2027 13:07:56.853   10 Jun 2027 13:09:49.918           113.065               Magadan1         14133.125
       360   10 Jun 2027 14:40:52.671   10 Jun 2027 14:41:36.359            43.688               Magadan2          5461.000
       361   10 Jun 2027 14:50:25.526   10 Jun 2027 14:51:07.261            41.735               Magadan1          5216.875
       362   10 Jun 2027 15:00:37.128   10 Jun 2027 15:03:02.870           145.742                Sumatra         18217.750
       363   10 Jun 2027 15:09:11.770   10 Jun 2027 15:09:13.295             1.525                Sumatra           190.625
       364   10 Jun 2027 15:32:28.048   10 Jun 2027 15:33:51.978            83.930            RioGallegos         10491.250
       365   10 Jun 2027 15:41:55.631   10 Jun 2027 15:43:07.852            72.221            RioGallegos          9027.625
       366   10 Jun 2027 16:34:14.650   10 Jun 2027 16:35:59.221           104.571                Sumatra         13071.375
       367   10 Jun 2027 16:37:02.315   10 Jun 2027 16:38:53.430           111.115                Sumatra         13889.375
       368   10 Jun 2027 17:56:10.895   10 Jun 2027 17:56:38.312            27.417                Novosib          3427.125
       369   10 Jun 2027 17:57:41.821   10 Jun 2027 17:59:27.421           105.600                Novosib         13200.000
       370   10 Jun 2027 18:03:30.794   10 Jun 2027 18:05:25.017           114.223                  Delhi         14277.875
       371   10 Jun 2027 18:10:56.853   10 Jun 2027 18:13:06.335           129.482                  Delhi         16185.250
       372   10 Jun 2027 19:39:48.814   10 Jun 2027 19:39:49.068             0.254                 Moscow            31.750
       373   10 Jun 2027 21:09:42.261   10 Jun 2027 21:10:03.600            21.339                 Moscow          2667.375
       374   10 Jun 2027 21:11:35.430   10 Jun 2027 21:13:00.966            85.536                 Moscow         10692.000
       375   10 Jun 2027 21:34:41.966   10 Jun 2027 21:35:19.609            37.643               CapeTown          4705.375
       376   10 Jun 2027 21:41:25.592   10 Jun 2027 21:42:38.731            73.139               CapeTown          9142.375
       377   11 Jun 2027 03:06:02.296   11 Jun 2027 03:09:56.362           234.066                Sumatra         20828.125
       378   11 Jun 2027 03:30:21.672   11 Jun 2027 03:30:42.817            21.145              Murmansk2          2643.125
       379   11 Jun 2027 04:40:21.538   11 Jun 2027 04:41:05.652            44.114                Sumatra          5514.250
       380   11 Jun 2027 04:42:56.261   11 Jun 2027 04:44:26.540            90.279                Sumatra         11284.875
       381   11 Jun 2027 05:05:33.699   11 Jun 2027 05:06:51.681            77.982                Novosib          9747.750
       382   11 Jun 2027 05:07:07.446   11 Jun 2027 05:08:05.195            57.749                Norilsk          7218.625
       383   11 Jun 2027 05:08:12.011   11 Jun 2027 05:08:57.011            45.000                 Moscow          5625.000
       384   11 Jun 2027 05:10:00.544   11 Jun 2027 05:11:53.618           113.074              Murmansk2         14134.250
       385   11 Jun 2027 06:25:06.198   11 Jun 2027 06:26:56.649           110.451                  Delhi         13806.375
       386   11 Jun 2027 06:33:23.925   11 Jun 2027 06:36:44.272           200.347                Novosib         25043.375
       387   11 Jun 2027 06:36:45.653   11 Jun 2027 06:37:33.003            47.350                 Moscow          5918.750
       388   11 Jun 2027 06:42:04.728   11 Jun 2027 06:45:32.910           208.182                 Moscow         26022.750
       389   11 Jun 2027 06:46:15.444   11 Jun 2027 06:48:44.242           148.798              Murmansk1         18599.750
       390   11 Jun 2027 08:08:46.177   11 Jun 2027 08:08:59.722            13.545                 Moscow          1693.125
       391   11 Jun 2027 08:11:52.866   11 Jun 2027 08:14:44.909           172.043                 Moscow         21505.375
       392   11 Jun 2027 08:16:34.323   11 Jun 2027 08:18:27.091           112.768                 Moscow         14096.000
       393   11 Jun 2027 08:18:34.364   11 Jun 2027 08:19:01.655            27.291                 Moscow          3411.375
       394   11 Jun 2027 08:19:03.408   11 Jun 2027 08:22:39.462           216.054                Norilsk         27006.750
       395   11 Jun 2027 08:29:07.671   11 Jun 2027 08:31:55.845           168.174                Anadyr1         21021.750
       396   11 Jun 2027 09:27:50.375   11 Jun 2027 09:28:20.094            29.719               CapeTown          3714.875
       397   11 Jun 2027 09:56:20.964   11 Jun 2027 09:57:25.374            64.410              Murmansk1          8051.250
       398   11 Jun 2027 10:03:00.612   11 Jun 2027 10:06:41.943           221.331                Anadyr1         27666.375
       399   11 Jun 2027 10:06:59.084   11 Jun 2027 10:08:06.095            67.011                Anadyr1          8376.375
       400   11 Jun 2027 10:09:20.803   11 Jun 2027 10:12:33.505           192.702                Anadyr1         24087.750
       401   11 Jun 2027 11:41:36.397   11 Jun 2027 11:43:34.038           117.641               Magadan1         14705.125
       402   11 Jun 2027 13:16:57.419   11 Jun 2027 13:20:06.559           189.140               Magadan2         23642.500
       403   11 Jun 2027 15:11:31.613   11 Jun 2027 15:19:51.676           500.063                Sumatra         62507.875
       404   11 Jun 2027 16:37:44.914   11 Jun 2027 16:38:53.350            68.436                Novosib          8554.500
       405   11 Jun 2027 16:46:35.965   11 Jun 2027 16:50:09.767           213.802                  Delhi         26725.250
       406   11 Jun 2027 18:15:32.428   11 Jun 2027 18:16:49.765            77.337                  Delhi          9667.125
       407   11 Jun 2027 18:18:42.799   11 Jun 2027 18:20:26.724           103.925                  Delhi         12990.625
       408   11 Jun 2027 19:50:34.247   11 Jun 2027 19:51:30.967            56.720                 Moscow          7090.000
       409   11 Jun 2027 19:51:41.577   11 Jun 2027 19:53:22.665           101.088                 Moscow         12636.000
       410   11 Jun 2027 21:45:42.448   11 Jun 2027 21:46:48.807            66.359               CapeTown          8294.875
       411   11 Jun 2027 21:51:52.502   11 Jun 2027 21:53:32.056            99.554               CapeTown         12444.250
       412   12 Jun 2027 03:17:15.725   12 Jun 2027 03:17:29.109            13.384                Sumatra          1673.000
       413   12 Jun 2027 03:18:19.681   12 Jun 2027 03:24:49.355           389.674                Sumatra          6660.500
       414   12 Jun 2027 04:52:40.599   12 Jun 2027 04:52:41.641             1.042                Sumatra           130.250
       415   12 Jun 2027 04:54:39.221   12 Jun 2027 04:56:51.139           131.918                Sumatra         16489.750
       416   12 Jun 2027 05:18:19.846   12 Jun 2027 05:21:06.268           166.422                 Moscow         20802.750
       417   12 Jun 2027 05:21:51.605   12 Jun 2027 05:23:21.673            90.068              Murmansk1         11258.500
       418   12 Jun 2027 06:45:57.014   12 Jun 2027 06:46:39.228            42.214                 Moscow          5276.750
       419   12 Jun 2027 06:46:47.493   12 Jun 2027 06:49:07.454           139.961                Novosib         17495.125
       420   12 Jun 2027 06:49:37.211   12 Jun 2027 06:49:56.229            19.018                 Moscow          2377.250
       421   12 Jun 2027 06:54:13.997   12 Jun 2027 06:54:50.794            36.797              Murmansk1          4599.625
       422   12 Jun 2027 06:55:14.050   12 Jun 2027 06:57:36.672           142.622                 Moscow         17827.750
       423   12 Jun 2027 06:57:50.805   12 Jun 2027 06:57:53.313             2.508              Murmansk2           313.500
       424   12 Jun 2027 06:58:08.044   12 Jun 2027 06:59:02.565            54.521              Murmansk2          6815.125
       425   12 Jun 2027 06:59:02.565   12 Jun 2027 06:59:25.443            22.878              Murmansk1          2859.750
       426   12 Jun 2027 08:20:54.535   12 Jun 2027 08:25:26.817           272.282                 Moscow         34035.250
       427   12 Jun 2027 08:27:29.362   12 Jun 2027 08:30:14.178           164.816              Murmansk1         20602.000
       428   12 Jun 2027 08:32:28.062   12 Jun 2027 08:34:50.944           142.882              Murmansk1         17860.250
       429   12 Jun 2027 08:40:24.075   12 Jun 2027 08:45:20.573           296.498                Anadyr2         37062.250
       430   12 Jun 2027 10:14:58.676   12 Jun 2027 10:16:23.145            84.469                Anadyr2         10558.625
       431   12 Jun 2027 10:19:37.496   12 Jun 2027 10:21:36.714           119.218                Anadyr2         14902.250
       432   12 Jun 2027 10:22:21.025   12 Jun 2027 10:24:30.495           129.470                Anadyr2         16183.750
       433   12 Jun 2027 13:28:57.898   12 Jun 2027 13:32:13.536           195.638               Magadan2         24454.750
       434   12 Jun 2027 15:10:30.868   12 Jun 2027 15:13:42.909           192.041                Irkutsk         24005.125
       435   12 Jun 2027 15:24:34.880   12 Jun 2027 15:30:06.484           331.604                Sumatra         41450.500
       436   12 Jun 2027 16:52:59.867   12 Jun 2027 17:01:43.034           523.167                  Delhi         65395.875
       437   12 Jun 2027 20:05:29.573   12 Jun 2027 20:07:33.697           124.124                 Moscow         15515.500
       438   12 Jun 2027 22:00:41.088   12 Jun 2027 22:02:22.987           101.899               CapeTown         12737.375
       439   13 Jun 2027 03:28:50.801   13 Jun 2027 03:30:47.631           116.830                Sumatra          1205.375
       440   13 Jun 2027 05:17:56.303   13 Jun 2027 05:19:40.649           104.346                  Delhi         13043.250
       441   13 Jun 2027 05:30:25.434   13 Jun 2027 05:33:14.359           168.925                 Moscow         21115.625
       442   13 Jun 2027 05:33:43.401   13 Jun 2027 05:35:29.302           105.901              Murmansk1         13237.625
       443   13 Jun 2027 05:35:30.012   13 Jun 2027 05:35:35.020             5.008                Norilsk           626.000
       444   13 Jun 2027 06:58:52.654   13 Jun 2027 07:00:06.358            73.704                Novosib          9213.000
       445   13 Jun 2027 07:00:56.231   13 Jun 2027 07:01:57.237            61.006                 Moscow          7625.750
       446   13 Jun 2027 07:06:49.462   13 Jun 2027 07:07:00.493            11.031                Norilsk          1378.875
       447   13 Jun 2027 07:07:02.583   13 Jun 2027 07:11:58.809           296.226              Murmansk1         37028.250
       448   13 Jun 2027 07:11:58.809   13 Jun 2027 07:13:11.533            72.724              Murmansk2          9090.500
       449   13 Jun 2027 08:14:46.181   13 Jun 2027 08:17:44.692           178.511               CapeTown         22313.875
       450   13 Jun 2027 08:33:06.151   13 Jun 2027 08:37:28.771           262.620                 Moscow         32827.500
       451   13 Jun 2027 08:40:00.994   13 Jun 2027 08:41:47.838           106.844              Murmansk1         13355.500
       452   13 Jun 2027 08:42:02.765   13 Jun 2027 08:42:48.892            46.127              Murmansk2          5765.875
       453   13 Jun 2027 08:44:16.254   13 Jun 2027 08:46:46.251           149.997              Murmansk2         18749.625
       454   13 Jun 2027 08:52:01.024   13 Jun 2027 08:58:22.206           381.182                Anadyr1         47647.750
       455   13 Jun 2027 12:05:02.083   13 Jun 2027 12:05:48.359            46.276                Anadyr2          5784.500
       456   13 Jun 2027 12:06:37.014   13 Jun 2027 12:09:33.642           176.628               Magadan2         22078.500
       457   13 Jun 2027 12:14:17.617   13 Jun 2027 12:14:54.409            36.792               Magadan2          4599.000
       458   13 Jun 2027 13:40:58.796   13 Jun 2027 13:41:11.993            13.197               Magadan1          1649.625
       459   13 Jun 2027 13:49:44.162   13 Jun 2027 13:50:34.268            50.106               Magadan2          6263.250
       460   13 Jun 2027 13:50:34.268   13 Jun 2027 13:52:07.334            93.066               Magadan1         11633.250
       461   13 Jun 2027 15:25:10.536   13 Jun 2027 15:26:17.066            66.530                Irkutsk          8316.250
       462   13 Jun 2027 15:34:41.277   13 Jun 2027 15:41:05.828           384.551                Sumatra         48068.875
       463   13 Jun 2027 17:01:54.956   13 Jun 2027 17:04:14.625           139.669                Novosib         17458.625
       464   13 Jun 2027 17:06:29.490   13 Jun 2027 17:11:27.816           298.326                  Delhi         37290.750
       465   13 Jun 2027 18:49:29.653   13 Jun 2027 18:49:30.074             0.421                  Delhi            52.625
       466   13 Jun 2027 20:10:01.615   13 Jun 2027 20:11:27.567            85.952                 Moscow         10744.000
       467   13 Jun 2027 20:12:25.201   13 Jun 2027 20:15:07.574           162.373                 Moscow         20296.625
       468   13 Jun 2027 20:18:37.438   13 Jun 2027 20:19:33.875            56.437                 Moscow          7015.624
