uniorb/output/strategy_4/Drop/Drop_KinoSat_111907.txt

KinoSat_111907
-------------------------
    Access    *     Start Time (UTCG)     *     Stop Time (UTCG)  *   Duration (s)        *       Station  *  Data (Mbytes)
         1   01 Jun 2027 04:21:42.107   01 Jun 2027 04:25:31.957           229.850                Novosib          7182.812
         2   01 Jun 2027 04:25:58.224   01 Jun 2027 04:32:40.671           402.447                  Delhi         12576.469
         3   01 Jun 2027 05:59:57.335   01 Jun 2027 06:01:00.087            62.752                Norilsk          1961.000
         4   01 Jun 2027 06:01:02.462   01 Jun 2027 06:02:23.899            81.437              Murmansk2          2544.906
         5   01 Jun 2027 06:02:41.693   01 Jun 2027 06:04:22.667           100.974              Murmansk2          3155.438
         6   01 Jun 2027 06:04:35.547   01 Jun 2027 06:06:18.181           102.634                 Moscow          3207.312
         7   01 Jun 2027 06:22:06.283   01 Jun 2027 06:22:50.591            44.308               CapeTown          1384.625
         8   01 Jun 2027 07:23:25.167   01 Jun 2027 07:23:37.553            12.386               Magadan1           387.062
         9   01 Jun 2027 07:23:46.042   01 Jun 2027 07:24:37.802            51.760                Anadyr1          1617.500
        10   01 Jun 2027 07:26:15.974   01 Jun 2027 07:27:05.843            49.869               Magadan1          1558.406
        11   01 Jun 2027 07:57:25.660   01 Jun 2027 07:57:42.388            16.728               CapeTown           522.750
        12   01 Jun 2027 08:57:24.745   01 Jun 2027 08:59:09.069           104.324               Magadan1          3260.125
        13   01 Jun 2027 08:59:58.120   01 Jun 2027 09:02:28.433           150.313               Magadan2          4697.281
        14   01 Jun 2027 09:02:40.535   01 Jun 2027 09:04:23.789           103.254                Anadyr2          3226.688
        15   01 Jun 2027 10:32:53.153   01 Jun 2027 10:39:55.596           422.443               Magadan2         13201.344
        16   01 Jun 2027 12:09:06.662   01 Jun 2027 12:13:57.350           290.688               Magadan1          9084.000
        17   01 Jun 2027 14:32:20.640   01 Jun 2027 14:36:08.549           227.909            RioGallegos          7122.156
        18   01 Jun 2027 17:02:16.946   01 Jun 2027 17:08:21.441           364.495                Norilsk         11390.469
        19   01 Jun 2027 20:14:28.341   01 Jun 2027 20:20:17.635           349.294              Murmansk2         10915.438
        20   01 Jun 2027 20:20:34.918   01 Jun 2027 20:22:00.042            85.124              Murmansk1          2660.125
        21   01 Jun 2027 22:02:17.075   01 Jun 2027 22:03:38.012            80.937               Magadan1          2529.281
        22   01 Jun 2027 22:10:19.140   01 Jun 2027 22:10:37.313            18.173               Magadan1           567.906
        23   01 Jun 2027 22:10:43.174   01 Jun 2027 22:11:12.640            29.466               Magadan1           920.813
        24   01 Jun 2027 22:56:13.002   01 Jun 2027 22:58:43.327           150.325            RioGallegos          4697.656
        25   01 Jun 2027 23:35:48.988   01 Jun 2027 23:37:51.812           122.824                Anadyr2          3838.250
        26   01 Jun 2027 23:37:54.892   01 Jun 2027 23:39:23.217            88.325                Norilsk          2760.156
        27   01 Jun 2027 23:39:53.671   01 Jun 2027 23:40:11.293            17.622               Magadan2           550.688
        28   01 Jun 2027 23:40:11.293   01 Jun 2027 23:41:12.330            61.037               Magadan1          1907.406
        29   01 Jun 2027 23:42:52.941   01 Jun 2027 23:44:41.433           108.492                Irkutsk          3390.375
        30   01 Jun 2027 23:48:12.926   01 Jun 2027 23:49:27.097            74.171                Irkutsk          2317.844
        31   01 Jun 2027 23:57:56.049   01 Jun 2027 23:59:53.859           117.810                Sumatra          3681.562
        32   02 Jun 2027 00:35:45.202   02 Jun 2027 00:36:45.533            60.331            RioGallegos          1885.344
        33   02 Jun 2027 01:11:06.851   02 Jun 2027 01:11:14.209             7.358                Anadyr1           229.937
        34   02 Jun 2027 01:11:16.582   02 Jun 2027 01:11:34.822            18.240                Anadyr2           570.000
        35   02 Jun 2027 01:11:58.737   02 Jun 2027 01:12:11.600            12.863                Anadyr1           401.969
        36   02 Jun 2027 01:12:47.884   02 Jun 2027 01:13:21.917            34.033                Anadyr2          1063.531
        37   02 Jun 2027 01:13:41.582   02 Jun 2027 01:15:35.861           114.279                Norilsk          3571.219
        38   02 Jun 2027 01:15:44.836   02 Jun 2027 01:17:35.232           110.396               Magadan1          3449.875
        39   02 Jun 2027 01:17:37.569   02 Jun 2027 01:18:51.804            74.235                Irkutsk          2319.844
        40   02 Jun 2027 01:19:03.053   02 Jun 2027 01:20:01.715            58.662                Novosib          1833.188
        41   02 Jun 2027 01:28:25.997   02 Jun 2027 01:28:49.170            23.173                  Delhi           724.156
        42   02 Jun 2027 01:31:30.177   02 Jun 2027 01:31:49.290            19.113                Sumatra           597.281
        43   02 Jun 2027 01:34:27.103   02 Jun 2027 01:36:02.679            95.576                Sumatra          2986.750
        44   02 Jun 2027 02:05:42.832   02 Jun 2027 02:07:33.551           110.719            RioGallegos          3459.969
        45   02 Jun 2027 02:47:50.397   02 Jun 2027 02:47:54.403             4.006                Anadyr1           125.188
        46   02 Jun 2027 02:49:42.672   02 Jun 2027 02:51:20.201            97.529                Norilsk          3047.781
        47   02 Jun 2027 02:52:36.521   02 Jun 2027 02:53:48.747            72.226              Murmansk1          2257.063
        48   02 Jun 2027 02:53:57.592   02 Jun 2027 02:54:43.865            46.273                Novosib          1446.031
        49   02 Jun 2027 02:54:47.599   02 Jun 2027 02:54:49.244             1.645                Novosib            51.406
        50   02 Jun 2027 02:55:07.805   02 Jun 2027 02:55:26.368            18.563                Novosib           580.094
        51   02 Jun 2027 02:55:29.128   02 Jun 2027 02:56:29.393            60.265                Irkutsk          1883.281
        52   02 Jun 2027 02:57:59.098   02 Jun 2027 02:58:34.857            35.759                Irkutsk          1117.469
        53   02 Jun 2027 03:00:39.145   02 Jun 2027 03:02:04.012            84.867                Novosib          2652.094
        54   02 Jun 2027 03:02:12.224   02 Jun 2027 03:02:55.644            43.420                Novosib          1356.875
        55   02 Jun 2027 03:06:09.391   02 Jun 2027 03:06:41.708            32.317                  Delhi          1009.906
        56   02 Jun 2027 03:42:46.028   02 Jun 2027 03:43:36.150            50.122            RioGallegos          1566.313
        57   02 Jun 2027 03:47:42.204   02 Jun 2027 03:47:47.455             5.251            RioGallegos           164.094
        58   02 Jun 2027 04:33:30.093   02 Jun 2027 04:34:04.934            34.841              Murmansk1          1088.781
        59   02 Jun 2027 04:34:12.361   02 Jun 2027 04:34:23.336            10.975                Norilsk           342.969
        60   02 Jun 2027 04:34:28.651   02 Jun 2027 04:36:07.036            98.385                 Moscow          3074.531
        61   02 Jun 2027 04:36:09.514   02 Jun 2027 04:37:29.703            80.189                Novosib          2505.906
        62   02 Jun 2027 04:38:35.768   02 Jun 2027 04:41:42.274           186.506                  Delhi          5828.313
        63   02 Jun 2027 06:13:56.798   02 Jun 2027 06:15:15.616            78.818                 Moscow          2463.062
        64   02 Jun 2027 06:30:55.070   02 Jun 2027 06:35:02.965           247.895               CapeTown          7746.719
        65   02 Jun 2027 07:34:51.004   02 Jun 2027 07:36:00.329            69.325                Anadyr1          2166.406
        66   02 Jun 2027 07:36:39.752   02 Jun 2027 07:37:19.376            39.624                Anadyr1          1238.250
        67   02 Jun 2027 09:12:04.870   02 Jun 2027 09:16:22.906           258.036                Anadyr2          8063.625
        68   02 Jun 2027 10:45:57.225   02 Jun 2027 10:46:26.606            29.381               Magadan2           918.156
        69   02 Jun 2027 10:46:26.606   02 Jun 2027 10:46:46.389            19.783               Magadan1           618.219
        70   02 Jun 2027 10:47:47.254   02 Jun 2027 10:47:58.341            11.087                Irkutsk           346.469
        71   02 Jun 2027 10:48:07.260   02 Jun 2027 10:49:18.763            71.503               Magadan2          2234.469
        72   02 Jun 2027 10:49:18.763   02 Jun 2027 10:50:21.237            62.474               Magadan1          1952.313
        73   02 Jun 2027 10:50:31.478   02 Jun 2027 10:50:50.363            18.885                Norilsk           590.156
        74   02 Jun 2027 10:51:02.325   02 Jun 2027 10:51:17.506            15.181                Norilsk           474.406
        75   02 Jun 2027 10:51:19.860   02 Jun 2027 10:51:32.767            12.907                Norilsk           403.344
        76   02 Jun 2027 10:51:57.186   02 Jun 2027 10:52:13.183            15.997                Norilsk           499.906
        77   02 Jun 2027 11:26:50.864   02 Jun 2027 11:27:56.377            65.513            RioGallegos          2047.281
        78   02 Jun 2027 12:03:30.165   02 Jun 2027 12:05:25.471           115.306                Sumatra          3603.312
        79   02 Jun 2027 12:15:02.929   02 Jun 2027 12:16:18.938            76.009                Irkutsk          2375.281
        80   02 Jun 2027 12:21:57.344   02 Jun 2027 12:23:01.383            64.039                Norilsk          2001.219
        81   02 Jun 2027 12:23:06.326   02 Jun 2027 12:24:37.768            91.442               Magadan1          2857.562
        82   02 Jun 2027 13:03:12.782   02 Jun 2027 13:03:17.488             4.706            RioGallegos           147.063
        83   02 Jun 2027 13:05:35.907   02 Jun 2027 13:08:04.861           148.954            RioGallegos          4654.812
        84   02 Jun 2027 13:37:35.885   02 Jun 2027 13:37:41.630             5.745                Sumatra           179.531
        85   02 Jun 2027 13:40:22.645   02 Jun 2027 13:42:18.154           115.509                Sumatra          3609.656
        86   02 Jun 2027 13:57:06.423   02 Jun 2027 13:57:24.639            18.216                Irkutsk           569.250
        87   02 Jun 2027 13:59:42.030   02 Jun 2027 14:02:26.103           164.073                Irkutsk          5127.281
        88   02 Jun 2027 15:22:14.938   02 Jun 2027 15:23:34.573            79.635                  Delhi          2488.594
        89   02 Jun 2027 15:27:21.811   02 Jun 2027 15:27:30.505             8.694                  Delhi           271.687
        90   02 Jun 2027 15:30:23.554   02 Jun 2027 15:32:10.724           107.170                  Delhi          3349.062
        91   02 Jun 2027 15:34:13.539   02 Jun 2027 15:36:00.319           106.780                Novosib          3336.875
        92   02 Jun 2027 15:37:46.629   02 Jun 2027 15:38:25.831            39.202                Norilsk          1225.062
        93   02 Jun 2027 15:42:35.141   02 Jun 2027 15:42:47.498            12.357                Norilsk           386.156
        94   02 Jun 2027 15:43:52.544   02 Jun 2027 15:44:15.582            23.038                Norilsk           719.937
        95   02 Jun 2027 17:06:03.772   02 Jun 2027 17:07:13.135            69.363                 Moscow          2167.594
        96   02 Jun 2027 17:07:40.725   02 Jun 2027 17:09:19.710            98.985                 Moscow          3093.281
        97   02 Jun 2027 17:15:00.977   02 Jun 2027 17:19:16.922           255.945                Norilsk          7998.281
        98   02 Jun 2027 18:29:24.175   02 Jun 2027 18:29:50.118            25.943               CapeTown           810.719
        99   02 Jun 2027 18:44:26.259   02 Jun 2027 18:49:09.558           283.299                 Moscow          8853.094
       100   02 Jun 2027 19:08:57.285   02 Jun 2027 19:09:27.314            30.029                Anadyr2           938.406
       101   02 Jun 2027 19:55:47.961   02 Jun 2027 19:58:02.260           134.299               CapeTown          4196.844
       102   02 Jun 2027 20:27:13.300   02 Jun 2027 20:33:22.384           369.084              Murmansk2         11533.875
       103   02 Jun 2027 22:12:00.643   02 Jun 2027 22:15:44.115           223.472                Anadyr2          6983.500
       104   02 Jun 2027 22:15:45.503   02 Jun 2027 22:18:18.952           153.449               Magadan1          4795.281
       105   02 Jun 2027 22:18:37.305   02 Jun 2027 22:19:11.796            34.491               Magadan1          1077.844
       106   02 Jun 2027 22:22:44.539   02 Jun 2027 22:23:14.314            29.775               Magadan1           930.469
       107   02 Jun 2027 22:23:23.055   02 Jun 2027 22:23:29.009             5.954               Magadan2           186.062
       108   02 Jun 2027 22:23:50.685   02 Jun 2027 22:23:56.522             5.837               Magadan1           182.406
       109   02 Jun 2027 23:07:31.974   02 Jun 2027 23:09:42.262           130.288            RioGallegos          4071.500
       110   02 Jun 2027 23:10:17.002   02 Jun 2027 23:10:27.083            10.081            RioGallegos           315.031
       111   02 Jun 2027 23:12:28.451   02 Jun 2027 23:13:09.034            40.583            RioGallegos          1268.219
       112   02 Jun 2027 23:47:48.402   02 Jun 2027 23:49:21.913            93.511                Anadyr1          2922.219
       113   02 Jun 2027 23:49:21.913   02 Jun 2027 23:49:22.478             0.565                Anadyr2            17.656
       114   02 Jun 2027 23:49:36.605   02 Jun 2027 23:50:04.367            27.762                Anadyr2           867.562
       115   02 Jun 2027 23:50:15.365   02 Jun 2027 23:51:40.712            85.347               Magadan2          2667.094
       116   02 Jun 2027 23:52:08.143   02 Jun 2027 23:52:59.148            51.005               Magadan2          1593.906
       117   02 Jun 2027 23:53:50.907   02 Jun 2027 23:54:08.815            17.908               Magadan2           559.625
       118   02 Jun 2027 23:54:35.536   02 Jun 2027 23:55:34.539            59.003                Irkutsk          1843.844
       119   02 Jun 2027 23:58:21.612   02 Jun 2027 23:58:37.404            15.792                Irkutsk           493.500
       120   03 Jun 2027 00:00:08.932   03 Jun 2027 00:00:53.875            44.943                Irkutsk          1404.469
       121   03 Jun 2027 00:09:08.489   03 Jun 2027 00:10:50.430           101.941                Sumatra          3185.656
       122   03 Jun 2027 00:14:07.042   03 Jun 2027 00:14:47.598            40.556                Sumatra          1267.375
       123   03 Jun 2027 00:43:17.792   03 Jun 2027 00:43:36.617            18.825            RioGallegos           588.281
       124   03 Jun 2027 00:48:15.602   03 Jun 2027 00:48:50.803            35.201            RioGallegos          1100.031
       125   03 Jun 2027 01:22:59.440   03 Jun 2027 01:23:19.182            19.742                Anadyr1           616.938
       126   03 Jun 2027 01:23:19.373   03 Jun 2027 01:24:07.680            48.307                Anadyr2          1509.594
       127   03 Jun 2027 01:24:20.732   03 Jun 2027 01:24:47.553            26.821                Anadyr1           838.156
       128   03 Jun 2027 01:25:29.264   03 Jun 2027 01:25:46.443            17.179                Anadyr1           536.844
       129   03 Jun 2027 01:25:46.443   03 Jun 2027 01:25:54.459             8.016                Anadyr2           250.500
       130   03 Jun 2027 01:25:58.968   03 Jun 2027 01:27:38.114            99.146                Norilsk          3098.313
       131   03 Jun 2027 01:28:08.054   03 Jun 2027 01:29:06.309            58.255               Magadan1          1820.469
       132   03 Jun 2027 01:29:37.758   03 Jun 2027 01:30:45.777            68.019                Irkutsk          2125.594
       133   03 Jun 2027 01:30:52.288   03 Jun 2027 01:31:20.683            28.395                Novosib           887.344
       134   03 Jun 2027 01:35:24.286   03 Jun 2027 01:35:32.017             7.731                Novosib           241.594
       135   03 Jun 2027 01:35:42.257   03 Jun 2027 01:35:59.839            17.582                Novosib           549.438
       136   03 Jun 2027 01:39:16.522   03 Jun 2027 01:41:07.463           110.941                  Delhi          3466.906
       137   03 Jun 2027 01:43:43.224   03 Jun 2027 01:44:17.343            34.119                Sumatra          1066.219
       138   03 Jun 2027 01:46:16.641   03 Jun 2027 01:48:36.584           139.943                Sumatra          4373.219
       139   03 Jun 2027 02:58:44.540   03 Jun 2027 02:59:07.815            23.275                Anadyr1           727.344
       140   03 Jun 2027 03:00:39.283   03 Jun 2027 03:00:56.612            17.329                Anadyr1           541.531
       141   03 Jun 2027 03:05:45.930   03 Jun 2027 03:05:56.025            10.095               Magadan1           315.469
       142   03 Jun 2027 03:05:58.826   03 Jun 2027 03:07:18.248            79.422               Magadan1          2481.937
       143   03 Jun 2027 03:08:00.145   03 Jun 2027 03:08:39.447            39.302              Murmansk2          1228.188
       144   03 Jun 2027 03:08:48.595   03 Jun 2027 03:09:33.361            44.766                Irkutsk          1398.938
       145   03 Jun 2027 03:09:39.149   03 Jun 2027 03:09:52.295            13.146                Novosib           410.813
       146   03 Jun 2027 03:09:59.725   03 Jun 2027 03:11:08.757            69.032                Irkutsk          2157.250
       147   03 Jun 2027 03:11:19.133   03 Jun 2027 03:11:41.824            22.691                Novosib           709.094
       148   03 Jun 2027 03:11:49.848   03 Jun 2027 03:12:19.470            29.622                Norilsk           925.688
       149   03 Jun 2027 03:12:27.134   03 Jun 2027 03:12:36.755             9.621                Novosib           300.656
       150   03 Jun 2027 03:12:51.975   03 Jun 2027 03:16:10.935           198.960                  Delhi          6217.500
       151   03 Jun 2027 03:55:08.129   03 Jun 2027 04:00:15.934           307.805            RioGallegos          9618.906
       152   03 Jun 2027 04:45:50.309   03 Jun 2027 04:45:57.189             6.880              Murmansk1           215.000
       153   03 Jun 2027 04:46:04.804   03 Jun 2027 04:47:04.883            60.079              Murmansk1          1877.469
       154   03 Jun 2027 04:47:07.143   03 Jun 2027 04:47:21.978            14.835                Irkutsk           463.594
       155   03 Jun 2027 04:47:38.291   03 Jun 2027 04:48:30.081            51.790                Norilsk          1618.437
       156   03 Jun 2027 04:48:37.790   03 Jun 2027 04:49:42.558            64.768                Novosib          2024.000
       157   03 Jun 2027 04:50:14.913   03 Jun 2027 04:51:16.518            61.605                Novosib          1925.156
       158   03 Jun 2027 04:51:33.792   03 Jun 2027 04:55:49.080           255.288                  Delhi          7977.750
       159   03 Jun 2027 06:24:44.417   03 Jun 2027 06:25:20.994            36.577                 Moscow          1143.031
       160   03 Jun 2027 06:26:01.750   03 Jun 2027 06:26:50.258            48.508                 Moscow          1515.875
       161   03 Jun 2027 06:42:59.525   03 Jun 2027 06:46:08.482           188.957               CapeTown          5904.906
       162   03 Jun 2027 07:45:50.628   03 Jun 2027 07:46:52.290            61.662                Anadyr1          1926.938
       163   03 Jun 2027 07:47:11.190   03 Jun 2027 07:47:19.541             8.351               Magadan2           260.969
       164   03 Jun 2027 07:47:37.551   03 Jun 2027 07:47:52.990            15.439                Anadyr2           482.469
       165   03 Jun 2027 07:47:57.328   03 Jun 2027 07:48:12.872            15.544               Magadan1           485.750
       166   03 Jun 2027 07:48:17.124   03 Jun 2027 07:48:23.225             6.101                Anadyr1           190.656
       167   03 Jun 2027 07:49:26.687   03 Jun 2027 07:50:38.179            71.492                Anadyr1          2234.125
       168   03 Jun 2027 08:25:41.563   03 Jun 2027 08:25:55.985            14.422               CapeTown           450.687
       169   03 Jun 2027 09:22:28.999   03 Jun 2027 09:22:53.879            24.880               Magadan2           777.500
       170   03 Jun 2027 09:23:24.636   03 Jun 2027 09:23:26.381             1.745               Magadan1            54.531
       171   03 Jun 2027 09:23:26.381   03 Jun 2027 09:23:35.558             9.177               Magadan2           286.781
       172   03 Jun 2027 09:23:50.305   03 Jun 2027 09:24:18.639            28.334               Magadan2           885.438
       173   03 Jun 2027 09:24:33.091   03 Jun 2027 09:24:41.522             8.431                Anadyr2           263.469
       174   03 Jun 2027 09:24:56.434   03 Jun 2027 09:26:12.839            76.405               Magadan1          2387.656
       175   03 Jun 2027 09:26:12.839   03 Jun 2027 09:27:12.975            60.136               Magadan2          1879.250
       176   03 Jun 2027 10:57:49.852   03 Jun 2027 10:58:01.420            11.568               Magadan1           361.500
       177   03 Jun 2027 10:59:01.265   03 Jun 2027 10:59:15.718            14.453                Irkutsk           451.656
       178   03 Jun 2027 10:59:52.012   03 Jun 2027 11:02:49.834           177.822               Magadan2          5556.937
       179   03 Jun 2027 11:03:23.934   03 Jun 2027 11:03:42.345            18.411               Magadan1           575.344
       180   03 Jun 2027 11:03:42.345   03 Jun 2027 11:03:48.330             5.985               Magadan2           187.031
       181   03 Jun 2027 11:38:44.001   03 Jun 2027 11:39:56.489            72.488            RioGallegos          2265.250
       182   03 Jun 2027 12:15:23.420   03 Jun 2027 12:15:26.500             3.080                Sumatra            96.250
       183   03 Jun 2027 12:16:04.594   03 Jun 2027 12:17:41.425            96.831                Sumatra          3025.969
       184   03 Jun 2027 12:27:03.106   03 Jun 2027 12:28:44.800           101.694                Irkutsk          3177.937
       185   03 Jun 2027 12:31:57.699   03 Jun 2027 12:32:05.762             8.063                Norilsk           251.969
       186   03 Jun 2027 12:33:23.142   03 Jun 2027 12:33:58.490            35.348                Norilsk          1104.625
       187   03 Jun 2027 13:15:35.226   03 Jun 2027 13:16:51.302            76.076            RioGallegos          2377.375
       188   03 Jun 2027 13:17:30.763   03 Jun 2027 13:20:41.548           190.785            RioGallegos          5962.031
       189   03 Jun 2027 13:49:52.317   03 Jun 2027 13:51:06.814            74.497                Sumatra          2328.031
       190   03 Jun 2027 14:04:34.522   03 Jun 2027 14:05:41.899            67.377                Novosib          2105.531
       191   03 Jun 2027 14:07:49.361   03 Jun 2027 14:08:47.098            57.737                Novosib          1804.281
       192   03 Jun 2027 15:34:43.102   03 Jun 2027 15:39:41.853           298.751                  Delhi          9335.969
       193   03 Jun 2027 15:43:04.236   03 Jun 2027 15:45:39.097           154.861                Novosib          4839.406
       194   03 Jun 2027 15:46:07.168   03 Jun 2027 15:46:14.298             7.130                Novosib           222.813
       195   03 Jun 2027 15:46:47.296   03 Jun 2027 15:47:16.645            29.349                Norilsk           917.156
       196   03 Jun 2027 15:47:22.235   03 Jun 2027 15:47:45.334            23.099                Novosib           721.844
       197   03 Jun 2027 17:18:10.998   03 Jun 2027 17:19:09.451            58.453                 Moscow          1826.656
       198   03 Jun 2027 17:21:20.249   03 Jun 2027 17:22:04.143            43.894                 Moscow          1371.688
       199   03 Jun 2027 17:22:16.353   03 Jun 2027 17:22:57.773            41.420              Murmansk1          1294.375
       200   03 Jun 2027 17:24:52.277   03 Jun 2027 17:25:42.310            50.033              Murmansk1          1563.531
       201   03 Jun 2027 17:28:00.479   03 Jun 2027 17:30:40.740           160.261                Norilsk          5008.156
       202   03 Jun 2027 17:31:00.766   03 Jun 2027 17:31:39.496            38.730                Norilsk          1210.313
       203   03 Jun 2027 18:41:03.810   03 Jun 2027 18:41:17.144            13.334               CapeTown           416.688
       204   03 Jun 2027 18:41:27.509   03 Jun 2027 18:42:17.958            50.449               CapeTown          1576.531
       205   03 Jun 2027 18:57:09.215   03 Jun 2027 19:01:41.105           271.890                 Moscow          8496.562
       206   03 Jun 2027 20:08:02.997   03 Jun 2027 20:09:40.614            97.617               CapeTown          3050.531
       207   03 Jun 2027 20:10:45.815   03 Jun 2027 20:11:16.265            30.450               CapeTown           951.562
       208   03 Jun 2027 20:12:04.403   03 Jun 2027 20:12:50.380            45.977               CapeTown          1436.781
       209   03 Jun 2027 20:40:03.791   03 Jun 2027 20:45:44.250           340.459              Murmansk1         10639.344
       210   03 Jun 2027 22:24:02.240   03 Jun 2027 22:27:52.348           230.108                Anadyr2          7190.875
       211   03 Jun 2027 22:27:53.236   03 Jun 2027 22:29:22.076            88.840                Anadyr1          2776.250
       212   03 Jun 2027 22:29:31.884   03 Jun 2027 22:31:01.798            89.914               Magadan2          2809.813
       213   03 Jun 2027 22:34:58.172   03 Jun 2027 22:35:16.338            18.166               Magadan2           567.687
       214   03 Jun 2027 23:19:05.448   03 Jun 2027 23:22:15.074           189.626            RioGallegos          5925.813
       215   03 Jun 2027 23:59:47.260   04 Jun 2027 00:02:03.525           136.265                Anadyr2          4258.281
       216   04 Jun 2027 00:02:18.388   04 Jun 2027 00:04:35.822           137.434               Magadan2          4294.813
       217   04 Jun 2027 00:04:53.230   04 Jun 2027 00:05:29.210            35.980               Magadan2          1124.375
       218   04 Jun 2027 00:06:22.737   04 Jun 2027 00:06:37.450            14.713                Irkutsk           459.781
       219   04 Jun 2027 00:07:34.041   04 Jun 2027 00:08:37.013            62.972                Irkutsk          1967.875
       220   04 Jun 2027 00:11:10.588   04 Jun 2027 00:11:17.473             6.885                Irkutsk           215.156
       221   04 Jun 2027 00:15:02.734   04 Jun 2027 00:15:49.234            46.500                Irkutsk          1453.125
       222   04 Jun 2027 00:20:34.617   04 Jun 2027 00:21:32.102            57.485                Sumatra          1796.406
       223   04 Jun 2027 00:24:19.001   04 Jun 2027 00:26:01.199           102.198                Sumatra          3193.688
       224   04 Jun 2027 01:04:06.663   04 Jun 2027 01:04:27.664            21.001            RioGallegos           656.281
       225   04 Jun 2027 01:05:26.365   04 Jun 2027 01:06:30.152            63.787            RioGallegos          1993.344
       226   04 Jun 2027 01:34:50.776   04 Jun 2027 01:35:08.293            17.517                Anadyr2           547.406
       227   04 Jun 2027 01:36:05.520   04 Jun 2027 01:36:45.708            40.188                Anadyr2          1255.875
       228   04 Jun 2027 01:37:46.047   04 Jun 2027 01:39:30.549           104.502                Norilsk          3265.687
       229   04 Jun 2027 01:40:09.517   04 Jun 2027 01:40:37.742            28.225               Magadan2           882.031
       230   04 Jun 2027 01:41:38.899   04 Jun 2027 01:44:16.901           158.002                Irkutsk          4937.563
       231   04 Jun 2027 01:50:33.667   04 Jun 2027 01:50:47.597            13.930                  Delhi           435.312
       232   04 Jun 2027 01:52:23.707   04 Jun 2027 01:53:22.139            58.432                  Delhi          1826.000
       233   04 Jun 2027 01:56:03.341   04 Jun 2027 01:57:59.579           116.238                Sumatra          3632.438
       234   04 Jun 2027 02:00:26.522   04 Jun 2027 02:01:15.854            49.332                Sumatra          1541.625
       235   04 Jun 2027 02:37:23.625   04 Jun 2027 02:37:55.306            31.681            RioGallegos           990.031
       236   04 Jun 2027 03:17:49.869   04 Jun 2027 03:18:47.903            58.034               Magadan2          1813.562
       237   04 Jun 2027 03:21:14.836   04 Jun 2027 03:21:57.757            42.921                Irkutsk          1341.281
       238   04 Jun 2027 03:23:10.594   04 Jun 2027 03:28:32.713           322.119                Irkutsk         10066.219
       239   04 Jun 2027 03:29:32.414   04 Jun 2027 03:30:25.772            53.358                Novosib          1667.437
       240   04 Jun 2027 04:07:39.576   04 Jun 2027 04:11:59.921           260.345            RioGallegos          8135.781
       241   04 Jun 2027 04:57:42.775   04 Jun 2027 04:57:53.669            10.894                 Moscow           340.437
       242   04 Jun 2027 04:57:56.755   04 Jun 2027 04:58:03.480             6.725                Novosib           210.156
       243   04 Jun 2027 04:58:34.707   04 Jun 2027 04:59:21.697            46.990                Novosib          1468.437
       244   04 Jun 2027 05:00:06.099   04 Jun 2027 05:01:27.354            81.255                Novosib          2539.219
       245   04 Jun 2027 05:01:58.379   04 Jun 2027 05:02:34.168            35.789                Novosib          1118.406
       246   04 Jun 2027 05:03:27.788   04 Jun 2027 05:03:54.098            26.310                Novosib           822.187
       247   04 Jun 2027 05:20:33.706   04 Jun 2027 05:20:52.988            19.282               CapeTown           602.562
       248   04 Jun 2027 05:21:25.656   04 Jun 2027 05:23:23.541           117.885               CapeTown          3683.906
       249   04 Jun 2027 06:37:41.250   04 Jun 2027 06:37:56.074            14.824                 Moscow           463.250
       250   04 Jun 2027 06:38:06.377   04 Jun 2027 06:38:39.271            32.894                 Moscow          1027.937
       251   04 Jun 2027 06:55:09.309   04 Jun 2027 06:57:19.343           130.034               CapeTown          4063.562
       252   04 Jun 2027 07:57:47.731   04 Jun 2027 07:58:04.970            17.239               Magadan2           538.719
       253   04 Jun 2027 07:58:24.853   04 Jun 2027 07:58:33.441             8.588               Magadan2           268.375
       254   04 Jun 2027 07:58:53.316   04 Jun 2027 08:00:09.043            75.727                Anadyr2          2366.469
       255   04 Jun 2027 08:00:18.234   04 Jun 2027 08:00:22.973             4.739               Magadan1           148.094
       256   04 Jun 2027 08:00:23.080   04 Jun 2027 08:00:36.553            13.473                Anadyr2           421.031
       257   04 Jun 2027 08:00:43.540   04 Jun 2027 08:00:44.961             1.421                Anadyr2            44.406
       258   04 Jun 2027 08:01:38.948   04 Jun 2027 08:01:39.336             0.388               Magadan2            12.125
       259   04 Jun 2027 08:01:41.440   04 Jun 2027 08:02:23.589            42.149               Magadan2          1317.156
       260   04 Jun 2027 08:02:38.255   04 Jun 2027 08:03:48.286            70.031                Anadyr1          2188.469
       261   04 Jun 2027 09:34:29.357   04 Jun 2027 09:35:27.023            57.666               Magadan2          1802.062
       262   04 Jun 2027 09:35:44.081   04 Jun 2027 09:35:53.472             9.391               Magadan2           293.469
       263   04 Jun 2027 09:36:12.550   04 Jun 2027 09:37:45.060            92.510                Anadyr1          2890.937
       264   04 Jun 2027 09:38:40.259   04 Jun 2027 09:40:04.963            84.704                Anadyr1          2647.000
       265   04 Jun 2027 11:09:39.851   04 Jun 2027 11:12:03.561           143.710               Magadan1          4490.938
       266   04 Jun 2027 11:12:30.863   04 Jun 2027 11:12:57.711            26.848                Irkutsk           839.000
       267   04 Jun 2027 11:13:01.713   04 Jun 2027 11:13:43.308            41.595                Irkutsk          1299.844
       268   04 Jun 2027 11:13:52.957   04 Jun 2027 11:14:54.395            61.438                Norilsk          1919.937
       269   04 Jun 2027 11:15:06.236   04 Jun 2027 11:15:17.796            11.560                Norilsk           361.250
       270   04 Jun 2027 11:15:20.837   04 Jun 2027 11:15:28.784             7.947                Norilsk           248.344
       271   04 Jun 2027 11:15:36.994   04 Jun 2027 11:15:47.906            10.912                Irkutsk           341.000
       272   04 Jun 2027 11:15:49.313   04 Jun 2027 11:15:53.892             4.579                Norilsk           143.094
       273   04 Jun 2027 11:50:40.388   04 Jun 2027 11:51:55.465            75.077            RioGallegos          2346.156
       274   04 Jun 2027 12:01:28.046   04 Jun 2027 12:01:55.538            27.492            RioGallegos           859.125
       275   04 Jun 2027 12:26:21.455   04 Jun 2027 12:27:39.322            77.867                Sumatra          2433.344
       276   04 Jun 2027 12:39:06.570   04 Jun 2027 12:40:13.328            66.758                Irkutsk          2086.188
       277   04 Jun 2027 12:40:17.806   04 Jun 2027 12:42:22.653           124.847                Irkutsk          3901.469
       278   04 Jun 2027 13:28:02.794   04 Jun 2027 13:29:14.999            72.205            RioGallegos          2256.406
       279   04 Jun 2027 13:32:39.472   04 Jun 2027 13:33:00.726            21.254            RioGallegos           664.187
       280   04 Jun 2027 14:02:16.529   04 Jun 2027 14:07:22.323           305.794                Sumatra          9556.062
       281   04 Jun 2027 14:17:39.128   04 Jun 2027 14:20:18.865           159.737                Irkutsk          4991.781
       282   04 Jun 2027 14:22:12.413   04 Jun 2027 14:22:16.533             4.120                Irkutsk           128.750
       283   04 Jun 2027 15:47:21.165   04 Jun 2027 15:52:03.909           282.744                  Delhi          8835.750
       284   04 Jun 2027 15:55:48.924   04 Jun 2027 16:02:26.046           397.122                Novosib         12410.063
       285   04 Jun 2027 17:41:19.448   04 Jun 2027 17:42:41.381            81.933                Norilsk          2560.406
       286   04 Jun 2027 18:43:41.875   04 Jun 2027 18:44:41.958            60.083               CapeTown          1877.594
       287   04 Jun 2027 19:10:01.440   04 Jun 2027 19:14:18.584           257.144                 Moscow          8035.750
       288   04 Jun 2027 19:22:12.229   04 Jun 2027 19:22:25.682            13.453              Murmansk2           420.406
       289   04 Jun 2027 19:27:18.451   04 Jun 2027 19:27:46.838            28.387                Anadyr2           887.094
       290   04 Jun 2027 20:20:22.640   04 Jun 2027 20:22:44.477           141.837               CapeTown          4432.406
       291   04 Jun 2027 20:23:13.644   04 Jun 2027 20:23:59.872            46.228               CapeTown          1444.625
       292   04 Jun 2027 20:53:02.454   04 Jun 2027 20:57:28.562           266.108              Murmansk1          8315.875
       293   04 Jun 2027 21:02:50.942   04 Jun 2027 21:03:03.501            12.559               Magadan2           392.469
       294   04 Jun 2027 21:08:28.764   04 Jun 2027 21:08:36.089             7.325               Magadan1           228.906
       295   04 Jun 2027 21:08:56.638   04 Jun 2027 21:09:11.597            14.959               Magadan1           467.469
       296   04 Jun 2027 21:09:28.146   04 Jun 2027 21:10:44.039            75.893               Magadan2          2371.656
       297   04 Jun 2027 22:36:03.674   04 Jun 2027 22:39:53.121           229.447                Anadyr2          7170.219
       298   04 Jun 2027 22:39:54.493   04 Jun 2027 22:41:24.426            89.933                Norilsk          2810.406
       299   04 Jun 2027 22:41:32.375   04 Jun 2027 22:42:00.156            27.781               Magadan1           868.156
       300   04 Jun 2027 22:42:09.608   04 Jun 2027 22:42:31.817            22.209               Magadan2           694.031
       301   04 Jun 2027 22:42:31.817   04 Jun 2027 22:42:38.193             6.376               Magadan1           199.250
       302   04 Jun 2027 22:42:55.386   04 Jun 2027 22:43:38.339            42.953               Magadan2          1342.281
       303   04 Jun 2027 23:30:46.696   04 Jun 2027 23:33:23.343           156.647            RioGallegos          4895.219
       304   04 Jun 2027 23:36:14.167   04 Jun 2027 23:36:40.621            26.454            RioGallegos           826.687
       305   04 Jun 2027 23:39:24.054   04 Jun 2027 23:40:09.712            45.658            RioGallegos          1426.813
       306   05 Jun 2027 00:11:45.484   05 Jun 2027 00:12:59.903            74.419                Anadyr1          2325.594
       307   05 Jun 2027 00:13:52.399   05 Jun 2027 00:15:28.236            95.837                Norilsk          2994.906
       308   05 Jun 2027 00:16:10.800   05 Jun 2027 00:17:39.680            88.880               Magadan1          2777.500
       309   05 Jun 2027 00:18:13.252   05 Jun 2027 00:18:51.449            38.197                Irkutsk          1193.656
       310   05 Jun 2027 00:19:30.508   05 Jun 2027 00:20:09.796            39.288                Irkutsk          1227.750
       311   05 Jun 2027 00:20:55.296   05 Jun 2027 00:21:46.720            51.424                Irkutsk          1607.000
       312   05 Jun 2027 00:32:10.406   05 Jun 2027 00:32:45.737            35.331                Sumatra          1104.094
       313   05 Jun 2027 00:34:09.817   05 Jun 2027 00:34:26.121            16.304                Sumatra           509.500
       314   05 Jun 2027 00:36:05.292   05 Jun 2027 00:38:32.758           147.466                Sumatra          4608.313
       315   05 Jun 2027 01:46:40.797   05 Jun 2027 01:47:39.441            58.644                Anadyr2          1832.625
       316   05 Jun 2027 01:47:39.441   05 Jun 2027 01:48:05.176            25.735                Anadyr1           804.219
       317   05 Jun 2027 01:48:47.976   05 Jun 2027 01:49:13.919            25.943                Anadyr2           810.719
       318   05 Jun 2027 01:49:48.431   05 Jun 2027 01:51:16.701            88.270                Norilsk          2758.437
       319   05 Jun 2027 01:51:22.718   05 Jun 2027 01:51:32.307             9.589                Norilsk           299.656
       320   05 Jun 2027 01:52:07.178   05 Jun 2027 01:53:07.338            60.160               Magadan1          1880.000
       321   05 Jun 2027 01:53:40.904   05 Jun 2027 01:55:32.771           111.867                Irkutsk          3495.844
       322   05 Jun 2027 02:01:22.150   05 Jun 2027 02:01:32.780            10.630                Irkutsk           332.188
       323   05 Jun 2027 02:02:03.941   05 Jun 2027 02:02:33.995            30.054                  Delhi           939.187
       324   05 Jun 2027 02:05:13.088   05 Jun 2027 02:05:59.763            46.675                  Delhi          1458.594
       325   05 Jun 2027 02:08:32.220   05 Jun 2027 02:11:28.264           176.044                Sumatra          5501.375
       326   05 Jun 2027 02:44:45.944   05 Jun 2027 02:45:16.348            30.404            RioGallegos           950.125
       327   05 Jun 2027 02:49:56.068   05 Jun 2027 02:50:03.973             7.905            RioGallegos           247.031
       328   05 Jun 2027 02:50:31.470   05 Jun 2027 02:50:32.851             1.381            RioGallegos            43.156
       329   05 Jun 2027 03:29:52.613   05 Jun 2027 03:30:17.725            25.112               Magadan2           784.750
       330   05 Jun 2027 03:33:17.732   05 Jun 2027 03:33:37.671            19.939                Novosib           623.094
       331   05 Jun 2027 03:33:51.779   05 Jun 2027 03:35:15.378            83.599                Novosib          2612.469
       332   05 Jun 2027 03:35:28.100   05 Jun 2027 03:38:52.033           203.933                Irkutsk          6372.906
       333   05 Jun 2027 03:39:37.436   05 Jun 2027 03:40:05.313            27.877                Irkutsk           871.156
       334   05 Jun 2027 03:41:09.560   05 Jun 2027 03:41:20.151            10.591                Novosib           330.969
       335   05 Jun 2027 03:42:15.912   05 Jun 2027 03:42:40.686            24.774                  Delhi           774.187
       336   05 Jun 2027 03:45:47.066   05 Jun 2027 03:46:46.283            59.217                  Delhi          1850.531
       337   05 Jun 2027 04:20:42.998   05 Jun 2027 04:22:23.334           100.336            RioGallegos          3135.500
       338   05 Jun 2027 05:04:26.171   05 Jun 2027 05:04:52.171            26.000                Anadyr2           812.500
       339   05 Jun 2027 05:11:25.807   05 Jun 2027 05:11:38.346            12.539                Norilsk           391.844
       340   05 Jun 2027 05:11:47.790   05 Jun 2027 05:15:33.937           226.147                Novosib          7067.094
       341   05 Jun 2027 05:16:37.306   05 Jun 2027 05:16:55.342            18.036                 Moscow           563.625
       342   05 Jun 2027 05:32:05.898   05 Jun 2027 05:33:10.561            64.663               CapeTown          2020.719
       343   05 Jun 2027 05:33:45.105   05 Jun 2027 05:35:10.351            85.246               CapeTown          2663.938
       344   05 Jun 2027 06:47:54.611   05 Jun 2027 06:48:00.363             5.752                Norilsk           179.750
       345   05 Jun 2027 06:49:40.105   05 Jun 2027 06:50:10.425            30.320                 Moscow           947.500
       346   05 Jun 2027 06:53:50.257   05 Jun 2027 06:54:13.329            23.072                 Moscow           721.000
       347   05 Jun 2027 07:07:24.864   05 Jun 2027 07:07:49.696            24.832               CapeTown           776.000
       348   05 Jun 2027 07:09:58.955   05 Jun 2027 07:12:20.502           141.547               CapeTown          4423.344
       349   05 Jun 2027 08:10:36.118   05 Jun 2027 08:10:46.072             9.954               Magadan1           311.063
       350   05 Jun 2027 08:10:54.024   05 Jun 2027 08:12:16.081            82.057                Anadyr1          2564.281
       351   05 Jun 2027 08:12:44.493   05 Jun 2027 08:13:47.996            63.503                Anadyr2          1984.469
       352   05 Jun 2027 09:46:29.121   05 Jun 2027 09:47:35.687            66.566               Magadan1          2080.188
       353   05 Jun 2027 09:48:05.548   05 Jun 2027 09:48:14.805             9.257               Magadan2           289.281
       354   05 Jun 2027 09:48:22.615   05 Jun 2027 09:49:11.263            48.648               Magadan1          1520.250
       355   05 Jun 2027 09:50:09.360   05 Jun 2027 09:50:12.778             3.418               Magadan2           106.813
       356   05 Jun 2027 10:28:29.930   05 Jun 2027 10:29:32.840            62.910            RioGallegos          1965.938
       357   05 Jun 2027 11:17:56.357   05 Jun 2027 11:18:06.678            10.321               Magadan2           322.531
       358   05 Jun 2027 11:21:26.131   05 Jun 2027 11:23:35.002           128.871               Magadan2          4027.219
       359   05 Jun 2027 11:24:00.091   05 Jun 2027 11:26:07.773           127.682               Magadan1          3990.062
       360   05 Jun 2027 11:26:07.773   05 Jun 2027 11:27:21.415            73.642               Magadan2          2301.313
       361   05 Jun 2027 11:27:35.836   05 Jun 2027 11:27:54.125            18.289                Irkutsk           571.531
       362   05 Jun 2027 11:28:01.306   05 Jun 2027 11:28:07.104             5.798                Norilsk           181.187
       363   05 Jun 2027 12:02:40.073   05 Jun 2027 12:03:53.171            73.098            RioGallegos          2284.312
       364   05 Jun 2027 12:05:58.113   05 Jun 2027 12:06:10.923            12.810            RioGallegos           400.313
       365   05 Jun 2027 12:38:01.257   05 Jun 2027 12:38:43.732            42.475                Sumatra          1327.344
       366   05 Jun 2027 12:45:05.567   05 Jun 2027 12:45:15.437             9.870                Sumatra           308.438
       367   05 Jun 2027 12:51:13.426   05 Jun 2027 12:54:22.954           189.528                Irkutsk          5922.750
       368   05 Jun 2027 12:56:00.284   05 Jun 2027 12:57:06.379            66.095                Norilsk          2065.469
       369   05 Jun 2027 13:40:36.322   05 Jun 2027 13:42:56.985           140.663            RioGallegos          4395.719
       370   05 Jun 2027 14:14:50.909   05 Jun 2027 14:16:47.506           116.597                Sumatra          3643.656
       371   05 Jun 2027 14:21:48.185   05 Jun 2027 14:22:03.885            15.700                Sumatra           490.625
       372   05 Jun 2027 14:30:27.939   05 Jun 2027 14:34:50.975           263.036                Irkutsk          8219.875
       373   05 Jun 2027 16:00:13.266   05 Jun 2027 16:04:34.162           260.896                  Delhi          8153.000
       374   05 Jun 2027 16:08:43.611   05 Jun 2027 16:12:56.966           253.355                Novosib          7917.344
       375   05 Jun 2027 16:15:06.991   05 Jun 2027 16:15:45.902            38.911                Novosib          1215.969
       376   05 Jun 2027 17:45:18.841   05 Jun 2027 17:46:10.602            51.761                 Moscow          1617.531
       377   05 Jun 2027 17:48:47.897   05 Jun 2027 17:48:56.728             8.831              Murmansk1           275.969
       378   05 Jun 2027 17:54:27.313   05 Jun 2027 17:54:56.311            28.998              Murmansk2           906.188
       379   05 Jun 2027 17:58:04.444   05 Jun 2027 17:58:32.684            28.240              Murmansk2           882.500
       380   05 Jun 2027 18:01:32.628   05 Jun 2027 18:01:36.098             3.470                Anadyr2           108.438
       381   05 Jun 2027 18:01:43.469   05 Jun 2027 18:01:48.040             4.571                Anadyr2           142.844
       382   05 Jun 2027 18:03:25.812   05 Jun 2027 18:03:42.352            16.540                Anadyr1           516.875
       383   05 Jun 2027 18:03:44.927   05 Jun 2027 18:03:55.905            10.978                Anadyr1           343.063
       384   05 Jun 2027 18:06:53.523   05 Jun 2027 18:07:04.622            11.099                Anadyr1           346.844
       385   05 Jun 2027 18:55:38.792   05 Jun 2027 18:58:07.686           148.894               CapeTown          4652.937
       386   05 Jun 2027 19:23:07.993   05 Jun 2027 19:27:03.437           235.444                 Moscow          7357.625
       387   05 Jun 2027 19:28:53.739   05 Jun 2027 19:29:35.716            41.977              Murmansk2          1311.781
       388   05 Jun 2027 19:32:51.236   05 Jun 2027 19:34:22.342            91.106              Murmansk2          2847.063
       389   05 Jun 2027 20:32:48.519   05 Jun 2027 20:36:16.411           207.892               CapeTown          6496.625
       390   05 Jun 2027 20:40:49.336   05 Jun 2027 20:41:36.328            46.992               CapeTown          1468.500
       391   05 Jun 2027 21:06:18.069   05 Jun 2027 21:08:57.994           159.925              Murmansk2          4997.656
       392   05 Jun 2027 21:15:22.556   05 Jun 2027 21:15:28.276             5.720               Magadan1           178.750
       393   05 Jun 2027 21:15:55.193   05 Jun 2027 21:16:14.964            19.771               Magadan1           617.844
       394   05 Jun 2027 21:17:50.545   05 Jun 2027 21:17:56.188             5.643               Magadan1           176.344
       395   05 Jun 2027 21:21:05.468   05 Jun 2027 21:21:17.611            12.143               Magadan1           379.469
       396   05 Jun 2027 21:23:18.482   05 Jun 2027 21:23:40.055            21.573               Magadan2           674.156
       397   05 Jun 2027 22:48:04.885   05 Jun 2027 22:51:53.554           228.669                Anadyr2          7145.906
       398   05 Jun 2027 22:51:54.924   05 Jun 2027 22:53:14.924            80.000                Anadyr1          2500.000
       399   05 Jun 2027 22:53:37.648   05 Jun 2027 22:55:31.727           114.079               Magadan2          3564.969
       400   05 Jun 2027 23:00:53.180   05 Jun 2027 23:01:12.870            19.690               Magadan2           615.313
       401   05 Jun 2027 23:02:46.691   05 Jun 2027 23:03:15.887            29.196               Magadan2           912.375
       402   05 Jun 2027 23:42:32.945   05 Jun 2027 23:44:36.010           123.065            RioGallegos          3845.781
       403   05 Jun 2027 23:45:28.338   05 Jun 2027 23:45:59.688            31.350            RioGallegos           979.687
       404   05 Jun 2027 23:46:54.690   05 Jun 2027 23:47:03.610             8.920            RioGallegos           278.750
       405   05 Jun 2027 23:47:25.418   05 Jun 2027 23:47:28.009             2.591            RioGallegos            80.969
       406   05 Jun 2027 23:48:02.230   05 Jun 2027 23:48:05.564             3.334            RioGallegos           104.187
       407   05 Jun 2027 23:48:17.421   05 Jun 2027 23:48:43.611            26.190            RioGallegos           818.438
       408   06 Jun 2027 00:23:42.982   06 Jun 2027 00:24:42.993            60.011                Anadyr2          1875.344
       409   06 Jun 2027 00:24:57.985   06 Jun 2027 00:25:09.523            11.538                Anadyr2           360.563
       410   06 Jun 2027 00:25:16.893   06 Jun 2027 00:25:59.743            42.850                Anadyr2          1339.063
       411   06 Jun 2027 00:26:03.337   06 Jun 2027 00:28:18.379           135.042                Norilsk          4220.063
       412   06 Jun 2027 00:28:51.323   06 Jun 2027 00:29:08.494            17.171               Magadan2           536.594
       413   06 Jun 2027 00:30:06.282   06 Jun 2027 00:31:01.689            55.407                Irkutsk          1731.469
       414   06 Jun 2027 00:32:10.661   06 Jun 2027 00:33:45.285            94.624                Novosib          2957.000
       415   06 Jun 2027 00:40:45.957   06 Jun 2027 00:41:11.964            26.007                Irkutsk           812.719
       416   06 Jun 2027 00:43:53.851   06 Jun 2027 00:46:12.189           138.338                Sumatra          4323.063
       417   06 Jun 2027 01:21:27.625   06 Jun 2027 01:21:31.386             3.761            RioGallegos           117.531
       418   06 Jun 2027 01:21:47.670   06 Jun 2027 01:22:20.316            32.646            RioGallegos          1020.187
       419   06 Jun 2027 01:27:01.213   06 Jun 2027 01:27:22.896            21.683            RioGallegos           677.594
       420   06 Jun 2027 01:29:42.845   06 Jun 2027 01:30:04.376            21.531            RioGallegos           672.844
       421   06 Jun 2027 01:58:29.482   06 Jun 2027 01:58:52.028            22.546                Anadyr2           704.562
       422   06 Jun 2027 01:58:52.028   06 Jun 2027 01:59:03.256            11.228                Anadyr1           350.875
       423   06 Jun 2027 01:59:04.264   06 Jun 2027 01:59:16.091            11.827                Anadyr2           369.594
       424   06 Jun 2027 02:00:46.374   06 Jun 2027 02:01:03.661            17.287                Anadyr2           540.219
       425   06 Jun 2027 02:01:50.872   06 Jun 2027 02:02:58.526            67.654                Norilsk          2114.188
       426   06 Jun 2027 02:03:12.840   06 Jun 2027 02:03:21.295             8.455                Norilsk           264.219
       427   06 Jun 2027 02:03:27.524   06 Jun 2027 02:04:05.998            38.474               Magadan1          1202.313
       428   06 Jun 2027 02:05:43.731   06 Jun 2027 02:07:59.067           135.336                Irkutsk          4229.250
       429   06 Jun 2027 02:11:03.045   06 Jun 2027 02:11:37.234            34.189                Irkutsk          1068.406
       430   06 Jun 2027 02:14:17.018   06 Jun 2027 02:14:24.579             7.561                  Delhi           236.281
       431   06 Jun 2027 02:15:11.477   06 Jun 2027 02:16:19.029            67.552                  Delhi          2111.000
       432   06 Jun 2027 02:21:13.319   06 Jun 2027 02:25:52.483           279.164                Sumatra          8723.875
       433   06 Jun 2027 03:45:58.805   06 Jun 2027 03:47:17.302            78.497                Novosib          2453.031
       434   06 Jun 2027 03:47:20.730   06 Jun 2027 03:47:59.608            38.878              Murmansk2          1214.937
       435   06 Jun 2027 03:48:01.799   06 Jun 2027 03:48:52.472            50.673                 Moscow          1583.531
       436   06 Jun 2027 03:48:55.500   06 Jun 2027 03:51:34.202           158.702                Irkutsk          4959.438
       437   06 Jun 2027 03:51:36.333   06 Jun 2027 03:54:16.404           160.071                Novosib          5002.219
       438   06 Jun 2027 03:54:23.498   06 Jun 2027 03:57:43.091           199.593                  Delhi          6237.281
       439   06 Jun 2027 05:22:42.489   06 Jun 2027 05:23:21.344            38.855              Murmansk1          1214.219
       440   06 Jun 2027 05:23:26.687   06 Jun 2027 05:24:44.853            78.166                Norilsk          2442.688
       441   06 Jun 2027 05:24:48.802   06 Jun 2027 05:27:16.417           147.615                Novosib          4612.969
       442   06 Jun 2027 05:27:42.833   06 Jun 2027 05:28:41.827            58.994                 Moscow          1843.562
       443   06 Jun 2027 05:43:44.481   06 Jun 2027 05:45:12.343            87.862               CapeTown          2745.688
       444   06 Jun 2027 05:49:46.796   06 Jun 2027 05:50:08.964            22.168               CapeTown           692.750
       445   06 Jun 2027 06:47:29.914   06 Jun 2027 06:48:42.933            73.019                Anadyr1          2281.844
       446   06 Jun 2027 06:50:06.564   06 Jun 2027 06:50:24.371            17.807               Magadan2           556.469
       447   06 Jun 2027 06:58:12.729   06 Jun 2027 06:59:03.541            50.812                 Moscow          1587.875
       448   06 Jun 2027 07:01:26.812   06 Jun 2027 07:01:32.899             6.087              Murmansk2           190.219
       449   06 Jun 2027 07:04:35.690   06 Jun 2027 07:04:52.108            16.418                 Moscow           513.062
       450   06 Jun 2027 07:19:46.885   06 Jun 2027 07:21:08.825            81.940               CapeTown          2560.625
       451   06 Jun 2027 07:24:48.517   06 Jun 2027 07:24:55.657             7.140               CapeTown           223.125
       452   06 Jun 2027 08:21:25.667   06 Jun 2027 08:21:55.245            29.578               Magadan1           924.312
       453   06 Jun 2027 08:22:16.583   06 Jun 2027 08:22:38.596            22.013               Magadan2           687.906
       454   06 Jun 2027 08:22:54.338   06 Jun 2027 08:24:10.170            75.832                Anadyr1          2369.750
       455   06 Jun 2027 08:24:18.755   06 Jun 2027 08:25:20.651            61.896               Magadan2          1934.250
       456   06 Jun 2027 09:11:25.370   06 Jun 2027 09:11:41.948            16.578            RioGallegos           518.062
       457   06 Jun 2027 09:58:28.194   06 Jun 2027 09:59:24.333            56.139               Magadan1          1754.344
       458   06 Jun 2027 10:00:24.085   06 Jun 2027 10:00:39.863            15.778               Magadan2           493.063
       459   06 Jun 2027 10:00:50.723   06 Jun 2027 10:01:22.871            32.148               Magadan1          1004.625
       460   06 Jun 2027 10:02:06.087   06 Jun 2027 10:02:16.846            10.759               Magadan2           336.219
       461   06 Jun 2027 10:02:16.846   06 Jun 2027 10:04:16.595           119.749               Magadan1          3742.156
       462   06 Jun 2027 11:33:06.692   06 Jun 2027 11:35:12.785           126.093               Magadan2          3940.406
       463   06 Jun 2027 11:35:55.182   06 Jun 2027 11:36:37.600            42.418               Magadan2          1325.563
       464   06 Jun 2027 11:37:14.631   06 Jun 2027 11:37:39.309            24.678                Irkutsk           771.187
       465   06 Jun 2027 11:37:44.383   06 Jun 2027 11:38:26.100            41.717                Norilsk          1303.656
       466   06 Jun 2027 11:38:46.051   06 Jun 2027 11:38:46.401             0.350                Irkutsk            10.937
       467   06 Jun 2027 11:38:50.288   06 Jun 2027 11:39:23.332            33.044               Magadan2          1032.625
       468   06 Jun 2027 11:39:27.812   06 Jun 2027 11:39:59.503            31.691                Irkutsk           990.344
       469   06 Jun 2027 11:40:22.152   06 Jun 2027 11:40:36.683            14.531                Norilsk           454.094
       470   06 Jun 2027 12:14:43.132   06 Jun 2027 12:15:47.005            63.873            RioGallegos          1996.031
       471   06 Jun 2027 12:17:59.423   06 Jun 2027 12:18:14.785            15.362            RioGallegos           480.062
       472   06 Jun 2027 12:49:48.071   06 Jun 2027 12:52:27.690           159.619                Sumatra          4988.094
       473   06 Jun 2027 13:03:23.843   06 Jun 2027 13:03:34.372            10.529                Irkutsk           329.031
       474   06 Jun 2027 13:04:56.718   06 Jun 2027 13:05:40.281            43.563                Novosib          1361.344
       475   06 Jun 2027 13:07:14.473   06 Jun 2027 13:07:53.290            38.817                Irkutsk          1213.031
       476   06 Jun 2027 13:09:30.013   06 Jun 2027 13:09:42.038            12.025                Norilsk           375.781
       477   06 Jun 2027 13:13:41.926   06 Jun 2027 13:14:22.999            41.073                Norilsk          1283.531
       478   06 Jun 2027 13:53:17.126   06 Jun 2027 13:55:47.680           150.554            RioGallegos          4704.813
       479   06 Jun 2027 14:27:40.679   06 Jun 2027 14:32:06.813           266.134                Sumatra          8316.688
       480   06 Jun 2027 14:43:29.946   06 Jun 2027 14:47:32.689           242.743                Irkutsk          7585.719
       481   06 Jun 2027 16:13:30.436   06 Jun 2027 16:19:15.232           344.796                  Delhi         10774.875
       482   06 Jun 2027 16:21:54.595   06 Jun 2027 16:27:08.812           314.217                Novosib          9819.281
