uniorb/output/strategy_4/Drop/Drop_KinoSat_111902.txt

KinoSat_111902
-------------------------
    Access    *     Start Time (UTCG)     *     Stop Time (UTCG)  *   Duration (s)        *       Station  *  Data (Mbytes)
         1   01 Jun 2027 03:31:39.081   01 Jun 2027 03:32:01.655            22.574                Norilsk           705.437
         2   01 Jun 2027 03:32:26.875   01 Jun 2027 03:38:37.592           370.717                Norilsk         11584.906
         3   01 Jun 2027 03:38:42.536   01 Jun 2027 03:39:41.163            58.627                Irkutsk          1832.094
         4   01 Jun 2027 03:39:46.803   01 Jun 2027 03:39:57.736            10.933                Irkutsk           341.656
         5   01 Jun 2027 04:20:29.094   01 Jun 2027 04:22:21.053           111.959            RioGallegos          3498.719
         6   01 Jun 2027 05:10:16.616   01 Jun 2027 05:11:05.331            48.715                Norilsk          1522.344
         7   01 Jun 2027 05:11:10.040   01 Jun 2027 05:13:16.677           126.637                Norilsk          3957.406
         8   01 Jun 2027 05:13:21.184   01 Jun 2027 05:13:50.645            29.461                Norilsk           920.656
         9   01 Jun 2027 05:13:56.376   01 Jun 2027 05:14:38.962            42.586                 Moscow          1330.812
        10   01 Jun 2027 05:14:53.571   01 Jun 2027 05:15:11.946            18.375              Murmansk1           574.219
        11   01 Jun 2027 05:15:25.687   01 Jun 2027 05:15:54.450            28.763                Novosib           898.844
        12   01 Jun 2027 05:16:29.061   01 Jun 2027 05:17:50.073            81.012                 Moscow          2531.625
        13   01 Jun 2027 05:31:58.136   01 Jun 2027 05:35:02.067           183.931               CapeTown          5747.844
        14   01 Jun 2027 05:37:50.922   01 Jun 2027 05:38:35.022            44.100               CapeTown          1378.125
        15   01 Jun 2027 06:47:37.307   01 Jun 2027 06:48:38.296            60.989                 Moscow          1905.906
        16   01 Jun 2027 06:48:45.139   01 Jun 2027 06:50:23.524            98.385              Murmansk1          3074.531
        17   01 Jun 2027 07:07:15.206   01 Jun 2027 07:12:10.208           295.002               CapeTown          9218.812
        18   01 Jun 2027 08:12:07.964   01 Jun 2027 08:12:35.055            27.091                Anadyr1           846.594
        19   01 Jun 2027 08:12:35.055   01 Jun 2027 08:13:38.579            63.524                Anadyr2          1985.125
        20   01 Jun 2027 08:14:29.263   01 Jun 2027 08:16:30.985           121.722                Anadyr2          3803.812
        21   01 Jun 2027 09:46:08.220   01 Jun 2027 09:47:15.939            67.719                Anadyr2          2116.219
        22   01 Jun 2027 09:49:01.971   01 Jun 2027 09:50:00.886            58.915               Magadan2          1841.094
        23   01 Jun 2027 09:50:29.826   01 Jun 2027 09:52:06.065            96.239                Anadyr2          3007.469
        24   01 Jun 2027 11:17:58.175   01 Jun 2027 11:23:23.992           325.817               Magadan1         10181.781
        25   01 Jun 2027 11:23:51.341   01 Jun 2027 11:27:25.912           214.571               Magadan2          6705.344
        26   01 Jun 2027 16:12:34.752   01 Jun 2027 16:12:46.021            11.269                Novosib           352.156
        27   01 Jun 2027 19:22:55.752   01 Jun 2027 19:24:16.300            80.548                 Moscow          2517.125
        28   01 Jun 2027 19:25:54.787   01 Jun 2027 19:28:00.453           125.666                 Moscow          3927.063
        29   01 Jun 2027 19:32:43.849   01 Jun 2027 19:34:15.309            91.460              Murmansk2          2858.125
        30   01 Jun 2027 20:36:08.771   01 Jun 2027 20:37:40.678            91.907               CapeTown          2872.094
        31   01 Jun 2027 20:39:10.238   01 Jun 2027 20:39:46.293            36.055               CapeTown          1126.719
        32   01 Jun 2027 20:40:42.313   01 Jun 2027 20:41:29.592            47.279               CapeTown          1477.469
        33   01 Jun 2027 21:06:05.071   01 Jun 2027 21:08:51.279           166.208              Murmansk2          5194.000
        34   01 Jun 2027 23:02:23.811   01 Jun 2027 23:02:39.578            15.767               Magadan2           492.719
        35   01 Jun 2027 23:42:24.605   01 Jun 2027 23:45:20.225           175.620            RioGallegos          5488.125
        36   01 Jun 2027 23:47:16.494   01 Jun 2027 23:47:54.540            38.046            RioGallegos          1188.937
        37   01 Jun 2027 23:50:56.856   01 Jun 2027 23:51:05.329             8.473            RioGallegos           264.781
        38   02 Jun 2027 00:23:34.280   02 Jun 2027 00:24:33.233            58.953                Anadyr2          1842.281
        39   02 Jun 2027 00:25:01.947   02 Jun 2027 00:25:52.270            50.323                Anadyr1          1572.594
        40   02 Jun 2027 00:25:53.171   02 Jun 2027 00:27:21.860            88.689                Norilsk          2771.531
        41   02 Jun 2027 00:27:36.671   02 Jun 2027 00:28:17.390            40.719               Magadan1          1272.469
        42   02 Jun 2027 00:28:22.032   02 Jun 2027 00:28:26.881             4.849               Magadan1           151.531
        43   02 Jun 2027 00:28:44.109   02 Jun 2027 00:29:01.368            17.259               Magadan1           539.344
        44   02 Jun 2027 00:29:57.687   02 Jun 2027 00:31:27.440            89.753                Irkutsk          2804.781
        45   02 Jun 2027 00:32:04.155   02 Jun 2027 00:33:00.261            56.106                Novosib          1753.313
        46   02 Jun 2027 00:34:19.932   02 Jun 2027 00:34:35.627            15.695                Novosib           490.469
        47   02 Jun 2027 00:43:45.587   02 Jun 2027 00:46:02.800           137.213                Sumatra          4287.906
        48   02 Jun 2027 01:17:38.119   02 Jun 2027 01:18:10.903            32.784            RioGallegos          1024.500
        49   02 Jun 2027 01:20:56.181   02 Jun 2027 01:21:20.402            24.221            RioGallegos           756.906
        50   02 Jun 2027 01:23:46.770   02 Jun 2027 01:24:27.163            40.393            RioGallegos          1262.281
        51   02 Jun 2027 01:58:21.184   02 Jun 2027 01:58:59.327            38.143                Anadyr1          1191.969
        52   02 Jun 2027 01:59:08.658   02 Jun 2027 01:59:45.541            36.883                Anadyr1          1152.594
        53   02 Jun 2027 01:59:59.338   02 Jun 2027 02:00:38.138            38.800                Anadyr1          1212.500
        54   02 Jun 2027 02:01:41.909   02 Jun 2027 02:02:51.250            69.341                Norilsk          2166.906
        55   02 Jun 2027 02:03:13.907   02 Jun 2027 02:03:52.701            38.794                Norilsk          1212.312
        56   02 Jun 2027 02:05:34.747   02 Jun 2027 02:07:50.346           135.599                Irkutsk          4237.469
        57   02 Jun 2027 02:12:28.279   02 Jun 2027 02:13:03.521            35.242                Novosib          1101.312
        58   02 Jun 2027 02:13:34.604   02 Jun 2027 02:14:08.272            33.668                  Delhi          1052.125
        59   02 Jun 2027 02:16:12.444   02 Jun 2027 02:16:52.668            40.224                  Delhi          1257.000
        60   02 Jun 2027 02:21:02.336   02 Jun 2027 02:25:42.316           279.980                Sumatra          8749.375
        61   02 Jun 2027 03:44:49.663   02 Jun 2027 03:45:09.975            20.312              Murmansk1           634.750
        62   02 Jun 2027 03:45:20.126   02 Jun 2027 03:47:12.843           112.717              Murmansk1          3522.406
        63   02 Jun 2027 03:47:14.133   02 Jun 2027 03:47:23.277             9.144                 Moscow           285.750
        64   02 Jun 2027 03:47:28.434   02 Jun 2027 03:48:44.815            76.381                 Moscow          2386.906
        65   02 Jun 2027 03:48:47.641   02 Jun 2027 03:51:26.791           159.150                Irkutsk          4973.437
        66   02 Jun 2027 03:53:39.787   02 Jun 2027 03:54:16.179            36.392                  Delhi          1137.250
        67   02 Jun 2027 03:56:05.907   02 Jun 2027 03:58:51.219           165.312                  Delhi          5166.000
        68   02 Jun 2027 05:23:08.710   02 Jun 2027 05:23:56.105            47.395                Norilsk          1481.094
        69   02 Jun 2027 05:24:30.302   02 Jun 2027 05:27:26.817           176.515                Novosib          5516.094
        70   02 Jun 2027 06:47:22.577   02 Jun 2027 06:48:34.632            72.055                Anadyr2          2251.719
        71   02 Jun 2027 06:48:34.632   02 Jun 2027 06:49:19.293            44.661                Anadyr1          1395.656
        72   02 Jun 2027 07:01:19.510   02 Jun 2027 07:02:34.356            74.846              Murmansk1          2338.937
        73   02 Jun 2027 07:02:56.794   02 Jun 2027 07:03:56.005            59.211                 Moscow          1850.344
        74   02 Jun 2027 07:06:17.213   02 Jun 2027 07:07:14.445            57.232                 Moscow          1788.500
        75   02 Jun 2027 07:19:36.919   02 Jun 2027 07:24:46.059           309.140               CapeTown          9660.625
        76   02 Jun 2027 08:22:09.506   02 Jun 2027 08:22:59.043            49.537               Magadan1          1548.031
        77   02 Jun 2027 08:22:59.043   02 Jun 2027 08:25:12.124           133.081               Magadan2          4158.781
        78   02 Jun 2027 08:25:14.426   02 Jun 2027 08:27:05.394           110.968                Anadyr1          3467.750
        79   02 Jun 2027 09:55:43.787   02 Jun 2027 09:55:55.540            11.753                Anadyr2           367.281
        80   02 Jun 2027 09:58:19.534   02 Jun 2027 09:59:16.463            56.929               Magadan2          1779.031
        81   02 Jun 2027 09:59:45.346   02 Jun 2027 10:00:20.635            35.289                Anadyr1          1102.781
        82   02 Jun 2027 10:00:30.262   02 Jun 2027 10:00:40.939            10.677               Magadan2           333.656
        83   02 Jun 2027 10:00:42.879   02 Jun 2027 10:00:52.319             9.440                Anadyr1           295.000
        84   02 Jun 2027 10:01:09.832   02 Jun 2027 10:01:40.939            31.107                Anadyr1           972.094
        85   02 Jun 2027 10:01:57.661   02 Jun 2027 10:04:07.760           130.099               Magadan1          4065.594
        86   02 Jun 2027 11:32:58.956   02 Jun 2027 11:38:42.378           343.422               Magadan2         10731.938
        87   02 Jun 2027 11:38:57.924   02 Jun 2027 11:39:15.070            17.146               Magadan2           535.812
        88   02 Jun 2027 11:39:37.713   02 Jun 2027 11:39:43.281             5.568                Norilsk           174.000
        89   02 Jun 2027 11:39:44.877   02 Jun 2027 11:39:52.242             7.365              Murmansk2           230.156
        90   02 Jun 2027 11:40:13.987   02 Jun 2027 11:40:28.935            14.948                Norilsk           467.125
        91   02 Jun 2027 12:14:34.079   02 Jun 2027 12:15:39.834            65.755            RioGallegos          2054.844
        92   02 Jun 2027 12:17:50.541   02 Jun 2027 12:18:05.216            14.675            RioGallegos           458.594
        93   02 Jun 2027 12:49:39.669   02 Jun 2027 12:50:27.164            47.495                Sumatra          1484.219
        94   02 Jun 2027 12:56:27.546   02 Jun 2027 12:57:30.353            62.807                Sumatra          1962.719
        95   02 Jun 2027 13:03:14.460   02 Jun 2027 13:03:52.770            38.310                Irkutsk          1197.188
        96   02 Jun 2027 13:04:48.223   02 Jun 2027 13:05:31.457            43.234                Novosib          1351.062
        97   02 Jun 2027 13:06:13.433   02 Jun 2027 13:07:43.651            90.218                Irkutsk          2819.313
        98   02 Jun 2027 13:53:06.299   02 Jun 2027 13:57:42.766           276.467            RioGallegos          8639.594
        99   02 Jun 2027 14:27:29.199   02 Jun 2027 14:31:56.416           267.217                Sumatra          8350.531
       100   02 Jun 2027 14:43:17.966   02 Jun 2027 14:47:21.583           243.617                Irkutsk          7613.031
       101   02 Jun 2027 16:13:17.288   02 Jun 2027 16:17:03.867           226.579                  Delhi          7080.594
       102   02 Jun 2027 16:21:42.063   02 Jun 2027 16:27:02.108           320.045                Novosib         10001.406
       103   02 Jun 2027 19:07:29.748   02 Jun 2027 19:10:20.514           170.766               CapeTown          5336.438
       104   02 Jun 2027 19:36:33.375   02 Jun 2027 19:39:40.671           187.296                 Moscow          5853.000
       105   02 Jun 2027 19:39:48.053   02 Jun 2027 19:42:04.238           136.185              Murmansk2          4255.781
       106   02 Jun 2027 20:45:13.335   02 Jun 2027 20:50:01.398           288.063               CapeTown          9001.969
       107   02 Jun 2027 20:50:40.863   02 Jun 2027 20:52:16.361            95.498               CapeTown          2984.313
       108   02 Jun 2027 21:28:29.304   02 Jun 2027 21:29:09.045            39.741               Magadan1          1241.906
       109   02 Jun 2027 21:29:24.640   02 Jun 2027 21:29:35.300            10.660               Magadan1           333.125
       110   02 Jun 2027 21:30:28.597   02 Jun 2027 21:30:59.040            30.443               Magadan1           951.344
       111   02 Jun 2027 22:59:56.968   02 Jun 2027 23:05:09.936           312.968                Anadyr1          9780.250
       112   02 Jun 2027 23:05:20.082   02 Jun 2027 23:05:54.059            33.977                Norilsk          1061.781
       113   02 Jun 2027 23:06:21.853   02 Jun 2027 23:07:41.107            79.254               Magadan2          2476.687
       114   02 Jun 2027 23:08:37.328   02 Jun 2027 23:08:50.615            13.287               Magadan1           415.219
       115   02 Jun 2027 23:09:11.607   02 Jun 2027 23:10:25.971            74.364                Irkutsk          2323.875
       116   02 Jun 2027 23:11:00.095   02 Jun 2027 23:11:27.387            27.292                Irkutsk           852.875
       117   02 Jun 2027 23:54:14.290   02 Jun 2027 23:56:27.795           133.505            RioGallegos          4172.031
       118   02 Jun 2027 23:57:26.112   02 Jun 2027 23:57:46.564            20.452            RioGallegos           639.125
       119   02 Jun 2027 23:59:19.676   02 Jun 2027 23:59:39.456            19.780            RioGallegos           618.125
       120   03 Jun 2027 00:00:06.063   03 Jun 2027 00:00:16.833            10.770            RioGallegos           336.562
       121   03 Jun 2027 00:03:09.881   03 Jun 2027 00:03:42.326            32.445            RioGallegos          1013.906
       122   03 Jun 2027 00:35:31.010   03 Jun 2027 00:36:00.491            29.481                Anadyr1           921.281
       123   03 Jun 2027 00:36:40.484   03 Jun 2027 00:36:59.418            18.934                Anadyr2           591.687
       124   03 Jun 2027 00:37:40.428   03 Jun 2027 00:38:32.001            51.573                Anadyr1          1611.656
       125   03 Jun 2027 00:38:43.446   03 Jun 2027 00:39:37.482            54.036                Norilsk          1688.625
       126   03 Jun 2027 00:39:57.956   03 Jun 2027 00:41:40.235           102.279               Magadan2          3196.219
       127   03 Jun 2027 00:41:52.639   03 Jun 2027 00:42:56.949            64.310                Irkutsk          2009.687
       128   03 Jun 2027 00:43:22.968   03 Jun 2027 00:44:33.046            70.078                Novosib          2189.938
       129   03 Jun 2027 00:49:19.065   03 Jun 2027 00:50:06.722            47.657                Novosib          1489.281
       130   03 Jun 2027 00:55:35.295   03 Jun 2027 00:56:20.768            45.473                Sumatra          1421.031
       131   03 Jun 2027 00:59:07.917   03 Jun 2027 01:00:46.063            98.146                Sumatra          3067.063
       132   03 Jun 2027 01:33:19.002   03 Jun 2027 01:33:36.299            17.297            RioGallegos           540.531
       133   03 Jun 2027 01:38:14.528   03 Jun 2027 01:38:36.922            22.394            RioGallegos           699.813
       134   03 Jun 2027 01:39:42.095   03 Jun 2027 01:39:56.914            14.819            RioGallegos           463.094
       135   03 Jun 2027 01:41:35.067   03 Jun 2027 01:42:13.344            38.277            RioGallegos          1196.156
       136   03 Jun 2027 02:10:53.756   03 Jun 2027 02:11:10.021            16.265                Anadyr1           508.281
       137   03 Jun 2027 02:11:38.020   03 Jun 2027 02:12:01.470            23.450                Anadyr1           732.812
       138   03 Jun 2027 02:13:44.374   03 Jun 2027 02:14:44.769            60.395                Norilsk          1887.344
       139   03 Jun 2027 02:14:55.700   03 Jun 2027 02:15:20.858            25.158               Magadan2           786.188
       140   03 Jun 2027 02:17:38.334   03 Jun 2027 02:20:28.839           170.505                Irkutsk          5328.281
       141   03 Jun 2027 02:25:55.913   03 Jun 2027 02:26:26.671            30.758                Irkutsk           961.187
       142   03 Jun 2027 02:29:34.829   03 Jun 2027 02:31:33.683           118.854                  Delhi          3714.187
       143   03 Jun 2027 02:34:02.989   03 Jun 2027 02:38:13.179           250.190                Sumatra          7818.437
       144   03 Jun 2027 03:57:17.718   03 Jun 2027 03:57:30.575            12.857                Novosib           401.781
       145   03 Jun 2027 03:58:09.196   03 Jun 2027 03:58:57.840            48.644                 Moscow          1520.125
       146   03 Jun 2027 03:58:59.528   03 Jun 2027 03:59:10.722            11.194                Novosib           349.812
       147   03 Jun 2027 03:59:13.044   03 Jun 2027 03:59:33.934            20.890                Norilsk           652.812
       148   03 Jun 2027 03:59:34.513   03 Jun 2027 04:00:38.568            64.055              Murmansk2          2001.719
       149   03 Jun 2027 04:00:38.568   03 Jun 2027 04:01:09.911            31.343              Murmansk1           979.469
       150   03 Jun 2027 04:01:10.364   03 Jun 2027 04:01:21.005            10.641              Murmansk1           332.531
       151   03 Jun 2027 04:02:00.468   03 Jun 2027 04:02:51.803            51.335                Irkutsk          1604.219
       152   03 Jun 2027 04:03:50.174   03 Jun 2027 04:04:21.728            31.554                 Moscow           986.062
       153   03 Jun 2027 04:05:38.092   03 Jun 2027 04:05:59.173            21.081                Novosib           658.781
       154   03 Jun 2027 04:06:43.382   03 Jun 2027 04:09:25.003           161.621                  Delhi          5050.656
       155   03 Jun 2027 04:11:19.542   03 Jun 2027 04:12:24.499            64.957                  Delhi          2029.906
       156   03 Jun 2027 05:34:14.382   03 Jun 2027 05:35:29.608            75.226                Novosib          2350.813
       157   03 Jun 2027 05:36:33.186   03 Jun 2027 05:38:56.270           143.084                Novosib          4471.375
       158   03 Jun 2027 05:39:16.863   03 Jun 2027 05:39:23.867             7.004                 Moscow           218.875
       159   03 Jun 2027 05:40:38.580   03 Jun 2027 05:40:44.009             5.429                 Moscow           169.656
       160   03 Jun 2027 05:43:16.104   03 Jun 2027 05:43:47.150            31.046                 Moscow           970.188
       161   03 Jun 2027 05:55:20.519   03 Jun 2027 05:57:21.632           121.113               CapeTown          3784.781
       162   03 Jun 2027 06:58:26.845   03 Jun 2027 06:58:57.699            30.854               Magadan1           964.187
       163   03 Jun 2027 06:58:57.699   03 Jun 2027 06:59:27.106            29.407               Magadan2           918.969
       164   03 Jun 2027 06:59:33.436   03 Jun 2027 07:00:35.056            61.620                Anadyr1          1925.625
       165   03 Jun 2027 07:01:53.880   03 Jun 2027 07:02:36.922            43.042                Anadyr1          1345.062
       166   03 Jun 2027 07:11:05.056   03 Jun 2027 07:11:05.372             0.316                 Moscow             9.875
       167   03 Jun 2027 07:11:19.155   03 Jun 2027 07:11:23.815             4.660                Norilsk           145.625
       168   03 Jun 2027 07:13:25.866   03 Jun 2027 07:14:19.993            54.127              Murmansk1          1691.469
       169   03 Jun 2027 07:18:46.900   03 Jun 2027 07:19:01.989            15.089                 Moscow           471.531
       170   03 Jun 2027 07:32:06.202   03 Jun 2027 07:36:07.941           241.739               CapeTown          7554.344
       171   03 Jun 2027 08:32:41.946   03 Jun 2027 08:32:55.919            13.973                Anadyr2           436.656
       172   03 Jun 2027 08:33:14.233   03 Jun 2027 08:33:31.375            17.142               Magadan1           535.687
       173   03 Jun 2027 08:33:40.664   03 Jun 2027 08:34:45.475            64.811                Anadyr2          2025.344
       174   03 Jun 2027 08:35:02.735   03 Jun 2027 08:36:09.874            67.139               Magadan1          2098.094
       175   03 Jun 2027 08:36:16.853   03 Jun 2027 08:37:06.041            49.188               Magadan1          1537.125
       176   03 Jun 2027 08:37:12.038   03 Jun 2027 08:37:58.295            46.257               Magadan1          1445.531
       177   03 Jun 2027 09:20:29.341   03 Jun 2027 09:20:58.723            29.382            RioGallegos           918.188
       178   03 Jun 2027 10:07:44.515   03 Jun 2027 10:07:47.541             3.026                Anadyr1            94.563
       179   03 Jun 2027 10:08:01.750   03 Jun 2027 10:08:12.275            10.525               Magadan1           328.906
       180   03 Jun 2027 10:09:05.736   03 Jun 2027 10:09:36.969            31.233               Magadan2           976.031
       181   03 Jun 2027 10:09:43.975   03 Jun 2027 10:11:41.729           117.754                Anadyr2          3679.813
       182   03 Jun 2027 10:12:16.151   03 Jun 2027 10:12:59.269            43.118               Magadan1          1347.438
       183   03 Jun 2027 10:13:25.611   03 Jun 2027 10:13:34.765             9.154               Magadan2           286.063
       184   03 Jun 2027 10:13:53.091   03 Jun 2027 10:16:07.393           134.302               Magadan2          4196.937
       185   03 Jun 2027 11:43:11.834   03 Jun 2027 11:43:27.001            15.167               Magadan1           473.969
       186   03 Jun 2027 11:44:29.785   03 Jun 2027 11:47:37.495           187.710               Magadan1          5865.938
       187   03 Jun 2027 11:47:39.862   03 Jun 2027 11:49:51.291           131.429               Magadan2          4107.156
       188   03 Jun 2027 11:50:48.852   03 Jun 2027 11:50:56.664             7.812                Irkutsk           244.125
       189   03 Jun 2027 11:51:04.095   03 Jun 2027 11:51:27.350            23.255                Novosib           726.719
       190   03 Jun 2027 11:51:38.119   03 Jun 2027 11:52:09.062            30.943                Norilsk           966.969
       191   03 Jun 2027 12:26:40.477   03 Jun 2027 12:27:35.514            55.037            RioGallegos          1719.906
       192   03 Jun 2027 12:29:50.883   03 Jun 2027 12:30:41.738            50.855            RioGallegos          1589.219
       193   03 Jun 2027 12:35:32.803   03 Jun 2027 12:35:39.974             7.171            RioGallegos           224.094
       194   03 Jun 2027 13:02:12.704   03 Jun 2027 13:04:36.795           144.091                Sumatra          4502.844
       195   03 Jun 2027 13:11:30.487   03 Jun 2027 13:13:47.191           136.704                Sumatra          4272.000
       196   03 Jun 2027 13:25:07.574   03 Jun 2027 13:25:15.126             7.552                Irkutsk           236.000
       197   03 Jun 2027 14:05:56.197   03 Jun 2027 14:09:47.189           230.992            RioGallegos          7218.500
       198   03 Jun 2027 14:40:48.592   03 Jun 2027 14:45:56.506           307.914                Sumatra          9622.313
       199   03 Jun 2027 14:56:44.412   03 Jun 2027 15:00:54.090           249.678                Irkutsk          7802.437
       200   03 Jun 2027 16:35:37.103   03 Jun 2027 16:37:44.033           126.930                Novosib          3966.563
       201   03 Jun 2027 16:37:46.278   03 Jun 2027 16:38:15.368            29.090                Norilsk           909.063
       202   03 Jun 2027 16:42:00.184   03 Jun 2027 16:42:31.555            31.371                Norilsk           980.344
       203   03 Jun 2027 18:07:04.425   03 Jun 2027 18:07:20.593            16.168                 Moscow           505.250
       204   03 Jun 2027 18:09:04.485   03 Jun 2027 18:12:03.912           179.427                 Moscow          5607.094
       205   03 Jun 2027 18:18:03.283   03 Jun 2027 18:18:16.611            13.328              Murmansk2           416.500
       206   03 Jun 2027 18:18:31.586   03 Jun 2027 18:19:29.201            57.615              Murmansk2          1800.469
       207   03 Jun 2027 19:19:32.297   03 Jun 2027 19:22:05.776           153.479               CapeTown          4796.219
       208   03 Jun 2027 19:31:08.366   03 Jun 2027 19:32:13.049            64.683               CapeTown          2021.344
       209   03 Jun 2027 19:49:21.123   03 Jun 2027 19:57:29.975           488.852              Murmansk1         15276.625
       210   03 Jun 2027 19:58:00.982   03 Jun 2027 19:58:15.180            14.198              Murmansk2           443.687
       211   03 Jun 2027 20:58:06.444   03 Jun 2027 21:03:18.740           312.296               CapeTown          9759.250
       212   03 Jun 2027 23:11:57.633   03 Jun 2027 23:15:44.512           226.879                Anadyr1          7089.969
       213   03 Jun 2027 23:15:55.972   03 Jun 2027 23:17:43.004           107.032                Norilsk          3344.750
       214   03 Jun 2027 23:18:06.025   03 Jun 2027 23:19:13.129            67.104               Magadan2          2097.000
       215   03 Jun 2027 23:19:13.129   03 Jun 2027 23:19:18.022             4.893               Magadan1           152.906
       216   03 Jun 2027 23:19:50.770   03 Jun 2027 23:19:55.755             4.985               Magadan1           155.781
       217   03 Jun 2027 23:20:01.303   03 Jun 2027 23:20:41.240            39.937                Irkutsk          1248.031
       218   03 Jun 2027 23:21:48.544   03 Jun 2027 23:23:02.972            74.428                Irkutsk          2325.875
       219   03 Jun 2027 23:25:08.539   03 Jun 2027 23:25:52.243            43.704                Irkutsk          1365.750
       220   03 Jun 2027 23:38:05.699   03 Jun 2027 23:38:44.711            39.012                Sumatra          1219.125
       221   04 Jun 2027 00:06:06.702   04 Jun 2027 00:07:01.311            54.609            RioGallegos          1706.531
       222   04 Jun 2027 00:09:43.556   04 Jun 2027 00:10:53.095            69.539            RioGallegos          2173.094
       223   04 Jun 2027 00:16:41.034   04 Jun 2027 00:17:11.551            30.517            RioGallegos           953.656
       224   04 Jun 2027 00:47:26.833   04 Jun 2027 00:48:10.563            43.730                Anadyr1          1366.563
       225   04 Jun 2027 00:48:57.549   04 Jun 2027 00:49:44.368            46.819                Anadyr1          1463.094
       226   04 Jun 2027 00:50:22.441   04 Jun 2027 00:50:47.779            25.338               Magadan2           791.813
       227   04 Jun 2027 00:50:49.195   04 Jun 2027 00:51:39.780            50.585                Norilsk          1580.781
       228   04 Jun 2027 00:51:41.741   04 Jun 2027 00:52:01.718            19.977               Magadan1           624.281
       229   04 Jun 2027 00:52:13.981   04 Jun 2027 00:52:15.448             1.467               Magadan2            45.844
       230   04 Jun 2027 00:52:15.448   04 Jun 2027 00:53:08.635            53.187               Magadan1          1662.094
       231   04 Jun 2027 00:53:49.243   04 Jun 2027 00:55:03.061            73.818                Irkutsk          2306.813
       232   04 Jun 2027 00:57:20.382   04 Jun 2027 00:57:51.683            31.301                Novosib           978.156
       233   04 Jun 2027 01:01:35.179   04 Jun 2027 01:02:21.719            46.540                Novosib          1454.375
       234   04 Jun 2027 01:04:34.395   04 Jun 2027 01:04:37.745             3.350                Irkutsk           104.688
       235   04 Jun 2027 01:06:13.457   04 Jun 2027 01:06:16.078             2.621                Irkutsk            81.906
       236   04 Jun 2027 01:07:30.955   04 Jun 2027 01:08:12.062            41.107                Sumatra          1284.594
       237   04 Jun 2027 01:10:27.584   04 Jun 2027 01:11:24.871            57.287                Sumatra          1790.219
       238   04 Jun 2027 01:16:06.571   04 Jun 2027 01:16:08.673             2.102                Sumatra            65.688
       239   04 Jun 2027 01:19:18.015   04 Jun 2027 01:20:14.870            56.855                Sumatra          1776.719
       240   04 Jun 2027 01:47:24.558   04 Jun 2027 01:47:42.419            17.861            RioGallegos           558.156
       241   04 Jun 2027 01:49:29.159   04 Jun 2027 01:49:41.464            12.305            RioGallegos           384.531
       242   04 Jun 2027 01:51:23.100   04 Jun 2027 01:52:36.037            72.937            RioGallegos          2279.281
       243   04 Jun 2027 02:25:46.831   04 Jun 2027 02:27:14.030            87.199                Norilsk          2724.969
       244   04 Jun 2027 02:27:38.227   04 Jun 2027 02:28:10.160            31.933                Norilsk           997.906
       245   04 Jun 2027 02:29:39.596   04 Jun 2027 02:30:57.855            78.259                Novosib          2445.594
       246   04 Jun 2027 02:31:22.529   04 Jun 2027 02:31:52.853            30.324                Novosib           947.625
       247   04 Jun 2027 02:32:32.019   04 Jun 2027 02:33:14.219            42.200                Irkutsk          1318.750
       248   04 Jun 2027 02:39:08.333   04 Jun 2027 02:39:49.609            41.276                  Delhi          1289.875
       249   04 Jun 2027 02:43:59.733   04 Jun 2027 02:44:42.432            42.699                  Delhi          1334.344
       250   04 Jun 2027 02:48:06.118   04 Jun 2027 02:50:35.770           149.652                Sumatra          4676.625
       251   04 Jun 2027 03:20:27.767   04 Jun 2027 03:21:55.822            88.055            RioGallegos          2751.719
       252   04 Jun 2027 04:10:14.851   04 Jun 2027 04:14:12.216           237.365                Irkutsk          7417.656
       253   04 Jun 2027 04:14:18.063   04 Jun 2027 04:16:03.745           105.682                Novosib          3302.563
       254   04 Jun 2027 04:17:02.344   04 Jun 2027 04:17:08.133             5.789                 Moscow           180.906
       255   04 Jun 2027 04:17:17.014   04 Jun 2027 04:17:47.733            30.719                Novosib           959.969
       256   04 Jun 2027 04:21:09.838   04 Jun 2027 04:23:31.031           141.193                  Delhi          4412.281
       257   04 Jun 2027 05:44:05.846   04 Jun 2027 05:44:18.100            12.254                Novosib           382.937
       258   04 Jun 2027 05:45:21.121   04 Jun 2027 05:46:00.153            39.032                Novosib          1219.750
       259   04 Jun 2027 05:47:21.720   04 Jun 2027 05:47:41.707            19.987                Norilsk           624.594
       260   04 Jun 2027 05:48:26.472   04 Jun 2027 05:50:22.657           116.185                Novosib          3630.781
       261   04 Jun 2027 05:50:48.129   04 Jun 2027 05:51:03.174            15.045                 Moscow           470.156
       262   04 Jun 2027 05:51:10.216   04 Jun 2027 05:51:35.080            24.864                 Moscow           777.000
       263   04 Jun 2027 05:52:33.610   04 Jun 2027 05:52:44.071            10.461                 Moscow           326.906
       264   04 Jun 2027 05:54:16.803   04 Jun 2027 05:54:38.143            21.340                 Moscow           666.875
       265   04 Jun 2027 05:55:16.045   04 Jun 2027 05:55:34.887            18.842                 Moscow           588.813
       266   04 Jun 2027 06:07:09.923   04 Jun 2027 06:09:46.770           156.847               CapeTown          4901.469
       267   04 Jun 2027 07:10:02.688   04 Jun 2027 07:10:55.461            52.773                Anadyr2          1649.156
       268   04 Jun 2027 07:11:09.957   04 Jun 2027 07:11:43.637            33.680               Magadan1          1052.500
       269   04 Jun 2027 07:11:50.847   04 Jun 2027 07:11:55.482             4.635               Magadan1           144.844
       270   04 Jun 2027 07:12:11.787   04 Jun 2027 07:12:20.552             8.765               Magadan2           273.906
       271   04 Jun 2027 07:12:35.060   04 Jun 2027 07:13:19.953            44.893                Anadyr2          1402.906
       272   04 Jun 2027 07:14:44.301   04 Jun 2027 07:15:08.298            23.997                Anadyr1           749.906
       273   04 Jun 2027 07:23:21.033   04 Jun 2027 07:23:38.478            17.445                Norilsk           545.156
       274   04 Jun 2027 07:26:12.182   04 Jun 2027 07:27:09.829            57.647                 Moscow          1801.469
       275   04 Jun 2027 07:44:45.010   04 Jun 2027 07:49:26.144           281.134               CapeTown          8785.437
       276   04 Jun 2027 08:45:04.088   04 Jun 2027 08:45:53.421            49.333                Anadyr2          1541.656
       277   04 Jun 2027 08:46:33.988   04 Jun 2027 08:46:45.386            11.398               Magadan1           356.188
       278   04 Jun 2027 08:47:09.033   04 Jun 2027 08:48:08.536            59.503               Magadan2          1859.469
       279   04 Jun 2027 08:48:19.844   04 Jun 2027 08:48:59.334            39.490               Magadan2          1234.062
       280   04 Jun 2027 08:49:02.268   04 Jun 2027 08:50:21.304            79.036               Magadan2          2469.875
       281   04 Jun 2027 10:19:39.811   04 Jun 2027 10:20:35.710            55.899               Magadan1          1746.844
       282   04 Jun 2027 10:20:44.413   04 Jun 2027 10:21:15.631            31.218               Magadan2           975.562
       283   04 Jun 2027 10:22:05.530   04 Jun 2027 10:25:00.670           175.140                Anadyr2          5473.125
       284   04 Jun 2027 10:25:32.943   04 Jun 2027 10:25:45.539            12.596               Magadan1           393.625
       285   04 Jun 2027 10:25:46.829   04 Jun 2027 10:26:42.771            55.942               Magadan1          1748.188
       286   04 Jun 2027 10:30:42.978   04 Jun 2027 10:30:44.643             1.665                Norilsk            52.031
       287   04 Jun 2027 11:03:22.499   04 Jun 2027 11:04:01.844            39.345            RioGallegos          1229.531
       288   04 Jun 2027 11:05:47.094   04 Jun 2027 11:06:42.848            55.754            RioGallegos          1742.313
       289   04 Jun 2027 11:42:06.166   04 Jun 2027 11:42:58.043            51.877                Sumatra          1621.156
       290   04 Jun 2027 11:56:07.677   04 Jun 2027 12:02:38.515           390.838               Magadan1         12213.687
       291   04 Jun 2027 13:37:38.179   04 Jun 2027 13:38:02.878            24.699                Irkutsk           771.844
       292   04 Jun 2027 13:39:20.029   04 Jun 2027 13:39:38.901            18.872                Irkutsk           589.750
       293   04 Jun 2027 14:19:00.354   04 Jun 2027 14:22:59.934           239.580            RioGallegos          7486.875
       294   04 Jun 2027 15:05:38.975   04 Jun 2027 15:06:00.425            21.450                Novosib           670.312
       295   04 Jun 2027 15:07:33.046   04 Jun 2027 15:10:45.690           192.644                Novosib          6020.125
       296   04 Jun 2027 16:42:07.299   04 Jun 2027 16:43:25.421            78.122                 Moscow          2441.312
       297   04 Jun 2027 16:45:25.522   04 Jun 2027 16:46:02.980            37.458                 Moscow          1170.563
       298   04 Jun 2027 16:49:34.776   04 Jun 2027 16:51:41.318           126.542                Norilsk          3954.437
       299   04 Jun 2027 16:53:20.294   04 Jun 2027 16:55:26.524           126.230                Norilsk          3944.687
       300   04 Jun 2027 17:59:48.585   04 Jun 2027 18:00:12.188            23.603               CapeTown           737.594
       301   04 Jun 2027 18:02:09.362   04 Jun 2027 18:03:18.902            69.540               CapeTown          2173.125
       302   04 Jun 2027 18:19:30.044   04 Jun 2027 18:20:14.058            44.014                 Moscow          1375.438
       303   04 Jun 2027 18:22:38.243   04 Jun 2027 18:24:09.587            91.344              Murmansk2          2854.500
       304   04 Jun 2027 18:24:25.043   04 Jun 2027 18:24:43.224            18.181                 Moscow           568.156
       305   04 Jun 2027 18:27:24.165   04 Jun 2027 18:29:27.989           123.824                 Moscow          3869.500
       306   04 Jun 2027 18:43:57.390   04 Jun 2027 18:44:38.745            41.355                Anadyr2          1292.344
       307   04 Jun 2027 19:31:37.640   04 Jun 2027 19:33:15.376            97.736               CapeTown          3054.250
       308   04 Jun 2027 19:40:20.906   04 Jun 2027 19:40:25.003             4.097               CapeTown           128.031
       309   04 Jun 2027 19:41:58.148   04 Jun 2027 19:43:59.313           121.165               CapeTown          3786.406
       310   04 Jun 2027 20:01:58.273   04 Jun 2027 20:03:16.747            78.474              Murmansk1          2452.312
       311   04 Jun 2027 20:03:55.861   04 Jun 2027 20:10:12.687           376.826              Murmansk2         11775.812
       312   04 Jun 2027 21:48:06.004   04 Jun 2027 21:48:34.021            28.017                Anadyr1           875.531
       313   04 Jun 2027 21:48:49.740   04 Jun 2027 21:49:40.782            51.042                Anadyr1          1595.063
       314   04 Jun 2027 21:50:26.222   04 Jun 2027 21:52:31.493           125.271               Magadan1          3914.719
       315   04 Jun 2027 21:52:52.559   04 Jun 2027 21:53:56.385            63.826               Magadan1          1994.562
       316   04 Jun 2027 22:45:46.394   04 Jun 2027 22:47:13.475            87.081            RioGallegos          2721.281
       317   04 Jun 2027 23:23:57.932   04 Jun 2027 23:27:48.115           230.183                Anadyr2          7193.219
       318   04 Jun 2027 23:27:56.434   04 Jun 2027 23:29:09.588            73.154                Norilsk          2286.062
       319   04 Jun 2027 23:29:48.203   04 Jun 2027 23:30:35.173            46.970               Magadan2          1467.812
       320   04 Jun 2027 23:30:38.512   04 Jun 2027 23:30:46.555             8.043               Magadan1           251.344
       321   04 Jun 2027 23:31:17.133   04 Jun 2027 23:31:53.466            36.333               Magadan2          1135.406
       322   04 Jun 2027 23:32:33.842   04 Jun 2027 23:33:16.053            42.211                Irkutsk          1319.094
       323   04 Jun 2027 23:36:46.013   04 Jun 2027 23:37:47.033            61.020                Irkutsk          1906.875
       324   04 Jun 2027 23:47:12.431   04 Jun 2027 23:48:32.359            79.928                Sumatra          2497.750
       325   05 Jun 2027 00:18:01.273   05 Jun 2027 00:18:48.656            47.383            RioGallegos          1480.719
       326   05 Jun 2027 00:23:27.499   05 Jun 2027 00:23:55.454            27.955            RioGallegos           873.594
       327   05 Jun 2027 00:27:49.305   05 Jun 2027 00:28:44.770            55.465            RioGallegos          1733.281
       328   05 Jun 2027 00:59:21.649   05 Jun 2027 00:59:26.179             4.530                Anadyr2           141.562
       329   05 Jun 2027 00:59:30.043   05 Jun 2027 00:59:40.699            10.656                Anadyr1           333.000
       330   05 Jun 2027 01:00:56.264   05 Jun 2027 01:01:38.035            41.771                Anadyr2          1305.344
       331   05 Jun 2027 01:01:48.530   05 Jun 2027 01:03:42.094           113.564                Norilsk          3548.875
       332   05 Jun 2027 01:04:01.984   05 Jun 2027 01:04:36.467            34.483               Magadan1          1077.594
       333   05 Jun 2027 01:05:47.225   05 Jun 2027 01:07:36.455           109.230                Irkutsk          3413.437
       334   05 Jun 2027 01:08:43.298   05 Jun 2027 01:08:46.209             2.911                Novosib            90.969
       335   05 Jun 2027 01:10:24.737   05 Jun 2027 01:10:49.416            24.679                Novosib           771.219
       336   05 Jun 2027 01:15:47.298   05 Jun 2027 01:15:50.163             2.865                Novosib            89.531
       337   05 Jun 2027 01:16:35.391   05 Jun 2027 01:16:40.843             5.452                Irkutsk           170.375
       338   05 Jun 2027 01:18:22.196   05 Jun 2027 01:18:27.546             5.350                Irkutsk           167.188
       339   05 Jun 2027 01:19:32.322   05 Jun 2027 01:21:29.747           117.425                Sumatra          3669.531
       340   05 Jun 2027 01:22:40.370   05 Jun 2027 01:24:43.435           123.065                Sumatra          3845.781
       341   05 Jun 2027 02:03:25.063   05 Jun 2027 02:05:08.247           103.184            RioGallegos          3224.500
       342   05 Jun 2027 02:37:49.252   05 Jun 2027 02:38:33.785            44.533                Norilsk          1391.656
       343   05 Jun 2027 02:40:01.148   05 Jun 2027 02:40:33.615            32.467                Norilsk          1014.594
       344   05 Jun 2027 02:41:02.663   05 Jun 2027 02:41:45.083            42.420              Murmansk1          1325.625
       345   05 Jun 2027 02:41:47.833   05 Jun 2027 02:43:25.468            97.635                Irkutsk          3051.094
       346   05 Jun 2027 02:49:57.215   05 Jun 2027 02:51:25.735            88.520                  Delhi          2766.250
       347   05 Jun 2027 03:30:38.355   05 Jun 2027 03:31:00.114            21.759            RioGallegos           679.969
       348   05 Jun 2027 03:31:39.522   05 Jun 2027 03:31:54.398            14.876            RioGallegos           464.875
       349   05 Jun 2027 03:32:13.593   05 Jun 2027 03:32:53.814            40.221            RioGallegos          1256.906
       350   05 Jun 2027 03:34:34.891   05 Jun 2027 03:34:51.796            16.905            RioGallegos           528.281
       351   05 Jun 2027 03:36:20.689   05 Jun 2027 03:37:42.992            82.303            RioGallegos          2571.969
       352   05 Jun 2027 04:21:16.527   05 Jun 2027 04:23:15.306           118.779                Norilsk          3711.844
       353   05 Jun 2027 04:23:16.775   05 Jun 2027 04:23:29.712            12.937                Novosib           404.281
       354   05 Jun 2027 04:23:46.035   05 Jun 2027 04:24:29.998            43.963              Murmansk1          1373.844
       355   05 Jun 2027 04:24:39.876   05 Jun 2027 04:25:27.010            47.134                Irkutsk          1472.937
       356   05 Jun 2027 04:27:36.258   05 Jun 2027 04:28:20.246            43.988                  Delhi          1374.625
       357   05 Jun 2027 04:28:37.172   05 Jun 2027 04:29:33.590            56.418                Novosib          1763.063
       358   05 Jun 2027 06:00:22.703   05 Jun 2027 06:01:45.721            83.018                Novosib          2594.312
       359   05 Jun 2027 06:02:18.537   05 Jun 2027 06:02:51.254            32.717                 Moscow          1022.406
       360   05 Jun 2027 06:02:53.895   05 Jun 2027 06:05:22.431           148.536                 Moscow          4641.750
       361   05 Jun 2027 06:06:25.654   05 Jun 2027 06:06:42.368            16.714                 Moscow           522.313
       362   05 Jun 2027 06:22:59.707   05 Jun 2027 06:25:00.894           121.187               CapeTown          3787.094
       363   05 Jun 2027 07:22:12.409   05 Jun 2027 07:22:53.818            41.409                Anadyr1          1294.031
       364   05 Jun 2027 07:22:58.293   05 Jun 2027 07:23:55.121            56.828                Anadyr2          1775.875
       365   05 Jun 2027 07:25:37.708   05 Jun 2027 07:26:45.429            67.721                Anadyr2          2116.281
       366   05 Jun 2027 07:57:37.175   05 Jun 2027 08:01:57.442           260.267               CapeTown          8133.344
       367   05 Jun 2027 08:58:08.602   05 Jun 2027 09:00:41.436           152.834                Anadyr2          4776.062
       368   05 Jun 2027 09:01:00.872   05 Jun 2027 09:02:21.900            81.028               Magadan1          2532.125
       369   05 Jun 2027 10:33:03.085   05 Jun 2027 10:33:28.431            25.346               Magadan1           792.063
       370   05 Jun 2027 10:33:35.034   05 Jun 2027 10:34:03.146            28.112               Magadan2           878.500
       371   05 Jun 2027 10:34:03.146   05 Jun 2027 10:36:16.786           133.640               Magadan1          4176.250
       372   05 Jun 2027 10:36:30.084   05 Jun 2027 10:36:33.659             3.575                Irkutsk           111.719
       373   05 Jun 2027 10:37:32.378   05 Jun 2027 10:37:34.815             2.437                Irkutsk            76.156
       374   05 Jun 2027 10:37:38.347   05 Jun 2027 10:38:06.552            28.205               Magadan2           881.406
       375   05 Jun 2027 10:38:12.089   05 Jun 2027 10:40:04.323           112.234               Magadan2          3507.313
       376   05 Jun 2027 11:54:24.486   05 Jun 2027 11:54:30.306             5.820                Sumatra           181.875
       377   05 Jun 2027 11:54:35.622   05 Jun 2027 11:54:56.264            20.642                Sumatra           645.062
       378   05 Jun 2027 12:04:28.424   05 Jun 2027 12:05:05.650            37.226                Irkutsk          1163.313
       379   05 Jun 2027 12:06:25.363   05 Jun 2027 12:07:00.331            34.968                Irkutsk          1092.750
       380   05 Jun 2027 12:09:19.220   05 Jun 2027 12:14:04.170           284.950               Magadan1          8904.688
       381   05 Jun 2027 13:31:14.821   05 Jun 2027 13:31:55.233            40.412                Sumatra          1262.875
       382   05 Jun 2027 13:40:09.036   05 Jun 2027 13:40:39.896            30.860                Irkutsk           964.375
       383   05 Jun 2027 13:41:34.184   05 Jun 2027 13:42:03.509            29.325                Irkutsk           916.406
       384   05 Jun 2027 13:47:54.306   05 Jun 2027 13:48:28.406            34.100                Irkutsk          1065.625
       385   05 Jun 2027 13:50:04.556   05 Jun 2027 13:51:03.265            58.709                Irkutsk          1834.656
       386   05 Jun 2027 14:32:35.083   05 Jun 2027 14:35:52.544           197.461            RioGallegos          6170.656
       387   05 Jun 2027 15:15:54.967   05 Jun 2027 15:18:18.317           143.350                  Delhi          4479.688
       388   05 Jun 2027 15:22:51.791   05 Jun 2027 15:23:21.976            30.185                Novosib           943.281
       389   05 Jun 2027 15:25:19.403   05 Jun 2027 15:26:15.549            56.146                Novosib          1754.562
       390   05 Jun 2027 16:54:08.595   05 Jun 2027 16:55:24.050            75.455                 Moscow          2357.969
       391   05 Jun 2027 16:56:07.654   05 Jun 2027 16:57:12.875            65.221                 Moscow          2038.156
       392   05 Jun 2027 17:02:20.780   05 Jun 2027 17:08:31.597           370.817                Norilsk         11588.031
       393   05 Jun 2027 18:32:00.575   05 Jun 2027 18:33:22.897            82.322                 Moscow          2572.562
       394   05 Jun 2027 18:34:57.286   05 Jun 2027 18:35:51.985            54.699              Murmansk1          1709.344
       395   05 Jun 2027 18:38:52.104   05 Jun 2027 18:40:08.253            76.149              Murmansk2          2379.656
       396   05 Jun 2027 18:56:03.356   05 Jun 2027 18:56:53.346            49.990                Anadyr2          1562.187
       397   05 Jun 2027 19:43:45.901   05 Jun 2027 19:46:26.419           160.518               CapeTown          5016.188
       398   05 Jun 2027 20:14:39.091   05 Jun 2027 20:20:42.330           363.239              Murmansk1         11351.219
       399   05 Jun 2027 22:00:07.824   05 Jun 2027 22:03:12.461           184.637                Anadyr2          5769.906
       400   05 Jun 2027 22:03:35.405   05 Jun 2027 22:03:51.144            15.739                Anadyr2           491.844
       401   05 Jun 2027 22:04:00.214   05 Jun 2027 22:06:29.842           149.628               Magadan1          4675.875
       402   05 Jun 2027 22:07:25.750   05 Jun 2027 22:07:47.829            22.079               Magadan2           689.969
       403   05 Jun 2027 22:09:31.013   05 Jun 2027 22:09:36.204             5.191               Magadan2           162.219
       404   05 Jun 2027 22:10:07.121   05 Jun 2027 22:10:26.432            19.311               Magadan2           603.469
       405   05 Jun 2027 22:10:44.754   05 Jun 2027 22:10:51.190             6.436               Magadan1           201.125
       406   05 Jun 2027 22:11:19.997   05 Jun 2027 22:12:03.444            43.447               Magadan1          1357.719
       407   05 Jun 2027 22:56:19.576   05 Jun 2027 22:58:33.141           133.565            RioGallegos          4173.906
       408   05 Jun 2027 23:01:09.691   05 Jun 2027 23:01:53.969            44.278            RioGallegos          1383.688
       409   05 Jun 2027 23:35:57.806   05 Jun 2027 23:37:31.817            94.011                Anadyr1          2937.844
       410   05 Jun 2027 23:38:03.662   05 Jun 2027 23:39:30.971            87.309                Norilsk          2728.406
       411   05 Jun 2027 23:40:00.985   05 Jun 2027 23:40:19.670            18.685               Magadan1           583.906
       412   05 Jun 2027 23:41:28.450   05 Jun 2027 23:42:21.503            53.053               Magadan2          1657.906
       413   05 Jun 2027 23:42:37.728   05 Jun 2027 23:43:17.255            39.527               Magadan2          1235.219
       414   05 Jun 2027 23:44:49.597   05 Jun 2027 23:45:11.604            22.007                Irkutsk           687.719
       415   05 Jun 2027 23:51:44.181   05 Jun 2027 23:51:51.539             7.358                Irkutsk           229.938
       416   05 Jun 2027 23:58:02.426   06 Jun 2027 00:00:17.171           134.745                Sumatra          4210.781
       417   06 Jun 2027 00:04:04.164   06 Jun 2027 00:06:03.329           119.165                Sumatra          3723.906
       418   06 Jun 2027 01:11:15.375   06 Jun 2027 01:12:06.237            50.862                Anadyr1          1589.437
       419   06 Jun 2027 01:12:55.488   06 Jun 2027 01:13:29.319            33.831                Anadyr2          1057.219
       420   06 Jun 2027 01:13:50.534   06 Jun 2027 01:15:44.387           113.853                Norilsk          3557.906
       421   06 Jun 2027 01:15:52.102   06 Jun 2027 01:16:04.083            11.981               Magadan1           374.406
       422   06 Jun 2027 01:16:14.678   06 Jun 2027 01:16:29.301            14.623               Magadan1           456.969
       423   06 Jun 2027 01:17:46.409   06 Jun 2027 01:20:37.020           170.611                Irkutsk          5331.594
       424   06 Jun 2027 01:29:04.404   06 Jun 2027 01:29:53.219            48.815                  Delhi          1525.469
       425   06 Jun 2027 01:31:53.040   06 Jun 2027 01:34:35.617           162.577                Sumatra          5080.531
       426   06 Jun 2027 02:15:09.079   06 Jun 2027 02:15:30.535            21.456            RioGallegos           670.500
       427   06 Jun 2027 02:17:27.824   06 Jun 2027 02:18:01.647            33.823            RioGallegos          1056.969
       428   06 Jun 2027 02:47:58.841   06 Jun 2027 02:48:02.152             3.311                Anadyr1           103.469
       429   06 Jun 2027 02:49:51.622   06 Jun 2027 02:50:59.373            67.751                Norilsk          2117.219
       430   06 Jun 2027 02:51:18.106   06 Jun 2027 02:51:27.650             9.544                Norilsk           298.250
       431   06 Jun 2027 02:51:52.756   06 Jun 2027 02:52:27.117            34.361                Norilsk          1073.781
       432   06 Jun 2027 02:52:44.821   06 Jun 2027 02:53:32.010            47.189              Murmansk1          1474.656
       433   06 Jun 2027 02:53:39.576   06 Jun 2027 02:54:04.617            25.041                Novosib           782.531
       434   06 Jun 2027 02:54:10.039   06 Jun 2027 02:54:47.508            37.469                Irkutsk          1170.906
       435   06 Jun 2027 02:56:05.134   06 Jun 2027 02:56:38.229            33.095                Irkutsk          1034.219
       436   06 Jun 2027 02:59:13.652   06 Jun 2027 03:01:15.466           121.814                Irkutsk          3806.687
       437   06 Jun 2027 03:42:55.693   06 Jun 2027 03:43:38.653            42.960            RioGallegos          1342.500
       438   06 Jun 2027 04:33:42.655   06 Jun 2027 04:34:43.863            61.208                Irkutsk          1912.750
       439   06 Jun 2027 04:36:15.346   06 Jun 2027 04:38:40.639           145.293                 Moscow          4540.406
       440   06 Jun 2027 04:38:46.588   06 Jun 2027 04:46:13.202           446.614                  Delhi         13956.687
       441   06 Jun 2027 06:14:16.637   06 Jun 2027 06:14:30.982            14.345                 Moscow           448.281
       442   06 Jun 2027 06:14:34.893   06 Jun 2027 06:14:54.878            19.985                 Moscow           624.531
       443   06 Jun 2027 06:31:04.003   06 Jun 2027 06:34:17.742           193.739               CapeTown          6054.344
       444   06 Jun 2027 07:34:06.534   06 Jun 2027 07:34:59.777            53.243                Anadyr2          1663.844
       445   06 Jun 2027 07:35:10.489   06 Jun 2027 07:35:25.373            14.884               Magadan1           465.125
       446   06 Jun 2027 07:35:37.311   06 Jun 2027 07:35:43.709             6.398               Magadan1           199.938
       447   06 Jun 2027 07:35:48.512   06 Jun 2027 07:36:18.586            30.074               Magadan1           939.812
       448   06 Jun 2027 07:37:24.385   06 Jun 2027 07:37:28.499             4.114                Anadyr2           128.563
       449   06 Jun 2027 07:37:28.499   06 Jun 2027 07:37:34.889             6.390                Anadyr1           199.688
       450   06 Jun 2027 07:45:48.861   06 Jun 2027 07:46:04.484            15.623                 Moscow           488.219
       451   06 Jun 2027 08:10:52.478   06 Jun 2027 08:14:38.923           226.445               CapeTown          7076.406
       452   06 Jun 2027 09:10:26.345   06 Jun 2027 09:10:57.302            30.957                Anadyr1           967.406
       453   06 Jun 2027 09:11:29.899   06 Jun 2027 09:12:03.033            33.134               Magadan1          1035.437
       454   06 Jun 2027 09:12:13.434   06 Jun 2027 09:12:57.080            43.646                Anadyr2          1363.937
       455   06 Jun 2027 09:13:01.919   06 Jun 2027 09:14:21.961            80.042               Magadan2          2501.313
       456   06 Jun 2027 10:42:29.551   06 Jun 2027 10:43:06.445            36.894               Magadan1          1152.937
       457   06 Jun 2027 10:43:36.675   06 Jun 2027 10:43:50.504            13.829               Magadan2           432.156
       458   06 Jun 2027 10:44:17.824   06 Jun 2027 10:45:34.872            77.048               Magadan2          2407.750
       459   06 Jun 2027 10:45:44.283   06 Jun 2027 10:46:05.670            21.387               Magadan1           668.344
       460   06 Jun 2027 10:46:34.915   06 Jun 2027 10:47:18.910            43.995                Irkutsk          1374.844
       461   06 Jun 2027 10:47:39.400   06 Jun 2027 10:48:41.742            62.342                Anadyr2          1948.187
       462   06 Jun 2027 10:49:02.722   06 Jun 2027 10:49:19.741            17.019                Norilsk           531.844
       463   06 Jun 2027 10:49:26.827   06 Jun 2027 10:50:58.029            91.202               Magadan1          2850.062
       464   06 Jun 2027 10:51:26.224   06 Jun 2027 10:51:27.279             1.055                Norilsk            32.969
       465   06 Jun 2027 10:51:40.792   06 Jun 2027 10:52:05.579            24.787                Norilsk           774.594
       466   06 Jun 2027 11:26:59.335   06 Jun 2027 11:28:04.984            65.649            RioGallegos          2051.531
       467   06 Jun 2027 12:03:36.959   06 Jun 2027 12:05:32.030           115.071                Sumatra          3595.969
       468   06 Jun 2027 12:15:11.714   06 Jun 2027 12:16:27.460            75.746                Irkutsk          2367.063
       469   06 Jun 2027 12:23:26.975   06 Jun 2027 12:24:36.630            69.655               Magadan1          2176.719
       470   06 Jun 2027 13:03:22.519   06 Jun 2027 13:03:27.798             5.279            RioGallegos           164.969
       471   06 Jun 2027 13:05:44.556   06 Jun 2027 13:08:14.950           150.394            RioGallegos          4699.812
       472   06 Jun 2027 13:37:45.308   06 Jun 2027 13:37:52.568             7.260                Sumatra           226.875
       473   06 Jun 2027 13:40:31.023   06 Jun 2027 13:42:28.254           117.231                Sumatra          3663.469
       474   06 Jun 2027 13:46:23.979   06 Jun 2027 13:47:32.189            68.210                Sumatra          2131.563
       475   06 Jun 2027 13:57:14.442   06 Jun 2027 13:57:34.591            20.149                Irkutsk           629.656
       476   06 Jun 2027 13:59:50.778   06 Jun 2027 13:59:54.696             3.918                Irkutsk           122.438
       477   06 Jun 2027 14:08:42.474   06 Jun 2027 14:09:00.552            18.078                Norilsk           564.937
       478   06 Jun 2027 15:22:24.847   06 Jun 2027 15:24:32.987           128.140                  Delhi          4004.375
       479   06 Jun 2027 15:27:29.294   06 Jun 2027 15:27:41.330            12.036                  Delhi           376.125
       480   06 Jun 2027 15:30:32.256   06 Jun 2027 15:32:20.927           108.671                  Delhi          3395.969
       481   06 Jun 2027 15:34:20.546   06 Jun 2027 15:37:07.720           167.174                Novosib          5224.187
       482   06 Jun 2027 15:39:13.504   06 Jun 2027 15:39:29.835            16.331                Norilsk           510.344
