uniorb/output/strategy_4/Drop/Drop_KinoSat_111801.txt

KinoSat_111801
-------------------------
    Access    *     Start Time (UTCG)     *     Stop Time (UTCG)  *   Duration (s)        *       Station  *  Data (Mbytes)
         1   01 Jun 2027 03:46:26.709   01 Jun 2027 03:48:35.030           128.321                Irkutsk          4010.031
         2   01 Jun 2027 03:48:49.736   01 Jun 2027 03:49:09.215            19.479                 Moscow           608.719
         3   01 Jun 2027 03:49:23.518   01 Jun 2027 03:51:22.759           119.241                Irkutsk          3726.281
         4   01 Jun 2027 03:51:24.606   01 Jun 2027 03:52:37.137            72.531                Novosib          2266.594
         5   01 Jun 2027 03:53:15.320   01 Jun 2027 03:53:46.894            31.574                 Moscow           986.688
         6   01 Jun 2027 03:53:53.513   01 Jun 2027 03:55:51.198           117.685                  Delhi          3677.656
         7   01 Jun 2027 05:24:11.648   01 Jun 2027 05:24:37.148            25.500              Murmansk1           796.875
         8   01 Jun 2027 05:24:51.436   01 Jun 2027 05:25:04.383            12.947              Murmansk2           404.594
         9   01 Jun 2027 05:25:04.383   01 Jun 2027 05:25:22.234            17.851              Murmansk1           557.844
        10   01 Jun 2027 05:25:32.079   01 Jun 2027 05:25:59.526            27.447                Norilsk           857.719
        11   01 Jun 2027 05:26:05.204   01 Jun 2027 05:28:01.717           116.513              Murmansk1          3641.031
        12   01 Jun 2027 05:28:03.373   01 Jun 2027 05:29:25.874            82.501              Murmansk1          2578.156
        13   01 Jun 2027 05:29:41.158   01 Jun 2027 05:29:44.935             3.777              Murmansk2           118.031
        14   01 Jun 2027 05:30:05.645   01 Jun 2027 05:32:51.675           166.030                 Moscow          5188.438
        15   01 Jun 2027 05:44:29.407   01 Jun 2027 05:47:05.538           156.131               CapeTown          4879.094
        16   01 Jun 2027 06:48:15.368   01 Jun 2027 06:49:50.178            94.810                Anadyr2          2962.812
        17   01 Jun 2027 06:53:13.866   01 Jun 2027 06:53:38.357            24.491              Murmansk1           765.344
        18   01 Jun 2027 07:25:14.104   01 Jun 2027 07:27:01.416           107.312               CapeTown          3353.500
        19   01 Jun 2027 08:22:45.857   01 Jun 2027 08:22:47.912             2.055               Magadan2            64.219
        20   01 Jun 2027 08:22:57.478   01 Jun 2027 08:23:06.557             9.079               Magadan2           283.719
        21   01 Jun 2027 08:23:52.741   01 Jun 2027 08:25:23.490            90.749               Magadan2          2835.906
        22   01 Jun 2027 08:25:23.490   01 Jun 2027 08:25:46.128            22.638               Magadan1           707.438
        23   01 Jun 2027 08:25:58.841   01 Jun 2027 08:26:27.538            28.697                Norilsk           896.781
        24   01 Jun 2027 08:27:00.153   01 Jun 2027 08:31:06.448           246.295                Norilsk          7696.719
        25   01 Jun 2027 08:31:16.875   01 Jun 2027 08:31:24.844             7.969              Murmansk2           249.031
        26   01 Jun 2027 08:31:37.554   01 Jun 2027 08:31:54.064            16.510              Murmansk2           515.938
        27   01 Jun 2027 08:35:11.340   01 Jun 2027 08:35:32.491            21.151                 Moscow           660.969
        28   01 Jun 2027 09:57:04.090   01 Jun 2027 09:58:06.941            62.851                Irkutsk          1964.094
        29   01 Jun 2027 09:58:33.787   01 Jun 2027 10:04:59.165           385.378                Anadyr2         12043.062
        30   01 Jun 2027 11:33:46.023   01 Jun 2027 11:39:52.182           366.159               Magadan2         11442.469
        31   01 Jun 2027 13:56:42.327   01 Jun 2027 14:02:23.975           341.648            RioGallegos         10676.500
        32   01 Jun 2027 16:27:53.928   01 Jun 2027 16:29:21.889            87.961                Norilsk          2748.781
        33   01 Jun 2027 16:30:18.921   01 Jun 2027 16:32:57.015           158.094                Norilsk          4940.438
        34   01 Jun 2027 17:57:30.310   01 Jun 2027 17:57:39.169             8.859                 Moscow           276.844
        35   01 Jun 2027 19:39:30.113   01 Jun 2027 19:47:32.844           482.731              Murmansk2         15085.344
        36   01 Jun 2027 21:27:47.538   01 Jun 2027 21:28:35.319            47.781               Magadan2          1493.156
        37   01 Jun 2027 21:28:35.319   01 Jun 2027 21:28:48.333            13.014               Magadan1           406.687
        38   01 Jun 2027 21:29:30.295   01 Jun 2027 21:29:53.377            23.082               Magadan1           721.312
        39   01 Jun 2027 21:29:57.947   01 Jun 2027 21:29:59.058             1.111               Magadan1            34.719
        40   01 Jun 2027 21:30:07.393   01 Jun 2027 21:30:32.575            25.182               Magadan1           786.938
        41   01 Jun 2027 21:32:11.464   01 Jun 2027 21:32:43.723            32.259               Magadan2          1008.094
        42   01 Jun 2027 21:36:25.245   01 Jun 2027 21:37:35.433            70.188               Magadan1          2193.375
        43   01 Jun 2027 22:22:34.415   01 Jun 2027 22:23:38.655            64.240            RioGallegos          2007.500
        44   01 Jun 2027 22:24:27.437   01 Jun 2027 22:24:27.458             0.021            RioGallegos             0.656
        45   01 Jun 2027 22:25:56.614   01 Jun 2027 22:25:57.154             0.540            RioGallegos            16.875
        46   01 Jun 2027 23:01:19.178   01 Jun 2027 23:05:01.589           222.411                Anadyr2          6950.344
        47   01 Jun 2027 23:05:01.833   01 Jun 2027 23:05:11.181             9.348                Norilsk           292.125
        48   01 Jun 2027 23:05:21.423   01 Jun 2027 23:06:47.151            85.728               Magadan1          2679.000
        49   01 Jun 2027 23:08:33.071   01 Jun 2027 23:08:46.149            13.078               Magadan1           408.688
        50   01 Jun 2027 23:09:00.034   01 Jun 2027 23:09:12.167            12.133               Magadan2           379.156
        51   01 Jun 2027 23:09:23.787   01 Jun 2027 23:09:53.403            29.616               Magadan1           925.500
        52   01 Jun 2027 23:10:03.932   01 Jun 2027 23:11:40.959            97.027                Irkutsk          3032.094
        53   01 Jun 2027 23:13:47.345   01 Jun 2027 23:15:02.699            75.354                Irkutsk          2354.812
        54   01 Jun 2027 23:24:12.407   01 Jun 2027 23:25:49.084            96.677                Sumatra          3021.156
        55   01 Jun 2027 23:55:21.633   01 Jun 2027 23:55:59.081            37.448            RioGallegos          1170.250
        56   02 Jun 2027 00:02:06.122   02 Jun 2027 00:02:43.318            37.196            RioGallegos          1162.375
        57   02 Jun 2027 00:36:41.273   02 Jun 2027 00:38:07.428            86.155                Anadyr2          2692.344
        58   02 Jun 2027 00:38:07.428   02 Jun 2027 00:38:26.030            18.602                Anadyr1           581.313
        59   02 Jun 2027 00:38:32.799   02 Jun 2027 00:38:54.281            21.482                Anadyr1           671.313
        60   02 Jun 2027 00:39:10.554   02 Jun 2027 00:40:57.735           107.181                Norilsk          3349.406
        61   02 Jun 2027 00:41:30.111   02 Jun 2027 00:42:54.379            84.268               Magadan1          2633.375
        62   02 Jun 2027 00:43:08.334   02 Jun 2027 00:45:21.857           133.523                Irkutsk          4172.594
        63   02 Jun 2027 00:49:58.701   02 Jun 2027 00:50:15.252            16.551                Novosib           517.219
        64   02 Jun 2027 00:54:50.369   02 Jun 2027 00:55:22.542            32.173                Irkutsk          1005.406
        65   02 Jun 2027 00:55:59.952   02 Jun 2027 00:56:32.244            32.292                  Delhi          1009.125
        66   02 Jun 2027 00:56:54.963   02 Jun 2027 00:58:36.637           101.674                Sumatra          3177.313
        67   02 Jun 2027 01:03:19.731   02 Jun 2027 01:05:45.785           146.054                Sumatra          4564.187
        68   02 Jun 2027 02:13:23.827   02 Jun 2027 02:13:32.216             8.389                Anadyr1           262.156
        69   02 Jun 2027 02:13:33.013   02 Jun 2027 02:13:49.885            16.872                Anadyr2           527.250
        70   02 Jun 2027 02:15:11.286   02 Jun 2027 02:16:21.429            70.143                Norilsk          2191.969
        71   02 Jun 2027 02:16:33.405   02 Jun 2027 02:16:35.870             2.465                Norilsk            77.031
        72   02 Jun 2027 02:16:56.835   02 Jun 2027 02:17:46.963            50.128                Norilsk          1566.500
        73   02 Jun 2027 02:18:19.109   02 Jun 2027 02:18:25.059             5.950              Murmansk1           185.938
        74   02 Jun 2027 02:18:25.059   02 Jun 2027 02:18:28.968             3.909              Murmansk2           122.156
        75   02 Jun 2027 02:18:51.124   02 Jun 2027 02:19:01.005             9.881              Murmansk2           308.781
        76   02 Jun 2027 02:19:02.894   02 Jun 2027 02:19:53.720            50.826                Novosib          1588.313
        77   02 Jun 2027 02:20:10.936   02 Jun 2027 02:20:34.635            23.699                Irkutsk           740.594
        78   02 Jun 2027 02:21:37.985   02 Jun 2027 02:22:40.681            62.696                Irkutsk          1959.250
        79   02 Jun 2027 02:29:27.176   02 Jun 2027 02:29:41.519            14.343                  Delhi           448.219
        80   02 Jun 2027 02:32:21.137   02 Jun 2027 02:32:57.851            36.714                  Delhi          1147.313
        81   02 Jun 2027 03:08:03.549   02 Jun 2027 03:12:13.696           250.147            RioGallegos          7817.094
        82   02 Jun 2027 03:12:32.931   02 Jun 2027 03:12:41.525             8.594            RioGallegos           268.563
        83   02 Jun 2027 03:59:51.115   02 Jun 2027 04:01:19.363            88.248                Norilsk          2757.750
        84   02 Jun 2027 04:01:21.133   02 Jun 2027 04:01:44.973            23.840                Novosib           745.000
        85   02 Jun 2027 04:01:50.984   02 Jun 2027 04:02:36.200            45.216              Murmansk2          1413.000
        86   02 Jun 2027 04:02:46.121   02 Jun 2027 04:02:57.929            11.808                Novosib           369.000
        87   02 Jun 2027 04:03:09.786   02 Jun 2027 04:03:50.069            40.283              Murmansk1          1258.844
        88   02 Jun 2027 04:04:38.256   02 Jun 2027 04:08:45.743           247.487                  Delhi          7733.969
        89   02 Jun 2027 05:36:37.124   02 Jun 2027 05:37:03.722            26.598                Novosib           831.187
        90   02 Jun 2027 05:38:53.865   02 Jun 2027 05:38:57.260             3.395                Novosib           106.094
        91   02 Jun 2027 05:40:08.012   02 Jun 2027 05:40:21.990            13.978                 Moscow           436.813
        92   02 Jun 2027 05:40:36.418   02 Jun 2027 05:41:00.117            23.699                 Moscow           740.594
        93   02 Jun 2027 05:41:15.898   02 Jun 2027 05:41:36.426            20.528              Murmansk2           641.500
        94   02 Jun 2027 05:41:53.079   02 Jun 2027 05:42:06.599            13.520                 Moscow           422.500
        95   02 Jun 2027 05:44:58.876   02 Jun 2027 05:45:24.797            25.921                 Moscow           810.031
        96   02 Jun 2027 05:56:25.211   02 Jun 2027 05:59:15.096           169.885               CapeTown          5308.906
        97   02 Jun 2027 05:59:37.571   02 Jun 2027 05:59:40.092             2.521               CapeTown            78.781
        98   02 Jun 2027 06:00:20.024   02 Jun 2027 06:02:22.179           122.155               CapeTown          3817.344
        99   02 Jun 2027 06:56:39.895   02 Jun 2027 06:57:05.985            26.090                Anadyr1           815.313
       100   02 Jun 2027 06:59:33.341   02 Jun 2027 07:01:11.508            98.167               Magadan2          3067.719
       101   02 Jun 2027 07:01:11.508   02 Jun 2027 07:01:38.016            26.508               Magadan1           828.375
       102   02 Jun 2027 07:01:49.531   02 Jun 2027 07:02:45.751            56.220                Anadyr2          1756.875
       103   02 Jun 2027 07:05:47.838   02 Jun 2027 07:06:04.452            16.614                Anadyr2           519.187
       104   02 Jun 2027 08:37:56.695   02 Jun 2027 08:38:22.262            25.567               Magadan1           798.969
       105   02 Jun 2027 08:39:34.544   02 Jun 2027 08:41:53.642           139.098                Anadyr1          4346.813
       106   02 Jun 2027 10:10:27.173   02 Jun 2027 10:10:57.109            29.936               Magadan2           935.500
       107   02 Jun 2027 10:10:58.867   02 Jun 2027 10:11:11.782            12.915               Magadan2           403.594
       108   02 Jun 2027 10:11:28.451   02 Jun 2027 10:16:19.560           291.109               Magadan2          9097.156
       109   02 Jun 2027 10:16:56.110   02 Jun 2027 10:17:08.611            12.501                Norilsk           390.656
       110   02 Jun 2027 10:17:26.574   02 Jun 2027 10:18:17.564            50.990                Norilsk          1593.437
       111   02 Jun 2027 10:52:27.734   02 Jun 2027 10:52:57.268            29.534            RioGallegos           922.937
       112   02 Jun 2027 11:29:38.008   02 Jun 2027 11:31:14.470            96.462                Sumatra          3014.438
       113   02 Jun 2027 11:47:04.298   02 Jun 2027 11:51:11.781           247.483               Magadan1          7733.844
       114   02 Jun 2027 11:51:44.597   02 Jun 2027 11:52:16.545            31.948                Novosib           998.375
       115   02 Jun 2027 11:52:33.609   02 Jun 2027 11:52:37.458             3.849                Norilsk           120.281
       116   02 Jun 2027 11:52:40.879   02 Jun 2027 11:53:23.971            43.092                Irkutsk          1346.625
       117   02 Jun 2027 12:28:30.089   02 Jun 2027 12:29:48.617            78.528            RioGallegos          2454.000
       118   02 Jun 2027 13:02:58.524   02 Jun 2027 13:05:10.196           131.672                Sumatra          4114.750
       119   02 Jun 2027 13:11:48.170   02 Jun 2027 13:12:38.713            50.543                Sumatra          1579.469
       120   02 Jun 2027 13:17:37.053   02 Jun 2027 13:18:21.776            44.723                Irkutsk          1397.594
       121   02 Jun 2027 13:19:23.180   02 Jun 2027 13:21:31.573           128.393                Irkutsk          4012.281
       122   02 Jun 2027 13:32:45.593   02 Jun 2027 13:33:58.477            72.884                Norilsk          2277.625
       123   02 Jun 2027 14:10:36.632   02 Jun 2027 14:13:03.352           146.720            RioGallegos          4585.000
       124   02 Jun 2027 14:52:05.599   02 Jun 2027 14:52:22.606            17.007                  Delhi           531.469
       125   02 Jun 2027 14:55:27.066   02 Jun 2027 14:56:00.102            33.036                  Delhi          1032.375
       126   02 Jun 2027 14:56:01.826   02 Jun 2027 14:56:22.004            20.178                Novosib           630.562
       127   02 Jun 2027 14:58:57.967   02 Jun 2027 15:00:49.015           111.048                Novosib          3470.250
       128   02 Jun 2027 15:01:09.423   02 Jun 2027 15:02:16.700            67.277                Norilsk          2102.406
       129   02 Jun 2027 15:08:46.131   02 Jun 2027 15:09:02.526            16.395                Norilsk           512.344
       130   02 Jun 2027 16:31:30.762   02 Jun 2027 16:34:44.016           193.254                 Moscow          6039.187
       131   02 Jun 2027 16:35:00.825   02 Jun 2027 16:35:50.954            50.129              Murmansk1          1566.531
       132   02 Jun 2027 16:39:55.276   02 Jun 2027 16:44:25.303           270.027                Norilsk          8438.344
       133   02 Jun 2027 17:51:53.004   02 Jun 2027 17:51:59.534             6.530               CapeTown           204.063
       134   02 Jun 2027 17:55:31.869   02 Jun 2027 17:55:45.571            13.702               CapeTown           428.188
       135   02 Jun 2027 17:56:26.010   02 Jun 2027 17:57:08.266            42.256               CapeTown          1320.500
       136   02 Jun 2027 18:09:30.808   02 Jun 2027 18:10:51.178            80.370                 Moscow          2511.563
       137   02 Jun 2027 18:12:23.999   02 Jun 2027 18:13:56.159            92.160              Murmansk1          2880.000
       138   02 Jun 2027 18:15:51.387   02 Jun 2027 18:15:57.159             5.772              Murmansk1           180.375
       139   02 Jun 2027 18:15:57.159   02 Jun 2027 18:17:04.353            67.194              Murmansk2          2099.812
       140   02 Jun 2027 18:30:34.462   02 Jun 2027 18:31:00.730            26.268                Anadyr1           820.875
       141   02 Jun 2027 18:32:22.915   02 Jun 2027 18:33:13.963            51.048                Anadyr1          1595.250
       142   02 Jun 2027 19:21:09.815   02 Jun 2027 19:22:47.385            97.570               CapeTown          3049.063
       143   02 Jun 2027 19:29:48.661   02 Jun 2027 19:30:20.694            32.033               CapeTown          1001.031
       144   02 Jun 2027 19:52:11.965   02 Jun 2027 19:54:11.064           119.099              Murmansk2          3721.844
       145   02 Jun 2027 19:54:16.526   02 Jun 2027 19:56:50.801           154.275              Murmansk1          4821.094
       146   02 Jun 2027 19:57:46.596   02 Jun 2027 19:59:04.387            77.791              Murmansk2          2430.969
       147   02 Jun 2027 21:37:29.578   02 Jun 2027 21:39:08.700            99.122                Anadyr2          3097.562
       148   02 Jun 2027 21:39:17.779   02 Jun 2027 21:41:17.314           119.535                Anadyr1          3735.469
       149   02 Jun 2027 21:41:28.015   02 Jun 2027 21:44:29.805           181.790               Magadan1          5680.937
       150   02 Jun 2027 21:44:40.571   02 Jun 2027 21:44:52.728            12.157               Magadan1           379.906
       151   02 Jun 2027 21:46:50.395   02 Jun 2027 21:47:11.916            21.521               Magadan1           672.531
       152   02 Jun 2027 21:49:37.349   02 Jun 2027 21:49:39.180             1.831               Magadan1            57.219
       153   02 Jun 2027 21:49:58.485   02 Jun 2027 21:50:37.720            39.235               Magadan1          1226.094
       154   02 Jun 2027 22:33:28.961   02 Jun 2027 22:36:06.562           157.601            RioGallegos          4925.031
       155   02 Jun 2027 23:13:18.891   02 Jun 2027 23:15:33.149           134.258                Anadyr2          4195.562
       156   02 Jun 2027 23:15:43.468   02 Jun 2027 23:17:26.266           102.798               Magadan2          3212.438
       157   02 Jun 2027 23:17:29.572   02 Jun 2027 23:18:03.426            33.854               Magadan1          1057.938
       158   02 Jun 2027 23:18:40.249   02 Jun 2027 23:18:50.617            10.368               Magadan2           324.000
       159   02 Jun 2027 23:19:57.487   02 Jun 2027 23:20:41.184            43.697               Magadan2          1365.531
       160   02 Jun 2027 23:20:59.639   02 Jun 2027 23:22:05.946            66.307                Irkutsk          2072.094
       161   02 Jun 2027 23:25:20.568   02 Jun 2027 23:25:36.637            16.069                Irkutsk           502.156
       162   02 Jun 2027 23:35:10.115   02 Jun 2027 23:37:08.443           118.328                Sumatra          3697.750
       163   03 Jun 2027 00:10:59.956   03 Jun 2027 00:11:10.274            10.318            RioGallegos           322.438
       164   03 Jun 2027 00:12:48.507   03 Jun 2027 00:13:11.762            23.255            RioGallegos           726.719
       165   03 Jun 2027 00:14:45.335   03 Jun 2027 00:15:17.971            32.636            RioGallegos          1019.875
       166   03 Jun 2027 00:48:34.661   03 Jun 2027 00:49:01.264            26.603                Anadyr2           831.344
       167   03 Jun 2027 00:49:30.318   03 Jun 2027 00:50:03.373            33.055                Anadyr2          1032.969
       168   03 Jun 2027 00:50:03.373   03 Jun 2027 00:50:25.439            22.066                Anadyr1           689.563
       169   03 Jun 2027 00:51:09.348   03 Jun 2027 00:51:17.805             8.457                Anadyr2           264.281
       170   03 Jun 2027 00:51:22.827   03 Jun 2027 00:51:56.756            33.929                Anadyr2          1060.281
       171   03 Jun 2027 00:52:00.596   03 Jun 2027 00:52:59.969            59.373                Norilsk          1855.406
       172   03 Jun 2027 00:53:16.183   03 Jun 2027 00:54:43.260            87.077               Magadan1          2721.156
       173   03 Jun 2027 00:55:07.747   03 Jun 2027 00:56:14.511            66.764                Irkutsk          2086.375
       174   03 Jun 2027 00:56:15.900   03 Jun 2027 00:56:48.466            32.566                Irkutsk          1017.687
       175   03 Jun 2027 01:01:33.125   03 Jun 2027 01:02:28.823            55.698                Novosib          1740.562
       176   03 Jun 2027 01:05:30.874   03 Jun 2027 01:06:18.860            47.986                  Delhi          1499.563
       177   03 Jun 2027 01:17:05.100   03 Jun 2027 01:17:49.126            44.026                Sumatra          1375.813
       178   03 Jun 2027 01:19:13.740   03 Jun 2027 01:20:28.413            74.673                Sumatra          2333.531
       179   03 Jun 2027 01:52:53.341   03 Jun 2027 01:53:41.917            48.576            RioGallegos          1518.000
       180   03 Jun 2027 02:24:20.341   03 Jun 2027 02:24:42.189            21.848                Anadyr2           682.750
       181   03 Jun 2027 02:26:49.148   03 Jun 2027 02:27:41.519            52.371                Anadyr1          1636.594
       182   03 Jun 2027 02:27:51.285   03 Jun 2027 02:28:13.280            21.995               Magadan2           687.344
       183   03 Jun 2027 02:28:23.329   03 Jun 2027 02:28:59.316            35.987                Norilsk          1124.594
       184   03 Jun 2027 02:30:03.464   03 Jun 2027 02:31:02.771            59.307              Murmansk1          1853.344
       185   03 Jun 2027 02:31:11.114   03 Jun 2027 02:31:55.673            44.559                Novosib          1392.469
       186   03 Jun 2027 02:31:58.444   03 Jun 2027 02:32:39.707            41.263                Irkutsk          1289.469
       187   03 Jun 2027 02:38:21.315   03 Jun 2027 02:38:56.313            34.998                  Delhi          1093.687
       188   03 Jun 2027 02:41:35.919   03 Jun 2027 02:42:14.976            39.057                  Delhi          1220.531
       189   03 Jun 2027 02:46:26.545   03 Jun 2027 02:46:29.274             2.729                  Delhi            85.281
       190   03 Jun 2027 02:47:06.782   03 Jun 2027 02:47:56.617            49.835                  Delhi          1557.344
       191   03 Jun 2027 03:20:21.830   03 Jun 2027 03:21:11.164            49.334            RioGallegos          1541.687
       192   03 Jun 2027 03:22:27.225   03 Jun 2027 03:24:42.837           135.612            RioGallegos          4237.875
       193   03 Jun 2027 03:25:03.033   03 Jun 2027 03:25:27.096            24.063            RioGallegos           751.969
       194   03 Jun 2027 04:09:34.064   03 Jun 2027 04:10:08.935            34.871                Irkutsk          1089.719
       195   03 Jun 2027 04:12:11.836   03 Jun 2027 04:13:50.698            98.862              Murmansk2          3089.437
       196   03 Jun 2027 04:14:18.937   03 Jun 2027 04:15:47.301            88.364                Norilsk          2761.375
       197   03 Jun 2027 04:16:20.149   03 Jun 2027 04:18:47.714           147.565                  Delhi          4611.406
       198   03 Jun 2027 05:48:18.814   03 Jun 2027 05:48:25.614             6.800                Novosib           212.500
       199   03 Jun 2027 05:51:49.375   03 Jun 2027 05:53:16.403            87.028                 Moscow          2719.625
       200   03 Jun 2027 05:53:28.927   03 Jun 2027 05:56:02.149           153.222                 Moscow          4788.188
       201   03 Jun 2027 06:17:21.923   03 Jun 2027 06:18:04.616            42.693               CapeTown          1334.156
       202   03 Jun 2027 07:11:23.104   03 Jun 2027 07:12:18.321            55.217                Anadyr2          1725.531
       203   03 Jun 2027 07:12:18.321   03 Jun 2027 07:12:37.108            18.787                Anadyr1           587.094
       204   03 Jun 2027 07:12:43.941   03 Jun 2027 07:13:28.053            44.112                Anadyr1          1378.500
       205   03 Jun 2027 07:14:14.633   03 Jun 2027 07:14:40.670            26.037                Anadyr1           813.656
       206   03 Jun 2027 07:16:02.560   03 Jun 2027 07:16:36.713            34.153                Anadyr1          1067.281
       207   03 Jun 2027 07:48:40.563   03 Jun 2027 07:51:59.219           198.656               CapeTown          6208.000
       208   03 Jun 2027 08:47:52.857   03 Jun 2027 08:48:10.705            17.848               Magadan1           557.750
       209   03 Jun 2027 08:48:15.838   03 Jun 2027 08:50:07.094           111.256                Anadyr1          3476.750
       210   03 Jun 2027 08:50:23.928   03 Jun 2027 08:51:38.139            74.211               Magadan1          2319.094
       211   03 Jun 2027 10:21:50.878   03 Jun 2027 10:22:59.820            68.942               Magadan1          2154.437
       212   03 Jun 2027 10:22:59.820   03 Jun 2027 10:23:15.813            15.993               Magadan2           499.781
       213   03 Jun 2027 10:23:22.580   03 Jun 2027 10:24:01.414            38.834               Magadan1          1213.562
       214   03 Jun 2027 10:25:40.824   03 Jun 2027 10:26:40.886            60.062               Magadan1          1876.938
       215   03 Jun 2027 10:27:22.739   03 Jun 2027 10:27:47.759            25.020                Irkutsk           781.875
       216   03 Jun 2027 10:27:59.689   03 Jun 2027 10:28:21.576            21.887               Magadan1           683.969
       217   03 Jun 2027 10:28:31.124   03 Jun 2027 10:29:21.478            50.354               Magadan2          1573.563
       218   03 Jun 2027 11:04:18.600   03 Jun 2027 11:05:21.329            62.729            RioGallegos          1960.281
       219   03 Jun 2027 11:14:55.623   03 Jun 2027 11:15:30.540            34.917            RioGallegos          1091.156
       220   03 Jun 2027 11:42:37.501   03 Jun 2027 11:43:20.930            43.429                Sumatra          1357.156
       221   03 Jun 2027 12:00:34.763   03 Jun 2027 12:01:32.379            57.616                Irkutsk          1800.500
       222   03 Jun 2027 12:02:46.403   03 Jun 2027 12:03:39.979            53.576                Novosib          1674.250
       223   03 Jun 2027 12:03:44.012   03 Jun 2027 12:04:23.536            39.524                Irkutsk          1235.125
       224   03 Jun 2027 12:04:53.290   03 Jun 2027 12:05:22.789            29.499                Novosib           921.844
       225   03 Jun 2027 12:06:30.676   03 Jun 2027 12:06:47.769            17.093                Novosib           534.156
       226   03 Jun 2027 12:09:03.577   03 Jun 2027 12:09:58.008            54.431                Norilsk          1700.969
       227   03 Jun 2027 12:49:36.655   03 Jun 2027 12:50:42.022            65.367            RioGallegos          2042.719
       228   03 Jun 2027 13:19:44.764   03 Jun 2027 13:19:53.078             8.314                Sumatra           259.813
       229   03 Jun 2027 13:20:41.151   03 Jun 2027 13:22:32.129           110.978                Sumatra          3468.063
       230   03 Jun 2027 13:30:05.877   03 Jun 2027 13:30:32.132            26.255                Irkutsk           820.469
       231   03 Jun 2027 13:31:15.741   03 Jun 2027 13:33:30.909           135.168                Irkutsk          4224.000
       232   03 Jun 2027 14:59:52.710   03 Jun 2027 15:01:18.984            86.274                  Delhi          2696.063
       233   03 Jun 2027 15:04:09.618   03 Jun 2027 15:05:09.634            60.016                  Delhi          1875.500
       234   03 Jun 2027 15:07:55.247   03 Jun 2027 15:09:50.579           115.332                  Delhi          3604.125
       235   03 Jun 2027 15:10:56.668   03 Jun 2027 15:11:50.943            54.275                Novosib          1696.094
       236   03 Jun 2027 15:11:58.164   03 Jun 2027 15:12:16.825            18.661                Norilsk           583.156
       237   03 Jun 2027 15:14:15.668   03 Jun 2027 15:14:38.647            22.979                Novosib           718.094
       238   03 Jun 2027 15:17:03.111   03 Jun 2027 15:17:15.058            11.947                Norilsk           373.344
       239   03 Jun 2027 15:18:04.722   03 Jun 2027 15:18:05.446             0.724                Novosib            22.625
       240   03 Jun 2027 15:20:11.663   03 Jun 2027 15:21:37.863            86.200                Norilsk          2693.750
       241   03 Jun 2027 16:43:35.799   03 Jun 2027 16:46:40.052           184.253                 Moscow          5757.906
       242   03 Jun 2027 16:52:48.619   03 Jun 2027 16:57:09.446           260.827                Norilsk          8150.844
       243   03 Jun 2027 18:03:36.753   03 Jun 2027 18:03:59.993            23.240               CapeTown           726.250
       244   03 Jun 2027 18:07:38.216   03 Jun 2027 18:08:27.672            49.456               CapeTown          1545.500
       245   03 Jun 2027 18:22:08.707   03 Jun 2027 18:25:04.000           175.293                 Moscow          5477.906
       246   03 Jun 2027 18:26:25.181   03 Jun 2027 18:26:55.645            30.464                 Moscow           952.000
       247   03 Jun 2027 18:27:48.815   03 Jun 2027 18:28:07.542            18.727              Murmansk2           585.219
       248   03 Jun 2027 18:33:45.944   03 Jun 2027 18:34:29.523            43.579              Murmansk2          1361.844
       249   03 Jun 2027 18:46:21.702   03 Jun 2027 18:47:10.358            48.656                Anadyr2          1520.500
       250   03 Jun 2027 19:33:22.122   03 Jun 2027 19:34:47.222            85.100               CapeTown          2659.375
       251   03 Jun 2027 19:41:21.694   03 Jun 2027 19:43:08.861           107.167               CapeTown          3348.969
       252   03 Jun 2027 20:04:58.440   03 Jun 2027 20:11:13.163           374.723              Murmansk2         11710.094
       253   03 Jun 2027 21:49:31.229   03 Jun 2027 21:52:25.333           174.104                Anadyr1          5440.750
       254   03 Jun 2027 21:52:29.454   03 Jun 2027 21:52:31.300             1.846                Anadyr2            57.687
       255   03 Jun 2027 21:52:37.093   03 Jun 2027 21:52:49.926            12.833                Anadyr2           401.031
       256   03 Jun 2027 21:52:59.232   03 Jun 2027 21:53:31.426            32.194               Magadan1          1006.062
       257   03 Jun 2027 21:53:35.505   03 Jun 2027 21:54:56.360            80.855               Magadan2          2526.719
       258   03 Jun 2027 21:55:20.931   03 Jun 2027 21:55:47.297            26.366               Magadan2           823.937
       259   03 Jun 2027 21:56:06.862   03 Jun 2027 21:56:35.113            28.251               Magadan1           882.844
       260   03 Jun 2027 21:56:59.001   03 Jun 2027 21:57:36.425            37.424               Magadan1          1169.500
       261   03 Jun 2027 22:44:53.421   03 Jun 2027 22:47:43.298           169.877            RioGallegos          5308.656
       262   03 Jun 2027 23:25:18.104   03 Jun 2027 23:26:28.177            70.073                Anadyr2          2189.781
       263   03 Jun 2027 23:26:32.579   03 Jun 2027 23:26:53.537            20.958                Anadyr1           654.937
       264   03 Jun 2027 23:27:14.542   03 Jun 2027 23:27:18.955             4.413                Anadyr2           137.906
       265   03 Jun 2027 23:27:23.255   03 Jun 2027 23:28:58.666            95.411                Norilsk          2981.594
       266   03 Jun 2027 23:29:00.640   03 Jun 2027 23:29:31.565            30.925               Magadan2           966.406
       267   03 Jun 2027 23:30:19.689   03 Jun 2027 23:30:31.110            11.421               Magadan1           356.906
       268   03 Jun 2027 23:30:38.109   03 Jun 2027 23:30:40.269             2.160                Norilsk            67.500
       269   03 Jun 2027 23:31:36.519   03 Jun 2027 23:32:09.196            32.677               Magadan2          1021.156
       270   03 Jun 2027 23:32:50.216   03 Jun 2027 23:33:03.558            13.342               Magadan2           416.937
       271   03 Jun 2027 23:34:04.757   03 Jun 2027 23:35:22.648            77.891                Irkutsk          2434.094
       272   03 Jun 2027 23:46:27.314   03 Jun 2027 23:47:58.563            91.249                Sumatra          2851.531
       273   03 Jun 2027 23:50:47.175   03 Jun 2027 23:51:38.390            51.215                Sumatra          1600.469
       274   03 Jun 2027 23:56:29.292   03 Jun 2027 23:56:49.117            19.825                Sumatra           619.531
       275   04 Jun 2027 00:25:32.733   04 Jun 2027 00:26:18.557            45.824            RioGallegos          1432.000
       276   04 Jun 2027 01:00:26.847   04 Jun 2027 01:01:39.782            72.935                Anadyr1          2279.219
       277   04 Jun 2027 01:01:39.782   04 Jun 2027 01:02:01.072            21.290                Anadyr2           665.313
       278   04 Jun 2027 01:02:25.269   04 Jun 2027 01:02:48.587            23.318                Anadyr1           728.688
       279   04 Jun 2027 01:03:14.715   04 Jun 2027 01:05:02.159           107.444                Norilsk          3357.625
       280   04 Jun 2027 01:07:08.179   04 Jun 2027 01:09:02.116           113.937                Irkutsk          3560.531
       281   04 Jun 2027 01:10:14.255   04 Jun 2027 01:10:56.875            42.620                Irkutsk          1331.875
       282   04 Jun 2027 01:16:08.028   04 Jun 2027 01:16:43.438            35.410                Irkutsk          1106.563
       283   04 Jun 2027 01:16:54.426   04 Jun 2027 01:18:38.249           103.823                  Delhi          3244.469
       284   04 Jun 2027 01:27:49.823   04 Jun 2027 01:29:46.771           116.948                Sumatra          3654.625
       285   04 Jun 2027 02:34:57.641   04 Jun 2027 02:34:59.238             1.597                Anadyr2            49.906
       286   04 Jun 2027 02:35:34.119   04 Jun 2027 02:35:57.981            23.862                Anadyr2           745.687
       287   04 Jun 2027 02:35:57.981   04 Jun 2027 02:36:11.018            13.037                Anadyr1           407.406
       288   04 Jun 2027 02:36:27.306   04 Jun 2027 02:36:57.646            30.340                Anadyr1           948.125
       289   04 Jun 2027 02:39:15.809   04 Jun 2027 02:40:12.351            56.542                Norilsk          1766.938
       290   04 Jun 2027 02:41:53.857   04 Jun 2027 02:42:45.261            51.404              Murmansk2          1606.375
       291   04 Jun 2027 02:42:45.261   04 Jun 2027 02:43:04.525            19.264              Murmansk1           602.000
       292   04 Jun 2027 02:43:23.731   04 Jun 2027 02:44:40.000            76.269                Irkutsk          2383.406
       293   04 Jun 2027 02:45:56.350   04 Jun 2027 02:46:05.164             8.814                Novosib           275.437
       294   04 Jun 2027 02:47:58.069   04 Jun 2027 02:48:24.333            26.264                Irkutsk           820.750
       295   04 Jun 2027 02:50:22.982   04 Jun 2027 02:52:36.392           133.410                  Delhi          4169.063
       296   04 Jun 2027 03:32:45.882   04 Jun 2027 03:33:30.218            44.336            RioGallegos          1385.500
       297   04 Jun 2027 03:33:44.567   04 Jun 2027 03:34:00.884            16.317            RioGallegos           509.906
       298   04 Jun 2027 03:35:21.961   04 Jun 2027 03:36:15.677            53.716            RioGallegos          1678.625
       299   04 Jun 2027 03:36:25.993   04 Jun 2027 03:37:56.448            90.455            RioGallegos          2826.719
       300   04 Jun 2027 04:21:23.885   04 Jun 2027 04:22:13.141            49.256                Irkutsk          1539.250
       301   04 Jun 2027 04:24:12.665   04 Jun 2027 04:24:28.050            15.385                Irkutsk           480.781
       302   04 Jun 2027 04:24:52.604   04 Jun 2027 04:28:53.232           240.628                Novosib          7519.625
       303   04 Jun 2027 04:29:29.764   04 Jun 2027 04:33:37.430           247.666                  Delhi          7739.563
       304   04 Jun 2027 05:59:27.949   04 Jun 2027 05:59:50.799            22.850                Novosib           714.062
       305   04 Jun 2027 06:03:47.585   04 Jun 2027 06:04:08.323            20.738              Murmansk1           648.062
       306   04 Jun 2027 06:04:15.768   04 Jun 2027 06:04:42.897            27.129                 Moscow           847.781
       307   04 Jun 2027 06:04:58.073   04 Jun 2027 06:05:53.846            55.773              Murmansk2          1742.906
       308   04 Jun 2027 06:20:32.044   04 Jun 2027 06:22:37.724           125.680               CapeTown          3927.500
       309   04 Jun 2027 07:23:14.323   04 Jun 2027 07:25:05.533           111.210                Anadyr1          3475.313
       310   04 Jun 2027 07:25:30.118   04 Jun 2027 07:25:45.257            15.139                Anadyr1           473.094
       311   04 Jun 2027 07:25:45.257   04 Jun 2027 07:26:16.498            31.241                Anadyr2           976.281
       312   04 Jun 2027 07:28:36.153   04 Jun 2027 07:29:17.984            41.831                Anadyr2          1307.219
       313   04 Jun 2027 08:59:54.497   04 Jun 2027 09:02:06.934           132.437                Anadyr2          4138.656
       314   04 Jun 2027 09:02:28.131   04 Jun 2027 09:03:37.412            69.281               Magadan1          2165.031
       315   04 Jun 2027 10:35:14.612   04 Jun 2027 10:35:36.100            21.488               Magadan1           671.500
       316   04 Jun 2027 10:35:37.743   04 Jun 2027 10:37:39.053           121.310               Magadan2          3790.938
       317   04 Jun 2027 10:37:52.754   04 Jun 2027 10:38:48.567            55.813                Novosib          1744.156
       318   04 Jun 2027 10:39:04.099   04 Jun 2027 10:39:54.440            50.341                Norilsk          1573.156
       319   04 Jun 2027 10:40:18.962   04 Jun 2027 10:40:33.915            14.953                Norilsk           467.281
       320   04 Jun 2027 10:40:35.028   04 Jun 2027 10:40:45.679            10.651               Magadan1           332.844
       321   04 Jun 2027 10:41:02.236   04 Jun 2027 10:41:16.682            14.446               Magadan1           451.438
       322   04 Jun 2027 10:41:38.689   04 Jun 2027 10:41:40.369             1.680                Novosib            52.500
       323   04 Jun 2027 11:16:12.694   04 Jun 2027 11:17:21.187            68.493            RioGallegos          2140.406
       324   04 Jun 2027 11:21:08.557   04 Jun 2027 11:22:11.563            63.006            RioGallegos          1968.938
       325   04 Jun 2027 12:01:04.666   04 Jun 2027 12:01:23.695            19.029                Sumatra           594.656
       326   04 Jun 2027 12:04:33.938   04 Jun 2027 12:05:41.067            67.129                Irkutsk          2097.781
       327   04 Jun 2027 12:12:38.505   04 Jun 2027 12:12:53.044            14.539                Irkutsk           454.344
       328   04 Jun 2027 12:15:38.221   04 Jun 2027 12:15:55.436            17.215                Novosib           537.969
       329   04 Jun 2027 12:20:24.373   04 Jun 2027 12:21:13.880            49.507                Norilsk          1547.094
       330   04 Jun 2027 12:54:58.827   04 Jun 2027 12:57:08.389           129.562            RioGallegos          4048.813
       331   04 Jun 2027 13:01:10.577   04 Jun 2027 13:03:10.063           119.486            RioGallegos          3733.938
       332   04 Jun 2027 13:42:06.720   04 Jun 2027 13:43:06.013            59.293                Novosib          1852.906
       333   04 Jun 2027 13:46:08.104   04 Jun 2027 13:47:32.848            84.744                Irkutsk          2648.250
       334   04 Jun 2027 13:57:57.440   04 Jun 2027 13:58:24.832            27.392                Norilsk           856.000
       335   04 Jun 2027 15:12:23.523   04 Jun 2027 15:17:23.804           300.281                  Delhi          9383.781
       336   04 Jun 2027 15:21:30.791   04 Jun 2027 15:22:54.272            83.481                Novosib          2608.781
       337   04 Jun 2027 15:32:09.102   04 Jun 2027 15:33:02.839            53.737                Norilsk          1679.281
       338   04 Jun 2027 16:55:43.954   04 Jun 2027 16:57:26.323           102.369                 Moscow          3199.031
       339   04 Jun 2027 16:58:50.345   04 Jun 2027 16:59:33.245            42.900                 Moscow          1340.625
       340   04 Jun 2027 16:59:43.618   04 Jun 2027 17:00:22.819            39.201              Murmansk2          1225.031
       341   04 Jun 2027 17:05:38.010   04 Jun 2027 17:06:12.162            34.152              Murmansk1          1067.250
       342   04 Jun 2027 17:06:57.896   04 Jun 2027 17:09:20.996           143.100                Norilsk          4471.875
       343   04 Jun 2027 18:09:16.125   04 Jun 2027 18:10:10.575            54.450               CapeTown          1701.563
       344   04 Jun 2027 18:15:20.337   04 Jun 2027 18:15:21.175             0.838               CapeTown            26.188
       345   04 Jun 2027 18:16:05.783   04 Jun 2027 18:16:42.779            36.996               CapeTown          1156.125
       346   04 Jun 2027 18:19:41.391   04 Jun 2027 18:20:16.639            35.248               CapeTown          1101.500
       347   04 Jun 2027 18:34:54.123   04 Jun 2027 18:39:29.393           275.270                 Moscow          8602.187
       348   04 Jun 2027 18:46:26.488   04 Jun 2027 18:47:19.705            53.217              Murmansk2          1663.031
       349   04 Jun 2027 19:45:38.348   04 Jun 2027 19:45:57.246            18.898               CapeTown           590.562
       350   04 Jun 2027 19:46:40.531   04 Jun 2027 19:46:49.880             9.349               CapeTown           292.156
       351   04 Jun 2027 19:49:21.219   04 Jun 2027 19:50:00.301            39.082               CapeTown          1221.312
       352   04 Jun 2027 19:50:21.484   04 Jun 2027 19:50:25.220             3.736               CapeTown           116.750
       353   04 Jun 2027 19:53:26.154   04 Jun 2027 19:54:11.192            45.038               CapeTown          1407.438
       354   04 Jun 2027 20:17:51.051   04 Jun 2027 20:23:09.848           318.797              Murmansk1          9962.406
       355   04 Jun 2027 20:37:43.072   04 Jun 2027 20:37:48.975             5.903               Magadan2           184.469
       356   04 Jun 2027 22:01:32.737   04 Jun 2027 22:05:19.445           226.708                Anadyr2          7084.625
       357   04 Jun 2027 22:05:25.737   04 Jun 2027 22:09:37.753           252.016               Magadan2          7875.500
       358   04 Jun 2027 22:56:29.578   04 Jun 2027 22:58:46.191           136.613            RioGallegos          4269.156
       359   04 Jun 2027 23:01:33.462   04 Jun 2027 23:01:47.550            14.088            RioGallegos           440.250
       360   04 Jun 2027 23:02:45.010   04 Jun 2027 23:03:02.294            17.284            RioGallegos           540.125
       361   04 Jun 2027 23:05:26.663   04 Jun 2027 23:05:31.572             4.909            RioGallegos           153.406
       362   04 Jun 2027 23:37:16.729   04 Jun 2027 23:38:38.425            81.696                Anadyr2          2553.000
       363   04 Jun 2027 23:38:52.538   04 Jun 2027 23:40:33.491           100.953                Anadyr1          3154.781
       364   04 Jun 2027 23:40:47.284   04 Jun 2027 23:41:00.250            12.966                Norilsk           405.187
       365   04 Jun 2027 23:41:03.246   04 Jun 2027 23:42:57.153           113.907               Magadan1          3559.594
       366   04 Jun 2027 23:43:49.899   04 Jun 2027 23:44:37.607            47.708                Irkutsk          1490.875
       367   04 Jun 2027 23:44:47.203   04 Jun 2027 23:44:57.725            10.522                Irkutsk           328.813
       368   04 Jun 2027 23:53:50.111   04 Jun 2027 23:54:32.446            42.335                Irkutsk          1322.969
       369   04 Jun 2027 23:57:56.626   04 Jun 2027 23:59:21.336            84.710                Sumatra          2647.187
       370   05 Jun 2027 00:03:59.603   05 Jun 2027 00:04:36.386            36.783                Sumatra          1149.469
       371   05 Jun 2027 00:35:34.577   05 Jun 2027 00:35:58.586            24.009            RioGallegos           750.281
       372   05 Jun 2027 00:37:22.129   05 Jun 2027 00:38:19.600            57.471            RioGallegos          1795.969
       373   05 Jun 2027 01:12:17.761   05 Jun 2027 01:13:03.508            45.747                Anadyr2          1429.594
       374   05 Jun 2027 01:13:51.510   05 Jun 2027 01:14:25.446            33.936                Anadyr1          1060.500
       375   05 Jun 2027 01:14:37.774   05 Jun 2027 01:14:44.427             6.653                Anadyr1           207.906
       376   05 Jun 2027 01:14:45.134   05 Jun 2027 01:15:00.767            15.633                Anadyr2           488.531
       377   05 Jun 2027 01:15:16.996   05 Jun 2027 01:16:35.927            78.931                Norilsk          2466.594
       378   05 Jun 2027 01:16:52.968   05 Jun 2027 01:17:43.404            50.436               Magadan2          1576.125
       379   05 Jun 2027 01:19:09.536   05 Jun 2027 01:21:34.439           144.903                Irkutsk          4528.219
       380   05 Jun 2027 01:27:53.956   05 Jun 2027 01:28:11.340            17.384                  Delhi           543.250
       381   05 Jun 2027 01:30:45.960   05 Jun 2027 01:31:03.803            17.843                  Delhi           557.594
       382   05 Jun 2027 01:32:44.005   05 Jun 2027 01:34:07.185            83.180                  Delhi          2599.375
       383   05 Jun 2027 01:41:38.582   05 Jun 2027 01:43:39.672           121.090                Sumatra          3784.062
       384   05 Jun 2027 02:48:58.544   05 Jun 2027 02:49:03.787             5.243                Anadyr2           163.844
       385   05 Jun 2027 02:49:57.722   05 Jun 2027 02:50:19.053            21.331                Anadyr2           666.594
       386   05 Jun 2027 02:51:17.908   05 Jun 2027 02:52:59.112           101.204                Norilsk          3162.625
       387   05 Jun 2027 02:53:47.654   05 Jun 2027 02:55:07.926            80.272              Murmansk2          2508.500
       388   05 Jun 2027 02:55:31.781   05 Jun 2027 02:56:40.888            69.107                Irkutsk          2159.594
       389   05 Jun 2027 03:00:18.746   05 Jun 2027 03:00:20.012             1.266                Norilsk            39.562
       390   05 Jun 2027 03:00:45.896   05 Jun 2027 03:01:19.707            33.811              Murmansk1          1056.594
       391   05 Jun 2027 03:01:22.481   05 Jun 2027 03:01:28.763             6.282                 Moscow           196.312
       392   05 Jun 2027 03:01:31.538   05 Jun 2027 03:03:57.745           146.207                Irkutsk          4568.969
       393   05 Jun 2027 03:04:03.019   05 Jun 2027 03:05:29.436            86.417                  Delhi          2700.531
       394   05 Jun 2027 03:45:21.902   05 Jun 2027 03:45:42.205            20.303            RioGallegos           634.469
       395   05 Jun 2027 03:47:43.614   05 Jun 2027 03:48:38.252            54.638            RioGallegos          1707.438
       396   05 Jun 2027 04:35:21.180   05 Jun 2027 04:36:57.767            96.587                Novosib          3018.344
       397   05 Jun 2027 04:37:31.257   05 Jun 2027 04:37:41.785            10.528                Norilsk           329.000
       398   05 Jun 2027 04:37:43.939   05 Jun 2027 04:41:27.829           223.890                Novosib          6996.563
       399   05 Jun 2027 06:15:01.158   05 Jun 2027 06:15:21.095            19.937                 Moscow           623.031
       400   05 Jun 2027 06:16:20.383   05 Jun 2027 06:17:20.609            60.226                 Moscow          1882.062
       401   05 Jun 2027 06:32:43.468   05 Jun 2027 06:34:27.254           103.786               CapeTown          3243.312
       402   05 Jun 2027 07:35:30.640   05 Jun 2027 07:35:52.314            21.674               Magadan1           677.312
       403   05 Jun 2027 07:36:01.132   05 Jun 2027 07:36:32.065            30.933               Magadan1           966.656
       404   05 Jun 2027 07:36:34.128   05 Jun 2027 07:37:03.189            29.061               Magadan1           908.156
       405   05 Jun 2027 07:37:34.819   05 Jun 2027 07:37:37.532             2.713                Anadyr1            84.781
       406   05 Jun 2027 07:37:41.726   05 Jun 2027 07:37:51.764            10.038               Magadan2           313.688
       407   05 Jun 2027 07:38:00.295   05 Jun 2027 07:38:14.039            13.744               Magadan1           429.500
       408   05 Jun 2027 07:39:09.649   05 Jun 2027 07:40:02.873            53.224                Anadyr2          1663.250
       409   05 Jun 2027 09:06:02.857   05 Jun 2027 09:06:48.254            45.397               Magadan2          1418.656
       410   05 Jun 2027 09:11:48.963   05 Jun 2027 09:12:44.144            55.181                Anadyr2          1724.406
       411   05 Jun 2027 09:12:55.816   05 Jun 2027 09:13:06.185            10.369               Magadan2           324.031
       412   05 Jun 2027 09:13:21.813   05 Jun 2027 09:13:55.601            33.788               Magadan1          1055.875
       413   05 Jun 2027 09:14:06.170   05 Jun 2027 09:15:06.832            60.662                Anadyr2          1895.687
       414   05 Jun 2027 09:55:07.031   05 Jun 2027 09:55:41.991            34.960            RioGallegos          1092.500
       415   05 Jun 2027 10:45:50.561   05 Jun 2027 10:47:03.807            73.246               Magadan1          2288.937
       416   05 Jun 2027 10:48:00.012   05 Jun 2027 10:49:36.258            96.246               Magadan2          3007.688
       417   05 Jun 2027 10:49:59.357   05 Jun 2027 10:50:11.406            12.049               Magadan1           376.531
       418   05 Jun 2027 10:50:27.154   05 Jun 2027 10:51:08.249            41.095                Irkutsk          1284.219
       419   05 Jun 2027 10:51:30.395   05 Jun 2027 10:51:58.363            27.968                Irkutsk           874.000
       420   05 Jun 2027 10:52:13.265   05 Jun 2027 10:52:20.980             7.715                Norilsk           241.094
       421   05 Jun 2027 10:52:44.983   05 Jun 2027 10:52:54.249             9.266                Norilsk           289.563
       422   05 Jun 2027 10:53:00.660   05 Jun 2027 10:53:20.090            19.430                Irkutsk           607.187
       423   05 Jun 2027 10:53:26.650   05 Jun 2027 10:53:42.671            16.021                Norilsk           500.656
       424   05 Jun 2027 11:28:10.045   05 Jun 2027 11:29:19.897            69.852            RioGallegos          2182.875
       425   05 Jun 2027 12:03:44.748   05 Jun 2027 12:05:05.304            80.556                Sumatra          2517.375
       426   05 Jun 2027 12:16:38.380   05 Jun 2027 12:18:37.973           119.593                Irkutsk          3737.281
       427   05 Jun 2027 12:31:04.878   05 Jun 2027 12:32:09.711            64.833                Norilsk          2026.031
       428   05 Jun 2027 13:05:42.371   05 Jun 2027 13:06:54.123            71.752            RioGallegos          2242.250
       429   05 Jun 2027 13:09:07.624   05 Jun 2027 13:10:02.003            54.379            RioGallegos          1699.344
       430   05 Jun 2027 13:39:55.649   05 Jun 2027 13:43:13.665           198.016                Sumatra          6188.000
       431   05 Jun 2027 13:55:22.961   05 Jun 2027 13:57:25.856           122.895                Irkutsk          3840.469
       432   05 Jun 2027 15:25:05.157   05 Jun 2027 15:29:48.867           283.710                  Delhi          8865.937
       433   05 Jun 2027 15:33:34.420   05 Jun 2027 15:34:52.201            77.781                Novosib          2430.656
       434   05 Jun 2027 15:36:57.022   05 Jun 2027 15:37:18.999            21.977                Norilsk           686.781
       435   05 Jun 2027 15:38:23.592   05 Jun 2027 15:40:20.392           116.800                Novosib          3650.000
       436   05 Jun 2027 17:07:55.382   05 Jun 2027 17:08:27.750            32.368                 Moscow          1011.500
       437   05 Jun 2027 17:10:49.784   05 Jun 2027 17:11:46.562            56.778                 Moscow          1774.312
       438   05 Jun 2027 17:12:24.597   05 Jun 2027 17:12:51.407            26.810              Murmansk2           837.813
       439   05 Jun 2027 17:14:46.313   05 Jun 2027 17:15:40.182            53.869              Murmansk1          1683.406
       440   05 Jun 2027 17:19:32.242   05 Jun 2027 17:20:27.392            55.150                Norilsk          1723.438
       441   05 Jun 2027 17:26:50.132   05 Jun 2027 17:27:39.709            49.577                Anadyr2          1549.281
       442   05 Jun 2027 18:21:10.773   05 Jun 2027 18:22:05.182            54.409               CapeTown          1700.281
       443   05 Jun 2027 18:24:12.152   05 Jun 2027 18:24:22.656            10.504               CapeTown           328.250
       444   05 Jun 2027 18:27:08.770   05 Jun 2027 18:27:39.815            31.045               CapeTown           970.156
       445   05 Jun 2027 18:47:49.894   05 Jun 2027 18:51:43.697           233.803                 Moscow          7306.344
       446   05 Jun 2027 18:59:00.876   05 Jun 2027 18:59:47.956            47.080              Murmansk2          1471.250
       447   05 Jun 2027 19:10:30.285   05 Jun 2027 19:10:47.671            17.386                Anadyr1           543.313
       448   05 Jun 2027 19:57:59.547   05 Jun 2027 19:58:55.337            55.790               CapeTown          1743.437
       449   05 Jun 2027 20:00:27.414   05 Jun 2027 20:01:54.535            87.121               CapeTown          2722.531
       450   05 Jun 2027 20:06:44.265   05 Jun 2027 20:07:37.659            53.394               CapeTown          1668.562
       451   05 Jun 2027 20:30:53.420   05 Jun 2027 20:34:50.984           237.564              Murmansk2          7423.875
       452   05 Jun 2027 20:40:13.758   05 Jun 2027 20:41:25.649            71.891               Magadan2          2246.594
       453   05 Jun 2027 20:49:43.369   05 Jun 2027 20:49:45.592             2.223               Magadan1            69.469
       454   05 Jun 2027 22:13:34.061   05 Jun 2027 22:18:42.258           308.197                Anadyr2          9631.156
       455   05 Jun 2027 22:18:45.589   05 Jun 2027 22:20:01.240            75.651               Magadan2          2364.094
       456   05 Jun 2027 22:20:17.482   05 Jun 2027 22:20:55.836            38.354               Magadan2          1198.563
       457   05 Jun 2027 22:20:55.836   05 Jun 2027 22:21:04.511             8.675               Magadan1           271.094
       458   05 Jun 2027 22:21:33.480   05 Jun 2027 22:21:38.456             4.976               Magadan2           155.500
       459   05 Jun 2027 22:22:21.079   05 Jun 2027 22:22:45.876            24.797               Magadan2           774.906
       460   05 Jun 2027 22:26:09.860   05 Jun 2027 22:26:25.098            15.238               Magadan1           476.187
       461   05 Jun 2027 23:08:12.461   05 Jun 2027 23:10:50.433           157.972            RioGallegos          4936.625
       462   05 Jun 2027 23:49:14.704   05 Jun 2027 23:51:15.572           120.868                Anadyr2          3777.125
       463   05 Jun 2027 23:51:22.890   05 Jun 2027 23:53:01.686            98.796                Norilsk          3087.375
       464   05 Jun 2027 23:53:30.880   05 Jun 2027 23:55:06.184            95.304               Magadan2          2978.250
       465   05 Jun 2027 23:55:41.178   05 Jun 2027 23:56:18.237            37.059                Irkutsk          1158.094
       466   05 Jun 2027 23:58:35.711   05 Jun 2027 23:59:48.793            73.082                Novosib          2283.812
       467   06 Jun 2027 00:09:42.964   06 Jun 2027 00:11:14.766            91.802                Sumatra          2868.813
       468   06 Jun 2027 00:20:50.952   06 Jun 2027 00:21:08.279            17.327                Sumatra           541.469
       469   06 Jun 2027 00:43:16.202   06 Jun 2027 00:43:33.112            16.910            RioGallegos           528.437
       470   06 Jun 2027 00:44:53.417   06 Jun 2027 00:45:11.865            18.448            RioGallegos           576.500
       471   06 Jun 2027 00:47:26.608   06 Jun 2027 00:47:38.588            11.980            RioGallegos           374.375
       472   06 Jun 2027 00:52:19.037   06 Jun 2027 00:52:45.342            26.305            RioGallegos           822.031
       473   06 Jun 2027 00:54:49.830   06 Jun 2027 00:55:05.568            15.738            RioGallegos           491.812
       474   06 Jun 2027 01:24:07.352   06 Jun 2027 01:25:57.250           109.898                Anadyr1          3434.313
       475   06 Jun 2027 01:27:19.348   06 Jun 2027 01:29:06.307           106.959                Norilsk          3342.469
       476   06 Jun 2027 01:29:27.553   06 Jun 2027 01:29:44.030            16.477               Magadan2           514.906
       477   06 Jun 2027 01:31:11.738   06 Jun 2027 01:33:04.656           112.918                Irkutsk          3528.688
       478   06 Jun 2027 01:33:10.768   06 Jun 2027 01:33:27.452            16.684                Novosib           521.375
       479   06 Jun 2027 01:36:02.370   06 Jun 2027 01:36:28.927            26.557                Irkutsk           829.906
       480   06 Jun 2027 01:38:29.992   06 Jun 2027 01:39:08.145            38.153                Novosib          1192.281
       481   06 Jun 2027 01:42:29.046   06 Jun 2027 01:42:34.240             5.194                  Delhi           162.312
       482   06 Jun 2027 01:43:22.854   06 Jun 2027 01:44:13.871            51.017                  Delhi          1594.281
