uniorb/output/strategy_4/Drop/Drop_KinoSat_110103.txt

KinoSat_110103
-------------------------
    Access    *     Start Time (UTCG)     *     Stop Time (UTCG)  *   Duration (s)        *       Station  *  Data (Mbytes)
         1   01 Jun 2027 04:28:23.880   01 Jun 2027 04:29:25.420            61.540                Novosib          7692.500
         2   01 Jun 2027 04:29:33.469   01 Jun 2027 04:30:44.770            71.301                Novosib          8912.625
         3   01 Jun 2027 04:31:08.628   01 Jun 2027 04:31:33.565            24.937              Murmansk1          3117.125
         4   01 Jun 2027 04:31:48.406   01 Jun 2027 04:32:11.206            22.800                Norilsk          2850.000
         5   01 Jun 2027 04:32:15.393   01 Jun 2027 04:33:41.088            85.695                Novosib         10711.875
         6   01 Jun 2027 04:33:41.856   01 Jun 2027 04:33:54.845            12.989                Novosib          1623.625
         7   01 Jun 2027 05:47:24.563   01 Jun 2027 05:47:54.018            29.455                Sumatra          3681.875
         8   01 Jun 2027 05:50:28.472   01 Jun 2027 05:53:33.153           184.681                  Delhi         23085.125
         9   01 Jun 2027 05:58:17.042   01 Jun 2027 05:59:03.074            46.032                  Delhi          5754.000
        10   01 Jun 2027 06:07:22.898   01 Jun 2027 06:07:53.337            30.439                 Moscow          3804.875
        11   01 Jun 2027 06:08:03.823   01 Jun 2027 06:08:48.233            44.410                Novosib          5551.250
        12   01 Jun 2027 06:09:03.900   01 Jun 2027 06:09:11.145             7.245              Murmansk1           905.625
        13   01 Jun 2027 06:09:18.574   01 Jun 2027 06:09:45.724            27.150                Novosib          3393.750
        14   01 Jun 2027 07:40:37.021   01 Jun 2027 07:42:18.725           101.704              Murmansk1         12713.000
        15   01 Jun 2027 07:42:22.897   01 Jun 2027 07:42:41.061            18.164              Murmansk2          2270.500
        16   01 Jun 2027 07:42:43.000   01 Jun 2027 07:42:47.130             4.130                 Moscow           516.250
        17   01 Jun 2027 07:42:55.664   01 Jun 2027 07:44:00.167            64.503                Norilsk          8062.875
        18   01 Jun 2027 07:44:15.322   01 Jun 2027 07:45:11.503            56.181              Murmansk1          7022.625
        19   01 Jun 2027 07:47:20.890   01 Jun 2027 07:47:29.561             8.671                 Moscow          1083.875
        20   01 Jun 2027 08:49:34.063   01 Jun 2027 08:57:21.110           467.047               CapeTown         58380.875
        21   01 Jun 2027 12:43:09.483   01 Jun 2027 12:43:59.644            50.161               Magadan1          6270.125
        22   01 Jun 2027 12:47:49.685   01 Jun 2027 12:49:22.556            92.871               Magadan1         11608.875
        23   01 Jun 2027 14:18:59.264   01 Jun 2027 14:19:55.689            56.425               Magadan2          7053.125
        24   01 Jun 2027 15:10:46.283   01 Jun 2027 15:12:53.385           127.102            RioGallegos         15887.750
        25   01 Jun 2027 15:17:58.779   01 Jun 2027 15:20:16.747           137.968            RioGallegos         17246.000
        26   01 Jun 2027 15:58:30.494   01 Jun 2027 15:59:45.269            74.775                Irkutsk          9346.875
        27   01 Jun 2027 16:12:12.954   01 Jun 2027 16:14:54.320           161.366                Sumatra         20170.750
        28   01 Jun 2027 16:19:43.396   01 Jun 2027 16:21:50.443           127.047                Sumatra         15880.875
        29   01 Jun 2027 17:41:46.950   01 Jun 2027 17:45:39.620           232.670                  Delhi         25860.875
        30   02 Jun 2027 03:08:44.633   02 Jun 2027 03:13:47.806           303.173              Murmansk1         37896.625
        31   02 Jun 2027 04:18:14.401   02 Jun 2027 04:20:26.101           131.700                Sumatra         16462.500
        32   02 Jun 2027 04:35:08.055   02 Jun 2027 04:36:12.959            64.904                Irkutsk          8113.000
        33   02 Jun 2027 04:41:47.703   02 Jun 2027 04:41:50.421             2.718                Norilsk           339.750
        34   02 Jun 2027 04:41:53.140   02 Jun 2027 04:42:43.620            50.480                Norilsk          6310.000
        35   02 Jun 2027 04:42:53.722   02 Jun 2027 04:44:15.390            81.668                Irkutsk         10208.500
        36   02 Jun 2027 04:44:43.976   02 Jun 2027 04:46:46.212           122.236                 Moscow         15279.500
        37   02 Jun 2027 04:47:14.829   02 Jun 2027 04:51:43.617           268.788              Murmansk2         33598.500
        38   02 Jun 2027 06:02:39.653   02 Jun 2027 06:07:11.644           271.991                  Delhi         33998.875
        39   02 Jun 2027 06:08:45.671   02 Jun 2027 06:10:04.231            78.560                  Delhi          9820.000
        40   02 Jun 2027 06:20:30.473   02 Jun 2027 06:20:59.705            29.232              Murmansk1          3654.000
        41   02 Jun 2027 06:21:32.755   02 Jun 2027 06:25:37.065           244.310                Norilsk         30538.750
        42   02 Jun 2027 06:26:10.989   02 Jun 2027 06:27:19.005            68.016              Murmansk1          8502.000
        43   02 Jun 2027 07:46:49.343   02 Jun 2027 07:47:14.202            24.859                 Moscow          3107.375
        44   02 Jun 2027 07:51:17.061   02 Jun 2027 07:52:50.644            93.583                 Moscow         11697.875
        45   02 Jun 2027 07:55:23.922   02 Jun 2027 07:59:43.592           259.670                 Moscow         32458.750
        46   02 Jun 2027 07:59:57.412   02 Jun 2027 08:03:13.192           195.780              Murmansk2         24472.500
        47   02 Jun 2027 09:03:35.183   02 Jun 2027 09:12:10.585           515.402               CapeTown         64425.250
        48   02 Jun 2027 09:29:35.341   02 Jun 2027 09:30:42.826            67.485              Murmansk2          8435.625
        49   02 Jun 2027 09:30:42.826   02 Jun 2027 09:31:07.559            24.733              Murmansk1          3091.625
        50   02 Jun 2027 09:31:25.705   02 Jun 2027 09:32:21.514            55.809                 Moscow          6976.125
        51   02 Jun 2027 09:34:19.095   02 Jun 2027 09:38:16.478           237.383              Murmansk1         29672.875
        52   02 Jun 2027 09:39:08.480   02 Jun 2027 09:39:10.789             2.309              Murmansk2           288.625
        53   02 Jun 2027 09:41:17.206   02 Jun 2027 09:43:45.493           148.287                Anadyr1         18535.875
        54   02 Jun 2027 12:55:08.367   02 Jun 2027 13:01:48.354           399.987               Magadan1         49998.375
        55   02 Jun 2027 14:51:31.546   02 Jun 2027 14:52:10.118            38.572                Sumatra          4821.500
        56   02 Jun 2027 15:22:41.392   02 Jun 2027 15:24:28.309           106.917            RioGallegos         13364.625
        57   02 Jun 2027 15:31:18.389   02 Jun 2027 15:32:13.132            54.743            RioGallegos          6842.875
        58   02 Jun 2027 16:13:32.696   02 Jun 2027 16:15:27.208           114.512                Irkutsk         14314.000
        59   02 Jun 2027 16:24:17.276   02 Jun 2027 16:26:02.563           105.287                Sumatra         13160.875
        60   02 Jun 2027 16:31:58.723   02 Jun 2027 16:33:59.410           120.687                Sumatra         15085.875
        61   02 Jun 2027 17:50:15.332   02 Jun 2027 17:51:14.093            58.761                Novosib          7345.125
        62   02 Jun 2027 17:53:42.429   02 Jun 2027 17:56:16.336           153.907                  Delhi         19238.375
        63   02 Jun 2027 19:31:08.815   02 Jun 2027 19:31:21.851            13.036                  Delhi          1629.500
        64   02 Jun 2027 20:59:36.634   02 Jun 2027 21:01:22.117           105.483              Murmansk2         13185.375
        65   02 Jun 2027 21:01:22.750   02 Jun 2027 21:03:08.564           105.814                 Moscow         13226.750
        66   03 Jun 2027 02:57:07.138   03 Jun 2027 02:58:40.983            93.845                Sumatra          9328.750
        67   03 Jun 2027 03:20:31.966   03 Jun 2027 03:22:52.175           140.209              Murmansk2         17526.125
        68   03 Jun 2027 04:30:21.606   03 Jun 2027 04:31:42.653            81.047                Sumatra         10130.875
        69   03 Jun 2027 04:33:15.896   03 Jun 2027 04:35:06.181           110.285                Sumatra         13785.625
        70   03 Jun 2027 04:56:29.780   03 Jun 2027 04:56:47.552            17.772              Murmansk1          2221.500
        71   03 Jun 2027 04:56:54.810   03 Jun 2027 04:58:12.980            78.170                Novosib          9771.250
        72   03 Jun 2027 04:58:16.786   03 Jun 2027 04:58:58.842            42.056                 Moscow          5257.000
        73   03 Jun 2027 04:59:09.431   03 Jun 2027 05:03:40.754           271.323              Murmansk2         33915.375
        74   03 Jun 2027 06:22:23.596   03 Jun 2027 06:26:41.982           258.386                  Delhi         32298.250
        75   03 Jun 2027 06:26:50.258   03 Jun 2027 06:27:28.969            38.711                 Moscow          4838.875
        76   03 Jun 2027 06:32:15.452   03 Jun 2027 06:35:40.002           204.550                 Moscow         25568.750
        77   03 Jun 2027 06:36:08.519   03 Jun 2027 06:39:19.463           190.944              Murmansk1         23868.000
        78   03 Jun 2027 08:02:09.227   03 Jun 2027 08:03:01.332            52.105                 Moscow          6513.125
        79   03 Jun 2027 08:07:32.511   03 Jun 2027 08:08:54.870            82.359              Murmansk1         10294.875
        80   03 Jun 2027 08:09:00.910   03 Jun 2027 08:11:43.994           163.084                 Moscow         20385.500
        81   03 Jun 2027 08:11:44.746   03 Jun 2027 08:15:14.890           210.144              Murmansk1         26268.000
        82   03 Jun 2027 09:17:10.472   03 Jun 2027 09:24:35.956           445.484               CapeTown         55685.500
        83   03 Jun 2027 09:41:59.075   03 Jun 2027 09:42:36.838            37.763              Murmansk1          4720.375
        84   03 Jun 2027 09:43:01.590   03 Jun 2027 09:45:51.820           170.230                 Moscow         21278.750
        85   03 Jun 2027 09:46:20.690   03 Jun 2027 09:50:17.627           236.937              Murmansk1         29617.125
        86   03 Jun 2027 09:51:10.163   03 Jun 2027 09:51:11.753             1.590              Murmansk2           198.750
        87   03 Jun 2027 09:53:13.404   03 Jun 2027 10:02:17.745           544.341                Anadyr2         68042.625
        88   03 Jun 2027 11:35:19.681   03 Jun 2027 11:37:35.025           135.344               Magadan2         16918.000
        89   03 Jun 2027 13:07:07.904   03 Jun 2027 13:07:38.082            30.178               Magadan1          3772.250
        90   03 Jun 2027 13:07:46.377   03 Jun 2027 13:10:09.332           142.955               Magadan2         17869.375
        91   03 Jun 2027 15:02:37.635   03 Jun 2027 15:05:21.264           163.629                Sumatra         20453.625
        92   03 Jun 2027 15:11:08.493   03 Jun 2027 15:11:17.352             8.859                Sumatra          1107.375
        93   03 Jun 2027 15:34:38.075   03 Jun 2027 15:35:57.908            79.833            RioGallegos          9979.125
        94   03 Jun 2027 16:36:27.467   03 Jun 2027 16:37:11.713            44.246                Sumatra          5530.750
        95   03 Jun 2027 16:37:43.759   03 Jun 2027 16:39:27.500           103.741                  Delhi         12967.625
        96   03 Jun 2027 16:41:03.127   03 Jun 2027 16:44:07.692           184.565                Sumatra         23070.625
        97   03 Jun 2027 18:01:38.739   03 Jun 2027 18:02:00.024            21.285                Novosib          2660.625
        98   03 Jun 2027 18:05:41.364   03 Jun 2027 18:07:28.197           106.833                  Delhi         13354.125
        99   03 Jun 2027 18:13:11.255   03 Jun 2027 18:15:17.376           126.121                  Delhi         15765.125
       100   03 Jun 2027 19:39:58.258   03 Jun 2027 19:40:02.510             4.252                 Moscow           531.500
       101   03 Jun 2027 19:41:40.965   03 Jun 2027 19:41:55.944            14.979                 Moscow          1872.375
       102   03 Jun 2027 21:11:52.977   03 Jun 2027 21:12:13.245            20.268                 Moscow          2533.500
       103   03 Jun 2027 21:13:16.225   03 Jun 2027 21:13:23.609             7.384              Murmansk1           923.000
       104   03 Jun 2027 21:23:44.946   03 Jun 2027 21:24:46.901            61.955                 Moscow          7744.375
       105   03 Jun 2027 21:36:32.592   03 Jun 2027 21:37:24.049            51.457               CapeTown          6432.125
       106   03 Jun 2027 21:38:58.716   03 Jun 2027 21:40:44.817           106.101               CapeTown         13262.625
       107   04 Jun 2027 03:08:00.808   04 Jun 2027 03:12:21.307           260.499                Sumatra           391.125
       108   04 Jun 2027 03:32:31.206   04 Jun 2027 03:34:12.865           101.659              Murmansk2         12707.375
       109   04 Jun 2027 04:42:34.957   04 Jun 2027 04:43:11.286            36.329                Sumatra          4541.125
       110   04 Jun 2027 04:44:33.084   04 Jun 2027 04:46:59.837           146.753                Sumatra         18344.125
       111   04 Jun 2027 05:08:18.136   04 Jun 2027 05:09:10.912            52.776              Murmansk1          6597.000
       112   04 Jun 2027 05:09:25.907   04 Jun 2027 05:11:09.334           103.427                 Moscow         12928.375
       113   04 Jun 2027 05:11:55.831   04 Jun 2027 05:15:38.451           222.620              Murmansk2         27827.500
       114   04 Jun 2027 06:34:21.925   04 Jun 2027 06:36:11.448           109.523                  Delhi         13690.375
       115   04 Jun 2027 06:36:31.977   04 Jun 2027 06:39:47.924           195.947                Novosib         24493.375
       116   04 Jun 2027 06:44:38.592   04 Jun 2027 06:45:08.900            30.308              Murmansk1          3788.500
       117   04 Jun 2027 06:45:11.552   04 Jun 2027 06:47:44.147           152.595                 Moscow         19074.375
       118   04 Jun 2027 06:48:04.645   04 Jun 2027 06:51:20.185           195.540              Murmansk1         24442.500
       119   04 Jun 2027 08:14:09.488   04 Jun 2027 08:15:37.968            88.480                 Moscow         11060.000
       120   04 Jun 2027 08:17:40.737   04 Jun 2027 08:17:51.044            10.307              Murmansk1          1288.375
       121   04 Jun 2027 08:18:52.871   04 Jun 2027 08:23:43.659           290.788                 Moscow         36348.500
       122   04 Jun 2027 08:23:52.656   04 Jun 2027 08:27:16.621           203.965              Murmansk1         25495.625
       123   04 Jun 2027 08:31:07.137   04 Jun 2027 08:34:25.063           197.926                Anadyr1         24740.750
       124   04 Jun 2027 09:30:10.648   04 Jun 2027 09:36:54.409           403.761               CapeTown         50470.125
       125   04 Jun 2027 09:55:02.876   04 Jun 2027 09:56:11.368            68.492                 Moscow          8561.500
       126   04 Jun 2027 09:56:28.605   04 Jun 2027 09:56:45.898            17.293                 Moscow          2161.625
       127   04 Jun 2027 10:12:05.910   04 Jun 2027 10:14:43.738           157.828                Anadyr2         19728.500
       128   04 Jun 2027 11:44:00.949   04 Jun 2027 11:45:48.365           107.416               Magadan1         13427.000
       129   04 Jun 2027 11:50:03.975   04 Jun 2027 11:53:14.084           190.109               Magadan2         23763.625
       130   04 Jun 2027 13:19:07.991   04 Jun 2027 13:19:31.151            23.160               Magadan1          2895.000
       131   04 Jun 2027 15:13:36.074   04 Jun 2027 15:21:35.615           479.541                Sumatra         59942.625
       132   04 Jun 2027 16:38:43.225   04 Jun 2027 16:41:08.944           145.719                Novosib         18214.875
       133   04 Jun 2027 16:48:33.114   04 Jun 2027 16:52:29.938           236.824                  Delhi         29603.000
       134   04 Jun 2027 21:27:12.248   04 Jun 2027 21:28:40.468            88.220                 Moscow         11027.500
       135   04 Jun 2027 21:47:54.706   04 Jun 2027 21:48:54.567            59.861               CapeTown          7482.625
       136   04 Jun 2027 21:54:11.257   04 Jun 2027 21:55:38.736            87.479               CapeTown          2105.625
       137   05 Jun 2027 04:54:55.410   05 Jun 2027 04:56:45.882           110.472                Sumatra         13809.000
       138   05 Jun 2027 05:09:03.255   05 Jun 2027 05:11:06.860           123.605                  Delhi         15450.625
       139   05 Jun 2027 05:20:17.559   05 Jun 2027 05:20:50.912            33.353              Murmansk2          4169.125
       140   05 Jun 2027 05:21:01.027   05 Jun 2027 05:22:18.712            77.685                Norilsk          9710.625
       141   05 Jun 2027 05:22:24.898   05 Jun 2027 05:23:18.346            53.448                 Moscow          6681.000
       142   05 Jun 2027 05:23:50.329   05 Jun 2027 05:27:36.657           226.328              Murmansk1         28291.000
       143   05 Jun 2027 06:46:16.759   05 Jun 2027 06:48:05.882           109.123                  Delhi         13640.375
       144   05 Jun 2027 06:48:31.166   05 Jun 2027 06:51:33.197           182.031                Novosib         22753.875
       145   05 Jun 2027 06:51:41.155   05 Jun 2027 06:52:05.922            24.767                 Moscow          3095.875
       146   05 Jun 2027 06:56:23.361   05 Jun 2027 06:56:59.348            35.987              Murmansk1          4498.375
       147   05 Jun 2027 06:57:26.347   05 Jun 2027 06:59:47.823           141.476                 Moscow         17684.500
       148   05 Jun 2027 07:00:00.102   05 Jun 2027 07:03:21.124           201.022              Murmansk1         25127.750
       149   05 Jun 2027 08:26:08.993   05 Jun 2027 08:27:37.617            88.624                 Moscow         11078.000
       150   05 Jun 2027 08:29:42.470   05 Jun 2027 08:31:05.972            83.502              Murmansk1         10437.750
       151   05 Jun 2027 08:31:05.972   05 Jun 2027 08:32:52.366           106.394              Murmansk2         13299.250
       152   05 Jun 2027 08:33:21.538   05 Jun 2027 08:35:42.495           140.957                 Moscow         17619.625
       153   05 Jun 2027 08:35:55.339   05 Jun 2027 08:39:18.349           203.010              Murmansk1         25376.250
       154   05 Jun 2027 08:42:29.560   05 Jun 2027 08:45:24.325           174.765                Anadyr1         21845.625
       155   05 Jun 2027 10:26:37.766   05 Jun 2027 10:26:42.521             4.755                Anadyr2           594.375
       156   05 Jun 2027 12:04:58.513   05 Jun 2027 12:05:08.440             9.927               Magadan1          1240.875
       157   05 Jun 2027 13:31:08.547   05 Jun 2027 13:31:25.958            17.411               Magadan1          2176.375
       158   05 Jun 2027 13:35:56.893   05 Jun 2027 13:38:44.234           167.341               Magadan2         20917.625
       159   05 Jun 2027 15:12:35.087   05 Jun 2027 15:16:00.067           204.980                Irkutsk         25622.500
       160   05 Jun 2027 15:29:02.173   05 Jun 2027 15:32:03.954           181.781                Sumatra         22722.625
       161   05 Jun 2027 16:49:52.248   05 Jun 2027 16:51:32.116            99.868                Novosib         12483.500
       162   05 Jun 2027 16:53:13.811   05 Jun 2027 16:54:30.748            76.937                Novosib          9617.125
       163   05 Jun 2027 16:55:05.007   05 Jun 2027 17:03:07.732           482.725                  Delhi         60340.625
       164   05 Jun 2027 20:07:54.706   05 Jun 2027 20:09:46.708           112.002                 Moscow         14000.250
       165   05 Jun 2027 22:00:07.635   05 Jun 2027 22:02:39.730           152.095               CapeTown          9834.000
       166   06 Jun 2027 05:07:24.761   06 Jun 2027 05:08:19.763            55.002                Sumatra          6875.250
       167   06 Jun 2027 05:09:15.247   06 Jun 2027 05:11:08.948           113.701                Sumatra         14212.625
       168   06 Jun 2027 05:32:36.018   06 Jun 2027 05:35:26.249           170.231                 Moscow         21278.875
       169   06 Jun 2027 05:35:43.696   06 Jun 2027 05:39:35.335           231.639              Murmansk1         28954.875
       170   06 Jun 2027 06:58:07.749   06 Jun 2027 07:00:05.601           117.852                  Delhi         14731.500
       171   06 Jun 2027 07:01:13.124   06 Jun 2027 07:03:19.264           126.140                Novosib         15767.500
       172   06 Jun 2027 07:09:00.644   06 Jun 2027 07:09:08.295             7.651                Norilsk           956.375
       173   06 Jun 2027 07:09:46.188   06 Jun 2027 07:11:51.014           124.826                 Moscow         15603.250
       174   06 Jun 2027 07:12:02.083   06 Jun 2027 07:15:22.267           200.184              Murmansk1         25023.000
       175   06 Jun 2027 08:16:29.903   06 Jun 2027 08:20:25.466           235.563               CapeTown         29445.375
       176   06 Jun 2027 08:38:07.647   06 Jun 2027 08:39:20.426            72.779                 Moscow          9097.375
       177   06 Jun 2027 08:41:44.194   06 Jun 2027 08:43:21.002            96.808              Murmansk1         12101.000
       178   06 Jun 2027 08:43:21.002   06 Jun 2027 08:43:55.034            34.032              Murmansk2          4254.000
       179   06 Jun 2027 08:44:35.350   06 Jun 2027 08:45:33.706            58.356                 Moscow          7294.500
       180   06 Jun 2027 08:46:27.214   06 Jun 2027 08:51:20.047           292.833              Murmansk1         36604.125
       181   06 Jun 2027 08:54:08.401   06 Jun 2027 09:00:18.739           370.338                Anadyr1         46292.250
       182   06 Jun 2027 10:29:07.849   06 Jun 2027 10:29:46.722            38.873                Anadyr1          4859.125
       183   06 Jun 2027 12:08:52.541   06 Jun 2027 12:11:52.526           179.985               Magadan1         22498.125
       184   06 Jun 2027 13:47:56.337   06 Jun 2027 13:48:37.390            41.053               Magadan2          5131.625
       185   06 Jun 2027 13:53:37.208   06 Jun 2027 13:55:05.465            88.257               Magadan2         11032.125
       186   06 Jun 2027 14:38:15.862   06 Jun 2027 14:38:31.079            15.217            RioGallegos          1902.125
       187   06 Jun 2027 15:27:33.036   06 Jun 2027 15:29:54.043           141.007                Irkutsk         17625.875
       188   06 Jun 2027 15:36:48.776   06 Jun 2027 15:39:12.151           143.375                Sumatra         17921.875
       189   06 Jun 2027 15:42:16.758   06 Jun 2027 15:43:07.601            50.843                Sumatra          6355.375
       190   06 Jun 2027 17:03:53.243   06 Jun 2027 17:08:15.296           262.053                Novosib         32756.625
       191   06 Jun 2027 17:09:10.167   06 Jun 2027 17:13:25.407           255.240                  Delhi         31905.000
       192   06 Jun 2027 18:41:58.174   06 Jun 2027 18:44:14.081           135.907                  Delhi         16988.375
       193   06 Jun 2027 20:12:11.561   06 Jun 2027 20:13:33.251            81.690                 Moscow         10211.250
       194   06 Jun 2027 20:20:58.964   06 Jun 2027 20:21:43.985            45.021                 Moscow          5539.125
       195   07 Jun 2027 04:08:30.017   07 Jun 2027 04:08:55.793            25.776                Norilsk          3222.000
       196   07 Jun 2027 05:20:06.700   07 Jun 2027 05:22:23.534           136.834                Sumatra         17104.250
       197   07 Jun 2027 05:26:37.825   07 Jun 2027 05:27:20.940            43.115                  Delhi          5389.375
       198   07 Jun 2027 05:34:11.543   07 Jun 2027 05:36:12.055           120.512                  Delhi         15064.000
       199   07 Jun 2027 05:44:17.999   07 Jun 2027 05:47:33.285           195.286                 Moscow         24410.750
       200   07 Jun 2027 05:47:36.012   07 Jun 2027 05:51:34.443           238.431              Murmansk2         29803.875
       201   07 Jun 2027 07:11:12.792   07 Jun 2027 07:12:11.225            58.433                 Moscow          7304.125
       202   07 Jun 2027 07:15:11.678   07 Jun 2027 07:15:40.528            28.850                Novosib          3606.250
       203   07 Jun 2027 07:20:12.109   07 Jun 2027 07:20:40.412            28.303              Murmansk2          3537.875
       204   07 Jun 2027 07:22:18.428   07 Jun 2027 07:23:53.714            95.286                 Moscow         11910.750
       205   07 Jun 2027 07:24:02.147   07 Jun 2027 07:27:23.569           201.422              Murmansk2         25177.750
       206   07 Jun 2027 08:27:07.068   07 Jun 2027 08:34:05.893           418.825               CapeTown         52353.125
       207   07 Jun 2027 08:50:05.311   07 Jun 2027 08:50:23.497            18.186                 Moscow          2273.250
       208   07 Jun 2027 08:53:42.774   07 Jun 2027 08:55:18.364            95.590              Murmansk1         11948.750
       209   07 Jun 2027 08:55:18.364   07 Jun 2027 08:57:03.782           105.418              Murmansk2         13177.250
       210   07 Jun 2027 08:57:24.609   07 Jun 2027 08:59:37.113           132.504                 Moscow         16563.000
       211   07 Jun 2027 08:59:57.227   07 Jun 2027 09:03:21.679           204.452              Murmansk2         25556.500
       212   07 Jun 2027 09:05:54.355   07 Jun 2027 09:12:02.327           367.972                Anadyr2         45996.500
       213   07 Jun 2027 10:41:07.334   07 Jun 2027 10:41:37.112            29.778                Anadyr1          3722.250
       214   07 Jun 2027 10:42:27.679   07 Jun 2027 10:43:20.940            53.261                Anadyr2          6657.625
       215   07 Jun 2027 12:19:29.071   07 Jun 2027 12:20:55.427            86.356               Magadan1         10794.500
       216   07 Jun 2027 12:24:33.110   07 Jun 2027 12:24:34.780             1.670               Magadan1           208.750
       217   07 Jun 2027 12:25:22.294   07 Jun 2027 12:28:45.349           203.055               Magadan2         25381.875
       218   07 Jun 2027 14:48:04.174   07 Jun 2027 14:51:44.918           220.744            RioGallegos         27593.000
       219   07 Jun 2027 15:37:00.812   07 Jun 2027 15:37:10.507             9.695                Irkutsk          1211.875
       220   07 Jun 2027 15:42:17.602   07 Jun 2027 15:44:23.761           126.159                Irkutsk         15769.875
       221   07 Jun 2027 15:48:35.949   07 Jun 2027 15:51:26.683           170.734                Sumatra         21341.750
       222   07 Jun 2027 17:10:40.200   07 Jun 2027 17:13:11.975           151.775                Novosib         18971.875
       223   07 Jun 2027 17:18:22.553   07 Jun 2027 17:24:32.254           369.701                  Delhi         46212.625
       224   07 Jun 2027 20:26:55.302   07 Jun 2027 20:29:09.487           134.185                 Moscow          9406.625
       225   08 Jun 2027 05:33:10.698   08 Jun 2027 05:33:13.178             2.480                Sumatra           310.000
       226   08 Jun 2027 05:38:38.023   08 Jun 2027 05:40:40.848           122.825                  Delhi         15353.125
       227   08 Jun 2027 05:41:50.126   08 Jun 2027 05:43:43.150           113.024                  Delhi         14128.000
       228   08 Jun 2027 05:56:21.821   08 Jun 2027 05:58:05.525           103.704                Novosib         12963.000
       229   08 Jun 2027 05:58:36.042   08 Jun 2027 05:59:39.600            63.558                 Moscow          7944.750
       230   08 Jun 2027 06:00:07.246   08 Jun 2027 06:03:33.948           206.702              Murmansk1         25837.750
       231   08 Jun 2027 07:23:07.210   08 Jun 2027 07:23:35.076            27.866                 Moscow          3483.250
       232   08 Jun 2027 07:32:04.770   08 Jun 2027 07:32:37.008            32.238              Murmansk2          4029.750
       233   08 Jun 2027 07:33:29.381   08 Jun 2027 07:35:41.951           132.570                Norilsk         16571.250
       234   08 Jun 2027 07:36:00.170   08 Jun 2027 07:39:25.018           204.848              Murmansk1         25606.000
       235   08 Jun 2027 08:38:20.345   08 Jun 2027 08:47:07.796           527.451               CapeTown         65931.375
       236   08 Jun 2027 09:02:15.223   08 Jun 2027 09:02:28.525            13.302                 Moscow          1662.750
       237   08 Jun 2027 09:05:47.497   08 Jun 2027 09:08:39.296           171.799              Murmansk2         21474.875
       238   08 Jun 2027 09:09:47.385   08 Jun 2027 09:10:08.538            21.153                 Moscow          2644.125
       239   08 Jun 2027 09:10:30.591   08 Jun 2027 09:14:22.065           231.474              Murmansk1         28934.250
       240   08 Jun 2027 09:15:19.961   08 Jun 2027 09:15:23.212             3.251              Murmansk2           406.375
       241   08 Jun 2027 09:17:44.453   08 Jun 2027 09:26:15.306           510.853                Anadyr2         63856.625
       242   08 Jun 2027 10:15:40.959   08 Jun 2027 10:20:09.686           268.727               CapeTown         33590.875
       243   08 Jun 2027 12:31:26.289   08 Jun 2027 12:32:31.012            64.723               Magadan2          8090.375
       244   08 Jun 2027 12:36:53.776   08 Jun 2027 12:40:11.886           198.110               Magadan1         24763.750
       245   08 Jun 2027 12:40:39.891   08 Jun 2027 12:40:59.238            19.347               Magadan1          2418.375
       246   08 Jun 2027 15:00:44.201   08 Jun 2027 15:04:35.675           231.474            RioGallegos         28934.250
       247   08 Jun 2027 15:55:31.427   08 Jun 2027 15:56:20.431            49.004                Irkutsk          6125.500
       248   08 Jun 2027 16:00:29.132   08 Jun 2027 16:04:27.474           238.342                Sumatra         29792.750
       249   08 Jun 2027 17:22:54.079   08 Jun 2027 17:23:36.796            42.717                Novosib          5339.625
       250   08 Jun 2027 17:29:14.896   08 Jun 2027 17:32:11.330           176.434                Novosib         22054.250
       251   08 Jun 2027 17:32:40.201   08 Jun 2027 17:35:56.547           196.346                  Delhi         24543.250
       252   08 Jun 2027 20:36:07.585   08 Jun 2027 20:36:55.382            47.797                 Moscow          5974.625
       253   08 Jun 2027 20:38:29.921   08 Jun 2027 20:41:04.137           154.216                 Moscow         11550.625
       254   09 Jun 2027 04:33:01.086   09 Jun 2027 04:34:25.211            84.125              Murmansk1         10515.625
       255   09 Jun 2027 05:47:52.636   09 Jun 2027 05:48:09.416            16.780                Sumatra          2097.500
       256   09 Jun 2027 05:50:43.628   09 Jun 2027 05:52:58.496           134.868                  Delhi         16858.500
       257   09 Jun 2027 05:58:31.972   09 Jun 2027 05:59:16.856            44.884                  Delhi          5610.500
       258   09 Jun 2027 06:08:32.264   09 Jun 2027 06:11:45.294           193.030                 Moscow         24128.750
       259   09 Jun 2027 06:11:54.377   09 Jun 2027 06:15:33.808           219.431              Murmansk1         27428.875
       260   09 Jun 2027 07:35:04.374   09 Jun 2027 07:36:38.526            94.152                 Moscow         11769.000
       261   09 Jun 2027 07:45:04.993   09 Jun 2027 07:47:57.547           172.554                 Moscow         21569.250
       262   09 Jun 2027 07:48:00.491   09 Jun 2027 07:51:26.572           206.081              Murmansk2         25760.125
       263   09 Jun 2027 08:49:48.466   09 Jun 2027 08:59:52.560           604.094               CapeTown         75511.750
       264   09 Jun 2027 09:14:33.043   09 Jun 2027 09:15:00.931            27.888                 Moscow          3486.000
       265   09 Jun 2027 09:17:49.009   09 Jun 2027 09:21:28.810           219.801              Murmansk1         27475.125
       266   09 Jun 2027 09:22:17.349   09 Jun 2027 09:26:12.123           234.774              Murmansk2         29346.750
       267   09 Jun 2027 09:27:21.560   09 Jun 2027 09:27:24.607             3.047              Murmansk1           380.875
       268   09 Jun 2027 09:29:37.289   09 Jun 2027 09:37:41.139           483.850                Anadyr2         60481.250
       269   09 Jun 2027 11:05:22.797   09 Jun 2027 11:05:25.030             2.233                Anadyr1           279.125
       270   09 Jun 2027 12:41:38.358   09 Jun 2027 12:42:35.492            57.134                Anadyr1          7141.750
       271   09 Jun 2027 12:43:24.426   09 Jun 2027 12:44:14.134            49.708               Magadan1          6213.500
       272   09 Jun 2027 12:47:59.906   09 Jun 2027 12:52:48.409           288.503               Magadan2         36062.875
       273   09 Jun 2027 15:11:01.134   09 Jun 2027 15:13:31.230           150.096            RioGallegos         18762.000
       274   09 Jun 2027 15:58:45.420   09 Jun 2027 15:59:59.640            74.220                Irkutsk          9277.500
       275   09 Jun 2027 16:05:21.817   09 Jun 2027 16:07:22.675           120.858                Irkutsk         15107.250
       276   09 Jun 2027 16:12:27.966   09 Jun 2027 16:15:08.142           160.176                Sumatra         20022.000
       277   09 Jun 2027 17:34:36.640   09 Jun 2027 17:35:21.874            45.234                Novosib          5654.250
       278   09 Jun 2027 17:37:18.070   09 Jun 2027 17:37:39.474            21.404                Novosib          2675.500
       279   09 Jun 2027 17:41:38.710   09 Jun 2027 17:44:10.729           152.019                Novosib         19002.375
       280   09 Jun 2027 17:50:09.721   09 Jun 2027 17:51:32.467            82.746                  Delhi         10343.250
       281   09 Jun 2027 19:18:52.353   09 Jun 2027 19:20:12.170            79.817                  Delhi          9977.125
       282   09 Jun 2027 20:44:51.925   09 Jun 2027 20:44:52.687             0.762              Murmansk2            95.250
       283   09 Jun 2027 20:48:06.980   09 Jun 2027 20:48:43.536            36.556                 Moscow          4569.500
       284   09 Jun 2027 20:49:04.229   09 Jun 2027 20:51:17.404           133.175                 Moscow         16646.875
       285   09 Jun 2027 22:55:53.599   09 Jun 2027 22:57:18.739            85.140               CapeTown          6736.500
       286   10 Jun 2027 03:08:59.156   10 Jun 2027 03:14:08.644           309.488              Murmansk2         38686.000
       287   10 Jun 2027 04:18:29.481   10 Jun 2027 04:20:40.081           130.600                Sumatra         16325.000
       288   10 Jun 2027 04:43:35.918   10 Jun 2027 04:44:11.295            35.377                Novosib          4422.125
       289   10 Jun 2027 04:44:56.361   10 Jun 2027 04:45:24.074            27.713              Murmansk1          3464.125
       290   10 Jun 2027 04:45:30.996   10 Jun 2027 04:46:21.656            50.660                Norilsk          6332.500
       291   10 Jun 2027 04:46:33.079   10 Jun 2027 04:47:01.445            28.366                 Moscow          3545.750
       292   10 Jun 2027 04:47:29.546   10 Jun 2027 04:51:58.522           268.976              Murmansk2         33622.000
       293   10 Jun 2027 06:02:54.934   10 Jun 2027 06:15:09.738           734.804                  Delhi         91850.500
       294   10 Jun 2027 06:15:10.636   10 Jun 2027 06:16:07.240            56.604                 Moscow          7075.500
       295   10 Jun 2027 06:20:46.094   10 Jun 2027 06:21:14.273            28.179              Murmansk2          3522.375
       296   10 Jun 2027 06:21:20.017   10 Jun 2027 06:21:53.937            33.920                Novosib          4240.000
       297   10 Jun 2027 06:22:14.590   10 Jun 2027 06:23:50.439            95.849                 Moscow         11981.125
       298   10 Jun 2027 06:24:27.088   10 Jun 2027 06:27:33.990           186.902              Murmansk1         23362.750
       299   10 Jun 2027 07:47:04.355   10 Jun 2027 07:47:41.443            37.088                 Moscow          4636.000
       300   10 Jun 2027 07:51:32.627   10 Jun 2027 07:51:34.861             2.234                 Moscow           279.250
       301   10 Jun 2027 07:55:41.609   10 Jun 2027 07:59:58.592           256.983                 Moscow         32122.875
       302   10 Jun 2027 08:00:13.046   10 Jun 2027 08:03:28.213           195.167              Murmansk2         24395.875
       303   10 Jun 2027 09:03:52.291   10 Jun 2027 09:12:26.180           513.889               CapeTown         64236.125
       304   10 Jun 2027 09:29:50.362   10 Jun 2027 09:31:22.218            91.856              Murmansk1         11482.000
       305   10 Jun 2027 09:31:40.418   10 Jun 2027 09:32:37.853            57.435                 Moscow          7179.375
       306   10 Jun 2027 09:34:33.953   10 Jun 2027 09:36:36.553           122.600              Murmansk2         15325.000
       307   10 Jun 2027 09:36:36.553   10 Jun 2027 09:38:33.589           117.036              Murmansk1         14629.500
       308   10 Jun 2027 09:39:23.215   10 Jun 2027 09:39:25.807             2.592              Murmansk2           324.000
       309   10 Jun 2027 09:41:32.074   10 Jun 2027 09:48:48.823           436.749                Anadyr1         54593.625
       310   10 Jun 2027 11:23:56.368   10 Jun 2027 11:25:24.378            88.010               Magadan1         11001.250
       311   10 Jun 2027 12:55:23.326   10 Jun 2027 12:56:01.843            38.517               Magadan1          4814.625
       312   10 Jun 2027 12:57:45.819   10 Jun 2027 13:00:17.815           151.996               Magadan2         18999.500
       313   10 Jun 2027 13:02:03.590   10 Jun 2027 13:05:28.742           205.152               Magadan1         25644.000
       314   10 Jun 2027 14:51:45.214   10 Jun 2027 14:52:33.259            48.045                Sumatra          6005.625
       315   10 Jun 2027 15:22:56.283   10 Jun 2027 15:24:42.478           106.195            RioGallegos         13274.375
       316   10 Jun 2027 15:31:34.044   10 Jun 2027 15:32:28.048            54.004            RioGallegos          6750.500
       317   10 Jun 2027 16:15:41.930   10 Jun 2027 16:17:46.690           124.760                Irkutsk         15595.000
       318   10 Jun 2027 16:24:32.411   10 Jun 2027 16:25:49.504            77.093                Sumatra          9636.625
       319   10 Jun 2027 16:32:13.755   10 Jun 2027 16:34:14.650           120.895                Sumatra         15111.875
       320   10 Jun 2027 17:50:30.753   10 Jun 2027 17:51:28.861            58.108                Novosib          7263.500
       321   10 Jun 2027 17:53:57.353   10 Jun 2027 17:56:30.191           152.838                  Delhi         19104.750
       322   10 Jun 2027 19:31:24.610   10 Jun 2027 19:31:36.109            11.499                  Delhi          1437.375
       323   10 Jun 2027 21:00:07.142   10 Jun 2027 21:00:34.599            27.457                 Moscow          3432.125
       324   10 Jun 2027 21:01:37.903   10 Jun 2027 21:03:23.646           105.743                 Moscow         13217.875
       325   10 Jun 2027 21:27:13.560   10 Jun 2027 21:29:12.639           119.079               CapeTown         14884.875
       326   11 Jun 2027 02:57:19.961   11 Jun 2027 02:59:05.529           105.568                Sumatra           840.250
       327   11 Jun 2027 03:20:46.491   11 Jun 2027 03:21:14.661            28.170              Murmansk1          3521.250
       328   11 Jun 2027 03:21:14.661   11 Jun 2027 03:23:08.561           113.900              Murmansk2         14237.500
       329   11 Jun 2027 04:30:36.806   11 Jun 2027 04:31:56.842            80.036                Sumatra         10004.500
       330   11 Jun 2027 04:33:30.702   11 Jun 2027 04:35:20.877           110.175                Sumatra         13771.875
       331   11 Jun 2027 04:56:44.258   11 Jun 2027 04:57:03.277            19.019              Murmansk2          2377.375
       332   11 Jun 2027 04:57:13.188   11 Jun 2027 04:58:27.978            74.790                Novosib          9348.750
       333   11 Jun 2027 04:58:32.024   11 Jun 2027 04:59:14.030            42.006                 Moscow          5250.750
       334   11 Jun 2027 04:59:24.161   11 Jun 2027 05:03:55.673           271.512              Murmansk2         33939.000
       335   11 Jun 2027 06:22:38.421   11 Jun 2027 06:26:56.649           258.228                  Delhi         32278.500
       336   11 Jun 2027 06:27:07.736   11 Jun 2027 06:27:45.175            37.439                 Moscow          4679.875
       337   11 Jun 2027 06:32:32.269   11 Jun 2027 06:35:55.067           202.798                 Moscow         25349.750
       338   11 Jun 2027 06:36:23.824   11 Jun 2027 06:39:34.454           190.630              Murmansk2         23828.750
       339   11 Jun 2027 08:02:24.225   11 Jun 2027 08:03:17.747            53.522                 Moscow          6690.250
       340   11 Jun 2027 08:07:47.169   11 Jun 2027 08:09:11.961            84.792              Murmansk1         10599.000
       341   11 Jun 2027 08:09:12.629   11 Jun 2027 08:09:33.116            20.487                Norilsk          2560.875
       342   11 Jun 2027 08:10:37.480   11 Jun 2027 08:15:29.913           292.433              Murmansk2         36554.125
       343   11 Jun 2027 09:17:26.528   11 Jun 2027 09:24:51.394           444.866               CapeTown         55608.250
       344   11 Jun 2027 09:42:13.704   11 Jun 2027 09:42:38.225            24.521              Murmansk1          3065.125
       345   11 Jun 2027 09:42:38.225   11 Jun 2027 09:42:52.740            14.515              Murmansk2          1814.375
       346   11 Jun 2027 09:43:16.249   11 Jun 2027 09:46:03.937           167.688                 Moscow         20961.000
       347   11 Jun 2027 09:46:35.548   11 Jun 2027 09:47:57.211            81.663              Murmansk1         10207.875
       348   11 Jun 2027 09:47:57.211   11 Jun 2027 09:50:32.738           155.527              Murmansk2         19440.875
       349   11 Jun 2027 09:51:24.898   11 Jun 2027 09:51:26.767             1.869              Murmansk1           233.625
       350   11 Jun 2027 09:53:28.302   11 Jun 2027 10:02:38.678           550.376                Anadyr2         68797.000
       351   11 Jun 2027 13:07:22.878   11 Jun 2027 13:07:52.671            29.793               Magadan2          3724.125
       352   11 Jun 2027 13:08:01.605   11 Jun 2027 13:14:25.533           383.928               Magadan1         47991.000
       353   11 Jun 2027 15:02:49.305   11 Jun 2027 15:05:48.290           178.985                Sumatra         22373.125
       354   11 Jun 2027 15:11:16.709   11 Jun 2027 15:11:31.613            14.904                Sumatra          1863.000
       355   11 Jun 2027 15:45:01.996   11 Jun 2027 15:45:29.336            27.340            RioGallegos          3417.500
       356   11 Jun 2027 16:36:42.732   11 Jun 2027 16:37:23.303            40.571                Sumatra          5071.375
       357   11 Jun 2027 16:37:56.572   11 Jun 2027 16:39:44.074           107.502                  Delhi         13437.750
       358   11 Jun 2027 17:58:36.511   11 Jun 2027 17:59:02.273            25.762                Novosib          3220.250
       359   11 Jun 2027 18:00:13.391   11 Jun 2027 18:01:53.813           100.422                Novosib         12552.750
       360   11 Jun 2027 18:05:56.359   11 Jun 2027 18:07:42.345           105.986                  Delhi         13248.250
       361   11 Jun 2027 18:13:26.414   11 Jun 2027 18:15:32.428           126.014                  Delhi         15751.750
       362   11 Jun 2027 19:40:13.971   11 Jun 2027 19:42:10.412           116.441                 Moscow         14555.125
       363   11 Jun 2027 21:37:38.290   11 Jun 2027 21:38:19.894            41.604               CapeTown          5200.500
       364   11 Jun 2027 21:40:59.461   11 Jun 2027 21:41:35.263            35.802               CapeTown          4475.250
       365   11 Jun 2027 21:43:52.611   11 Jun 2027 21:44:50.352            57.741               CapeTown          7217.625
       366   12 Jun 2027 03:08:10.698   12 Jun 2027 03:12:55.475           284.777                Sumatra          3480.875
       367   12 Jun 2027 03:32:45.940   12 Jun 2027 03:34:27.335           101.395              Murmansk2         12674.375
       368   12 Jun 2027 04:42:50.294   12 Jun 2027 04:43:25.615            35.321                Sumatra          4415.125
       369   12 Jun 2027 04:44:48.213   12 Jun 2027 04:47:15.824           147.611                Sumatra         18451.375
       370   12 Jun 2027 05:07:28.001   12 Jun 2027 05:07:36.215             8.214                 Moscow          1026.750
       371   12 Jun 2027 05:08:32.620   12 Jun 2027 05:09:04.030            31.410              Murmansk2          3926.250
       372   12 Jun 2027 05:09:18.660   12 Jun 2027 05:10:28.221            69.561                Novosib          8695.125
       373   12 Jun 2027 05:10:38.298   12 Jun 2027 05:11:24.493            46.195                 Moscow          5774.375
       374   12 Jun 2027 05:12:11.344   12 Jun 2027 05:15:53.383           222.039              Murmansk1         27754.875
       375   12 Jun 2027 06:34:36.694   12 Jun 2027 06:36:26.041           109.347                  Delhi         13668.375
       376   12 Jun 2027 06:36:46.686   12 Jun 2027 06:40:02.361           195.675                Novosib         24459.375
       377   12 Jun 2027 06:44:55.709   12 Jun 2027 06:47:59.205           183.496                 Moscow         22937.000
       378   12 Jun 2027 06:48:19.927   12 Jun 2027 06:51:35.183           195.256              Murmansk1         24407.000
       379   12 Jun 2027 08:14:24.472   12 Jun 2027 08:15:52.800            88.328                 Moscow         11041.000
       380   12 Jun 2027 08:17:55.760   12 Jun 2027 08:18:06.012            10.252              Murmansk1          1281.500
       381   12 Jun 2027 08:19:07.574   12 Jun 2027 08:23:58.631           291.057                 Moscow         36382.125
       382   12 Jun 2027 08:24:07.769   12 Jun 2027 08:27:31.645           203.876              Murmansk1         25484.500
       383   12 Jun 2027 08:31:20.896   12 Jun 2027 08:34:42.140           201.244                Anadyr1         25155.500
       384   12 Jun 2027 09:30:26.337   12 Jun 2027 09:37:09.712           403.375               CapeTown         50421.875
       385   12 Jun 2027 09:55:17.527   12 Jun 2027 09:56:25.702            68.175                 Moscow          8521.875
       386   12 Jun 2027 10:09:32.705   12 Jun 2027 10:10:26.390            53.685                Anadyr1          6710.625
       387   12 Jun 2027 10:12:21.681   12 Jun 2027 10:14:58.676           156.995                Anadyr2         19624.375
       388   12 Jun 2027 11:50:21.067   12 Jun 2027 11:53:28.916           187.849               Magadan2         23481.125
       389   12 Jun 2027 15:03:10.211   12 Jun 2027 15:03:14.031             3.820                Irkutsk           477.500
       390   12 Jun 2027 15:13:50.376   12 Jun 2027 15:21:48.247           477.871                Sumatra         59733.875
       391   12 Jun 2027 16:38:58.985   12 Jun 2027 16:41:33.347           154.362                Novosib         19295.250
       392   12 Jun 2027 16:48:41.436   12 Jun 2027 16:52:46.003           244.567                  Delhi         30570.875
       393   12 Jun 2027 19:53:09.167   12 Jun 2027 19:53:53.434            44.267                 Moscow          5533.375
       394   12 Jun 2027 21:27:27.208   12 Jun 2027 21:28:55.285            88.077                 Moscow         11009.625
       395   12 Jun 2027 21:48:09.902   12 Jun 2027 21:49:08.910            59.008               CapeTown          7376.000
       396   13 Jun 2027 03:19:35.495   13 Jun 2027 03:20:51.644            76.149                Sumatra          1710.500
       397   13 Jun 2027 04:55:10.913   13 Jun 2027 04:57:00.408           109.495                Sumatra         13686.875
       398   13 Jun 2027 05:09:15.735   13 Jun 2027 05:09:47.938            32.203                  Delhi          4025.375
       399   13 Jun 2027 05:20:33.398   13 Jun 2027 05:21:10.884            37.486              Murmansk2          4685.750
       400   13 Jun 2027 05:21:15.678   13 Jun 2027 05:22:27.263            71.585                Norilsk          8948.125
       401   13 Jun 2027 05:22:41.680   13 Jun 2027 05:23:33.483            51.803                 Moscow          6475.375
       402   13 Jun 2027 05:24:05.798   13 Jun 2027 05:27:51.601           225.803              Murmansk1         28225.375
       403   13 Jun 2027 06:46:31.467   13 Jun 2027 06:50:12.591           221.124                  Delhi         27640.500
       404   13 Jun 2027 06:50:25.482   13 Jun 2027 06:52:23.853           118.371                 Moscow         14796.375
       405   13 Jun 2027 06:56:38.915   13 Jun 2027 06:57:13.836            34.921              Murmansk1          4365.125
       406   13 Jun 2027 06:57:43.012   13 Jun 2027 07:00:02.873           139.861                 Moscow         17482.625
       407   13 Jun 2027 07:00:15.360   13 Jun 2027 07:03:36.128           200.768              Murmansk2         25096.000
       408   13 Jun 2027 08:26:22.550   13 Jun 2027 08:27:52.460            89.910                 Moscow         11238.750
       409   13 Jun 2027 08:29:57.495   13 Jun 2027 08:33:22.762           205.267              Murmansk2         25658.375
       410   13 Jun 2027 08:33:39.835   13 Jun 2027 08:35:57.450           137.615                 Moscow         17201.875
       411   13 Jun 2027 08:36:10.041   13 Jun 2027 08:39:33.374           203.333              Murmansk2         25416.625
       412   13 Jun 2027 08:42:43.941   13 Jun 2027 08:45:42.016           178.075                Anadyr2         22259.375
       413   13 Jun 2027 10:17:24.946   13 Jun 2027 10:17:46.448            21.502                Anadyr1          2687.750
       414   13 Jun 2027 10:22:10.174   13 Jun 2027 10:22:20.953            10.779                Anadyr2          1347.375
       415   13 Jun 2027 10:26:55.092   13 Jun 2027 10:26:57.475             2.383                Anadyr1           297.875
       416   13 Jun 2027 12:02:11.121   13 Jun 2027 12:05:13.522           182.401               Magadan2         22800.125
       417   13 Jun 2027 13:31:23.545   13 Jun 2027 13:33:04.042           100.497               Magadan2         12562.125
       418   13 Jun 2027 15:14:50.709   13 Jun 2027 15:16:25.863            95.154                Irkutsk         11894.250
       419   13 Jun 2027 15:25:22.860   13 Jun 2027 15:27:05.806           102.946                Sumatra         12868.250
       420   13 Jun 2027 15:29:18.705   13 Jun 2027 15:32:17.612           178.907                Sumatra         22363.375
       421   13 Jun 2027 16:50:06.420   13 Jun 2027 16:51:47.703           101.283                Novosib         12660.375
       422   13 Jun 2027 16:53:30.078   13 Jun 2027 16:54:58.570            88.492                Novosib         11061.500
       423   13 Jun 2027 16:55:19.378   13 Jun 2027 17:03:19.509           480.131                  Delhi         60016.375
       424   13 Jun 2027 20:08:10.478   13 Jun 2027 20:10:01.615           111.137                 Moscow         13892.125
       425   13 Jun 2027 22:02:54.623   13 Jun 2027 22:04:48.231           113.608               CapeTown          1460.000
