uniorb/output/strategy_4/Drop/Drop_KinoSat_110905.txt

KinoSat_110905
-------------------------
    Access    *     Start Time (UTCG)     *     Stop Time (UTCG)  *   Duration (s)        *       Station  *  Data (Mbytes)
         1   01 Jun 2027 03:31:55.966   01 Jun 2027 03:32:10.499            14.533               Magadan1           454.156
         2   01 Jun 2027 03:32:13.255   01 Jun 2027 03:32:33.684            20.429                Anadyr2           638.406
         3   01 Jun 2027 03:32:37.358   01 Jun 2027 03:34:44.165           126.807                Anadyr1          3962.719
         4   01 Jun 2027 03:34:44.165   01 Jun 2027 03:35:32.054            47.889                Anadyr2          1496.531
         5   01 Jun 2027 05:09:47.412   01 Jun 2027 05:09:50.519             3.107               Magadan1            97.094
         6   01 Jun 2027 05:10:00.197   01 Jun 2027 05:12:19.017           138.820                Anadyr1          4338.125
         7   01 Jun 2027 05:12:55.352   01 Jun 2027 05:13:51.262            55.910                Anadyr1          1747.188
         8   01 Jun 2027 05:50:55.418   01 Jun 2027 05:51:00.673             5.255            RioGallegos           164.219
         9   01 Jun 2027 06:44:05.726   01 Jun 2027 06:46:19.931           134.205               Magadan1          4193.906
        10   01 Jun 2027 06:46:27.301   01 Jun 2027 06:47:49.283            81.982               Magadan1          2561.937
        11   01 Jun 2027 06:48:06.999   01 Jun 2027 06:50:42.703           155.704              Murmansk2          4865.750
        12   01 Jun 2027 06:51:19.902   01 Jun 2027 06:51:35.751            15.849              Murmansk1           495.281
        13   01 Jun 2027 06:52:01.564   01 Jun 2027 06:53:13.866            72.302              Murmansk1          2259.438
        14   01 Jun 2027 07:24:15.721   01 Jun 2027 07:26:02.421           106.700            RioGallegos          3334.375
        15   01 Jun 2027 08:00:20.356   01 Jun 2027 08:02:30.422           130.066                Sumatra          4064.562
        16   01 Jun 2027 08:20:58.491   01 Jun 2027 08:23:50.152           171.661                Irkutsk          5364.406
        17   01 Jun 2027 08:23:51.786   01 Jun 2027 08:25:29.275            97.489                Norilsk          3046.531
        18   01 Jun 2027 09:01:10.371   01 Jun 2027 09:01:45.732            35.361            RioGallegos          1105.031
        19   01 Jun 2027 09:35:25.853   01 Jun 2027 09:36:47.480            81.627                Sumatra          2550.844
        20   01 Jun 2027 09:46:05.117   01 Jun 2027 09:47:21.103            75.986                  Delhi          2374.563
        21   01 Jun 2027 09:58:06.941   01 Jun 2027 09:59:12.263            65.322                Irkutsk          2041.313
        22   01 Jun 2027 10:00:22.682   01 Jun 2027 10:00:32.591             9.909                Irkutsk           309.656
        23   01 Jun 2027 10:00:35.448   01 Jun 2027 10:02:07.723            92.275                Norilsk          2883.594
        24   01 Jun 2027 10:02:32.096   01 Jun 2027 10:03:19.661            47.565              Murmansk1          1486.406
        25   01 Jun 2027 10:04:06.980   01 Jun 2027 10:04:45.779            38.799                Norilsk          1212.469
        26   01 Jun 2027 11:20:18.304   01 Jun 2027 11:24:05.607           227.303                  Delhi          7103.219
        27   01 Jun 2027 11:34:42.399   01 Jun 2027 11:36:24.573           102.174                Norilsk          3192.938
        28   01 Jun 2027 11:36:37.116   01 Jun 2027 11:37:03.736            26.620              Murmansk2           831.875
        29   01 Jun 2027 11:37:03.736   01 Jun 2027 11:37:38.308            34.572              Murmansk1          1080.375
        30   01 Jun 2027 11:37:45.200   01 Jun 2027 11:40:13.484           148.284                Norilsk          4633.875
        31   01 Jun 2027 11:42:17.683   01 Jun 2027 11:42:40.443            22.760              Murmansk1           711.250
        32   01 Jun 2027 13:03:44.248   01 Jun 2027 13:07:33.893           229.645                 Moscow          7176.406
        33   01 Jun 2027 13:07:39.244   01 Jun 2027 13:11:14.681           215.437              Murmansk2          6732.406
        34   01 Jun 2027 13:12:34.383   01 Jun 2027 13:13:06.633            32.250              Murmansk2          1007.812
        35   01 Jun 2027 13:23:29.519   01 Jun 2027 13:26:35.360           185.841                Anadyr1          5807.531
        36   01 Jun 2027 13:27:08.040   01 Jun 2027 13:27:46.608            38.568                Anadyr2          1205.250
        37   01 Jun 2027 14:18:59.092   01 Jun 2027 14:19:56.861            57.769               CapeTown          1805.281
        38   01 Jun 2027 14:45:07.827   01 Jun 2027 14:45:28.635            20.808              Murmansk2           650.250
        39   01 Jun 2027 14:46:12.935   01 Jun 2027 14:47:28.390            75.455              Murmansk1          2357.969
        40   01 Jun 2027 14:49:59.253   01 Jun 2027 14:50:04.481             5.228              Murmansk1           163.375
        41   01 Jun 2027 14:50:21.159   01 Jun 2027 14:50:28.121             6.962              Murmansk2           217.563
        42   01 Jun 2027 14:52:55.772   01 Jun 2027 14:53:47.686            51.914              Murmansk2          1622.312
        43   01 Jun 2027 14:57:52.478   01 Jun 2027 14:59:59.667           127.189                Anadyr2          3974.656
        44   01 Jun 2027 15:00:01.184   01 Jun 2027 15:00:40.693            39.509                Anadyr1          1234.656
        45   01 Jun 2027 15:01:41.052   01 Jun 2027 15:02:43.142            62.090                Anadyr1          1940.313
        46   01 Jun 2027 16:25:46.111   01 Jun 2027 16:27:36.275           110.164              Murmansk2          3442.625
        47   01 Jun 2027 16:27:36.275   01 Jun 2027 16:28:38.963            62.688              Murmansk1          1959.000
        48   01 Jun 2027 16:33:38.368   01 Jun 2027 16:33:54.439            16.071                Anadyr1           502.219
        49   01 Jun 2027 16:35:00.600   01 Jun 2027 16:35:22.572            21.972                Anadyr2           686.625
        50   01 Jun 2027 16:35:32.865   01 Jun 2027 16:36:44.113            71.248                Anadyr2          2226.500
        51   01 Jun 2027 16:36:47.483   01 Jun 2027 16:41:10.787           263.304               Magadan2          8228.250
        52   01 Jun 2027 18:09:33.781   01 Jun 2027 18:11:15.938           102.157                Anadyr1          3192.406
        53   01 Jun 2027 18:11:39.871   01 Jun 2027 18:13:36.814           116.943                Anadyr2          3654.469
        54   01 Jun 2027 18:13:40.160   01 Jun 2027 18:15:54.356           134.196               Magadan2          4193.625
        55   01 Jun 2027 18:18:51.357   01 Jun 2027 18:19:02.845            11.488               Magadan1           359.000
        56   01 Jun 2027 18:19:14.058   01 Jun 2027 18:19:17.472             3.414               Magadan1           106.688
        57   01 Jun 2027 18:21:03.226   01 Jun 2027 18:22:12.347            69.121               Magadan2          2160.031
        58   01 Jun 2027 19:04:39.060   01 Jun 2027 19:07:25.759           166.699            RioGallegos          5209.344
        59   01 Jun 2027 19:08:30.211   01 Jun 2027 19:09:06.443            36.232            RioGallegos          1132.250
        60   01 Jun 2027 19:09:30.425   01 Jun 2027 19:10:41.826            71.401            RioGallegos          2231.281
        61   01 Jun 2027 19:46:22.606   01 Jun 2027 19:47:08.989            46.383                Anadyr2          1449.469
        62   01 Jun 2027 19:47:27.680   01 Jun 2027 19:48:02.529            34.849                Norilsk          1089.031
        63   01 Jun 2027 19:48:11.387   01 Jun 2027 19:51:28.762           197.375                Norilsk          6167.969
        64   01 Jun 2027 19:52:30.604   01 Jun 2027 19:52:57.963            27.359                Irkutsk           854.969
        65   01 Jun 2027 19:53:21.772   01 Jun 2027 19:53:46.763            24.991                Irkutsk           780.969
        66   01 Jun 2027 19:54:13.513   01 Jun 2027 19:54:31.134            17.621                Irkutsk           550.656
        67   01 Jun 2027 20:00:27.155   01 Jun 2027 20:01:22.547            55.392                Irkutsk          1731.000
        68   01 Jun 2027 20:06:05.131   01 Jun 2027 20:09:17.303           192.172                Sumatra          6005.375
        69   01 Jun 2027 20:12:13.244   01 Jun 2027 20:12:35.029            21.785                Sumatra           680.781
        70   01 Jun 2027 21:27:11.244   01 Jun 2027 21:27:35.056            23.812                Irkutsk           744.125
        71   01 Jun 2027 21:28:02.562   01 Jun 2027 21:29:13.349            70.787                Novosib          2212.094
        72   01 Jun 2027 21:30:04.705   01 Jun 2027 21:30:22.212            17.507                Novosib           547.094
        73   01 Jun 2027 21:33:33.097   01 Jun 2027 21:34:32.467            59.370                Novosib          1855.313
        74   01 Jun 2027 21:35:45.692   01 Jun 2027 21:37:13.562            87.870                Novosib          2745.937
        75   01 Jun 2027 21:37:39.569   01 Jun 2027 21:39:02.512            82.943                  Delhi          2591.969
        76   01 Jun 2027 21:42:30.459   01 Jun 2027 21:43:22.942            52.483                  Delhi          1640.094
        77   01 Jun 2027 22:59:19.624   01 Jun 2027 23:00:59.128            99.504                Norilsk          3109.500
        78   01 Jun 2027 23:01:05.583   01 Jun 2027 23:01:53.294            47.711               Magadan1          1490.969
        79   01 Jun 2027 23:01:53.294   01 Jun 2027 23:02:23.811            30.517               Magadan2           953.656
        80   01 Jun 2027 23:02:53.986   01 Jun 2027 23:05:45.474           171.488              Murmansk1          5359.000
        81   01 Jun 2027 23:06:10.003   01 Jun 2027 23:08:30.461           140.458              Murmansk2          4389.313
        82   02 Jun 2027 00:27:26.870   02 Jun 2027 00:27:35.666             8.796                Anadyr1           274.875
        83   02 Jun 2027 00:27:44.175   02 Jun 2027 00:28:37.340            53.165                Anadyr2          1661.406
        84   02 Jun 2027 00:28:41.479   02 Jun 2027 00:28:52.337            10.858                Anadyr2           339.313
        85   02 Jun 2027 00:30:02.334   02 Jun 2027 00:30:35.594            33.260                Anadyr2          1039.375
        86   02 Jun 2027 00:32:46.369   02 Jun 2027 00:32:51.920             5.551                Anadyr2           173.469
        87   02 Jun 2027 00:33:05.646   02 Jun 2027 00:35:19.835           134.189               Magadan2          4193.406
        88   02 Jun 2027 00:35:37.363   02 Jun 2027 00:35:52.631            15.268               Magadan2           477.125
        89   02 Jun 2027 00:37:28.258   02 Jun 2027 00:38:22.357            54.099              Murmansk2          1690.594
        90   02 Jun 2027 00:38:38.836   02 Jun 2027 00:40:27.858           109.022              Murmansk1          3406.938
        91   02 Jun 2027 00:40:42.233   02 Jun 2027 00:42:05.665            83.432                Novosib          2607.250
        92   02 Jun 2027 00:43:13.477   02 Jun 2027 00:43:31.810            18.333                 Moscow           572.906
        93   02 Jun 2027 00:49:43.241   02 Jun 2027 00:50:07.013            23.772                 Moscow           742.875
        94   02 Jun 2027 00:52:15.455   02 Jun 2027 00:52:41.488            26.033                 Moscow           813.531
        95   02 Jun 2027 01:06:02.855   02 Jun 2027 01:07:01.148            58.293               CapeTown          1821.656
        96   02 Jun 2027 01:10:59.124   02 Jun 2027 01:11:42.914            43.790               CapeTown          1368.437
        97   02 Jun 2027 02:01:36.034   02 Jun 2027 02:02:36.622            60.588                Anadyr2          1893.375
        98   02 Jun 2027 02:03:37.325   02 Jun 2027 02:04:13.194            35.869                Anadyr1          1120.906
        99   02 Jun 2027 02:04:45.406   02 Jun 2027 02:05:46.511            61.105               Magadan1          1909.531
       100   02 Jun 2027 02:06:19.074   02 Jun 2027 02:06:39.824            20.750               Magadan1           648.437
       101   02 Jun 2027 02:08:01.813   02 Jun 2027 02:08:11.469             9.656               Magadan2           301.750
       102   02 Jun 2027 02:10:07.238   02 Jun 2027 02:10:23.547            16.309               Magadan1           509.656
       103   02 Jun 2027 02:10:48.783   02 Jun 2027 02:11:03.470            14.687               Magadan2           458.969
       104   02 Jun 2027 02:13:25.489   02 Jun 2027 02:14:46.620            81.131              Murmansk2          2535.344
       105   02 Jun 2027 02:14:46.620   02 Jun 2027 02:15:25.736            39.116              Murmansk1          1222.375
       106   02 Jun 2027 02:16:42.277   02 Jun 2027 02:17:16.391            34.114                Novosib          1066.062
       107   02 Jun 2027 02:23:33.027   02 Jun 2027 02:23:37.891             4.864                 Moscow           152.000
       108   02 Jun 2027 02:24:13.316   02 Jun 2027 02:24:41.467            28.151                 Moscow           879.719
       109   02 Jun 2027 02:25:54.247   02 Jun 2027 02:25:58.537             4.290                 Moscow           134.063
       110   02 Jun 2027 02:27:14.309   02 Jun 2027 02:27:56.965            42.656                 Moscow          1333.000
       111   02 Jun 2027 02:47:07.055   02 Jun 2027 02:48:37.884            90.829               CapeTown          2838.406
       112   02 Jun 2027 03:43:14.467   02 Jun 2027 03:45:13.638           119.171               Magadan2          3724.094
       113   02 Jun 2027 03:45:43.298   02 Jun 2027 03:46:23.140            39.842               Magadan2          1245.062
       114   02 Jun 2027 03:46:23.140   02 Jun 2027 03:49:48.844           205.704               Magadan1          6428.250
       115   02 Jun 2027 05:22:26.431   02 Jun 2027 05:23:30.558            64.127                Anadyr1          2003.969
       116   02 Jun 2027 05:23:48.397   02 Jun 2027 05:23:59.814            11.417                Irkutsk           356.781
       117   02 Jun 2027 05:24:04.568   02 Jun 2027 05:24:51.570            47.002                Anadyr2          1468.813
       118   02 Jun 2027 05:25:34.052   02 Jun 2027 05:25:38.024             3.972               Magadan1           124.125
       119   02 Jun 2027 05:25:38.024   02 Jun 2027 05:25:47.291             9.267               Magadan2           289.594
       120   02 Jun 2027 06:57:52.166   02 Jun 2027 06:58:00.265             8.099               Magadan1           253.094
       121   02 Jun 2027 06:58:01.637   02 Jun 2027 06:59:46.744           105.107                Novosib          3284.594
       122   02 Jun 2027 07:00:15.087   02 Jun 2027 07:01:21.704            66.617                Irkutsk          2081.781
       123   02 Jun 2027 08:35:12.853   02 Jun 2027 08:37:28.755           135.902                Irkutsk          4246.937
       124   02 Jun 2027 09:51:19.387   02 Jun 2027 09:51:42.940            23.553                Sumatra           736.031
       125   02 Jun 2027 10:08:56.385   02 Jun 2027 10:09:31.797            35.412                Irkutsk          1106.625
       126   02 Jun 2027 10:09:34.622   02 Jun 2027 10:09:48.874            14.252                Novosib           445.375
       127   02 Jun 2027 10:10:01.260   02 Jun 2027 10:10:43.729            42.469                Novosib          1327.156
       128   02 Jun 2027 10:10:52.433   02 Jun 2027 10:11:00.932             8.499                Norilsk           265.594
       129   02 Jun 2027 10:11:48.729   02 Jun 2027 10:11:59.828            11.099                Norilsk           346.844
       130   02 Jun 2027 10:12:20.388   02 Jun 2027 10:12:47.553            27.165                Novosib           848.906
       131   02 Jun 2027 10:12:50.766   02 Jun 2027 10:12:51.089             0.323                Novosib            10.094
       132   02 Jun 2027 10:12:54.985   02 Jun 2027 10:12:57.593             2.608                Norilsk            81.500
       133   02 Jun 2027 10:13:03.320   02 Jun 2027 10:13:19.969            16.649                Norilsk           520.281
       134   02 Jun 2027 11:32:56.752   02 Jun 2027 11:33:16.138            19.386                  Delhi           605.812
       135   02 Jun 2027 11:33:34.612   02 Jun 2027 11:35:02.473            87.861                  Delhi          2745.656
       136   02 Jun 2027 11:36:03.755   02 Jun 2027 11:37:31.445            87.690                  Delhi          2740.313
       137   02 Jun 2027 11:46:35.172   02 Jun 2027 11:46:41.917             6.745                Norilsk           210.781
       138   02 Jun 2027 11:48:45.803   02 Jun 2027 11:49:12.205            26.402                Norilsk           825.062
       139   02 Jun 2027 11:50:01.722   02 Jun 2027 11:50:24.984            23.262                Norilsk           726.937
       140   02 Jun 2027 13:15:54.646   02 Jun 2027 13:17:19.957            85.311                 Moscow          2665.969
       141   02 Jun 2027 13:19:24.865   02 Jun 2027 13:24:06.304           281.439              Murmansk1          8794.969
       142   02 Jun 2027 13:27:24.888   02 Jun 2027 13:28:27.011            62.123                Norilsk          1941.344
       143   02 Jun 2027 13:35:01.507   02 Jun 2027 13:36:53.193           111.686                Anadyr2          3490.188
       144   02 Jun 2027 13:37:02.252   02 Jun 2027 13:38:26.251            83.999                Anadyr1          2624.969
       145   02 Jun 2027 13:40:44.966   02 Jun 2027 13:40:54.142             9.176                Anadyr2           286.750
       146   02 Jun 2027 14:37:17.615   02 Jun 2027 14:37:41.270            23.655               CapeTown           739.219
       147   02 Jun 2027 14:38:45.516   02 Jun 2027 14:38:53.691             8.175               CapeTown           255.469
       148   02 Jun 2027 14:57:33.526   02 Jun 2027 14:58:55.312            81.786              Murmansk2          2555.813
       149   02 Jun 2027 15:00:04.672   02 Jun 2027 15:00:20.461            15.789              Murmansk1           493.406
       150   02 Jun 2027 15:02:01.165   02 Jun 2027 15:02:19.870            18.705              Murmansk1           584.531
       151   02 Jun 2027 15:05:58.618   02 Jun 2027 15:06:10.452            11.834              Murmansk1           369.813
       152   02 Jun 2027 15:06:16.109   02 Jun 2027 15:07:30.348            74.239              Murmansk2          2319.969
       153   02 Jun 2027 15:09:51.028   02 Jun 2027 15:11:26.371            95.343                Anadyr2          2979.469
       154   02 Jun 2027 15:16:38.903   02 Jun 2027 15:17:04.631            25.728                Anadyr2           804.000
       155   02 Jun 2027 15:20:23.233   02 Jun 2027 15:21:07.888            44.655                Anadyr2          1395.469
       156   02 Jun 2027 16:38:47.102   02 Jun 2027 16:41:41.132           174.030              Murmansk2          5438.438
       157   02 Jun 2027 16:45:39.629   02 Jun 2027 16:47:28.442           108.813                Anadyr1          3400.406
       158   02 Jun 2027 16:48:18.377   02 Jun 2027 16:50:55.228           156.851               Magadan1          4901.594
       159   02 Jun 2027 16:54:28.317   02 Jun 2027 16:55:00.016            31.699               Magadan1           990.594
       160   02 Jun 2027 18:21:34.706   02 Jun 2027 18:25:04.791           210.085                Anadyr2          6565.156
       161   02 Jun 2027 18:25:33.532   02 Jun 2027 18:25:39.841             6.309               Magadan2           197.156
       162   02 Jun 2027 18:25:47.599   02 Jun 2027 18:26:00.538            12.939                Anadyr2           404.344
       163   02 Jun 2027 18:26:09.109   02 Jun 2027 18:26:59.332            50.223                Norilsk          1569.469
       164   02 Jun 2027 18:27:09.765   02 Jun 2027 18:28:12.673            62.908               Magadan1          1965.875
       165   02 Jun 2027 18:35:01.185   02 Jun 2027 18:35:13.416            12.231               Magadan1           382.219
       166   02 Jun 2027 18:36:31.275   02 Jun 2027 18:36:46.676            15.401               Magadan2           481.281
       167   02 Jun 2027 19:16:19.980   02 Jun 2027 19:20:16.917           236.937            RioGallegos          7404.281
       168   02 Jun 2027 19:21:34.981   02 Jun 2027 19:22:40.847            65.866            RioGallegos          2058.313
       169   02 Jun 2027 19:59:27.095   02 Jun 2027 20:01:34.853           127.758                Norilsk          3992.437
       170   02 Jun 2027 20:02:09.465   02 Jun 2027 20:03:29.590            80.125                Norilsk          2503.906
       171   02 Jun 2027 20:03:46.268   02 Jun 2027 20:05:52.963           126.695                Irkutsk          3959.219
       172   02 Jun 2027 20:17:41.297   02 Jun 2027 20:21:12.000           210.703                Sumatra          6584.469
       173   02 Jun 2027 21:35:21.530   02 Jun 2027 21:36:30.839            69.309                Norilsk          2165.906
       174   02 Jun 2027 21:39:53.944   02 Jun 2027 21:40:30.817            36.873                Novosib          1152.281
       175   02 Jun 2027 21:41:07.254   02 Jun 2027 21:41:23.062            15.808                Novosib           494.000
       176   02 Jun 2027 21:41:43.718   02 Jun 2027 21:41:48.199             4.481                Novosib           140.031
       177   02 Jun 2027 21:42:11.813   02 Jun 2027 21:43:21.265            69.452                Novosib          2170.375
       178   02 Jun 2027 21:47:35.585   02 Jun 2027 21:49:38.489           122.904                  Delhi          3840.750
       179   02 Jun 2027 21:56:39.066   02 Jun 2027 21:56:52.542            13.476                  Delhi           421.125
       180   02 Jun 2027 23:06:55.846   02 Jun 2027 23:07:08.093            12.247                Anadyr1           382.719
       181   02 Jun 2027 23:08:07.374   02 Jun 2027 23:08:17.508            10.134                Anadyr1           316.688
       182   02 Jun 2027 23:08:28.220   02 Jun 2027 23:08:30.809             2.589                Anadyr1            80.906
       183   02 Jun 2027 23:11:21.189   02 Jun 2027 23:13:01.149            99.960                Norilsk          3123.750
       184   02 Jun 2027 23:13:21.243   02 Jun 2027 23:13:37.478            16.235               Magadan2           507.344
       185   02 Jun 2027 23:13:49.658   02 Jun 2027 23:16:35.851           166.193              Murmansk2          5193.531
       186   02 Jun 2027 23:17:28.945   02 Jun 2027 23:17:43.989            15.044              Murmansk1           470.125
       187   02 Jun 2027 23:18:59.813   02 Jun 2027 23:19:42.532            42.719              Murmansk2          1334.969
       188   02 Jun 2027 23:19:57.879   02 Jun 2027 23:22:15.546           137.667                 Moscow          4302.094
       189   03 Jun 2027 00:39:10.690   03 Jun 2027 00:39:16.826             6.136                Anadyr2           191.750
       190   03 Jun 2027 00:41:02.816   03 Jun 2027 00:41:48.654            45.838                Anadyr2          1432.438
       191   03 Jun 2027 00:44:34.482   03 Jun 2027 00:46:06.246            91.764               Magadan2          2867.625
       192   03 Jun 2027 00:46:06.246   03 Jun 2027 00:46:22.178            15.932               Magadan1           497.875
       193   03 Jun 2027 00:46:35.062   03 Jun 2027 00:47:05.341            30.279               Magadan1           946.219
       194   03 Jun 2027 00:49:29.343   03 Jun 2027 00:50:04.421            35.078              Murmansk2          1096.188
       195   03 Jun 2027 00:50:40.234   03 Jun 2027 00:51:14.699            34.465              Murmansk1          1077.031
       196   03 Jun 2027 00:51:23.314   03 Jun 2027 00:51:49.414            26.100              Murmansk2           815.625
       197   03 Jun 2027 00:52:04.086   03 Jun 2027 00:52:19.369            15.283                Novosib           477.594
       198   03 Jun 2027 00:52:56.097   03 Jun 2027 00:54:19.102            83.005                 Moscow          2593.906
       199   03 Jun 2027 00:55:18.625   03 Jun 2027 00:55:42.473            23.848                 Moscow           745.250
       200   03 Jun 2027 01:02:40.055   03 Jun 2027 01:04:17.986            97.931                 Moscow          3060.344
       201   03 Jun 2027 01:25:53.049   03 Jun 2027 01:26:10.482            17.433               CapeTown           544.781
       202   03 Jun 2027 02:13:30.462   03 Jun 2027 02:14:24.398            53.936                Anadyr2          1685.500
       203   03 Jun 2027 02:14:36.267   03 Jun 2027 02:15:20.553            44.286                Anadyr2          1383.937
       204   03 Jun 2027 02:16:18.723   03 Jun 2027 02:17:23.039            64.316               Magadan1          2009.875
       205   03 Jun 2027 02:19:01.978   03 Jun 2027 02:19:10.156             8.178               Magadan2           255.563
       206   03 Jun 2027 02:20:30.355   03 Jun 2027 02:21:36.347            65.992               Magadan2          2062.250
       207   03 Jun 2027 02:25:27.168   03 Jun 2027 02:26:13.499            46.331              Murmansk1          1447.844
       208   03 Jun 2027 02:26:40.380   03 Jun 2027 02:27:23.748            43.368              Murmansk2          1355.250
       209   03 Jun 2027 02:28:40.152   03 Jun 2027 02:29:16.018            35.866                 Moscow          1120.813
       210   03 Jun 2027 02:35:06.738   03 Jun 2027 02:35:16.958            10.220                 Moscow           319.375
       211   03 Jun 2027 02:35:26.587   03 Jun 2027 02:36:51.033            84.446                 Moscow          2638.938
       212   03 Jun 2027 03:02:36.751   03 Jun 2027 03:02:49.555            12.804               CapeTown           400.125
       213   03 Jun 2027 03:04:00.871   03 Jun 2027 03:04:11.020            10.149               CapeTown           317.156
       214   03 Jun 2027 03:53:35.864   03 Jun 2027 03:53:50.514            14.650               Magadan2           457.812
       215   03 Jun 2027 03:55:42.129   03 Jun 2027 03:57:07.827            85.698               Magadan2          2678.063
       216   03 Jun 2027 03:57:14.548   03 Jun 2027 03:57:44.397            29.849               Magadan2           932.781
       217   03 Jun 2027 03:57:48.716   03 Jun 2027 03:58:20.902            32.186               Magadan1          1005.813
       218   03 Jun 2027 03:58:30.682   03 Jun 2027 03:58:54.466            23.784               Magadan1           743.250
       219   03 Jun 2027 04:00:54.146   03 Jun 2027 04:01:30.320            36.174               Magadan2          1130.437
       220   03 Jun 2027 04:44:53.403   03 Jun 2027 04:45:16.760            23.357            RioGallegos           729.906
       221   03 Jun 2027 05:30:51.275   03 Jun 2027 05:32:00.764            69.489                Irkutsk          2171.531
       222   03 Jun 2027 05:34:54.400   03 Jun 2027 05:35:25.640            31.240                Irkutsk           976.250
       223   03 Jun 2027 05:35:52.431   03 Jun 2027 05:36:22.116            29.685                Anadyr1           927.656
       224   03 Jun 2027 05:36:49.572   03 Jun 2027 05:37:43.203            53.631                Anadyr2          1675.969
       225   03 Jun 2027 07:08:41.651   03 Jun 2027 07:09:20.315            38.664               Magadan2          1208.250
       226   03 Jun 2027 07:09:45.296   03 Jun 2027 07:09:46.417             1.121               Magadan1            35.031
       227   03 Jun 2027 07:09:54.450   03 Jun 2027 07:10:19.950            25.500               Magadan1           796.875
       228   03 Jun 2027 07:11:33.115   03 Jun 2027 07:12:28.414            55.299               Magadan2          1728.094
       229   03 Jun 2027 07:12:40.716   03 Jun 2027 07:13:02.567            21.851               Magadan1           682.844
       230   03 Jun 2027 07:13:25.866   03 Jun 2027 07:14:19.993            54.127              Murmansk2          1691.469
       231   03 Jun 2027 08:23:32.240   03 Jun 2027 08:23:52.926            20.686                Sumatra           646.438
       232   03 Jun 2027 08:25:53.910   03 Jun 2027 08:27:11.455            77.545                Sumatra          2423.281
       233   03 Jun 2027 08:44:57.869   03 Jun 2027 08:45:09.791            11.922                Irkutsk           372.563
       234   03 Jun 2027 08:45:32.788   03 Jun 2027 08:45:57.584            24.796                Irkutsk           774.875
       235   03 Jun 2027 08:46:14.956   03 Jun 2027 08:46:36.163            21.207                Norilsk           662.719
       236   03 Jun 2027 08:46:51.968   03 Jun 2027 08:47:17.697            25.729                Irkutsk           804.031
       237   03 Jun 2027 08:47:33.502   03 Jun 2027 08:47:46.777            13.275                Irkutsk           414.844
       238   03 Jun 2027 08:47:59.423   03 Jun 2027 08:49:01.587            62.164                Irkutsk          1942.625
       239   03 Jun 2027 08:49:15.564   03 Jun 2027 08:49:21.626             6.062              Murmansk1           189.438
       240   03 Jun 2027 09:26:11.672   03 Jun 2027 09:26:42.462            30.790            RioGallegos           962.188
       241   03 Jun 2027 09:27:16.265   03 Jun 2027 09:27:23.210             6.945            RioGallegos           217.031
       242   03 Jun 2027 09:29:00.590   03 Jun 2027 09:29:06.068             5.478            RioGallegos           171.187
       243   03 Jun 2027 09:29:19.926   03 Jun 2027 09:29:43.729            23.803            RioGallegos           743.844
       244   03 Jun 2027 10:00:24.396   03 Jun 2027 10:01:48.610            84.214                Sumatra          2631.688
       245   03 Jun 2027 10:10:31.852   03 Jun 2027 10:11:16.845            44.993                  Delhi          1406.031
       246   03 Jun 2027 10:21:12.520   03 Jun 2027 10:21:32.462            19.942                Novosib           623.188
       247   03 Jun 2027 10:21:41.965   03 Jun 2027 10:22:50.213            68.248                Novosib          2132.750
       248   03 Jun 2027 10:24:12.256   03 Jun 2027 10:24:30.949            18.693                Novosib           584.156
       249   03 Jun 2027 10:24:33.603   03 Jun 2027 10:24:50.554            16.951                Novosib           529.719
       250   03 Jun 2027 10:24:56.380   03 Jun 2027 10:24:56.830             0.450                Novosib            14.063
       251   03 Jun 2027 11:45:49.620   03 Jun 2027 11:48:36.004           166.384                  Delhi          5199.500
       252   03 Jun 2027 12:00:36.245   03 Jun 2027 12:01:05.077            28.832                Novosib           901.000
       253   03 Jun 2027 12:02:32.108   03 Jun 2027 12:02:39.001             6.893                Norilsk           215.406
       254   03 Jun 2027 12:04:17.334   03 Jun 2027 12:04:35.423            18.089                Norilsk           565.281
       255   03 Jun 2027 12:05:05.022   03 Jun 2027 12:06:18.075            73.053                Norilsk          2282.906
       256   03 Jun 2027 13:09:39.457   03 Jun 2027 13:10:25.418            45.961               CapeTown          1436.281
       257   03 Jun 2027 13:11:22.893   03 Jun 2027 13:11:48.021            25.128               CapeTown           785.250
       258   03 Jun 2027 13:12:42.012   03 Jun 2027 13:13:45.496            63.484               CapeTown          1983.875
       259   03 Jun 2027 13:28:46.803   03 Jun 2027 13:29:19.887            33.084                 Moscow          1033.875
       260   03 Jun 2027 13:31:35.800   03 Jun 2027 13:32:52.645            76.845              Murmansk2          2401.406
       261   03 Jun 2027 13:33:08.011   03 Jun 2027 13:33:16.627             8.616              Murmansk1           269.250
       262   03 Jun 2027 13:33:53.029   03 Jun 2027 13:34:21.123            28.094              Murmansk1           877.938
       263   03 Jun 2027 13:36:07.956   03 Jun 2027 13:36:42.425            34.469              Murmansk2          1077.156
       264   03 Jun 2027 13:39:31.259   03 Jun 2027 13:40:00.184            28.925              Murmansk2           903.906
       265   03 Jun 2027 13:40:44.582   03 Jun 2027 13:40:56.594            12.012              Murmansk2           375.375
       266   03 Jun 2027 13:41:20.363   03 Jun 2027 13:41:36.699            16.336              Murmansk2           510.500
       267   03 Jun 2027 13:43:56.164   03 Jun 2027 13:44:03.443             7.279              Murmansk2           227.469
       268   03 Jun 2027 13:46:44.120   03 Jun 2027 13:49:42.755           178.635                Anadyr1          5582.344
       269   03 Jun 2027 13:52:45.538   03 Jun 2027 13:53:13.096            27.558                Anadyr1           861.188
       270   03 Jun 2027 14:52:27.325   03 Jun 2027 14:53:02.117            34.792               CapeTown          1087.250
       271   03 Jun 2027 15:08:49.121   03 Jun 2027 15:09:19.058            29.937                 Moscow           935.531
       272   03 Jun 2027 15:10:01.774   03 Jun 2027 15:10:02.364             0.590              Murmansk1            18.438
       273   03 Jun 2027 15:10:16.695   03 Jun 2027 15:10:35.907            19.212              Murmansk2           600.375
       274   03 Jun 2027 15:12:22.072   03 Jun 2027 15:14:03.073           101.001              Murmansk1          3156.281
       275   03 Jun 2027 15:21:50.219   03 Jun 2027 15:23:35.489           105.270                Anadyr1          3289.688
       276   03 Jun 2027 15:27:21.090   03 Jun 2027 15:29:13.296           112.206               Magadan1          3506.438
       277   03 Jun 2027 16:52:12.076   03 Jun 2027 16:54:09.180           117.104              Murmansk1          3659.500
       278   03 Jun 2027 16:57:40.983   03 Jun 2027 16:59:46.620           125.637                Anadyr1          3926.156
       279   03 Jun 2027 17:00:13.736   03 Jun 2027 17:02:16.361           122.625               Magadan2          3832.031
       280   03 Jun 2027 17:06:45.571   03 Jun 2027 17:07:02.711            17.140               Magadan1           535.625
       281   03 Jun 2027 17:07:20.819   03 Jun 2027 17:08:30.981            70.162               Magadan1          2192.562
       282   03 Jun 2027 18:33:35.408   03 Jun 2027 18:36:41.620           186.212                Anadyr1          5819.125
       283   03 Jun 2027 18:36:46.286   03 Jun 2027 18:37:16.316            30.030                Anadyr1           938.438
       284   03 Jun 2027 18:37:24.705   03 Jun 2027 18:38:01.162            36.457               Magadan1          1139.281
       285   03 Jun 2027 18:38:11.388   03 Jun 2027 18:38:25.559            14.171               Magadan1           442.844
       286   03 Jun 2027 18:38:29.532   03 Jun 2027 18:40:07.954            98.422                Norilsk          3075.687
       287   03 Jun 2027 19:28:05.832   03 Jun 2027 19:30:52.901           167.069            RioGallegos          5220.906
       288   03 Jun 2027 19:31:43.448   03 Jun 2027 19:32:02.122            18.674            RioGallegos           583.563
       289   03 Jun 2027 19:37:17.498   03 Jun 2027 19:37:31.621            14.123            RioGallegos           441.344
       290   03 Jun 2027 20:11:27.144   03 Jun 2027 20:13:20.519           113.375                Norilsk          3542.969
       291   03 Jun 2027 20:13:57.006   03 Jun 2027 20:14:12.583            15.577               Magadan1           486.781
       292   03 Jun 2027 20:15:07.769   03 Jun 2027 20:15:30.731            22.962                Norilsk           717.562
       293   03 Jun 2027 20:15:38.863   03 Jun 2027 20:16:30.024            51.161                Irkutsk          1598.781
       294   03 Jun 2027 20:16:41.545   03 Jun 2027 20:16:50.274             8.729                Norilsk           272.781
       295   03 Jun 2027 20:17:30.672   03 Jun 2027 20:18:00.115            29.443                Irkutsk           920.094
       296   03 Jun 2027 20:18:26.369   03 Jun 2027 20:20:24.611           118.242                Novosib          3695.063
       297   03 Jun 2027 20:22:18.101   03 Jun 2027 20:22:36.365            18.264                Novosib           570.750
       298   03 Jun 2027 20:23:10.799   03 Jun 2027 20:23:34.132            23.333                Irkutsk           729.156
       299   03 Jun 2027 20:29:24.878   03 Jun 2027 20:30:36.072            71.194                Sumatra          2224.813
       300   03 Jun 2027 20:30:53.218   03 Jun 2027 20:32:02.186            68.968                Sumatra          2155.250
       301   03 Jun 2027 20:39:56.803   03 Jun 2027 20:41:26.961            90.158                Sumatra          2817.437
       302   03 Jun 2027 21:50:07.315   03 Jun 2027 21:50:24.789            17.474                Norilsk           546.062
       303   03 Jun 2027 21:50:38.245   03 Jun 2027 21:50:54.292            16.047                Norilsk           501.469
       304   03 Jun 2027 21:51:15.065   03 Jun 2027 21:51:39.702            24.637                Irkutsk           769.906
       305   03 Jun 2027 21:51:42.661   03 Jun 2027 21:52:25.534            42.873                Novosib          1339.781
       306   03 Jun 2027 21:53:11.540   03 Jun 2027 21:53:48.977            37.437                Novosib          1169.906
       307   03 Jun 2027 21:54:24.191   03 Jun 2027 21:55:10.721            46.530                Novosib          1454.063
       308   03 Jun 2027 21:59:14.274   03 Jun 2027 22:01:49.593           155.319                  Delhi          4853.719
       309   03 Jun 2027 23:18:57.082   03 Jun 2027 23:19:09.176            12.094                Anadyr2           377.937
       310   03 Jun 2027 23:19:09.176   03 Jun 2027 23:19:25.206            16.030                Anadyr1           500.938
       311   03 Jun 2027 23:19:52.153   03 Jun 2027 23:19:53.051             0.898                Anadyr2            28.062
       312   03 Jun 2027 23:20:06.844   03 Jun 2027 23:20:22.997            16.153                Anadyr2           504.781
       313   03 Jun 2027 23:23:30.422   03 Jun 2027 23:25:37.161           126.739               Magadan1          3960.594
       314   03 Jun 2027 23:25:37.161   03 Jun 2027 23:25:51.208            14.047               Magadan2           438.969
       315   03 Jun 2027 23:25:51.950   03 Jun 2027 23:30:00.083           248.133              Murmansk1          7754.156
       316   03 Jun 2027 23:30:42.232   03 Jun 2027 23:31:54.822            72.590                 Moscow          2268.437
       317   03 Jun 2027 23:32:52.427   03 Jun 2027 23:34:27.660            95.233              Murmansk1          2976.031
       318   04 Jun 2027 00:56:02.602   04 Jun 2027 00:57:16.277            73.675               Magadan2          2302.344
       319   04 Jun 2027 00:59:24.191   04 Jun 2027 00:59:42.722            18.531               Magadan1           579.094
       320   04 Jun 2027 01:01:30.639   04 Jun 2027 01:03:38.447           127.808              Murmansk2          3994.000
       321   04 Jun 2027 01:03:44.790   04 Jun 2027 01:03:49.954             5.164              Murmansk2           161.375
       322   04 Jun 2027 01:04:52.966   04 Jun 2027 01:06:43.616           110.650                 Moscow          3457.812
       323   04 Jun 2027 01:29:14.544   04 Jun 2027 01:30:29.060            74.516               CapeTown          2328.625
       324   04 Jun 2027 02:25:26.577   04 Jun 2027 02:26:36.311            69.734                Anadyr2          2179.187
       325   04 Jun 2027 02:26:54.390   04 Jun 2027 02:27:22.276            27.886                Anadyr1           871.437
       326   04 Jun 2027 02:27:40.427   04 Jun 2027 02:27:44.544             4.117                Anadyr1           128.656
       327   04 Jun 2027 02:27:53.565   04 Jun 2027 02:28:42.657            49.092               Magadan2          1534.125
       328   04 Jun 2027 02:30:13.094   04 Jun 2027 02:30:32.876            19.782               Magadan2           618.188
       329   04 Jun 2027 02:30:41.912   04 Jun 2027 02:30:50.804             8.892               Magadan1           277.875
       330   04 Jun 2027 02:32:36.483   04 Jun 2027 02:33:04.572            28.089               Magadan2           877.781
       331   04 Jun 2027 02:37:08.005   04 Jun 2027 02:37:37.452            29.447                Norilsk           920.219
       332   04 Jun 2027 02:37:40.102   04 Jun 2027 02:38:59.403            79.301              Murmansk2          2478.156
       333   04 Jun 2027 02:40:42.909   04 Jun 2027 02:40:59.242            16.333                 Moscow           510.406
       334   04 Jun 2027 02:42:18.788   04 Jun 2027 02:42:22.693             3.905                 Moscow           122.031
       335   04 Jun 2027 02:43:44.045   04 Jun 2027 02:43:58.020            13.975                 Moscow           436.719
       336   04 Jun 2027 02:47:05.100   04 Jun 2027 02:47:12.633             7.533                 Moscow           235.406
       337   04 Jun 2027 02:47:21.689   04 Jun 2027 02:48:07.276            45.587                 Moscow          1424.594
       338   04 Jun 2027 02:53:11.259   04 Jun 2027 02:53:11.491             0.232                 Moscow             7.250
       339   04 Jun 2027 03:05:20.081   04 Jun 2027 03:05:29.480             9.399               CapeTown           293.719
       340   04 Jun 2027 03:06:28.665   04 Jun 2027 03:07:18.329            49.664               CapeTown          1552.000
       341   04 Jun 2027 03:13:14.798   04 Jun 2027 03:13:32.234            17.436               CapeTown           544.875
       342   04 Jun 2027 03:15:17.546   04 Jun 2027 03:15:35.472            17.926               CapeTown           560.187
       343   04 Jun 2027 04:06:37.726   04 Jun 2027 04:06:40.627             2.901                Anadyr2            90.656
       344   04 Jun 2027 04:07:07.200   04 Jun 2027 04:10:13.876           186.676                Anadyr1          5833.625
       345   04 Jun 2027 04:10:13.876   04 Jun 2027 04:10:44.551            30.675                Anadyr2           958.594
       346   04 Jun 2027 04:10:44.551   04 Jun 2027 04:11:58.706            74.155                Anadyr1          2317.344
       347   04 Jun 2027 04:12:04.966   04 Jun 2027 04:12:38.244            33.278                Anadyr2          1039.937
       348   04 Jun 2027 04:55:03.220   04 Jun 2027 04:56:31.241            88.021            RioGallegos          2750.656
       349   04 Jun 2027 05:45:37.020   04 Jun 2027 05:48:13.160           156.140               Magadan1          4879.375
       350   04 Jun 2027 05:48:21.382   04 Jun 2027 05:48:39.660            18.278                Irkutsk           571.188
       351   04 Jun 2027 05:48:49.414   04 Jun 2027 05:49:36.747            47.333                Anadyr2          1479.156
       352   04 Jun 2027 07:20:05.667   04 Jun 2027 07:21:01.188            55.521                Irkutsk          1735.031
       353   04 Jun 2027 07:21:09.632   04 Jun 2027 07:21:20.849            11.217               Magadan1           350.531
       354   04 Jun 2027 07:21:21.705   04 Jun 2027 07:21:23.362             1.657                Irkutsk            51.781
       355   04 Jun 2027 07:21:48.668   04 Jun 2027 07:21:56.487             7.819               Magadan2           244.344
       356   04 Jun 2027 07:22:23.686   04 Jun 2027 07:23:32.252            68.566               Magadan1          2142.687
       357   04 Jun 2027 07:23:58.366   04 Jun 2027 07:24:09.377            11.011               Magadan2           344.094
       358   04 Jun 2027 07:24:09.377   04 Jun 2027 07:24:35.233            25.856               Magadan1           808.000
       359   04 Jun 2027 07:25:27.624   04 Jun 2027 07:26:05.548            37.924              Murmansk1          1185.125
       360   04 Jun 2027 08:02:40.181   04 Jun 2027 08:02:47.692             7.511            RioGallegos           234.719
       361   04 Jun 2027 08:03:30.551   04 Jun 2027 08:03:31.436             0.885            RioGallegos            27.656
       362   04 Jun 2027 08:11:17.828   04 Jun 2027 08:11:42.331            24.503            RioGallegos           765.719
       363   04 Jun 2027 08:35:19.100   04 Jun 2027 08:36:27.950            68.850                Sumatra          2151.562
       364   04 Jun 2027 08:55:42.856   04 Jun 2027 08:56:20.169            37.313                Irkutsk          1166.031
       365   04 Jun 2027 08:56:57.754   04 Jun 2027 08:57:41.293            43.539                Norilsk          1360.594
       366   04 Jun 2027 08:57:48.879   04 Jun 2027 08:57:53.910             5.031                Norilsk           157.219
       367   04 Jun 2027 08:58:07.804   04 Jun 2027 08:58:29.384            21.580                Norilsk           674.375
       368   04 Jun 2027 08:58:37.050   04 Jun 2027 08:59:09.382            32.332                Norilsk          1010.375
       369   04 Jun 2027 08:59:16.225   04 Jun 2027 08:59:16.990             0.765                Norilsk            23.906
       370   04 Jun 2027 08:59:20.866   04 Jun 2027 08:59:21.764             0.898                Irkutsk            28.062
       371   04 Jun 2027 08:59:24.977   04 Jun 2027 08:59:30.586             5.609                Irkutsk           175.281
       372   04 Jun 2027 08:59:44.366   04 Jun 2027 08:59:57.583            13.217                Irkutsk           413.031
       373   04 Jun 2027 09:00:38.554   04 Jun 2027 09:01:01.297            22.743                Norilsk           710.719
       374   04 Jun 2027 09:01:09.189   04 Jun 2027 09:01:10.916             1.727                Irkutsk            53.969
       375   04 Jun 2027 09:01:12.370   04 Jun 2027 09:01:40.321            27.951                Norilsk           873.469
       376   04 Jun 2027 09:38:52.708   04 Jun 2027 09:39:04.322            11.614            RioGallegos           362.937
       377   04 Jun 2027 09:40:32.674   04 Jun 2027 09:40:57.241            24.567            RioGallegos           767.719
       378   04 Jun 2027 10:13:14.377   04 Jun 2027 10:15:01.867           107.490                Sumatra          3359.062
       379   04 Jun 2027 10:22:47.968   04 Jun 2027 10:22:54.075             6.107                  Delhi           190.844
       380   04 Jun 2027 10:33:37.790   04 Jun 2027 10:34:43.058            65.268                Novosib          2039.625
       381   04 Jun 2027 10:34:49.233   04 Jun 2027 10:34:56.082             6.849                Novosib           214.031
       382   04 Jun 2027 10:35:00.005   04 Jun 2027 10:36:18.787            78.782                Novosib          2461.938
       383   04 Jun 2027 10:36:29.673   04 Jun 2027 10:36:40.118            10.445                Novosib           326.406
       384   04 Jun 2027 10:36:42.973   04 Jun 2027 10:36:53.042            10.069                Novosib           314.656
       385   04 Jun 2027 10:37:00.509   04 Jun 2027 10:37:01.018             0.509                Norilsk            15.906
       386   04 Jun 2027 11:59:09.007   04 Jun 2027 12:02:01.835           172.828                  Delhi          5400.875
       387   04 Jun 2027 12:07:35.831   04 Jun 2027 12:07:48.821            12.990                Novosib           405.938
       388   04 Jun 2027 12:08:55.948   04 Jun 2027 12:09:14.547            18.599                Novosib           581.219
       389   04 Jun 2027 12:10:13.318   04 Jun 2027 12:10:37.693            24.375                Novosib           761.719
       390   04 Jun 2027 12:15:39.574   04 Jun 2027 12:16:01.056            21.482                Norilsk           671.312
       391   04 Jun 2027 13:19:26.216   04 Jun 2027 13:22:04.289           158.073               CapeTown          4939.781
       392   04 Jun 2027 13:24:50.944   04 Jun 2027 13:25:38.170            47.226               CapeTown          1475.812
       393   04 Jun 2027 13:43:48.608   04 Jun 2027 13:44:53.461            64.853              Murmansk2          2026.656
       394   04 Jun 2027 13:45:08.716   04 Jun 2027 13:45:56.046            47.330              Murmansk1          1479.063
       395   04 Jun 2027 13:48:09.689   04 Jun 2027 13:48:31.019            21.330              Murmansk1           666.563
       396   04 Jun 2027 13:50:06.752   04 Jun 2027 13:50:34.284            27.532              Murmansk1           860.375
       397   04 Jun 2027 13:58:32.185   04 Jun 2027 14:00:52.077           139.892                Anadyr2          4371.625
       398   04 Jun 2027 14:02:52.830   04 Jun 2027 14:03:15.653            22.823                Anadyr1           713.219
       399   04 Jun 2027 14:04:45.828   04 Jun 2027 14:05:13.872            28.044                Anadyr1           876.375
       400   04 Jun 2027 15:04:49.224   04 Jun 2027 15:05:05.030            15.806               CapeTown           493.937
       401   04 Jun 2027 15:22:32.760   04 Jun 2027 15:24:35.356           122.596              Murmansk2          3831.125
       402   04 Jun 2027 15:26:04.949   04 Jun 2027 15:26:14.157             9.208              Murmansk1           287.750
       403   04 Jun 2027 15:27:59.822   04 Jun 2027 15:28:09.170             9.348              Murmansk1           292.125
       404   04 Jun 2027 15:29:07.401   04 Jun 2027 15:29:52.813            45.412              Murmansk1          1419.125
       405   04 Jun 2027 15:33:49.933   04 Jun 2027 15:34:44.371            54.438                Anadyr2          1701.187
       406   04 Jun 2027 15:34:44.371   04 Jun 2027 15:35:16.897            32.526                Anadyr1          1016.438
       407   04 Jun 2027 15:35:41.702   04 Jun 2027 15:36:04.214            22.512                Anadyr1           703.500
       408   04 Jun 2027 15:36:44.532   04 Jun 2027 15:37:52.193            67.661                Anadyr1          2114.406
       409   04 Jun 2027 15:38:08.120   04 Jun 2027 15:40:53.160           165.040               Magadan1          5157.500
       410   04 Jun 2027 17:09:42.379   04 Jun 2027 17:11:09.877            87.498                Anadyr2          2734.313
       411   04 Jun 2027 17:11:14.662   04 Jun 2027 17:11:24.642             9.980                Anadyr1           311.875
       412   04 Jun 2027 17:11:24.642   04 Jun 2027 17:11:44.223            19.581                Anadyr2           611.906
       413   04 Jun 2027 17:12:10.362   04 Jun 2027 17:12:50.379            40.017               Magadan2          1250.531
       414   04 Jun 2027 17:13:39.411   04 Jun 2027 17:16:06.892           147.481               Magadan2          4608.781
       415   04 Jun 2027 18:45:35.854   04 Jun 2027 18:47:20.205           104.351                Anadyr2          3260.969
       416   04 Jun 2027 18:47:40.298   04 Jun 2027 18:49:17.875            97.577                Anadyr1          3049.281
       417   04 Jun 2027 18:49:21.143   04 Jun 2027 18:51:48.446           147.303                Norilsk          4603.219
       418   04 Jun 2027 18:54:51.233   04 Jun 2027 18:55:21.119            29.886                Irkutsk           933.938
       419   04 Jun 2027 18:56:57.136   04 Jun 2027 18:57:53.319            56.183                Irkutsk          1755.719
       420   04 Jun 2027 19:39:55.209   04 Jun 2027 19:42:03.247           128.038            RioGallegos          4001.187
       421   04 Jun 2027 19:50:55.778   04 Jun 2027 19:51:07.948            12.170            RioGallegos           380.313
       422   04 Jun 2027 20:22:44.260   04 Jun 2027 20:23:07.858            23.598                Anadyr1           737.437
       423   04 Jun 2027 20:23:57.822   04 Jun 2027 20:25:39.935           102.113               Magadan1          3191.031
       424   04 Jun 2027 20:26:06.951   04 Jun 2027 20:26:23.219            16.268               Magadan1           508.375
       425   04 Jun 2027 20:27:32.123   04 Jun 2027 20:27:58.026            25.903                Norilsk           809.469
       426   04 Jun 2027 20:28:35.874   04 Jun 2027 20:29:05.770            29.896                Norilsk           934.250
       427   04 Jun 2027 20:29:17.843   04 Jun 2027 20:30:04.319            46.476                Irkutsk          1452.375
       428   04 Jun 2027 20:30:23.553   04 Jun 2027 20:32:10.381           106.828                Novosib          3338.375
       429   04 Jun 2027 20:32:52.279   04 Jun 2027 20:33:05.797            13.518                Novosib           422.437
       430   04 Jun 2027 20:34:21.699   04 Jun 2027 20:34:41.255            19.556                Novosib           611.125
       431   04 Jun 2027 20:41:14.826   04 Jun 2027 20:42:18.076            63.250                Sumatra          1976.562
       432   04 Jun 2027 20:44:33.319   04 Jun 2027 20:44:36.814             3.495                Sumatra           109.219
       433   04 Jun 2027 20:47:05.588   04 Jun 2027 20:47:17.974            12.386                Sumatra           387.062
       434   04 Jun 2027 20:48:16.262   04 Jun 2027 20:49:25.095            68.833                Sumatra          2151.031
       435   04 Jun 2027 22:00:02.230   04 Jun 2027 22:01:20.551            78.321               Magadan2          2447.531
       436   04 Jun 2027 22:03:18.149   04 Jun 2027 22:03:48.396            30.247                Irkutsk           945.219
       437   04 Jun 2027 22:04:04.996   04 Jun 2027 22:05:12.885            67.889                Novosib          2121.531
       438   04 Jun 2027 22:05:54.811   04 Jun 2027 22:05:58.618             3.807                Novosib           118.969
       439   04 Jun 2027 22:06:39.846   04 Jun 2027 22:06:47.710             7.864                Novosib           245.750
       440   04 Jun 2027 22:10:58.986   04 Jun 2027 22:14:40.459           221.473                  Delhi          6921.031
       441   04 Jun 2027 23:30:58.197   04 Jun 2027 23:31:10.378            12.181                Anadyr2           380.656
       442   04 Jun 2027 23:35:18.462   04 Jun 2027 23:35:51.844            33.382               Magadan1          1043.187
       443   04 Jun 2027 23:36:07.177   04 Jun 2027 23:37:36.998            89.821               Magadan1          2806.906
       444   04 Jun 2027 23:37:43.896   04 Jun 2027 23:40:34.410           170.514              Murmansk2          5328.562
       445   04 Jun 2027 23:41:26.859   04 Jun 2027 23:42:28.475            61.616              Murmansk2          1925.500
       446   04 Jun 2027 23:43:09.805   04 Jun 2027 23:44:27.304            77.499                 Moscow          2421.844
       447   04 Jun 2027 23:47:23.936   04 Jun 2027 23:47:55.671            31.735                 Moscow           991.719
       448   05 Jun 2027 01:02:41.414   05 Jun 2027 01:02:55.618            14.204                Anadyr1           443.875
       449   05 Jun 2027 01:04:07.421   05 Jun 2027 01:04:26.289            18.868                Anadyr2           589.625
       450   05 Jun 2027 01:04:50.780   05 Jun 2027 01:05:13.580            22.800                Anadyr1           712.500
       451   05 Jun 2027 01:05:33.080   05 Jun 2027 01:05:40.211             7.131                Anadyr2           222.844
       452   05 Jun 2027 01:07:30.546   05 Jun 2027 01:09:36.839           126.293               Magadan1          3946.656
       453   05 Jun 2027 01:11:21.834   05 Jun 2027 01:11:26.074             4.240               Magadan1           132.500
       454   05 Jun 2027 01:13:28.454   05 Jun 2027 01:13:45.084            16.630               Magadan2           519.687
       455   05 Jun 2027 01:13:46.459   05 Jun 2027 01:15:28.565           102.106              Murmansk1          3190.812
       456   05 Jun 2027 01:15:28.565   05 Jun 2027 01:15:32.722             4.157              Murmansk2           129.906
       457   05 Jun 2027 01:15:47.298   05 Jun 2027 01:16:03.027            15.729                Novosib           491.531
       458   05 Jun 2027 01:16:17.356   05 Jun 2027 01:16:32.437            15.081              Murmansk2           471.281
       459   05 Jun 2027 01:16:50.954   05 Jun 2027 01:18:42.693           111.739                 Moscow          3491.844
       460   05 Jun 2027 01:42:24.989   05 Jun 2027 01:43:29.725            64.736               CapeTown          2023.000
       461   05 Jun 2027 01:52:48.548   05 Jun 2027 01:53:23.910            35.362               CapeTown          1105.062
       462   05 Jun 2027 02:37:24.456   05 Jun 2027 02:38:23.229            58.773                Anadyr1          1836.656
       463   05 Jun 2027 02:38:29.327   05 Jun 2027 02:38:36.692             7.365                Anadyr1           230.156
       464   05 Jun 2027 02:38:50.136   05 Jun 2027 02:39:20.303            30.167                Anadyr1           942.719
       465   05 Jun 2027 02:39:30.046   05 Jun 2027 02:40:12.258            42.212               Magadan2          1319.125
       466   05 Jun 2027 02:42:02.560   05 Jun 2027 02:42:34.332            31.772               Magadan2           992.875
       467   05 Jun 2027 02:47:05.937   05 Jun 2027 02:47:25.364            19.427                Norilsk           607.094
       468   05 Jun 2027 02:48:37.474   05 Jun 2027 02:49:14.168            36.694               Magadan1          1146.688
       469   05 Jun 2027 02:49:30.284   05 Jun 2027 02:50:25.651            55.367              Murmansk1          1730.219
       470   05 Jun 2027 02:51:01.943   05 Jun 2027 02:51:10.349             8.406              Murmansk1           262.687
       471   05 Jun 2027 02:52:46.151   05 Jun 2027 02:53:41.731            55.580                 Moscow          1736.875
       472   05 Jun 2027 02:57:47.104   05 Jun 2027 02:58:19.367            32.263                 Moscow          1008.219
       473   05 Jun 2027 03:17:49.739   05 Jun 2027 03:18:07.290            17.551               CapeTown           548.469
       474   05 Jun 2027 04:18:41.272   05 Jun 2027 04:19:34.700            53.428                Anadyr2          1669.625
       475   05 Jun 2027 04:19:47.733   05 Jun 2027 04:21:23.900            96.167               Magadan1          3005.219
       476   05 Jun 2027 04:21:42.586   05 Jun 2027 04:21:48.283             5.697               Magadan1           178.031
       477   05 Jun 2027 04:21:50.405   05 Jun 2027 04:21:53.968             3.563               Magadan1           111.344
       478   05 Jun 2027 04:22:14.795   05 Jun 2027 04:25:43.000           208.205                Anadyr1          6506.406
       479   05 Jun 2027 05:07:43.266   05 Jun 2027 05:07:51.531             8.265            RioGallegos           258.281
       480   05 Jun 2027 05:54:23.547   05 Jun 2027 05:54:59.837            36.290                Irkutsk          1134.063
       481   05 Jun 2027 05:55:00.830   05 Jun 2027 05:56:11.813            70.983                Irkutsk          2218.219
       482   05 Jun 2027 05:56:34.222   05 Jun 2027 05:57:47.233            73.011               Magadan1          2281.594
