uniorb/output/strategy_4/Drop/Drop_KinoSat_111609.txt

KinoSat_111609
-------------------------
    Access    *     Start Time (UTCG)     *     Stop Time (UTCG)  *   Duration (s)        *       Station  *  Data (Mbytes)
         1   01 Jun 2027 04:15:24.580   01 Jun 2027 04:16:28.153            63.573                Norilsk          1986.656
         2   01 Jun 2027 04:16:51.538   01 Jun 2027 04:17:50.347            58.809                Norilsk          1837.781
         3   01 Jun 2027 04:18:11.548   01 Jun 2027 04:19:21.035            69.487                Novosib          2171.469
         4   01 Jun 2027 04:19:21.934   01 Jun 2027 04:20:15.365            53.431              Murmansk1          1669.719
         5   01 Jun 2027 04:20:48.343   01 Jun 2027 04:23:56.834           188.491                 Moscow          5890.344
         6   01 Jun 2027 04:35:38.764   01 Jun 2027 04:42:01.141           382.377               CapeTown         11949.281
         7   01 Jun 2027 04:42:09.678   01 Jun 2027 04:42:46.135            36.457               CapeTown          1139.281
         8   01 Jun 2027 04:43:43.570   01 Jun 2027 04:45:02.814            79.244               CapeTown          2476.375
         9   01 Jun 2027 05:40:53.399   01 Jun 2027 05:43:00.149           126.750               Magadan2          3960.938
        10   01 Jun 2027 05:43:02.277   01 Jun 2027 05:43:15.714            13.437                Anadyr1           419.906
        11   01 Jun 2027 05:51:05.785   01 Jun 2027 05:55:01.079           235.294                 Moscow          7352.938
        12   01 Jun 2027 05:55:31.632   01 Jun 2027 05:57:00.319            88.687              Murmansk1          2771.469
        13   01 Jun 2027 05:57:36.402   01 Jun 2027 05:59:00.090            83.688                 Moscow          2615.250
        14   01 Jun 2027 06:12:28.045   01 Jun 2027 06:13:10.454            42.409               CapeTown          1325.281
        15   01 Jun 2027 07:15:37.272   01 Jun 2027 07:20:45.691           308.419                Anadyr1          9638.094
        16   01 Jun 2027 07:27:04.433   01 Jun 2027 07:27:05.239             0.806                 Moscow            25.187
        17   01 Jun 2027 07:27:52.501   01 Jun 2027 07:27:53.890             1.389                 Moscow            43.406
        18   01 Jun 2027 08:01:02.069   01 Jun 2027 08:01:16.263            14.194            RioGallegos           443.562
        19   01 Jun 2027 08:49:57.313   01 Jun 2027 08:50:57.544            60.231                Anadyr2          1882.219
        20   01 Jun 2027 08:51:39.188   01 Jun 2027 08:54:49.795           190.607                Anadyr2          5956.469
        21   01 Jun 2027 08:54:49.795   01 Jun 2027 08:56:08.188            78.393                Anadyr1          2449.781
        22   01 Jun 2027 10:24:51.158   01 Jun 2027 10:26:33.636           102.478               Magadan1          3202.437
        23   01 Jun 2027 10:27:56.304   01 Jun 2027 10:29:14.481            78.177               Magadan1          2443.031
        24   01 Jun 2027 10:30:22.967   01 Jun 2027 10:31:18.119            55.152               Magadan1          1723.500
        25   01 Jun 2027 10:31:26.723   01 Jun 2027 10:32:07.368            40.645                Irkutsk          1270.156
        26   01 Jun 2027 11:10:04.338   01 Jun 2027 11:10:24.051            19.713            RioGallegos           616.031
        27   01 Jun 2027 11:41:47.801   01 Jun 2027 11:42:25.359            37.558                Sumatra          1173.688
        28   01 Jun 2027 11:44:02.923   01 Jun 2027 11:44:36.952            34.029                Sumatra          1063.406
        29   01 Jun 2027 13:25:13.291   01 Jun 2027 13:26:44.097            90.806                Sumatra          2837.688
        30   01 Jun 2027 13:39:04.987   01 Jun 2027 13:41:27.794           142.807                Irkutsk          4462.719
        31   01 Jun 2027 15:09:11.513   01 Jun 2027 15:09:54.590            43.077                  Delhi          1346.156
        32   01 Jun 2027 15:15:38.546   01 Jun 2027 15:18:31.835           173.289                Novosib          5415.281
        33   01 Jun 2027 15:22:12.022   01 Jun 2027 15:23:13.568            61.546                Norilsk          1923.312
        34   01 Jun 2027 16:53:59.628   01 Jun 2027 16:55:59.968           120.340                 Moscow          3760.625
        35   01 Jun 2027 16:58:22.674   01 Jun 2027 16:58:53.720            31.046              Murmansk1           970.188
        36   01 Jun 2027 17:00:33.044   01 Jun 2027 17:00:37.079             4.035              Murmansk1           126.094
        37   01 Jun 2027 17:01:33.714   01 Jun 2027 17:02:00.412            26.698              Murmansk2           834.313
        38   01 Jun 2027 17:07:38.509   01 Jun 2027 17:07:45.961             7.452                Anadyr1           232.875
        39   01 Jun 2027 17:08:00.822   01 Jun 2027 17:08:09.052             8.230                Anadyr1           257.188
        40   01 Jun 2027 17:08:27.001   01 Jun 2027 17:08:36.929             9.928                Anadyr1           310.250
        41   01 Jun 2027 17:09:40.871   01 Jun 2027 17:10:40.547            59.676                Anadyr2          1864.875
        42   01 Jun 2027 17:12:24.964   01 Jun 2027 17:13:02.540            37.576                Anadyr1          1174.250
        43   01 Jun 2027 18:08:10.359   01 Jun 2027 18:08:12.660             2.301               CapeTown            71.906
        44   01 Jun 2027 18:08:45.645   01 Jun 2027 18:11:32.019           166.374               CapeTown          5199.188
        45   01 Jun 2027 18:29:23.671   01 Jun 2027 18:30:12.060            48.389              Murmansk1          1512.156
        46   01 Jun 2027 18:30:54.941   01 Jun 2027 18:32:30.507            95.566              Murmansk1          2986.437
        47   01 Jun 2027 18:34:47.551   01 Jun 2027 18:35:44.709            57.158              Murmansk2          1786.188
        48   01 Jun 2027 18:35:55.605   01 Jun 2027 18:36:06.988            11.383              Murmansk2           355.719
        49   01 Jun 2027 18:48:48.328   01 Jun 2027 18:48:56.858             8.530               Magadan2           266.562
        50   01 Jun 2027 18:49:29.771   01 Jun 2027 18:50:22.972            53.201               Magadan1          1662.531
        51   01 Jun 2027 19:38:10.489   01 Jun 2027 19:39:30.515            80.026               CapeTown          2500.812
        52   01 Jun 2027 19:43:36.635   01 Jun 2027 19:44:02.117            25.482               CapeTown           796.313
        53   01 Jun 2027 20:16:16.959   01 Jun 2027 20:19:36.013           199.054                Anadyr1          6220.438
        54   01 Jun 2027 20:20:45.778   01 Jun 2027 20:21:40.109            54.331               Magadan1          1697.844
        55   01 Jun 2027 20:22:47.243   01 Jun 2027 20:23:25.219            37.976               Magadan2          1186.750
        56   01 Jun 2027 20:24:08.912   01 Jun 2027 20:24:34.468            25.556               Magadan2           798.625
        57   01 Jun 2027 20:25:52.261   01 Jun 2027 20:26:13.556            21.295               Magadan1           665.469
        58   01 Jun 2027 20:27:18.023   01 Jun 2027 20:27:54.438            36.415               Magadan1          1137.969
        59   01 Jun 2027 20:30:25.042   01 Jun 2027 20:30:35.045            10.003               Magadan1           312.594
        60   01 Jun 2027 20:30:44.442   01 Jun 2027 20:30:45.835             1.393               Magadan1            43.531
        61   01 Jun 2027 21:52:10.572   01 Jun 2027 21:54:14.586           124.014                Anadyr1          3875.437
        62   01 Jun 2027 21:54:18.946   01 Jun 2027 21:55:51.405            92.459                Anadyr2          2889.344
        63   01 Jun 2027 21:55:57.692   01 Jun 2027 21:58:19.944           142.252                Norilsk          4445.375
        64   01 Jun 2027 21:58:54.136   01 Jun 2027 21:59:24.882            30.746                Norilsk           960.812
        65   01 Jun 2027 22:00:08.086   01 Jun 2027 22:00:25.316            17.230                Norilsk           538.437
        66   01 Jun 2027 22:00:41.811   01 Jun 2027 22:00:49.159             7.348               Magadan2           229.625
        67   01 Jun 2027 22:00:50.241   01 Jun 2027 22:01:29.372            39.131                Irkutsk          1222.844
        68   01 Jun 2027 22:03:32.372   01 Jun 2027 22:04:50.967            78.595                Irkutsk          2456.094
        69   01 Jun 2027 22:47:37.888   01 Jun 2027 22:47:55.045            17.157            RioGallegos           536.156
        70   01 Jun 2027 22:48:33.202   01 Jun 2027 22:49:03.214            30.012            RioGallegos           937.875
        71   01 Jun 2027 22:50:55.864   01 Jun 2027 22:51:27.304            31.440            RioGallegos           982.500
        72   01 Jun 2027 22:54:11.115   01 Jun 2027 22:54:21.005             9.890            RioGallegos           309.062
        73   01 Jun 2027 22:54:35.043   01 Jun 2027 22:55:24.927            49.884            RioGallegos          1558.875
        74   01 Jun 2027 23:27:41.097   01 Jun 2027 23:28:58.039            76.942                Anadyr1          2404.437
        75   01 Jun 2027 23:29:58.922   01 Jun 2027 23:30:07.754             8.832                Anadyr2           276.000
        76   01 Jun 2027 23:30:12.477   01 Jun 2027 23:31:42.196            89.719                Norilsk          2803.719
        77   01 Jun 2027 23:31:43.198   01 Jun 2027 23:32:53.746            70.548               Magadan1          2204.625
        78   01 Jun 2027 23:33:35.226   01 Jun 2027 23:34:15.010            39.784               Magadan2          1243.250
        79   01 Jun 2027 23:36:02.007   01 Jun 2027 23:36:49.580            47.573                Novosib          1486.656
        80   01 Jun 2027 23:40:10.429   01 Jun 2027 23:40:26.825            16.396                Novosib           512.375
        81   01 Jun 2027 23:41:44.729   01 Jun 2027 23:42:05.276            20.547                Novosib           642.094
        82   01 Jun 2027 23:43:40.644   01 Jun 2027 23:44:41.433            60.789                Irkutsk          1899.656
        83   01 Jun 2027 23:54:29.945   01 Jun 2027 23:55:55.383            85.438                Sumatra          2669.937
        84   02 Jun 2027 00:27:48.288   02 Jun 2027 00:27:52.535             4.247            RioGallegos           132.719
        85   02 Jun 2027 00:29:40.462   02 Jun 2027 00:29:58.614            18.152            RioGallegos           567.250
        86   02 Jun 2027 00:31:15.956   02 Jun 2027 00:31:32.508            16.552            RioGallegos           517.250
        87   02 Jun 2027 00:33:25.407   02 Jun 2027 00:33:32.788             7.381            RioGallegos           230.656
        88   02 Jun 2027 00:34:26.756   02 Jun 2027 00:34:38.595            11.839            RioGallegos           369.969
        89   02 Jun 2027 01:02:12.104   02 Jun 2027 01:02:41.415            29.311                Anadyr2           915.969
        90   02 Jun 2027 01:03:13.989   02 Jun 2027 01:03:54.568            40.579                Anadyr1          1268.094
        91   02 Jun 2027 01:04:25.256   02 Jun 2027 01:04:28.930             3.674                Anadyr2           114.813
        92   02 Jun 2027 01:04:53.011   02 Jun 2027 01:05:06.365            13.354                Anadyr1           417.312
        93   02 Jun 2027 01:05:59.732   02 Jun 2027 01:07:41.832           102.100                Norilsk          3190.625
        94   02 Jun 2027 01:08:35.792   02 Jun 2027 01:08:53.984            18.192               Magadan1           568.500
        95   02 Jun 2027 01:09:03.268   02 Jun 2027 01:09:15.173            11.905               Magadan1           372.031
        96   02 Jun 2027 01:09:34.958   02 Jun 2027 01:10:20.650            45.692               Magadan1          1427.875
        97   02 Jun 2027 01:10:57.306   02 Jun 2027 01:11:29.072            31.766                Novosib           992.688
        98   02 Jun 2027 01:11:40.301   02 Jun 2027 01:11:51.354            11.053                Irkutsk           345.406
        99   02 Jun 2027 01:12:20.333   02 Jun 2027 01:12:45.942            25.609                Irkutsk           800.281
       100   02 Jun 2027 01:12:59.927   02 Jun 2027 01:13:15.168            15.241                Novosib           476.281
       101   02 Jun 2027 01:13:44.617   02 Jun 2027 01:14:38.934            54.317                Novosib          1697.406
       102   02 Jun 2027 01:18:38.711   02 Jun 2027 01:19:03.672            24.961                  Delhi           780.031
       103   02 Jun 2027 01:20:30.035   02 Jun 2027 01:20:46.010            15.975                Irkutsk           499.219
       104   02 Jun 2027 01:24:05.124   02 Jun 2027 01:24:41.671            36.547                  Delhi          1142.094
       105   02 Jun 2027 01:26:53.462   02 Jun 2027 01:27:42.768            49.306                  Delhi          1540.813
       106   02 Jun 2027 01:28:18.754   02 Jun 2027 01:30:36.132           137.378                Sumatra          4293.063
       107   02 Jun 2027 02:35:36.555   02 Jun 2027 02:35:51.035            14.480                Anadyr2           452.500
       108   02 Jun 2027 02:38:22.314   02 Jun 2027 02:38:34.224            11.910                Anadyr2           372.188
       109   02 Jun 2027 02:41:50.004   02 Jun 2027 02:42:56.256            66.252               Magadan2          2070.375
       110   02 Jun 2027 02:43:17.362   02 Jun 2027 02:43:30.268            12.906                Norilsk           403.312
       111   02 Jun 2027 02:43:33.505   02 Jun 2027 02:43:59.379            25.874                Norilsk           808.562
       112   02 Jun 2027 02:44:14.809   02 Jun 2027 02:45:06.170            51.361              Murmansk2          1605.031
       113   02 Jun 2027 02:45:34.091   02 Jun 2027 02:45:49.369            15.278              Murmansk2           477.438
       114   02 Jun 2027 02:45:59.051   02 Jun 2027 02:46:23.656            24.605                Novosib           768.906
       115   02 Jun 2027 02:46:42.754   02 Jun 2027 02:47:39.395            56.641                Irkutsk          1770.031
       116   02 Jun 2027 02:51:58.049   02 Jun 2027 02:52:20.103            22.054                Irkutsk           689.187
       117   02 Jun 2027 02:52:37.779   02 Jun 2027 02:53:15.442            37.663                Irkutsk          1176.969
       118   02 Jun 2027 02:54:21.856   02 Jun 2027 02:54:34.776            12.920                  Delhi           403.750
       119   02 Jun 2027 02:57:20.275   02 Jun 2027 02:57:52.926            32.651                  Delhi          1020.344
       120   02 Jun 2027 02:59:12.453   02 Jun 2027 02:59:38.248            25.795                  Delhi           806.094
       121   02 Jun 2027 04:27:00.338   02 Jun 2027 04:27:19.391            19.053                Novosib           595.406
       122   02 Jun 2027 04:28:17.783   02 Jun 2027 04:29:37.168            79.385                Novosib          2480.781
       123   02 Jun 2027 04:30:04.830   02 Jun 2027 04:31:23.656            78.826              Murmansk2          2463.313
       124   02 Jun 2027 04:31:51.495   02 Jun 2027 04:36:07.036           255.541                 Moscow          7985.656
       125   02 Jun 2027 04:47:26.363   02 Jun 2027 04:49:35.025           128.662               CapeTown          4020.687
       126   02 Jun 2027 05:50:19.499   02 Jun 2027 05:50:28.510             9.011                Anadyr2           281.594
       127   02 Jun 2027 05:50:37.013   02 Jun 2027 05:51:41.232            64.219                Anadyr1          2006.844
       128   02 Jun 2027 05:51:44.286   02 Jun 2027 05:51:53.865             9.579               Magadan2           299.344
       129   02 Jun 2027 05:52:11.057   02 Jun 2027 05:53:46.084            95.027               Magadan2          2969.594
       130   02 Jun 2027 07:27:53.343   02 Jun 2027 07:32:45.917           292.574                Anadyr1          9142.938
       131   02 Jun 2027 09:00:59.958   02 Jun 2027 09:01:39.086            39.128                Anadyr2          1222.750
       132   02 Jun 2027 09:02:23.199   02 Jun 2027 09:02:39.947            16.748               Magadan1           523.375
       133   02 Jun 2027 09:02:55.461   02 Jun 2027 09:05:17.502           142.041               Magadan1          4438.781
       134   02 Jun 2027 09:05:52.904   02 Jun 2027 09:08:19.884           146.980               Magadan1          4593.125
       135   02 Jun 2027 10:38:01.820   02 Jun 2027 10:38:22.454            20.634                Irkutsk           644.812
       136   02 Jun 2027 10:38:33.573   02 Jun 2027 10:42:58.831           265.258               Magadan2          8289.312
       137   02 Jun 2027 10:43:17.556   02 Jun 2027 10:44:01.971            44.415                Irkutsk          1387.969
       138   02 Jun 2027 10:44:17.284   02 Jun 2027 10:45:25.384            68.100                Novosib          2128.125
       139   02 Jun 2027 11:20:10.648   02 Jun 2027 11:20:54.080            43.432            RioGallegos          1357.250
       140   02 Jun 2027 11:53:44.271   02 Jun 2027 11:54:18.354            34.083                Sumatra          1065.094
       141   02 Jun 2027 11:56:39.460   02 Jun 2027 11:56:42.681             3.221                Sumatra           100.656
       142   02 Jun 2027 12:04:27.634   02 Jun 2027 12:04:40.678            13.044                  Delhi           407.625
       143   02 Jun 2027 12:07:24.047   02 Jun 2027 12:07:37.031            12.984                  Delhi           405.750
       144   02 Jun 2027 12:07:53.592   02 Jun 2027 12:08:42.812            49.220                Irkutsk          1538.125
       145   02 Jun 2027 12:12:05.764   02 Jun 2027 12:12:32.861            27.097                Novosib           846.781
       146   02 Jun 2027 12:18:01.002   02 Jun 2027 12:19:09.470            68.468                Norilsk          2139.625
       147   02 Jun 2027 12:58:50.924   02 Jun 2027 12:59:38.883            47.959            RioGallegos          1498.719
       148   02 Jun 2027 13:01:50.868   02 Jun 2027 13:03:12.782            81.914            RioGallegos          2559.813
       149   02 Jun 2027 13:45:44.703   02 Jun 2027 13:46:52.426            67.723                Novosib          2116.344
       150   02 Jun 2027 13:47:47.497   02 Jun 2027 13:50:02.555           135.058                Novosib          4220.562
       151   02 Jun 2027 13:53:32.350   02 Jun 2027 13:53:41.162             8.812                Norilsk           275.375
       152   02 Jun 2027 13:54:25.791   02 Jun 2027 13:55:38.423            72.632                Novosib          2269.750
       153   02 Jun 2027 15:22:20.930   02 Jun 2027 15:26:06.967           226.037                 Moscow          7063.656
       154   02 Jun 2027 15:27:14.189   02 Jun 2027 15:27:19.280             5.091              Murmansk2           159.094
       155   02 Jun 2027 15:27:54.535   02 Jun 2027 15:28:05.486            10.951              Murmansk1           342.219
       156   02 Jun 2027 15:29:07.468   02 Jun 2027 15:29:38.127            30.659              Murmansk1           958.094
       157   02 Jun 2027 15:30:47.695   02 Jun 2027 15:30:54.909             7.214                Norilsk           225.437
       158   02 Jun 2027 15:31:19.533   02 Jun 2027 15:31:34.161            14.628                Norilsk           457.125
       159   02 Jun 2027 15:33:01.685   02 Jun 2027 15:34:19.801            78.116                Norilsk          2441.125
       160   02 Jun 2027 16:37:02.990   02 Jun 2027 16:40:01.403           178.413               CapeTown          5575.406
       161   02 Jun 2027 16:59:34.588   02 Jun 2027 16:59:46.875            12.287                 Moscow           383.969
       162   02 Jun 2027 17:02:08.056   02 Jun 2027 17:03:33.008            84.952                 Moscow          2654.750
       163   02 Jun 2027 17:07:06.618   02 Jun 2027 17:07:12.690             6.072              Murmansk2           189.750
       164   02 Jun 2027 17:10:20.218   02 Jun 2027 17:10:55.787            35.569              Murmansk1          1111.531
       165   02 Jun 2027 17:16:51.592   02 Jun 2027 17:18:09.027            77.435                Anadyr2          2419.844
       166   02 Jun 2027 17:18:31.288   02 Jun 2027 17:19:17.781            46.493                Anadyr1          1452.906
       167   02 Jun 2027 17:25:15.054   02 Jun 2027 17:25:21.606             6.552                Anadyr2           204.750
       168   02 Jun 2027 17:25:49.655   02 Jun 2027 17:25:58.548             8.893                Anadyr1           277.906
       169   02 Jun 2027 18:11:48.840   02 Jun 2027 18:13:49.356           120.516               CapeTown          3766.125
       170   02 Jun 2027 18:41:59.622   02 Jun 2027 18:44:53.084           173.462              Murmansk2          5420.687
       171   02 Jun 2027 18:46:47.945   02 Jun 2027 18:47:19.113            31.168              Murmansk1           974.000
       172   02 Jun 2027 18:55:52.776   02 Jun 2027 18:57:16.149            83.373               Magadan1          2605.406
       173   02 Jun 2027 18:57:27.241   02 Jun 2027 18:58:26.666            59.425               Magadan2          1857.031
       174   02 Jun 2027 20:28:18.704   02 Jun 2027 20:29:55.782            97.078                Anadyr1          3033.688
       175   02 Jun 2027 20:30:12.560   02 Jun 2027 20:32:03.394           110.834                Anadyr2          3463.563
       176   02 Jun 2027 20:32:13.802   02 Jun 2027 20:34:57.039           163.237               Magadan2          5101.156
       177   02 Jun 2027 20:35:43.272   02 Jun 2027 20:36:06.882            23.610               Magadan2           737.813
       178   02 Jun 2027 20:38:36.095   02 Jun 2027 20:38:47.007            10.912               Magadan2           341.000
       179   02 Jun 2027 20:38:58.454   02 Jun 2027 20:39:08.724            10.270               Magadan2           320.937
       180   02 Jun 2027 20:40:03.729   02 Jun 2027 20:41:22.570            78.841               Magadan2          2463.781
       181   02 Jun 2027 22:04:10.851   02 Jun 2027 22:06:25.695           134.844                Anadyr2          4213.875
       182   02 Jun 2027 22:06:31.199   02 Jun 2027 22:08:50.016           138.817               Magadan2          4338.031
       183   02 Jun 2027 22:08:50.016   02 Jun 2027 22:09:03.450            13.434               Magadan1           419.812
       184   02 Jun 2027 22:09:12.576   02 Jun 2027 22:09:44.767            32.191                Norilsk          1005.969
       185   02 Jun 2027 22:10:41.401   02 Jun 2027 22:11:48.200            66.799               Magadan1          2087.469
       186   02 Jun 2027 22:11:50.185   02 Jun 2027 22:11:53.371             3.186                Irkutsk            99.563
       187   02 Jun 2027 22:12:46.342   02 Jun 2027 22:13:36.185            49.843                Irkutsk          1557.594
       188   02 Jun 2027 22:17:25.879   02 Jun 2027 22:18:31.031            65.152                Irkutsk          2036.000
       189   02 Jun 2027 22:27:59.972   02 Jun 2027 22:28:46.992            47.020                Sumatra          1469.375
       190   02 Jun 2027 22:29:05.928   02 Jun 2027 22:29:10.948             5.020                Sumatra           156.875
       191   02 Jun 2027 22:32:22.421   02 Jun 2027 22:33:13.611            51.190                Sumatra          1599.687
       192   02 Jun 2027 23:39:36.135   02 Jun 2027 23:40:07.268            31.133                Anadyr2           972.906
       193   02 Jun 2027 23:40:14.137   02 Jun 2027 23:40:33.043            18.906                Anadyr1           590.812
       194   02 Jun 2027 23:40:58.917   02 Jun 2027 23:41:58.008            59.091                Anadyr2          1846.594
       195   02 Jun 2027 23:42:01.885   02 Jun 2027 23:43:18.633            76.748                Norilsk          2398.375
       196   02 Jun 2027 23:43:26.893   02 Jun 2027 23:43:35.991             9.098                Norilsk           284.312
       197   02 Jun 2027 23:43:36.523   02 Jun 2027 23:44:22.959            46.436               Magadan2          1451.125
       198   02 Jun 2027 23:46:01.413   02 Jun 2027 23:47:07.191            65.778                Irkutsk          2055.563
       199   02 Jun 2027 23:47:28.265   02 Jun 2027 23:48:19.880            51.615                Novosib          1612.969
       200   02 Jun 2027 23:50:35.477   02 Jun 2027 23:50:55.386            19.909                Novosib           622.156
       201   02 Jun 2027 23:59:44.626   03 Jun 2027 00:00:10.422            25.796                Sumatra           806.125
       202   03 Jun 2027 00:02:08.497   03 Jun 2027 00:02:30.277            21.780                Sumatra           680.625
       203   03 Jun 2027 00:11:48.960   03 Jun 2027 00:12:26.530            37.570                Sumatra          1174.063
       204   03 Jun 2027 00:33:58.977   03 Jun 2027 00:34:58.694            59.717            RioGallegos          1866.156
       205   03 Jun 2027 00:43:01.976   03 Jun 2027 00:43:17.792            15.816            RioGallegos           494.250
       206   03 Jun 2027 00:45:33.398   03 Jun 2027 00:45:43.567            10.169            RioGallegos           317.781
       207   03 Jun 2027 01:13:57.362   03 Jun 2027 01:14:28.408            31.046                Anadyr1           970.188
       208   03 Jun 2027 01:14:28.408   03 Jun 2027 01:15:13.305            44.897                Anadyr2          1403.031
       209   03 Jun 2027 01:16:08.022   03 Jun 2027 01:16:22.919            14.897                Anadyr1           465.531
       210   03 Jun 2027 01:16:44.209   03 Jun 2027 01:16:54.193             9.984                Anadyr1           312.000
       211   03 Jun 2027 01:18:02.020   03 Jun 2027 01:19:43.274           101.254                Norilsk          3164.187
       212   03 Jun 2027 01:20:28.276   03 Jun 2027 01:20:44.615            16.339               Magadan1           510.594
       213   03 Jun 2027 01:21:05.583   03 Jun 2027 01:21:37.636            32.053               Magadan1          1001.656
       214   03 Jun 2027 01:21:52.812   03 Jun 2027 01:24:06.737           133.925                Novosib          4185.156
       215   03 Jun 2027 01:29:17.879   03 Jun 2027 01:30:06.702            48.823                  Delhi          1525.719
       216   03 Jun 2027 01:32:25.546   03 Jun 2027 01:32:54.965            29.419                  Delhi           919.344
       217   03 Jun 2027 01:39:32.353   03 Jun 2027 01:41:07.463            95.110                  Delhi          2972.187
       218   03 Jun 2027 02:11:32.277   03 Jun 2027 02:12:07.803            35.526            RioGallegos          1110.187
       219   03 Jun 2027 02:14:00.542   03 Jun 2027 02:15:09.462            68.920            RioGallegos          2153.750
       220   03 Jun 2027 02:49:32.353   03 Jun 2027 02:50:14.650            42.297                Anadyr2          1321.781
       221   03 Jun 2027 02:53:31.342   03 Jun 2027 02:54:07.426            36.084               Magadan2          1127.625
       222   03 Jun 2027 02:54:09.333   03 Jun 2027 02:54:43.279            33.946                Norilsk          1060.812
       223   03 Jun 2027 02:56:14.409   03 Jun 2027 02:57:05.620            51.211              Murmansk2          1600.344
       224   03 Jun 2027 02:57:35.840   03 Jun 2027 02:57:55.739            19.899              Murmansk1           621.844
       225   03 Jun 2027 02:58:27.510   03 Jun 2027 02:59:47.884            80.374                Novosib          2511.688
       226   03 Jun 2027 03:00:14.780   03 Jun 2027 03:00:35.610            20.830              Murmansk1           650.937
       227   03 Jun 2027 03:00:35.610   03 Jun 2027 03:01:20.142            44.532              Murmansk2          1391.625
       228   03 Jun 2027 03:01:27.965   03 Jun 2027 03:02:14.920            46.955                Novosib          1467.344
       229   03 Jun 2027 03:02:27.294   03 Jun 2027 03:03:10.109            42.815              Murmansk1          1337.969
       230   03 Jun 2027 03:03:32.323   03 Jun 2027 03:04:51.182            78.859                 Moscow          2464.344
       231   03 Jun 2027 03:05:02.666   03 Jun 2027 03:05:37.213            34.547                Norilsk          1079.594
       232   03 Jun 2027 03:06:11.035   03 Jun 2027 03:09:06.029           174.994                  Delhi          5468.562
       233   03 Jun 2027 04:39:49.274   03 Jun 2027 04:40:07.143            17.869                Novosib           558.406
       234   03 Jun 2027 04:41:09.246   03 Jun 2027 04:41:26.219            16.973              Murmansk1           530.406
       235   03 Jun 2027 04:41:42.532   03 Jun 2027 04:42:12.941            30.409                Novosib           950.281
       236   03 Jun 2027 04:42:14.227   03 Jun 2027 04:42:44.380            30.153              Murmansk1           942.281
       237   03 Jun 2027 04:42:58.691   03 Jun 2027 04:43:44.014            45.323              Murmansk1          1416.344
       238   03 Jun 2027 04:44:10.434   03 Jun 2027 04:48:14.028           243.594                 Moscow          7612.313
       239   03 Jun 2027 04:59:19.106   03 Jun 2027 05:02:27.019           187.913               CapeTown          5872.281
       240   03 Jun 2027 05:55:58.828   03 Jun 2027 05:58:13.791           134.963                Anadyr1          4217.594
       241   03 Jun 2027 05:58:35.468   03 Jun 2027 05:59:08.262            32.794               Magadan2          1024.812
       242   03 Jun 2027 06:02:30.447   03 Jun 2027 06:03:42.374            71.927               Magadan1          2247.719
       243   03 Jun 2027 06:03:59.932   03 Jun 2027 06:04:27.611            27.679               Magadan2           864.969
       244   03 Jun 2027 06:04:40.105   03 Jun 2027 06:05:00.413            20.308               Magadan1           634.625
       245   03 Jun 2027 07:36:32.530   03 Jun 2027 07:36:53.964            21.434               Magadan1           669.813
       246   03 Jun 2027 07:37:17.033   03 Jun 2027 07:37:40.731            23.698                Anadyr1           740.562
       247   03 Jun 2027 07:37:53.510   03 Jun 2027 07:38:05.205            11.695               Magadan1           365.469
       248   03 Jun 2027 07:38:13.886   03 Jun 2027 07:38:35.967            22.081               Magadan2           690.031
       249   03 Jun 2027 07:38:41.862   03 Jun 2027 07:39:16.288            34.426               Magadan2          1075.813
       250   03 Jun 2027 07:39:16.288   03 Jun 2027 07:40:13.076            56.788               Magadan1          1774.625
       251   03 Jun 2027 07:40:29.149   03 Jun 2027 07:40:44.977            15.828               Magadan1           494.625
       252   03 Jun 2027 07:41:03.523   03 Jun 2027 07:42:24.505            80.982                Anadyr2          2530.687
       253   03 Jun 2027 09:12:54.099   03 Jun 2027 09:12:56.529             2.430               Magadan1            75.938
       254   03 Jun 2027 09:13:09.153   03 Jun 2027 09:13:49.343            40.190               Magadan2          1255.938
       255   03 Jun 2027 09:14:19.704   03 Jun 2027 09:14:27.307             7.603               Magadan2           237.594
       256   03 Jun 2027 09:14:42.546   03 Jun 2027 09:15:19.255            36.709               Magadan2          1147.156
       257   03 Jun 2027 09:16:39.046   03 Jun 2027 09:17:46.222            67.176               Magadan1          2099.250
       258   03 Jun 2027 09:17:53.331   03 Jun 2027 09:18:12.640            19.309               Magadan2           603.406
       259   03 Jun 2027 09:18:38.953   03 Jun 2027 09:19:21.005            42.052               Magadan2          1314.125
       260   03 Jun 2027 09:19:35.504   03 Jun 2027 09:20:18.055            42.551               Magadan1          1329.719
       261   03 Jun 2027 09:55:26.628   03 Jun 2027 09:55:39.986            13.358            RioGallegos           417.437
       262   03 Jun 2027 09:56:20.587   03 Jun 2027 09:56:39.473            18.886            RioGallegos           590.188
       263   03 Jun 2027 10:33:12.346   03 Jun 2027 10:34:35.845            83.499                Sumatra          2609.344
       264   03 Jun 2027 10:49:07.270   03 Jun 2027 10:49:33.669            26.399               Magadan2           824.969
       265   03 Jun 2027 10:49:34.236   03 Jun 2027 10:49:42.737             8.501                Irkutsk           265.656
       266   03 Jun 2027 10:50:00.352   03 Jun 2027 10:50:06.117             5.765                Irkutsk           180.156
       267   03 Jun 2027 10:50:24.317   03 Jun 2027 10:50:57.389            33.072                Irkutsk          1033.500
       268   03 Jun 2027 10:51:00.057   03 Jun 2027 10:51:43.397            43.340                Irkutsk          1354.375
       269   03 Jun 2027 10:52:23.637   03 Jun 2027 10:52:45.604            21.967                Irkutsk           686.469
       270   03 Jun 2027 10:52:52.632   03 Jun 2027 10:54:29.474            96.842               Magadan1          3026.313
       271   03 Jun 2027 10:54:47.051   03 Jun 2027 10:55:16.754            29.703                Norilsk           928.219
       272   03 Jun 2027 10:55:37.197   03 Jun 2027 10:55:41.839             4.642                Novosib           145.062
       273   03 Jun 2027 10:55:45.030   03 Jun 2027 10:56:14.433            29.403                Irkutsk           918.844
       274   03 Jun 2027 11:31:12.735   03 Jun 2027 11:31:54.922            42.187            RioGallegos          1318.344
       275   03 Jun 2027 11:39:56.489   03 Jun 2027 11:40:33.097            36.608            RioGallegos          1144.000
       276   03 Jun 2027 12:07:56.157   03 Jun 2027 12:08:19.902            23.745                Sumatra           742.031
       277   03 Jun 2027 12:15:23.420   03 Jun 2027 12:15:26.500             3.080                Sumatra            96.250
       278   03 Jun 2027 12:18:15.865   03 Jun 2027 12:18:46.497            30.632                  Delhi           957.250
       279   03 Jun 2027 12:20:14.428   03 Jun 2027 12:21:23.693            69.265                Irkutsk          2164.531
       280   03 Jun 2027 12:23:03.795   03 Jun 2027 12:23:10.006             6.211                Novosib           194.094
       281   03 Jun 2027 12:24:35.791   03 Jun 2027 12:25:36.083            60.292                Irkutsk          1884.125
       282   03 Jun 2027 12:35:18.131   03 Jun 2027 12:35:48.812            30.681                Norilsk           958.781
       283   03 Jun 2027 13:12:11.720   03 Jun 2027 13:13:49.657            97.937            RioGallegos          3060.531
       284   03 Jun 2027 13:14:37.110   03 Jun 2027 13:15:35.226            58.116            RioGallegos          1816.125
       285   03 Jun 2027 13:58:09.644   03 Jun 2027 14:00:37.208           147.564                Novosib          4611.375
       286   03 Jun 2027 14:02:02.346   03 Jun 2027 14:03:03.978            61.632                Novosib          1926.000
       287   03 Jun 2027 14:05:34.736   03 Jun 2027 14:06:51.490            76.754                Norilsk          2398.562
       288   03 Jun 2027 15:34:21.166   03 Jun 2027 15:37:15.341           174.175                 Moscow          5442.969
       289   03 Jun 2027 15:37:49.846   03 Jun 2027 15:39:01.348            71.502              Murmansk1          2234.437
       290   03 Jun 2027 15:42:19.335   03 Jun 2027 15:46:11.615           232.280                Norilsk          7258.750
       291   03 Jun 2027 15:46:47.296   03 Jun 2027 15:48:45.541           118.245                Norilsk          3695.156
       292   03 Jun 2027 17:15:04.209   03 Jun 2027 17:16:11.926            67.717              Murmansk2          2116.156
       293   03 Jun 2027 17:24:52.277   03 Jun 2027 17:24:54.498             2.221              Murmansk1            69.406
       294   03 Jun 2027 17:28:46.919   03 Jun 2027 17:30:09.285            82.366                Anadyr1          2573.938
       295   03 Jun 2027 17:31:19.366   03 Jun 2027 17:31:24.968             5.602                Anadyr2           175.062
       296   03 Jun 2027 17:32:37.167   03 Jun 2027 17:32:45.181             8.014                Anadyr1           250.437
       297   03 Jun 2027 17:33:55.154   03 Jun 2027 17:34:46.819            51.665                Anadyr1          1614.531
       298   03 Jun 2027 18:24:32.433   03 Jun 2027 18:24:53.058            20.625               CapeTown           644.531
       299   03 Jun 2027 18:27:57.483   03 Jun 2027 18:28:05.588             8.105               CapeTown           253.281
       300   03 Jun 2027 18:28:58.526   03 Jun 2027 18:29:20.762            22.236               CapeTown           694.875
       301   03 Jun 2027 18:32:07.129   03 Jun 2027 18:32:40.967            33.838               CapeTown          1057.438
       302   03 Jun 2027 18:54:39.091   03 Jun 2027 18:58:39.226           240.135              Murmansk1          7504.219
       303   03 Jun 2027 18:59:18.688   03 Jun 2027 18:59:31.268            12.580              Murmansk2           393.125
       304   03 Jun 2027 19:07:36.208   03 Jun 2027 19:08:18.208            42.000               Magadan2          1312.500
       305   03 Jun 2027 19:08:18.208   03 Jun 2027 19:08:56.192            37.984               Magadan1          1187.000
       306   03 Jun 2027 19:10:36.665   03 Jun 2027 19:10:47.400            10.735               Magadan1           335.469
       307   03 Jun 2027 19:14:47.412   03 Jun 2027 19:15:00.523            13.111               Magadan1           409.719
       308   03 Jun 2027 20:40:20.397   03 Jun 2027 20:41:56.155            95.758                Anadyr1          2992.438
       309   03 Jun 2027 20:42:03.545   03 Jun 2027 20:44:04.786           121.241                Anadyr2          3788.781
       310   03 Jun 2027 20:44:52.483   03 Jun 2027 20:46:01.929            69.446               Magadan2          2170.187
       311   03 Jun 2027 20:46:01.929   03 Jun 2027 20:46:31.713            29.784               Magadan1           930.750
       312   03 Jun 2027 20:46:56.899   03 Jun 2027 20:47:03.878             6.979                Anadyr1           218.094
       313   03 Jun 2027 20:47:10.741   03 Jun 2027 20:47:14.629             3.888                Anadyr1           121.500
       314   03 Jun 2027 20:47:25.471   03 Jun 2027 20:48:04.600            39.129               Magadan1          1222.781
       315   03 Jun 2027 20:48:49.576   03 Jun 2027 20:49:07.111            17.535               Magadan1           547.969
       316   03 Jun 2027 20:49:34.762   03 Jun 2027 20:49:44.428             9.666               Magadan1           302.063
       317   03 Jun 2027 20:50:07.015   03 Jun 2027 20:50:15.365             8.350               Magadan1           260.937
       318   03 Jun 2027 20:50:57.614   03 Jun 2027 20:51:01.606             3.992               Magadan1           124.750
       319   03 Jun 2027 20:51:21.401   03 Jun 2027 20:51:31.750            10.349                Anadyr2           323.406
       320   03 Jun 2027 20:53:23.418   03 Jun 2027 20:54:06.199            42.781               Magadan1          1336.906
       321   03 Jun 2027 21:36:54.946   03 Jun 2027 21:39:09.248           134.302            RioGallegos          4196.937
       322   03 Jun 2027 22:16:10.725   03 Jun 2027 22:17:24.995            74.270                Anadyr2          2320.937
       323   03 Jun 2027 22:18:19.182   03 Jun 2027 22:20:07.929           108.747                Norilsk          3398.344
       324   03 Jun 2027 22:20:26.220   03 Jun 2027 22:21:46.752            80.532                Norilsk          2516.625
       325   03 Jun 2027 22:23:22.515   03 Jun 2027 22:23:49.497            26.982                Irkutsk           843.188
       326   03 Jun 2027 22:25:00.779   03 Jun 2027 22:26:05.525            64.746                Irkutsk          2023.313
       327   03 Jun 2027 22:28:46.133   03 Jun 2027 22:28:57.009            10.876                Irkutsk           339.875
       328   03 Jun 2027 22:38:36.345   03 Jun 2027 22:40:27.836           111.491                Sumatra          3484.094
       329   03 Jun 2027 23:51:30.115   03 Jun 2027 23:53:57.540           147.425                Anadyr2          4607.031
       330   03 Jun 2027 23:54:11.795   03 Jun 2027 23:54:15.098             3.303                Anadyr2           103.219
       331   03 Jun 2027 23:54:28.871   03 Jun 2027 23:54:49.026            20.155                Anadyr2           629.844
       332   03 Jun 2027 23:54:51.919   03 Jun 2027 23:55:46.477            54.558                Norilsk          1704.937
       333   03 Jun 2027 23:56:11.863   03 Jun 2027 23:57:36.500            84.637               Magadan2          2644.906
       334   03 Jun 2027 23:58:00.042   03 Jun 2027 23:59:05.909            65.867                Irkutsk          2058.344
       335   03 Jun 2027 23:59:36.946   03 Jun 2027 23:59:39.566             2.620                Novosib            81.875
       336   04 Jun 2027 00:00:55.768   04 Jun 2027 00:01:57.581            61.813                Novosib          1931.656
       337   04 Jun 2027 00:08:01.883   04 Jun 2027 00:08:30.039            28.156                Novosib           879.875
       338   04 Jun 2027 00:09:22.677   04 Jun 2027 00:09:46.331            23.654                  Delhi           739.188
       339   04 Jun 2027 00:10:27.856   04 Jun 2027 00:10:36.758             8.902                  Delhi           278.187
       340   04 Jun 2027 00:17:46.059   04 Jun 2027 00:18:01.869            15.810                Sumatra           494.062
       341   04 Jun 2027 00:46:03.261   04 Jun 2027 00:47:12.390            69.129            RioGallegos          2160.281
       342   04 Jun 2027 00:54:58.463   04 Jun 2027 00:55:41.596            43.133            RioGallegos          1347.906
       343   04 Jun 2027 01:25:41.501   04 Jun 2027 01:25:46.453             4.952                Anadyr1           154.750
       344   04 Jun 2027 01:26:32.573   04 Jun 2027 01:27:13.056            40.483                Anadyr2          1265.094
       345   04 Jun 2027 01:27:13.056   04 Jun 2027 01:27:32.233            19.177                Anadyr1           599.281
       346   04 Jun 2027 01:27:51.700   04 Jun 2027 01:28:10.435            18.735                Anadyr2           585.469
       347   04 Jun 2027 01:28:32.893   04 Jun 2027 01:28:45.881            12.988                Anadyr2           405.875
       348   04 Jun 2027 01:30:04.265   04 Jun 2027 01:32:03.009           118.744                Norilsk          3710.750
       349   04 Jun 2027 01:33:05.364   04 Jun 2027 01:35:24.470           139.106              Murmansk1          4347.063
       350   04 Jun 2027 01:37:05.431   04 Jun 2027 01:37:08.710             3.279                Novosib           102.469
       351   04 Jun 2027 01:37:34.180   04 Jun 2027 01:37:40.900             6.720              Murmansk2           210.000
       352   04 Jun 2027 01:41:13.931   04 Jun 2027 01:41:55.152            41.221                  Delhi          1288.156
       353   04 Jun 2027 01:45:13.308   04 Jun 2027 01:46:51.998            98.690                  Delhi          3084.062
       354   04 Jun 2027 02:23:01.506   04 Jun 2027 02:24:21.124            79.618            RioGallegos          2488.063
       355   04 Jun 2027 02:25:38.898   04 Jun 2027 02:27:39.558           120.660            RioGallegos          3770.625
       356   04 Jun 2027 03:13:34.692   04 Jun 2027 03:13:50.337            15.645                Irkutsk           488.906
       357   04 Jun 2027 03:13:57.750   04 Jun 2027 03:14:44.131            46.381                Norilsk          1449.406
       358   04 Jun 2027 03:15:01.647   04 Jun 2027 03:15:30.161            28.514                Novosib           891.062
       359   04 Jun 2027 03:15:30.664   04 Jun 2027 03:16:13.425            42.761                 Moscow          1336.281
       360   04 Jun 2027 03:16:15.646   04 Jun 2027 03:16:31.619            15.973                Novosib           499.156
       361   04 Jun 2027 03:16:36.764   04 Jun 2027 03:17:00.906            24.142                Norilsk           754.438
       362   04 Jun 2027 03:17:18.498   04 Jun 2027 03:18:02.123            43.625                 Moscow          1363.281
       363   04 Jun 2027 03:18:44.505   04 Jun 2027 03:21:56.812           192.307                  Delhi          6009.594
       364   04 Jun 2027 04:53:02.026   04 Jun 2027 04:53:15.497            13.471                 Moscow           420.969
       365   04 Jun 2027 04:53:32.197   04 Jun 2027 04:54:22.234            50.037                 Moscow          1563.656
       366   04 Jun 2027 04:55:21.827   04 Jun 2027 04:55:56.260            34.433                 Moscow          1076.031
       367   04 Jun 2027 04:56:59.121   04 Jun 2027 04:57:05.526             6.405                 Moscow           200.156
       368   04 Jun 2027 05:11:16.868   04 Jun 2027 05:14:03.611           166.743               CapeTown          5210.719
       369   04 Jun 2027 06:09:31.086   04 Jun 2027 06:10:09.425            38.339                Anadyr2          1198.094
       370   04 Jun 2027 06:14:17.858   04 Jun 2027 06:14:42.198            24.340               Magadan1           760.625
       371   04 Jun 2027 06:15:05.814   04 Jun 2027 06:15:11.725             5.911                Anadyr1           184.719
       372   04 Jun 2027 06:15:12.109   04 Jun 2027 06:15:32.603            20.494                Anadyr2           640.438
       373   04 Jun 2027 06:15:33.037   04 Jun 2027 06:15:35.017             1.980               Magadan1            61.875
       374   04 Jun 2027 06:16:04.702   04 Jun 2027 06:17:10.956            66.254                Anadyr1          2070.438
       375   04 Jun 2027 06:50:36.612   04 Jun 2027 06:51:03.832            27.220               CapeTown           850.625
       376   04 Jun 2027 06:54:16.750   04 Jun 2027 06:54:55.761            39.011               CapeTown          1219.094
       377   04 Jun 2027 07:50:27.808   04 Jun 2027 07:50:39.379            11.571               Magadan2           361.594
       378   04 Jun 2027 07:50:43.149   04 Jun 2027 07:50:57.238            14.089               Magadan2           440.281
       379   04 Jun 2027 07:51:07.864   04 Jun 2027 07:51:54.258            46.394                Anadyr1          1449.813
       380   04 Jun 2027 07:52:10.161   04 Jun 2027 07:52:14.892             4.731               Magadan1           147.844
       381   04 Jun 2027 07:52:41.334   04 Jun 2027 07:52:47.483             6.149               Magadan2           192.156
       382   04 Jun 2027 07:53:03.949   04 Jun 2027 07:54:19.382            75.433                Anadyr1          2357.281
       383   04 Jun 2027 08:35:58.931   04 Jun 2027 08:36:39.409            40.478            RioGallegos          1264.937
       384   04 Jun 2027 09:24:54.859   04 Jun 2027 09:25:25.969            31.110               Magadan2           972.188
       385   04 Jun 2027 09:25:35.812   04 Jun 2027 09:26:04.200            28.388               Magadan2           887.125
       386   04 Jun 2027 09:26:14.829   04 Jun 2027 09:27:23.246            68.417               Magadan2          2138.031
       387   04 Jun 2027 09:28:20.362   04 Jun 2027 09:30:05.465           105.103                Anadyr1          3284.469
       388   04 Jun 2027 09:30:35.134   04 Jun 2027 09:30:35.947             0.813               Magadan2            25.406
       389   04 Jun 2027 09:30:35.947   04 Jun 2027 09:30:40.467             4.520               Magadan1           141.250
       390   04 Jun 2027 09:30:43.047   04 Jun 2027 09:30:46.548             3.501                Anadyr1           109.406
       391   04 Jun 2027 09:31:31.642   04 Jun 2027 09:32:15.236            43.594               Magadan2          1362.312
       392   04 Jun 2027 10:07:15.530   04 Jun 2027 10:07:38.757            23.227            RioGallegos           725.844
       393   04 Jun 2027 10:07:46.500   04 Jun 2027 10:08:07.322            20.822            RioGallegos           650.688
       394   04 Jun 2027 10:44:07.354   04 Jun 2027 10:46:00.674           113.320                Sumatra          3541.250
       395   04 Jun 2027 11:02:29.198   04 Jun 2027 11:03:11.516            42.318                Irkutsk          1322.437
       396   04 Jun 2027 11:03:24.706   04 Jun 2027 11:05:22.129           117.423               Magadan2          3669.469
       397   04 Jun 2027 11:05:30.215   04 Jun 2027 11:05:43.260            13.045                Norilsk           407.656
       398   04 Jun 2027 11:06:04.605   04 Jun 2027 11:06:08.122             3.517                Irkutsk           109.906
       399   04 Jun 2027 11:06:10.224   04 Jun 2027 11:06:17.598             7.374                Norilsk           230.438
       400   04 Jun 2027 11:06:29.073   04 Jun 2027 11:07:08.827            39.754                Novosib          1242.313
       401   04 Jun 2027 11:07:18.568   04 Jun 2027 11:07:22.704             4.136                Norilsk           129.250
       402   04 Jun 2027 11:07:31.236   04 Jun 2027 11:07:56.758            25.522                Irkutsk           797.562
       403   04 Jun 2027 11:08:03.438   04 Jun 2027 11:08:44.523            41.085                Norilsk          1283.906
       404   04 Jun 2027 11:43:29.246   04 Jun 2027 11:44:19.207            49.961            RioGallegos          1561.281
       405   04 Jun 2027 12:17:54.314   04 Jun 2027 12:20:04.519           130.205                Sumatra          4068.906
       406   04 Jun 2027 12:32:40.020   04 Jun 2027 12:33:32.902            52.882                Irkutsk          1652.562
       407   04 Jun 2027 12:36:33.806   04 Jun 2027 12:36:36.106             2.300                Norilsk            71.875
       408   04 Jun 2027 12:37:44.253   04 Jun 2027 12:38:15.291            31.038                Norilsk           969.938
       409   04 Jun 2027 12:42:22.653   04 Jun 2027 12:43:17.059            54.406                Irkutsk          1700.187
       410   04 Jun 2027 14:02:30.227   04 Jun 2027 14:02:59.555            29.328                  Delhi           916.500
       411   04 Jun 2027 14:04:50.128   04 Jun 2027 14:06:56.234           126.106                  Delhi          3940.812
       412   04 Jun 2027 14:10:39.402   04 Jun 2027 14:11:29.873            50.471                Novosib          1577.219
       413   04 Jun 2027 14:14:01.243   04 Jun 2027 14:15:47.463           106.220                Novosib          3319.375
       414   04 Jun 2027 14:16:17.966   04 Jun 2027 14:17:37.070            79.104                Norilsk          2472.000
       415   04 Jun 2027 14:19:19.273   04 Jun 2027 14:19:21.343             2.070                Norilsk            64.687
       416   04 Jun 2027 14:23:20.339   04 Jun 2027 14:24:29.912            69.573                Norilsk          2174.156
       417   04 Jun 2027 15:46:24.329   04 Jun 2027 15:49:27.539           183.210                 Moscow          5725.313
       418   04 Jun 2027 15:49:55.094   04 Jun 2027 15:50:58.492            63.398              Murmansk1          1981.187
       419   04 Jun 2027 15:55:08.875   04 Jun 2027 15:59:17.623           248.748                Norilsk          7773.375
       420   04 Jun 2027 17:24:37.373   04 Jun 2027 17:26:06.418            89.045                 Moscow          2782.656
       421   04 Jun 2027 17:29:09.700   04 Jun 2027 17:29:40.381            30.681              Murmansk2           958.781
       422   04 Jun 2027 17:30:37.767   04 Jun 2027 17:31:10.939            33.172              Murmansk2          1036.625
       423   04 Jun 2027 17:40:43.648   04 Jun 2027 17:42:52.853           129.205                Anadyr1          4037.656
       424   04 Jun 2027 18:36:06.007   04 Jun 2027 18:37:51.220           105.213               CapeTown          3287.906
       425   04 Jun 2027 19:07:22.675   04 Jun 2027 19:12:50.947           328.272              Murmansk2         10258.500
       426   04 Jun 2027 19:19:24.259   04 Jun 2027 19:19:46.238            21.979               Magadan2           686.844
       427   04 Jun 2027 19:27:17.758   04 Jun 2027 19:28:02.118            44.360               Magadan1          1386.250
       428   04 Jun 2027 20:52:22.011   04 Jun 2027 20:55:25.401           183.390                Anadyr1          5730.937
       429   04 Jun 2027 20:55:48.812   04 Jun 2027 20:56:56.058            67.246               Magadan2          2101.438
       430   04 Jun 2027 20:57:32.601   04 Jun 2027 20:57:38.055             5.454                Anadyr1           170.438
       431   04 Jun 2027 20:57:42.245   04 Jun 2027 20:58:22.225            39.980               Magadan1          1249.375
       432   04 Jun 2027 20:58:44.400   04 Jun 2027 20:59:26.996            42.596               Magadan2          1331.125
       433   04 Jun 2027 20:59:59.577   04 Jun 2027 21:00:17.556            17.979               Magadan2           561.844
       434   04 Jun 2027 21:01:40.414   04 Jun 2027 21:02:24.574            44.160               Magadan2          1380.000
       435   04 Jun 2027 21:48:05.656   04 Jun 2027 21:50:50.259           164.603            RioGallegos          5143.844
       436   04 Jun 2027 21:53:49.341   04 Jun 2027 21:54:04.137            14.796            RioGallegos           462.375
       437   04 Jun 2027 22:28:10.146   04 Jun 2027 22:29:59.828           109.682                Anadyr2          3427.563
       438   04 Jun 2027 22:30:06.445   04 Jun 2027 22:30:14.881             8.436                Anadyr2           263.625
       439   04 Jun 2027 22:30:16.718   04 Jun 2027 22:31:48.745            92.027                Norilsk          2875.844
       440   04 Jun 2027 22:32:55.153   04 Jun 2027 22:33:00.354             5.201               Magadan2           162.531
       441   04 Jun 2027 22:33:09.944   04 Jun 2027 22:33:33.804            23.860                Norilsk           745.625
       442   04 Jun 2027 22:35:03.085   04 Jun 2027 22:35:47.015            43.930                Irkutsk          1372.813
       443   04 Jun 2027 22:37:01.117   04 Jun 2027 22:37:43.272            42.155                Irkutsk          1317.344
       444   04 Jun 2027 22:44:10.573   04 Jun 2027 22:44:25.773            15.200                Irkutsk           475.000
       445   04 Jun 2027 22:49:43.302   04 Jun 2027 22:51:27.452           104.150                Sumatra          3254.688
       446   04 Jun 2027 22:58:27.972   04 Jun 2027 22:58:40.442            12.470                Sumatra           389.688
       447   05 Jun 2027 00:03:22.948   05 Jun 2027 00:05:53.450           150.502                Anadyr2          4703.188
       448   05 Jun 2027 00:05:57.461   05 Jun 2027 00:06:05.522             8.061                Anadyr1           251.906
       449   05 Jun 2027 00:06:05.600   05 Jun 2027 00:07:48.586           102.986                Norilsk          3218.313
       450   05 Jun 2027 00:08:30.482   05 Jun 2027 00:09:00.954            30.472               Magadan2           952.250
       451   05 Jun 2027 00:09:59.755   05 Jun 2027 00:10:57.364            57.609                Irkutsk          1800.281
       452   05 Jun 2027 00:11:03.325   05 Jun 2027 00:11:42.563            39.238                Novosib          1226.188
       453   05 Jun 2027 00:12:54.515   05 Jun 2027 00:13:36.764            42.249                Novosib          1320.281
       454   05 Jun 2027 00:19:56.330   05 Jun 2027 00:21:32.993            96.663                  Delhi          3020.719
       455   05 Jun 2027 00:33:48.284   05 Jun 2027 00:34:09.817            21.533                Sumatra           672.906
       456   05 Jun 2027 00:58:50.348   05 Jun 2027 00:59:22.233            31.885            RioGallegos           996.406
       457   05 Jun 2027 01:01:46.120   05 Jun 2027 01:01:56.678            10.558            RioGallegos           329.938
       458   05 Jun 2027 01:04:45.491   05 Jun 2027 01:05:04.517            19.026            RioGallegos           594.563
       459   05 Jun 2027 01:08:47.724   05 Jun 2027 01:09:01.661            13.937            RioGallegos           435.531
       460   05 Jun 2027 01:37:24.664   05 Jun 2027 01:39:12.868           108.204                Anadyr1          3381.375
       461   05 Jun 2027 01:42:06.432   05 Jun 2027 01:44:04.553           118.121                Norilsk          3691.281
       462   05 Jun 2027 01:44:52.229   05 Jun 2027 01:46:20.091            87.862              Murmansk2          2745.688
       463   05 Jun 2027 01:46:20.091   05 Jun 2027 01:46:25.422             5.331              Murmansk1           166.594
       464   05 Jun 2027 01:46:33.947   05 Jun 2027 01:47:23.306            49.359                Irkutsk          1542.469
       465   05 Jun 2027 01:49:11.136   05 Jun 2027 01:49:32.343            21.207                Novosib           662.719
       466   05 Jun 2027 01:51:53.275   05 Jun 2027 01:52:43.246            49.971                Novosib          1561.594
       467   05 Jun 2027 01:57:43.882   05 Jun 2027 01:57:46.817             2.935                  Delhi            91.719
       468   05 Jun 2027 01:59:55.391   05 Jun 2027 02:01:18.735            83.344                  Delhi          2604.500
       469   05 Jun 2027 02:35:21.396   05 Jun 2027 02:37:07.822           106.426            RioGallegos          3325.812
       470   05 Jun 2027 02:39:22.102   05 Jun 2027 02:40:32.764            70.662            RioGallegos          2208.187
       471   05 Jun 2027 03:26:58.502   05 Jun 2027 03:29:28.449           149.947                Novosib          4685.844
       472   05 Jun 2027 03:29:34.320   05 Jun 2027 03:30:31.620            57.300              Murmansk2          1790.625
       473   05 Jun 2027 03:30:33.269   05 Jun 2027 03:30:37.070             3.801                Norilsk           118.781
       474   05 Jun 2027 03:30:41.981   05 Jun 2027 03:31:30.230            48.249                Novosib          1507.781
       475   05 Jun 2027 03:31:33.812   05 Jun 2027 03:33:38.684           124.872                  Delhi          3902.250
       476   05 Jun 2027 05:04:26.350   05 Jun 2027 05:04:50.527            24.177                Novosib           755.531
       477   05 Jun 2027 05:05:09.691   05 Jun 2027 05:05:43.886            34.195                 Moscow          1068.594
       478   05 Jun 2027 05:06:21.502   05 Jun 2027 05:06:24.877             3.375                 Moscow           105.469
       479   05 Jun 2027 05:06:30.592   05 Jun 2027 05:06:59.689            29.097                 Moscow           909.281
       480   05 Jun 2027 05:07:55.176   05 Jun 2027 05:08:09.722            14.546                 Moscow           454.563
       481   05 Jun 2027 05:09:00.863   05 Jun 2027 05:09:12.556            11.693                 Moscow           365.406
       482   05 Jun 2027 05:23:19.673   05 Jun 2027 05:25:46.103           146.430               CapeTown          4575.937
