uniorb/output/strategy_4/Drop/Drop_KinoSat_111205.txt

KinoSat_111205
-------------------------
    Access    *     Start Time (UTCG)     *     Stop Time (UTCG)  *   Duration (s)        *       Station  *  Data (Mbytes)
         1   01 Jun 2027 03:34:21.627   01 Jun 2027 03:36:20.440           118.813              Murmansk2          3712.906
         2   01 Jun 2027 03:36:20.440   01 Jun 2027 03:36:41.932            21.492              Murmansk1           671.625
         3   01 Jun 2027 04:56:14.753   01 Jun 2027 05:00:11.459           236.706               Magadan1          7397.063
         4   01 Jun 2027 05:00:26.117   01 Jun 2027 05:00:53.479            27.362                Anadyr2           855.063
         5   01 Jun 2027 06:33:20.536   01 Jun 2027 06:34:15.166            54.630                Irkutsk          1707.188
         6   01 Jun 2027 06:34:20.227   01 Jun 2027 06:36:13.232           113.005               Magadan1          3531.406
         7   01 Jun 2027 06:36:33.862   01 Jun 2027 06:37:21.746            47.884                Anadyr1          1496.375
         8   01 Jun 2027 08:08:58.276   01 Jun 2027 08:09:16.662            18.386                Novosib           574.562
         9   01 Jun 2027 08:09:49.376   01 Jun 2027 08:14:30.392           281.016                Novosib          8781.750
        10   01 Jun 2027 08:48:25.751   01 Jun 2027 08:49:27.807            62.056            RioGallegos          1939.250
        11   01 Jun 2027 08:49:44.513   01 Jun 2027 08:50:46.645            62.132            RioGallegos          1941.625
        12   01 Jun 2027 09:24:23.798   01 Jun 2027 09:25:19.333            55.535                Sumatra          1735.469
        13   01 Jun 2027 09:43:52.257   01 Jun 2027 09:44:08.198            15.941                Irkutsk           498.156
        14   01 Jun 2027 09:46:06.035   01 Jun 2027 09:48:33.629           147.594                Novosib          4612.312
        15   01 Jun 2027 09:48:34.931   01 Jun 2027 09:48:45.988            11.057              Murmansk2           345.531
        16   01 Jun 2027 09:48:53.022   01 Jun 2027 09:51:16.035           143.013                Norilsk          4469.156
        17   01 Jun 2027 09:51:55.303   01 Jun 2027 09:52:48.355            53.052              Murmansk2          1657.875
        18   01 Jun 2027 10:25:27.368   01 Jun 2027 10:26:27.404            60.036            RioGallegos          1876.125
        19   01 Jun 2027 10:29:34.286   01 Jun 2027 10:30:31.381            57.095            RioGallegos          1784.219
        20   01 Jun 2027 10:59:42.082   01 Jun 2027 11:01:15.130            93.048                Sumatra          2907.750
        21   01 Jun 2027 11:23:11.574   01 Jun 2027 11:26:25.521           193.947                Norilsk          6060.844
        22   01 Jun 2027 12:44:37.495   01 Jun 2027 12:48:35.916           238.421                  Delhi          7450.656
        23   01 Jun 2027 12:53:02.252   01 Jun 2027 12:53:52.599            50.347                Novosib          1573.344
        24   01 Jun 2027 12:54:25.582   01 Jun 2027 12:55:18.773            53.191                Novosib          1662.219
        25   01 Jun 2027 12:56:26.612   01 Jun 2027 12:57:52.543            85.931                Novosib          2685.344
        26   01 Jun 2027 12:58:36.601   01 Jun 2027 12:59:02.138            25.537                Norilsk           798.031
        27   01 Jun 2027 13:00:44.960   01 Jun 2027 13:01:06.516            21.556                Norilsk           673.625
        28   01 Jun 2027 13:01:32.029   01 Jun 2027 13:01:49.001            16.972                Norilsk           530.375
        29   01 Jun 2027 14:27:57.498   01 Jun 2027 14:29:51.742           114.244                 Moscow          3570.125
        30   01 Jun 2027 14:31:28.781   01 Jun 2027 14:33:15.689           106.908              Murmansk1          3340.875
        31   01 Jun 2027 14:33:27.475   01 Jun 2027 14:35:14.562           107.087              Murmansk2          3346.469
        32   01 Jun 2027 14:38:13.467   01 Jun 2027 14:40:45.224           151.757                Norilsk          4742.406
        33   01 Jun 2027 14:47:30.513   01 Jun 2027 14:48:19.703            49.190                Anadyr2          1537.187
        34   01 Jun 2027 14:49:29.710   01 Jun 2027 14:50:10.257            40.547                Anadyr1          1267.094
        35   01 Jun 2027 15:41:29.679   01 Jun 2027 15:42:34.672            64.993               CapeTown          2031.031
        36   01 Jun 2027 16:07:09.620   01 Jun 2027 16:07:24.459            14.839                 Moscow           463.719
        37   01 Jun 2027 16:09:24.478   01 Jun 2027 16:10:32.151            67.673              Murmansk1          2114.781
        38   01 Jun 2027 16:10:53.932   01 Jun 2027 16:11:34.318            40.386              Murmansk1          1262.062
        39   01 Jun 2027 16:12:49.179   01 Jun 2027 16:13:19.367            30.188              Murmansk1           943.375
        40   01 Jun 2027 16:22:02.746   01 Jun 2027 16:24:21.841           139.095                Anadyr2          4346.719
        41   01 Jun 2027 17:17:50.870   01 Jun 2027 17:19:17.409            86.539               CapeTown          2704.344
        42   01 Jun 2027 17:22:25.329   01 Jun 2027 17:22:42.070            16.741               CapeTown           523.156
        43   01 Jun 2027 17:50:09.105   01 Jun 2027 17:54:37.008           267.903              Murmansk2          8371.969
        44   01 Jun 2027 17:57:49.722   01 Jun 2027 17:58:18.767            29.045                Anadyr2           907.656
        45   01 Jun 2027 17:58:28.848   01 Jun 2027 17:58:34.996             6.148                Anadyr2           192.125
        46   01 Jun 2027 17:58:43.038   01 Jun 2027 17:59:15.116            32.078                Anadyr1          1002.438
        47   01 Jun 2027 18:00:33.547   01 Jun 2027 18:01:45.603            72.056               Magadan2          2251.750
        48   01 Jun 2027 18:03:30.001   01 Jun 2027 18:04:09.307            39.306               Magadan2          1228.312
        49   01 Jun 2027 19:33:45.388   01 Jun 2027 19:35:48.369           122.981                Anadyr1          3843.156
        50   01 Jun 2027 19:35:50.723   01 Jun 2027 19:37:34.263           103.540                Anadyr2          3235.625
        51   01 Jun 2027 19:37:37.705   01 Jun 2027 19:39:39.379           121.674               Magadan1          3802.312
        52   01 Jun 2027 19:39:39.379   01 Jun 2027 19:40:24.032            44.653               Magadan2          1395.406
        53   01 Jun 2027 19:40:36.186   01 Jun 2027 19:40:59.554            23.368               Magadan2           730.250
        54   01 Jun 2027 19:42:48.851   01 Jun 2027 19:43:11.313            22.462               Magadan2           701.938
        55   01 Jun 2027 20:28:44.351   01 Jun 2027 20:31:30.851           166.500            RioGallegos          5203.125
        56   01 Jun 2027 20:31:32.206   01 Jun 2027 20:31:55.930            23.724            RioGallegos           741.375
        57   01 Jun 2027 20:35:10.855   01 Jun 2027 20:35:18.439             7.584            RioGallegos           237.000
        58   01 Jun 2027 21:09:28.548   01 Jun 2027 21:10:04.839            36.291                Anadyr1          1134.094
        59   01 Jun 2027 21:11:37.844   01 Jun 2027 21:12:26.937            49.093                Norilsk          1534.156
        60   01 Jun 2027 21:13:02.312   01 Jun 2027 21:14:19.085            76.773               Magadan1          2399.156
        61   01 Jun 2027 21:14:19.085   01 Jun 2027 21:15:15.372            56.287               Magadan2          1758.969
        62   01 Jun 2027 21:16:04.190   01 Jun 2027 21:17:36.149            91.959                Irkutsk          2873.719
        63   01 Jun 2027 21:18:37.995   01 Jun 2027 21:19:33.318            55.323                Irkutsk          1728.844
        64   01 Jun 2027 21:30:09.724   01 Jun 2027 21:33:15.342           185.618                Sumatra          5800.562
        65   01 Jun 2027 21:36:09.435   01 Jun 2027 21:36:13.824             4.389                Sumatra           137.156
        66   01 Jun 2027 22:45:18.912   01 Jun 2027 22:45:32.036            13.124                Anadyr2           410.125
        67   01 Jun 2027 22:46:21.137   01 Jun 2027 22:47:07.556            46.419                Anadyr2          1450.594
        68   01 Jun 2027 22:47:30.953   01 Jun 2027 22:49:43.781           132.828                Norilsk          4150.875
        69   01 Jun 2027 22:49:46.978   01 Jun 2027 22:50:12.235            25.257               Magadan2           789.281
        70   01 Jun 2027 22:50:52.727   01 Jun 2027 22:51:17.400            24.673               Magadan2           771.031
        71   01 Jun 2027 22:51:22.695   01 Jun 2027 22:51:37.544            14.849                Irkutsk           464.031
        72   01 Jun 2027 22:51:43.692   01 Jun 2027 22:52:12.572            28.880                Novosib           902.500
        73   01 Jun 2027 22:52:18.358   01 Jun 2027 22:52:36.391            18.033                Novosib           563.531
        74   01 Jun 2027 22:54:52.035   01 Jun 2027 22:54:59.072             7.037                Novosib           219.906
        75   01 Jun 2027 22:56:47.584   01 Jun 2027 22:56:54.848             7.264                Novosib           227.000
        76   01 Jun 2027 22:58:15.568   01 Jun 2027 22:59:08.193            52.625                Novosib          1644.531
        77   01 Jun 2027 23:00:07.819   01 Jun 2027 23:02:50.991           163.172                  Delhi          5099.125
        78   02 Jun 2027 00:18:16.001   02 Jun 2027 00:18:51.905            35.904                Anadyr2          1122.000
        79   02 Jun 2027 00:19:08.289   02 Jun 2027 00:20:37.682            89.393                Anadyr1          2793.531
        80   02 Jun 2027 00:23:31.148   02 Jun 2027 00:23:47.961            16.813                Norilsk           525.406
        81   02 Jun 2027 00:23:56.061   02 Jun 2027 00:24:52.060            55.999               Magadan2          1749.969
        82   02 Jun 2027 00:25:29.007   02 Jun 2027 00:25:31.700             2.693                Norilsk            84.156
        83   02 Jun 2027 00:25:43.390   02 Jun 2027 00:25:47.452             4.062               Magadan2           126.938
        84   02 Jun 2027 00:25:57.723   02 Jun 2027 00:26:10.014            12.291               Magadan1           384.094
        85   02 Jun 2027 00:26:33.225   02 Jun 2027 00:27:53.095            79.870              Murmansk1          2495.937
        86   02 Jun 2027 00:28:06.051   02 Jun 2027 00:29:44.235            98.184                Novosib          3068.250
        87   02 Jun 2027 00:31:54.486   02 Jun 2027 00:31:57.321             2.835              Murmansk2            88.594
        88   02 Jun 2027 00:33:11.788   02 Jun 2027 00:33:58.604            46.816                 Moscow          1463.000
        89   02 Jun 2027 00:35:57.961   02 Jun 2027 00:36:50.366            52.405                  Delhi          1637.656
        90   02 Jun 2027 00:44:18.663   02 Jun 2027 00:44:21.554             2.891                  Delhi            90.344
        91   02 Jun 2027 00:45:02.017   02 Jun 2027 00:46:20.256            78.239                  Delhi          2444.969
        92   02 Jun 2027 01:18:47.614   02 Jun 2027 01:19:45.673            58.059            RioGallegos          1814.344
        93   02 Jun 2027 01:51:34.452   02 Jun 2027 01:51:56.902            22.450                Anadyr2           701.563
        94   02 Jun 2027 01:52:07.147   02 Jun 2027 01:52:49.456            42.309                Anadyr1          1322.156
        95   02 Jun 2027 01:54:16.980   02 Jun 2027 01:54:30.047            13.067                Anadyr1           408.344
        96   02 Jun 2027 01:54:30.047   02 Jun 2027 01:54:43.762            13.715                Anadyr2           428.594
        97   02 Jun 2027 01:57:11.146   02 Jun 2027 01:58:30.133            78.987               Magadan1          2468.344
        98   02 Jun 2027 01:59:22.783   02 Jun 2027 01:59:43.591            20.808                Norilsk           650.250
        99   02 Jun 2027 02:01:39.255   02 Jun 2027 02:02:42.131            62.876              Murmansk2          1964.875
       100   02 Jun 2027 02:03:32.264   02 Jun 2027 02:04:41.680            69.416                Novosib          2169.250
       101   02 Jun 2027 02:04:47.890   02 Jun 2027 02:06:21.611            93.721                Novosib          2928.781
       102   02 Jun 2027 02:30:07.056   02 Jun 2027 02:30:30.056            23.000               CapeTown           718.750
       103   02 Jun 2027 02:31:35.806   02 Jun 2027 02:31:36.905             1.099               CapeTown            34.344
       104   02 Jun 2027 02:32:57.670   02 Jun 2027 02:33:01.239             3.569               CapeTown           111.531
       105   02 Jun 2027 02:35:39.066   02 Jun 2027 02:35:47.189             8.123               CapeTown           253.844
       106   02 Jun 2027 02:36:53.963   02 Jun 2027 02:37:44.573            50.610               CapeTown          1581.563
       107   02 Jun 2027 03:46:37.166   02 Jun 2027 03:47:10.484            33.318                 Moscow          1041.187
       108   02 Jun 2027 03:47:12.843   02 Jun 2027 03:47:54.595            41.752              Murmansk1          1304.750
       109   02 Jun 2027 03:47:54.595   02 Jun 2027 03:50:31.489           156.894              Murmansk2          4902.937
       110   02 Jun 2027 03:51:37.841   02 Jun 2027 03:51:49.071            11.230                 Moscow           350.938
       111   02 Jun 2027 05:08:02.206   02 Jun 2027 05:08:20.667            18.461               Magadan1           576.906
       112   02 Jun 2027 05:08:32.356   02 Jun 2027 05:13:04.524           272.168                Anadyr1          8505.250
       113   02 Jun 2027 05:13:06.085   02 Jun 2027 05:14:00.407            54.322               Magadan2          1697.563
       114   02 Jun 2027 05:14:11.225   02 Jun 2027 05:14:21.666            10.441                Anadyr2           326.281
       115   02 Jun 2027 06:46:20.459   02 Jun 2027 06:46:51.974            31.515                Irkutsk           984.844
       116   02 Jun 2027 08:22:59.043   02 Jun 2027 08:25:12.124           133.081               Magadan1          4158.781
       117   02 Jun 2027 08:25:12.124   02 Jun 2027 08:25:21.443             9.319               Magadan2           291.219
       118   02 Jun 2027 09:58:06.749   02 Jun 2027 09:58:18.277            11.528                Novosib           360.250
       119   02 Jun 2027 09:58:23.081   02 Jun 2027 09:59:16.127            53.046                Novosib          1657.688
       120   02 Jun 2027 09:59:28.231   02 Jun 2027 09:59:37.096             8.865                Irkutsk           277.031
       121   02 Jun 2027 09:59:53.936   02 Jun 2027 10:00:27.676            33.740                Irkutsk          1054.375
       122   02 Jun 2027 10:00:31.822   02 Jun 2027 10:01:39.759            67.937                Irkutsk          2123.031
       123   02 Jun 2027 11:12:08.589   02 Jun 2027 11:13:13.568            64.979                Sumatra          2030.594
       124   02 Jun 2027 11:21:25.431   02 Jun 2027 11:22:35.978            70.547                  Delhi          2204.594
       125   02 Jun 2027 11:33:02.999   02 Jun 2027 11:33:14.634            11.635                Irkutsk           363.594
       126   02 Jun 2027 11:34:56.060   02 Jun 2027 11:35:03.701             7.641                Norilsk           238.781
       127   02 Jun 2027 11:35:12.248   02 Jun 2027 11:35:21.602             9.354                Norilsk           292.313
       128   02 Jun 2027 11:35:22.885   02 Jun 2027 11:35:24.493             1.608                Novosib            50.250
       129   02 Jun 2027 11:35:43.687   02 Jun 2027 11:35:48.929             5.242                Irkutsk           163.813
       130   02 Jun 2027 11:35:57.867   02 Jun 2027 11:36:29.834            31.967                Norilsk           998.969
       131   02 Jun 2027 11:36:44.865   02 Jun 2027 11:36:51.981             7.116                Novosib           222.375
       132   02 Jun 2027 11:36:55.027   02 Jun 2027 11:37:08.458            13.431                Norilsk           419.719
       133   02 Jun 2027 11:37:14.000   02 Jun 2027 11:37:27.127            13.127                Novosib           410.219
       134   02 Jun 2027 12:57:18.985   02 Jun 2027 12:59:09.251           110.266                  Delhi          3445.813
       135   02 Jun 2027 12:59:42.815   02 Jun 2027 13:00:31.672            48.857                  Delhi          1526.781
       136   02 Jun 2027 13:05:20.738   02 Jun 2027 13:06:11.592            50.854                 Moscow          1589.188
       137   02 Jun 2027 13:06:59.684   02 Jun 2027 13:07:14.262            14.578                Novosib           455.563
       138   02 Jun 2027 13:07:23.093   02 Jun 2027 13:08:49.821            86.728              Murmansk2          2710.250
       139   02 Jun 2027 13:09:11.867   02 Jun 2027 13:09:33.294            21.427                Norilsk           669.594
       140   02 Jun 2027 13:11:56.809   02 Jun 2027 13:12:43.471            46.662                Norilsk          1458.187
       141   02 Jun 2027 14:22:15.364   02 Jun 2027 14:22:54.811            39.447               CapeTown          1232.719
       142   02 Jun 2027 14:23:36.594   02 Jun 2027 14:24:21.242            44.648               CapeTown          1395.250
       143   02 Jun 2027 14:40:08.764   02 Jun 2027 14:41:50.990           102.226                 Moscow          3194.563
       144   02 Jun 2027 14:43:38.423   02 Jun 2027 14:46:37.734           179.311              Murmansk1          5603.469
       145   02 Jun 2027 14:59:06.464   02 Jun 2027 15:00:17.628            71.164                Anadyr1          2223.875
       146   02 Jun 2027 15:00:55.866   02 Jun 2027 15:02:10.074            74.208                Anadyr2          2319.000
       147   02 Jun 2027 15:53:24.009   02 Jun 2027 15:53:51.194            27.185               CapeTown           849.531
       148   02 Jun 2027 15:56:04.212   02 Jun 2027 15:56:17.725            13.513               CapeTown           422.281
       149   02 Jun 2027 16:01:37.689   02 Jun 2027 16:01:47.623             9.934               CapeTown           310.437
       150   02 Jun 2027 16:20:05.628   02 Jun 2027 16:21:20.105            74.477                 Moscow          2327.406
       151   02 Jun 2027 16:21:50.859   02 Jun 2027 16:22:18.304            27.445              Murmansk1           857.656
       152   02 Jun 2027 16:22:56.007   02 Jun 2027 16:23:44.354            48.347              Murmansk2          1510.844
       153   02 Jun 2027 16:26:42.964   02 Jun 2027 16:26:54.800            11.836              Murmansk2           369.875
       154   02 Jun 2027 16:31:05.027   02 Jun 2027 16:31:48.136            43.109              Murmansk2          1347.156
       155   02 Jun 2027 16:34:01.609   02 Jun 2027 16:35:13.589            71.980                Anadyr2          2249.375
       156   02 Jun 2027 16:35:13.589   02 Jun 2027 16:35:48.350            34.761                Anadyr1          1086.281
       157   02 Jun 2027 16:39:47.429   02 Jun 2027 16:39:54.023             6.594                Anadyr2           206.063
       158   02 Jun 2027 16:41:47.021   02 Jun 2027 16:41:50.940             3.919                Anadyr1           122.469
       159   02 Jun 2027 16:43:23.551   02 Jun 2027 16:43:29.284             5.733                Anadyr2           179.156
       160   02 Jun 2027 16:45:34.296   02 Jun 2027 16:45:39.629             5.333                Anadyr1           166.656
       161   02 Jun 2027 17:30:11.526   02 Jun 2027 17:30:45.923            34.397               CapeTown          1074.906
       162   02 Jun 2027 17:32:10.055   02 Jun 2027 17:32:39.003            28.948               CapeTown           904.625
       163   02 Jun 2027 17:36:31.285   02 Jun 2027 17:37:08.787            37.502               CapeTown          1171.937
       164   02 Jun 2027 18:03:12.931   02 Jun 2027 18:06:52.774           219.843              Murmansk1          6870.094
       165   02 Jun 2027 18:09:51.140   02 Jun 2027 18:10:26.129            34.989                Anadyr2          1093.406
       166   02 Jun 2027 18:10:33.704   02 Jun 2027 18:10:34.649             0.945                Anadyr2            29.531
       167   02 Jun 2027 18:11:02.324   02 Jun 2027 18:11:11.967             9.643                Anadyr1           301.344
       168   02 Jun 2027 18:11:51.732   02 Jun 2027 18:11:59.482             7.750                Anadyr1           242.188
       169   02 Jun 2027 18:12:22.951   02 Jun 2027 18:12:49.143            26.192                Anadyr2           818.500
       170   02 Jun 2027 18:13:09.346   02 Jun 2027 18:13:56.864            47.518               Magadan1          1484.938
       171   02 Jun 2027 18:13:56.864   02 Jun 2027 18:15:12.041            75.177               Magadan2          2349.281
       172   02 Jun 2027 19:45:46.384   02 Jun 2027 19:49:43.252           236.868                Anadyr1          7402.125
       173   02 Jun 2027 19:49:53.005   02 Jun 2027 19:51:37.162           104.157                Norilsk          3254.906
       174   02 Jun 2027 19:51:48.619   02 Jun 2027 19:52:31.034            42.415               Magadan2          1325.469
       175   02 Jun 2027 19:56:59.750   02 Jun 2027 19:57:03.464             3.714               Magadan1           116.063
       176   02 Jun 2027 19:57:22.430   02 Jun 2027 19:57:50.208            27.778               Magadan1           868.063
       177   02 Jun 2027 19:58:31.737   02 Jun 2027 19:58:39.401             7.664               Magadan1           239.500
       178   02 Jun 2027 20:40:26.822   02 Jun 2027 20:43:23.437           176.615            RioGallegos          5519.219
       179   02 Jun 2027 21:21:26.200   02 Jun 2027 21:22:06.462            40.262                Anadyr1          1258.187
       180   02 Jun 2027 21:23:37.601   02 Jun 2027 21:24:28.807            51.206                Norilsk          1600.187
       181   02 Jun 2027 21:24:33.109   02 Jun 2027 21:25:52.920            79.811               Magadan2          2494.094
       182   02 Jun 2027 21:25:52.920   02 Jun 2027 21:26:19.691            26.771               Magadan1           836.594
       183   02 Jun 2027 21:27:55.111   02 Jun 2027 21:29:16.878            81.767                Irkutsk          2555.219
       184   02 Jun 2027 21:30:55.502   02 Jun 2027 21:31:01.442             5.940                Irkutsk           185.625
       185   02 Jun 2027 21:31:27.127   02 Jun 2027 21:33:00.040            92.913                Novosib          2903.531
       186   02 Jun 2027 21:41:47.866   02 Jun 2027 21:42:32.211            44.345                Sumatra          1385.781
       187   02 Jun 2027 21:42:56.339   02 Jun 2027 21:44:00.039            63.700                Sumatra          1990.625
       188   02 Jun 2027 21:52:00.420   02 Jun 2027 21:53:41.176           100.756                Sumatra          3148.625
       189   02 Jun 2027 23:00:11.099   02 Jun 2027 23:01:25.537            74.438               Magadan1          2326.187
       190   02 Jun 2027 23:02:22.522   02 Jun 2027 23:02:58.066            35.544               Magadan2          1110.750
       191   02 Jun 2027 23:03:24.545   02 Jun 2027 23:04:05.697            41.152                Irkutsk          1286.000
       192   02 Jun 2027 23:04:26.408   02 Jun 2027 23:04:40.160            13.752                Irkutsk           429.750
       193   02 Jun 2027 23:04:44.958   02 Jun 2027 23:05:39.118            54.160                Novosib          1692.500
       194   02 Jun 2027 23:06:13.905   02 Jun 2027 23:06:46.239            32.334                Novosib          1010.438
       195   02 Jun 2027 23:11:40.696   02 Jun 2027 23:12:02.315            21.619                  Delhi           675.594
       196   02 Jun 2027 23:12:29.563   02 Jun 2027 23:12:54.971            25.408                  Delhi           794.000
       197   02 Jun 2027 23:13:02.419   02 Jun 2027 23:14:49.257           106.838                  Delhi          3338.687
       198   03 Jun 2027 00:29:57.413   03 Jun 2027 00:30:10.019            12.606                Anadyr2           393.937
       199   03 Jun 2027 00:30:10.604   03 Jun 2027 00:31:01.584            50.980                Anadyr1          1593.125
       200   03 Jun 2027 00:32:25.591   03 Jun 2027 00:32:43.235            17.644                Anadyr2           551.375
       201   03 Jun 2027 00:35:11.762   03 Jun 2027 00:35:31.010            19.248                Anadyr1           601.500
       202   03 Jun 2027 00:35:32.800   03 Jun 2027 00:36:20.444            47.644                Norilsk          1488.875
       203   03 Jun 2027 00:36:29.740   03 Jun 2027 00:37:25.664            55.924               Magadan2          1747.625
       204   03 Jun 2027 00:37:45.774   03 Jun 2027 00:37:56.220            10.446               Magadan1           326.437
       205   03 Jun 2027 00:37:58.963   03 Jun 2027 00:40:43.428           164.465              Murmansk2          5139.531
       206   03 Jun 2027 00:42:14.277   03 Jun 2027 00:42:53.652            39.375              Murmansk1          1230.469
       207   03 Jun 2027 00:43:24.152   03 Jun 2027 00:43:25.029             0.877                 Moscow            27.406
       208   03 Jun 2027 00:43:50.241   03 Jun 2027 00:44:02.953            12.712                 Moscow           397.250
       209   03 Jun 2027 00:44:26.807   03 Jun 2027 00:45:03.469            36.662                 Moscow          1145.688
       210   03 Jun 2027 00:45:39.935   03 Jun 2027 00:45:57.264            17.329                 Moscow           541.531
       211   03 Jun 2027 00:52:39.910   03 Jun 2027 00:54:34.378           114.468                  Delhi          3577.125
       212   03 Jun 2027 02:03:18.518   03 Jun 2027 02:04:10.450            51.932                Anadyr1          1622.875
       213   03 Jun 2027 02:04:49.817   03 Jun 2027 02:05:45.556            55.739                Anadyr2          1741.844
       214   03 Jun 2027 02:06:20.345   03 Jun 2027 02:06:30.546            10.201                Anadyr2           318.781
       215   03 Jun 2027 02:08:39.575   03 Jun 2027 02:10:22.991           103.416               Magadan2          3231.750
       216   03 Jun 2027 02:13:40.539   03 Jun 2027 02:14:31.502            50.963              Murmansk1          1592.594
       217   03 Jun 2027 02:15:38.473   03 Jun 2027 02:17:25.859           107.386                Novosib          3355.812
       218   03 Jun 2027 02:23:10.516   03 Jun 2027 02:24:01.043            50.527                Novosib          1578.969
       219   03 Jun 2027 02:43:04.475   03 Jun 2027 02:43:33.980            29.505               CapeTown           922.031
       220   03 Jun 2027 02:48:54.059   03 Jun 2027 02:49:28.972            34.913               CapeTown          1091.031
       221   03 Jun 2027 03:37:40.723   03 Jun 2027 03:37:46.398             5.675                Anadyr1           177.344
       222   03 Jun 2027 03:38:49.125   03 Jun 2027 03:39:01.755            12.630                Anadyr1           394.688
       223   03 Jun 2027 03:43:09.338   03 Jun 2027 03:43:12.819             3.481               Magadan2           108.781
       224   03 Jun 2027 03:43:50.753   03 Jun 2027 03:44:30.692            39.939                Anadyr1          1248.094
       225   03 Jun 2027 03:59:34.513   03 Jun 2027 03:59:50.685            16.172              Murmansk1           505.375
       226   03 Jun 2027 04:00:09.859   03 Jun 2027 04:00:38.568            28.709              Murmansk1           897.156
       227   03 Jun 2027 04:01:21.005   03 Jun 2027 04:02:11.744            50.739              Murmansk1          1585.594
       228   03 Jun 2027 05:15:06.209   03 Jun 2027 05:15:18.237            12.028                Anadyr2           375.875
       229   03 Jun 2027 05:18:07.266   03 Jun 2027 05:18:23.522            16.256               Magadan1           508.000
       230   03 Jun 2027 05:19:50.490   03 Jun 2027 05:20:19.380            28.890               Magadan1           902.812
       231   03 Jun 2027 05:20:23.629   03 Jun 2027 05:20:26.194             2.565               Magadan1            80.156
       232   03 Jun 2027 05:20:35.417   03 Jun 2027 05:22:26.871           111.454                Anadyr1          3482.938
       233   03 Jun 2027 05:22:26.871   03 Jun 2027 05:25:08.308           161.437                Anadyr2          5044.906
       234   03 Jun 2027 05:25:08.308   03 Jun 2027 05:25:51.254            42.946                Anadyr1          1342.063
       235   03 Jun 2027 06:57:31.627   03 Jun 2027 06:58:12.826            41.199                Anadyr2          1287.469
       236   03 Jun 2027 06:58:13.701   03 Jun 2027 06:58:57.699            43.998               Magadan2          1374.937
       237   03 Jun 2027 06:58:59.853   03 Jun 2027 06:59:33.436            33.583                Anadyr1          1049.469
       238   03 Jun 2027 06:59:55.131   03 Jun 2027 07:00:08.482            13.351               Magadan1           417.219
       239   03 Jun 2027 07:00:35.056   03 Jun 2027 07:01:53.880            78.824                Anadyr2          2463.250
       240   03 Jun 2027 08:31:00.179   03 Jun 2027 08:31:13.922            13.743               Magadan1           429.469
       241   03 Jun 2027 08:32:29.378   03 Jun 2027 08:32:47.793            18.415               Magadan2           575.469
       242   03 Jun 2027 08:33:14.233   03 Jun 2027 08:33:31.375            17.142               Magadan2           535.687
       243   03 Jun 2027 08:33:35.146   03 Jun 2027 08:33:37.037             1.891               Magadan2            59.094
       244   03 Jun 2027 08:33:37.037   03 Jun 2027 08:33:46.980             9.943               Magadan1           310.719
       245   03 Jun 2027 08:33:55.127   03 Jun 2027 08:34:16.654            21.527                Irkutsk           672.719
       246   03 Jun 2027 08:34:32.018   03 Jun 2027 08:35:02.735            30.717               Magadan1           959.906
       247   03 Jun 2027 08:35:05.646   03 Jun 2027 08:35:13.690             8.044                Irkutsk           251.375
       248   03 Jun 2027 08:35:18.747   03 Jun 2027 08:35:37.451            18.704                Novosib           584.500
       249   03 Jun 2027 08:35:52.162   03 Jun 2027 08:35:57.234             5.072                Irkutsk           158.500
       250   03 Jun 2027 08:36:01.860   03 Jun 2027 08:36:45.881            44.021                Irkutsk          1375.656
       251   03 Jun 2027 08:36:51.496   03 Jun 2027 08:37:39.475            47.979                Irkutsk          1499.344
       252   03 Jun 2027 08:39:22.751   03 Jun 2027 08:39:41.448            18.697              Murmansk2           584.281
       253   03 Jun 2027 09:12:23.546   03 Jun 2027 09:13:16.166            52.620            RioGallegos          1644.375
       254   03 Jun 2027 09:13:39.154   03 Jun 2027 09:13:43.965             4.811            RioGallegos           150.344
       255   03 Jun 2027 09:13:49.030   03 Jun 2027 09:14:48.886            59.856            RioGallegos          1870.500
       256   03 Jun 2027 09:47:39.684   03 Jun 2027 09:48:28.713            49.029                Sumatra          1532.156
       257   03 Jun 2027 10:09:38.649   03 Jun 2027 10:09:45.584             6.935                Novosib           216.719
       258   03 Jun 2027 10:09:56.007   03 Jun 2027 10:10:16.724            20.717                Irkutsk           647.406
       259   03 Jun 2027 10:10:21.605   03 Jun 2027 10:10:45.606            24.001                Norilsk           750.031
       260   03 Jun 2027 10:11:17.351   03 Jun 2027 10:11:31.692            14.341                Norilsk           448.156
       261   03 Jun 2027 10:11:35.663   03 Jun 2027 10:11:41.450             5.787                Novosib           180.844
       262   03 Jun 2027 10:11:46.789   03 Jun 2027 10:12:56.704            69.915                Norilsk          2184.844
       263   03 Jun 2027 10:13:04.789   03 Jun 2027 10:13:18.125            13.336                Norilsk           416.750
       264   03 Jun 2027 10:13:25.482   03 Jun 2027 10:14:23.901            58.419                Novosib          1825.594
       265   03 Jun 2027 10:50:31.806   03 Jun 2027 10:50:51.262            19.456            RioGallegos           608.000
       266   03 Jun 2027 10:57:42.401   03 Jun 2027 10:57:59.826            17.425            RioGallegos           544.531
       267   03 Jun 2027 11:24:46.271   03 Jun 2027 11:25:21.189            34.918                Sumatra          1091.187
       268   03 Jun 2027 11:30:16.296   03 Jun 2027 11:31:07.919            51.623                Sumatra          1613.219
       269   03 Jun 2027 11:45:41.626   03 Jun 2027 11:45:55.276            13.650                Novosib           426.562
       270   03 Jun 2027 11:46:15.359   03 Jun 2027 11:47:23.133            67.774                Novosib          2117.937
       271   03 Jun 2027 11:47:30.657   03 Jun 2027 11:48:19.342            48.685                Novosib          1521.406
       272   03 Jun 2027 11:48:27.297   03 Jun 2027 11:48:43.292            15.995                Novosib           499.844
       273   03 Jun 2027 11:48:52.404   03 Jun 2027 11:48:56.723             4.319                Norilsk           134.969
       274   03 Jun 2027 11:48:59.064   03 Jun 2027 11:49:29.861            30.797                Novosib           962.406
       275   03 Jun 2027 13:10:16.664   03 Jun 2027 13:14:16.012           239.348                  Delhi          7479.625
       276   03 Jun 2027 13:19:50.258   03 Jun 2027 13:21:36.136           105.878                Novosib          3308.688
       277   03 Jun 2027 13:26:49.470   03 Jun 2027 13:27:07.626            18.156                Norilsk           567.375
       278   03 Jun 2027 14:32:19.604   03 Jun 2027 14:33:01.120            41.516               CapeTown          1297.375
       279   03 Jun 2027 14:35:59.733   03 Jun 2027 14:37:25.061            85.328               CapeTown          2666.500
       280   03 Jun 2027 14:55:23.619   03 Jun 2027 14:55:54.087            30.468                 Moscow           952.125
       281   03 Jun 2027 14:56:16.328   03 Jun 2027 14:57:03.124            46.796                 Moscow          1462.375
       282   03 Jun 2027 14:59:01.177   03 Jun 2027 14:59:10.378             9.201              Murmansk1           287.531
       283   03 Jun 2027 15:02:46.470   03 Jun 2027 15:03:10.336            23.866              Murmansk1           745.812
       284   03 Jun 2027 15:04:44.987   03 Jun 2027 15:04:49.734             4.747              Murmansk1           148.344
       285   03 Jun 2027 15:05:20.968   03 Jun 2027 15:05:34.104            13.136              Murmansk2           410.500
       286   03 Jun 2027 15:06:24.362   03 Jun 2027 15:06:31.408             7.046              Murmansk2           220.188
       287   03 Jun 2027 15:06:45.383   03 Jun 2027 15:07:02.635            17.252              Murmansk1           539.125
       288   03 Jun 2027 15:07:44.618   03 Jun 2027 15:08:15.411            30.793              Murmansk1           962.281
       289   03 Jun 2027 15:10:51.017   03 Jun 2027 15:13:15.357           144.340                Anadyr1          4510.625
       290   03 Jun 2027 16:07:58.068   03 Jun 2027 16:08:24.415            26.347               CapeTown           823.344
       291   03 Jun 2027 16:09:36.260   03 Jun 2027 16:10:47.940            71.680               CapeTown          2240.000
       292   03 Jun 2027 16:33:19.628   03 Jun 2027 16:35:05.240           105.612                 Moscow          3300.375
       293   03 Jun 2027 16:35:53.489   03 Jun 2027 16:35:56.238             2.749              Murmansk1            85.906
       294   03 Jun 2027 16:36:39.018   03 Jun 2027 16:36:52.751            13.733              Murmansk1           429.156
       295   03 Jun 2027 16:38:16.004   03 Jun 2027 16:38:45.011            29.007              Murmansk2           906.469
       296   03 Jun 2027 16:46:01.078   03 Jun 2027 16:48:05.396           124.318                Anadyr1          3884.938
       297   03 Jun 2027 16:48:09.295   03 Jun 2027 16:48:15.269             5.974                Anadyr2           186.688
       298   03 Jun 2027 16:51:01.851   03 Jun 2027 16:53:16.074           134.223               Magadan1          4194.469
       299   03 Jun 2027 17:49:04.338   03 Jun 2027 17:49:13.326             8.988               CapeTown           280.875
       300   03 Jun 2027 18:16:51.850   03 Jun 2027 18:18:03.283            71.433              Murmansk2          2232.281
       301   03 Jun 2027 18:21:52.638   03 Jun 2027 18:25:13.485           200.847                Anadyr2          6276.469
       302   03 Jun 2027 18:25:21.511   03 Jun 2027 18:26:58.604            97.093               Magadan1          3034.156
       303   03 Jun 2027 18:28:37.830   03 Jun 2027 18:28:47.462             9.632               Magadan1           301.000
       304   03 Jun 2027 18:30:34.248   03 Jun 2027 18:30:41.541             7.293               Magadan1           227.906
       305   03 Jun 2027 18:34:30.228   03 Jun 2027 18:34:56.571            26.343               Magadan1           823.219
       306   03 Jun 2027 19:57:47.161   03 Jun 2027 20:01:34.529           227.368                Anadyr1          7105.250
       307   03 Jun 2027 20:01:35.468   03 Jun 2027 20:01:52.562            17.094                Norilsk           534.188
       308   03 Jun 2027 20:02:04.066   03 Jun 2027 20:02:18.081            14.015                Norilsk           437.969
       309   03 Jun 2027 20:02:38.287   03 Jun 2027 20:03:49.727            71.440                Norilsk          2232.500
       310   03 Jun 2027 20:03:52.678   03 Jun 2027 20:04:24.304            31.626               Magadan1           988.313
       311   03 Jun 2027 20:05:08.644   03 Jun 2027 20:05:26.290            17.646               Magadan1           551.438
       312   03 Jun 2027 20:06:56.396   03 Jun 2027 20:07:47.167            50.771               Magadan1          1586.594
       313   03 Jun 2027 20:52:13.794   03 Jun 2027 20:55:12.861           179.067            RioGallegos          5595.844
       314   03 Jun 2027 21:02:25.293   03 Jun 2027 21:02:58.347            33.054            RioGallegos          1032.937
       315   03 Jun 2027 21:34:59.080   03 Jun 2027 21:35:40.137            41.057                Anadyr1          1283.031
       316   03 Jun 2027 21:36:07.451   03 Jun 2027 21:38:24.412           136.961               Magadan1          4280.031
       317   03 Jun 2027 21:39:03.728   03 Jun 2027 21:39:38.313            34.585               Magadan1          1080.781
       318   03 Jun 2027 21:39:48.365   03 Jun 2027 21:40:05.654            17.289                Irkutsk           540.281
       319   03 Jun 2027 21:40:53.223   03 Jun 2027 21:41:37.004            43.781                Irkutsk          1368.156
       320   03 Jun 2027 21:41:43.245   03 Jun 2027 21:43:06.918            83.673                Novosib          2614.781
       321   03 Jun 2027 21:44:10.198   03 Jun 2027 21:44:39.603            29.405                Novosib           918.906
       322   03 Jun 2027 21:53:33.147   03 Jun 2027 21:54:23.747            50.600                Sumatra          1581.250
       323   03 Jun 2027 22:04:44.037   03 Jun 2027 22:05:08.024            23.987                Sumatra           749.594
       324   03 Jun 2027 23:08:06.275   03 Jun 2027 23:09:21.587            75.312                Anadyr1          2353.500
       325   03 Jun 2027 23:09:21.587   03 Jun 2027 23:09:33.764            12.177                Anadyr2           380.531
       326   03 Jun 2027 23:10:18.888   03 Jun 2027 23:10:54.929            36.041                Anadyr1          1126.281
       327   03 Jun 2027 23:11:35.044   03 Jun 2027 23:12:09.955            34.911                Norilsk          1090.969
       328   03 Jun 2027 23:12:13.274   03 Jun 2027 23:13:01.794            48.520               Magadan1          1516.250
       329   03 Jun 2027 23:13:11.320   03 Jun 2027 23:13:39.417            28.097               Magadan2           878.031
       330   03 Jun 2027 23:15:18.262   03 Jun 2027 23:15:40.315            22.053               Magadan1           689.156
       331   03 Jun 2027 23:15:49.721   03 Jun 2027 23:16:27.652            37.931                Irkutsk          1185.344
       332   03 Jun 2027 23:16:51.124   03 Jun 2027 23:17:31.987            40.863                Novosib          1276.969
       333   03 Jun 2027 23:23:07.364   03 Jun 2027 23:23:16.202             8.838                Novosib           276.188
       334   03 Jun 2027 23:23:21.123   03 Jun 2027 23:25:02.762           101.639                  Delhi          3176.219
       335   03 Jun 2027 23:32:35.743   03 Jun 2027 23:32:44.084             8.341                  Delhi           260.656
       336   03 Jun 2027 23:33:40.496   03 Jun 2027 23:34:08.235            27.739                  Delhi           866.844
       337   03 Jun 2027 23:34:46.135   03 Jun 2027 23:34:58.264            12.129                  Delhi           379.031
       338   04 Jun 2027 00:11:23.155   04 Jun 2027 00:12:05.025            41.870            RioGallegos          1308.438
       339   04 Jun 2027 00:41:38.528   04 Jun 2027 00:42:16.634            38.106                Anadyr2          1190.812
       340   04 Jun 2027 00:42:56.520   04 Jun 2027 00:43:16.744            20.224                Anadyr1           632.000
       341   04 Jun 2027 00:43:16.744   04 Jun 2027 00:43:32.948            16.204                Anadyr2           506.375
       342   04 Jun 2027 00:47:12.544   04 Jun 2027 00:47:36.704            24.160                Anadyr2           755.000
       343   04 Jun 2027 00:47:41.445   04 Jun 2027 00:48:54.361            72.916               Magadan2          2278.625
       344   04 Jun 2027 00:48:54.361   04 Jun 2027 00:49:24.450            30.089               Magadan1           940.281
       345   04 Jun 2027 00:49:48.011   04 Jun 2027 00:50:06.039            18.028               Magadan1           563.375
       346   04 Jun 2027 00:50:36.530   04 Jun 2027 00:53:05.801           149.271              Murmansk2          4664.719
       347   04 Jun 2027 00:53:30.244   04 Jun 2027 00:53:51.709            21.465              Murmansk2           670.781
       348   04 Jun 2027 00:54:44.456   04 Jun 2027 00:55:23.440            38.984                 Moscow          1218.250
       349   04 Jun 2027 00:56:22.456   04 Jun 2027 00:57:07.771            45.315                 Moscow          1416.094
       350   04 Jun 2027 01:10:18.797   04 Jun 2027 01:10:33.502            14.705                  Delhi           459.531
       351   04 Jun 2027 02:15:03.605   04 Jun 2027 02:17:42.954           159.349                Anadyr2          4979.656
       352   04 Jun 2027 02:18:11.934   04 Jun 2027 02:18:16.873             4.939                Anadyr1           154.344
       353   04 Jun 2027 02:19:56.123   04 Jun 2027 02:20:15.214            19.091                Anadyr2           596.594
       354   04 Jun 2027 02:20:41.471   04 Jun 2027 02:21:34.316            52.845               Magadan2          1651.406
       355   04 Jun 2027 02:22:15.065   04 Jun 2027 02:22:35.200            20.135               Magadan1           629.219
       356   04 Jun 2027 02:22:55.145   04 Jun 2027 02:23:55.550            60.405               Magadan2          1887.656
       357   04 Jun 2027 02:25:42.019   04 Jun 2027 02:26:24.650            42.631              Murmansk1          1332.219
       358   04 Jun 2027 02:26:29.101   04 Jun 2027 02:26:58.637            29.536              Murmansk2           923.000
       359   04 Jun 2027 02:27:45.362   04 Jun 2027 02:27:58.109            12.747                Novosib           398.344
       360   04 Jun 2027 02:29:03.498   04 Jun 2027 02:29:36.066            32.568                 Moscow          1017.750
       361   04 Jun 2027 02:32:19.712   04 Jun 2027 02:34:14.888           115.176                 Moscow          3599.250
       362   04 Jun 2027 02:57:52.890   04 Jun 2027 02:57:58.998             6.108               CapeTown           190.875
       363   04 Jun 2027 03:02:55.449   04 Jun 2027 03:03:44.006            48.557               CapeTown          1517.406
       364   04 Jun 2027 03:56:27.128   04 Jun 2027 03:56:41.464            14.336               Magadan1           448.000
       365   04 Jun 2027 03:56:44.296   04 Jun 2027 03:57:52.783            68.487                Anadyr1          2140.219
       366   04 Jun 2027 03:58:08.279   04 Jun 2027 03:58:13.869             5.590               Magadan2           174.687
       367   04 Jun 2027 03:58:41.755   04 Jun 2027 03:59:03.248            21.493                Anadyr1           671.656
       368   04 Jun 2027 04:10:45.552   04 Jun 2027 04:11:35.994            50.442              Murmansk1          1576.312
       369   04 Jun 2027 05:32:57.261   04 Jun 2027 05:37:52.619           295.358               Magadan2          9229.937
       370   04 Jun 2027 05:38:15.836   04 Jun 2027 05:38:22.947             7.111                Anadyr1           222.219
       371   04 Jun 2027 07:08:08.751   04 Jun 2027 07:08:32.722            23.971               Magadan1           749.094
       372   04 Jun 2027 07:08:32.722   04 Jun 2027 07:08:33.977             1.255               Magadan2            39.219
       373   04 Jun 2027 07:08:53.534   04 Jun 2027 07:10:02.688            69.154                Anadyr2          2161.063
       374   04 Jun 2027 07:10:14.599   04 Jun 2027 07:10:30.118            15.519               Magadan2           484.969
       375   04 Jun 2027 07:10:31.934   04 Jun 2027 07:10:55.461            23.527                Anadyr1           735.219
       376   04 Jun 2027 07:11:09.957   04 Jun 2027 07:11:50.847            40.890               Magadan2          1277.812
       377   04 Jun 2027 07:11:55.482   04 Jun 2027 07:12:11.787            16.305               Magadan1           509.531
       378   04 Jun 2027 07:12:35.060   04 Jun 2027 07:12:44.916             9.856                Anadyr1           308.000
       379   04 Jun 2027 07:13:19.953   04 Jun 2027 07:13:47.105            27.152                Anadyr2           848.500
       380   04 Jun 2027 08:43:14.140   04 Jun 2027 08:44:29.632            75.492               Magadan1          2359.125
       381   04 Jun 2027 08:45:25.575   04 Jun 2027 08:45:40.799            15.224               Magadan1           475.750
       382   04 Jun 2027 08:45:47.511   04 Jun 2027 08:45:51.730             4.219                Irkutsk           131.844
       383   04 Jun 2027 08:46:12.674   04 Jun 2027 08:46:53.748            41.074                Irkutsk          1283.563
       384   04 Jun 2027 08:47:09.033   04 Jun 2027 08:48:08.536            59.503               Magadan1          1859.469
       385   04 Jun 2027 08:48:19.844   04 Jun 2027 08:48:59.334            39.490               Magadan1          1234.062
       386   04 Jun 2027 08:49:24.636   04 Jun 2027 08:49:44.155            19.519                Irkutsk           609.969
       387   04 Jun 2027 09:24:27.452   04 Jun 2027 09:24:48.807            21.355            RioGallegos           667.344
       388   04 Jun 2027 09:25:34.196   04 Jun 2027 09:25:50.411            16.215            RioGallegos           506.719
       389   04 Jun 2027 09:27:29.773   04 Jun 2027 09:27:42.030            12.257            RioGallegos           383.031
       390   04 Jun 2027 09:31:33.351   04 Jun 2027 09:31:35.197             1.846            RioGallegos            57.687
       391   04 Jun 2027 09:32:07.842   04 Jun 2027 09:32:43.939            36.097            RioGallegos          1128.031
       392   04 Jun 2027 09:59:28.159   04 Jun 2027 09:59:59.209            31.050                Sumatra           970.313
       393   04 Jun 2027 10:12:50.822   04 Jun 2027 10:13:47.367            56.545                  Delhi          1767.031
       394   04 Jun 2027 10:21:16.997   04 Jun 2027 10:21:20.044             3.047                Novosib            95.219
       395   04 Jun 2027 10:21:56.238   04 Jun 2027 10:22:52.582            56.344                Irkutsk          1760.750
       396   04 Jun 2027 10:23:09.151   04 Jun 2027 10:23:46.937            37.786                Irkutsk          1180.813
       397   04 Jun 2027 10:23:58.614   04 Jun 2027 10:24:06.460             7.846                Novosib           245.188
       398   04 Jun 2027 10:24:11.326   04 Jun 2027 10:25:17.132            65.806                Novosib          2056.437
       399   04 Jun 2027 10:25:25.805   04 Jun 2027 10:25:40.289            14.484                Novosib           452.625
       400   04 Jun 2027 11:04:01.844   04 Jun 2027 11:04:33.168            31.324            RioGallegos           978.875
       401   04 Jun 2027 11:07:47.077   04 Jun 2027 11:08:00.042            12.965            RioGallegos           405.156
       402   04 Jun 2027 11:08:38.585   04 Jun 2027 11:08:49.154            10.569            RioGallegos           330.281
       403   04 Jun 2027 11:11:17.583   04 Jun 2027 11:11:25.202             7.619            RioGallegos           238.094
       404   04 Jun 2027 11:37:41.972   04 Jun 2027 11:39:31.749           109.777                Sumatra          3430.531
       405   04 Jun 2027 11:57:41.587   04 Jun 2027 11:57:47.311             5.724                Irkutsk           178.875
       406   04 Jun 2027 11:59:12.098   04 Jun 2027 11:59:22.972            10.874                Norilsk           339.812
       407   04 Jun 2027 11:59:58.551   04 Jun 2027 12:00:23.764            25.213                Norilsk           787.906
       408   04 Jun 2027 12:01:32.059   04 Jun 2027 12:02:02.024            29.965                Novosib           936.406
       409   04 Jun 2027 12:03:39.916   04 Jun 2027 12:04:37.216            57.300                Norilsk          1790.625
       410   04 Jun 2027 13:23:47.620   04 Jun 2027 13:26:49.177           181.557                  Delhi          5673.656
       411   04 Jun 2027 13:32:08.549   04 Jun 2027 13:34:29.731           141.182                Novosib          4411.938
       412   04 Jun 2027 13:35:44.786   04 Jun 2027 13:36:29.659            44.873                Novosib          1402.281
       413   04 Jun 2027 13:38:49.686   04 Jun 2027 13:39:12.508            22.822                Norilsk           713.188
       414   04 Jun 2027 14:43:26.011   04 Jun 2027 14:44:43.480            77.469               CapeTown          2420.906
       415   04 Jun 2027 14:47:12.938   04 Jun 2027 14:47:43.776            30.838               CapeTown           963.687
       416   04 Jun 2027 14:47:56.681   04 Jun 2027 14:49:22.501            85.820               CapeTown          2681.875
       417   04 Jun 2027 15:08:03.250   04 Jun 2027 15:08:50.050            46.800              Murmansk1          1462.500
       418   04 Jun 2027 15:11:18.068   04 Jun 2027 15:11:31.624            13.556                 Moscow           423.625
       419   04 Jun 2027 15:14:25.434   04 Jun 2027 15:14:31.930             6.496              Murmansk2           203.000
       420   04 Jun 2027 15:14:48.113   04 Jun 2027 15:15:14.172            26.059              Murmansk2           814.344
       421   04 Jun 2027 15:16:50.637   04 Jun 2027 15:17:19.921            29.284              Murmansk2           915.125
       422   04 Jun 2027 15:22:40.297   04 Jun 2027 15:24:15.624            95.327                Anadyr1          2978.969
       423   04 Jun 2027 15:26:02.534   04 Jun 2027 15:27:08.928            66.394                Anadyr1          2074.813
       424   04 Jun 2027 16:24:06.794   04 Jun 2027 16:25:45.210            98.416               CapeTown          3075.500
       425   04 Jun 2027 16:46:51.594   04 Jun 2027 16:47:49.834            58.240              Murmansk1          1820.000
       426   04 Jun 2027 16:48:40.259   04 Jun 2027 16:48:54.749            14.490              Murmansk2           452.813
       427   04 Jun 2027 16:50:46.995   04 Jun 2027 16:51:13.405            26.410              Murmansk1           825.312
       428   04 Jun 2027 16:51:13.405   04 Jun 2027 16:52:23.401            69.996              Murmansk2          2187.375
       429   04 Jun 2027 16:58:01.039   04 Jun 2027 16:58:46.900            45.861                Anadyr1          1433.156
       430   04 Jun 2027 16:59:20.706   04 Jun 2027 16:59:42.792            22.086                Anadyr1           690.187
       431   04 Jun 2027 17:01:46.402   04 Jun 2027 17:02:11.655            25.253                Anadyr2           789.156
       432   04 Jun 2027 17:03:20.634   04 Jun 2027 17:04:42.366            81.732               Magadan1          2554.125
       433   04 Jun 2027 17:04:42.366   04 Jun 2027 17:04:52.066             9.700               Magadan2           303.125
       434   04 Jun 2027 18:33:54.169   04 Jun 2027 18:37:44.675           230.506                Anadyr1          7203.312
       435   04 Jun 2027 18:38:27.523   04 Jun 2027 18:40:04.227            96.704               Magadan2          3022.000
       436   04 Jun 2027 18:40:21.226   04 Jun 2027 18:40:51.487            30.261               Magadan1           945.656
       437   04 Jun 2027 18:41:23.266   04 Jun 2027 18:41:38.296            15.030               Magadan1           469.687
       438   04 Jun 2027 18:43:09.600   04 Jun 2027 18:43:19.378             9.778               Magadan1           305.563
       439   04 Jun 2027 18:44:57.339   04 Jun 2027 18:44:58.243             0.904               Magadan1            28.250
       440   04 Jun 2027 18:45:31.606   04 Jun 2027 18:45:50.183            18.577               Magadan1           580.531
       441   04 Jun 2027 18:47:10.796   04 Jun 2027 18:47:53.999            43.203               Magadan1          1350.094
       442   04 Jun 2027 20:09:47.659   04 Jun 2027 20:11:52.934           125.275                Anadyr1          3914.844
       443   04 Jun 2027 20:12:02.285   04 Jun 2027 20:13:34.085            91.800                Anadyr2          2868.750
       444   04 Jun 2027 20:13:49.982   04 Jun 2027 20:15:23.955            93.973               Magadan1          2936.656
       445   04 Jun 2027 20:15:55.278   04 Jun 2027 20:16:19.214            23.936               Magadan1           748.000
       446   04 Jun 2027 20:17:28.156   04 Jun 2027 20:18:29.794            61.638               Magadan1          1926.187
       447   04 Jun 2027 20:18:37.147   04 Jun 2027 20:19:41.118            63.971                Irkutsk          1999.094
       448   04 Jun 2027 20:20:01.046   04 Jun 2027 20:20:45.484            44.438                Irkutsk          1388.687
       449   04 Jun 2027 20:21:49.815   04 Jun 2027 20:21:53.665             3.850                Irkutsk           120.312
       450   04 Jun 2027 21:04:04.042   04 Jun 2027 21:04:25.468            21.426            RioGallegos           669.562
       451   04 Jun 2027 21:04:41.949   04 Jun 2027 21:04:52.907            10.958            RioGallegos           342.437
       452   04 Jun 2027 21:05:29.051   04 Jun 2027 21:05:44.431            15.380            RioGallegos           480.625
       453   04 Jun 2027 21:09:52.768   04 Jun 2027 21:10:08.814            16.046            RioGallegos           501.438
       454   04 Jun 2027 21:12:43.497   04 Jun 2027 21:12:52.273             8.776            RioGallegos           274.250
       455   04 Jun 2027 21:13:32.533   04 Jun 2027 21:14:09.994            37.461            RioGallegos          1170.656
       456   04 Jun 2027 21:45:19.210   04 Jun 2027 21:45:47.311            28.101                Anadyr1           878.156
       457   04 Jun 2027 21:46:20.169   04 Jun 2027 21:47:39.100            78.931                Anadyr1          2466.594
       458   04 Jun 2027 21:47:59.096   04 Jun 2027 21:48:17.828            18.732                Norilsk           585.375
       459   04 Jun 2027 21:48:25.229   04 Jun 2027 21:49:11.325            46.096               Magadan2          1440.500
       460   04 Jun 2027 21:49:29.914   04 Jun 2027 21:49:46.593            16.679               Magadan2           521.219
       461   04 Jun 2027 21:49:49.360   04 Jun 2027 21:50:53.417            64.057                Norilsk          2001.781
       462   04 Jun 2027 21:52:38.234   04 Jun 2027 21:53:41.128            62.894                Irkutsk          1965.438
       463   04 Jun 2027 21:56:15.572   04 Jun 2027 21:56:52.514            36.942                Novosib          1154.438
       464   04 Jun 2027 22:05:24.650   04 Jun 2027 22:06:09.098            44.448                Sumatra          1389.000
       465   04 Jun 2027 22:12:14.452   04 Jun 2027 22:13:36.046            81.594                Sumatra          2549.812
       466   04 Jun 2027 23:19:53.075   04 Jun 2027 23:21:22.801            89.726                Anadyr1          2803.938
       467   04 Jun 2027 23:22:11.042   04 Jun 2027 23:22:15.454             4.412                Anadyr2           137.875
       468   04 Jun 2027 23:22:30.226   04 Jun 2027 23:22:46.870            16.644                Anadyr2           520.125
       469   04 Jun 2027 23:23:37.137   04 Jun 2027 23:23:58.622            21.485                Norilsk           671.406
       470   04 Jun 2027 23:24:15.068   04 Jun 2027 23:25:41.647            86.579               Magadan1          2705.594
       471   04 Jun 2027 23:25:54.315   04 Jun 2027 23:26:04.528            10.213               Magadan2           319.156
       472   04 Jun 2027 23:27:30.609   04 Jun 2027 23:28:18.357            47.748                Irkutsk          1492.125
       473   04 Jun 2027 23:30:08.363   04 Jun 2027 23:30:55.927            47.564                Novosib          1486.375
       474   04 Jun 2027 23:33:01.090   04 Jun 2027 23:33:06.645             5.555                Novosib           173.594
       475   04 Jun 2027 23:35:07.220   04 Jun 2027 23:36:05.352            58.132                  Delhi          1816.625
       476   04 Jun 2027 23:37:14.292   04 Jun 2027 23:38:38.059            83.767                  Delhi          2617.719
       477   05 Jun 2027 00:20:03.107   05 Jun 2027 00:20:20.564            17.457            RioGallegos           545.531
       478   05 Jun 2027 00:21:40.965   05 Jun 2027 00:22:51.589            70.624            RioGallegos          2207.000
       479   05 Jun 2027 00:53:19.544   05 Jun 2027 00:53:52.618            33.074                Anadyr1          1033.562
       480   05 Jun 2027 00:55:16.330   05 Jun 2027 00:55:42.156            25.826                Anadyr1           807.063
       481   05 Jun 2027 00:55:53.898   05 Jun 2027 00:56:05.336            11.438                Anadyr2           357.438
       482   05 Jun 2027 00:56:06.599   05 Jun 2027 00:56:43.219            36.620                Anadyr2          1144.375
