uniorb/output/strategy_4/Drop/Drop_KinoSat_111909.txt

KinoSat_111909
-------------------------
    Access    *     Start Time (UTCG)     *     Stop Time (UTCG)  *   Duration (s)        *       Station  *  Data (Mbytes)
         1   01 Jun 2027 04:01:29.639   01 Jun 2027 04:03:33.883           124.244                Irkutsk          3882.625
         2   01 Jun 2027 04:03:36.504   01 Jun 2027 04:06:36.305           179.801                Irkutsk          5618.781
         3   01 Jun 2027 04:07:02.873   01 Jun 2027 04:07:19.259            16.386                Norilsk           512.062
         4   01 Jun 2027 04:07:27.578   01 Jun 2027 04:07:54.607            27.029                Novosib           844.656
         5   01 Jun 2027 05:40:04.540   01 Jun 2027 05:41:45.792           101.252                Norilsk          3164.125
         6   01 Jun 2027 05:41:56.550   01 Jun 2027 05:42:10.189            13.639              Murmansk2           426.219
         7   01 Jun 2027 05:42:31.989   01 Jun 2027 05:48:33.662           361.673                 Moscow         11302.281
         8   01 Jun 2027 06:04:20.993   01 Jun 2027 06:06:10.251           109.258               CapeTown          3414.312
         9   01 Jun 2027 06:12:09.159   01 Jun 2027 06:12:28.045            18.886               CapeTown           590.188
        10   01 Jun 2027 07:04:19.687   01 Jun 2027 07:05:18.145            58.458                Anadyr2          1826.812
        11   01 Jun 2027 07:15:17.028   01 Jun 2027 07:17:31.857           134.829              Murmansk2          4213.406
        12   01 Jun 2027 07:17:31.857   01 Jun 2027 07:19:03.454            91.597              Murmansk1          2862.406
        13   01 Jun 2027 07:20:32.732   01 Jun 2027 07:20:39.857             7.125                 Moscow           222.656
        14   01 Jun 2027 07:21:06.025   01 Jun 2027 07:21:39.107            33.082                 Moscow          1033.812
        15   01 Jun 2027 07:37:02.133   01 Jun 2027 07:41:53.259           291.126               CapeTown          9097.688
        16   01 Jun 2027 08:40:31.795   01 Jun 2027 08:43:03.833           152.038                Norilsk          4751.187
        17   01 Jun 2027 08:43:08.215   01 Jun 2027 08:45:15.477           127.262                Anadyr2          3976.938
        18   01 Jun 2027 10:12:29.390   01 Jun 2027 10:13:03.402            34.012               Magadan2          1062.875
        19   01 Jun 2027 10:13:51.714   01 Jun 2027 10:14:59.693            67.979               Magadan1          2124.344
        20   01 Jun 2027 10:14:59.693   01 Jun 2027 10:15:06.322             6.629               Magadan2           207.156
        21   01 Jun 2027 10:15:36.553   01 Jun 2027 10:17:37.753           121.200               Magadan1          3787.500
        22   01 Jun 2027 10:17:37.753   01 Jun 2027 10:17:54.240            16.487               Magadan2           515.219
        23   01 Jun 2027 10:18:16.805   01 Jun 2027 10:20:49.776           152.971               Magadan1          4780.344
        24   01 Jun 2027 11:48:14.073   01 Jun 2027 11:55:35.712           441.639               Magadan2         13801.219
        25   01 Jun 2027 14:11:03.219   01 Jun 2027 14:18:21.117           437.898            RioGallegos         13684.313
        26   01 Jun 2027 14:46:22.533   01 Jun 2027 14:49:45.586           203.053                Sumatra          6345.406
        27   01 Jun 2027 15:02:16.755   01 Jun 2027 15:05:00.369           163.614                Irkutsk          5112.937
        28   01 Jun 2027 16:46:32.906   01 Jun 2027 16:47:34.004            61.098                Norilsk          1909.313
        29   01 Jun 2027 18:18:58.917   01 Jun 2027 18:19:34.853            35.936                 Moscow          1123.000
        30   01 Jun 2027 18:20:22.421   01 Jun 2027 18:21:51.639            89.218                 Moscow          2788.063
        31   01 Jun 2027 18:22:28.495   01 Jun 2027 18:22:41.542            13.047                 Moscow           407.719
        32   01 Jun 2027 18:23:15.044   01 Jun 2027 18:24:27.039            71.995              Murmansk2          2249.844
        33   01 Jun 2027 18:37:16.268   01 Jun 2027 18:37:23.960             7.692                Anadyr2           240.375
        34   01 Jun 2027 18:38:05.396   01 Jun 2027 18:38:14.636             9.240                Anadyr2           288.750
        35   01 Jun 2027 19:24:16.657   01 Jun 2027 19:26:31.067           134.410               CapeTown          4200.313
        36   01 Jun 2027 19:32:51.518   01 Jun 2027 19:33:08.222            16.704               CapeTown           522.000
        37   01 Jun 2027 19:33:55.719   01 Jun 2027 19:35:22.440            86.721               CapeTown          2710.031
        38   01 Jun 2027 19:54:17.289   01 Jun 2027 19:56:50.825           153.536              Murmansk1          4798.000
        39   01 Jun 2027 19:57:03.611   01 Jun 2027 20:02:57.108           353.497              Murmansk1         11046.781
        40   01 Jun 2027 21:03:19.528   01 Jun 2027 21:07:21.656           242.128               CapeTown          7566.500
        41   01 Jun 2027 21:50:00.879   01 Jun 2027 21:50:46.017            45.138               Magadan2          1410.563
        42   01 Jun 2027 21:52:00.856   01 Jun 2027 21:52:04.061             3.205               Magadan1           100.156
        43   01 Jun 2027 21:52:04.061   01 Jun 2027 21:52:06.908             2.847               Magadan2            88.969
        44   01 Jun 2027 21:52:43.044   01 Jun 2027 21:53:03.363            20.319               Magadan2           634.969
        45   01 Jun 2027 21:53:42.742   01 Jun 2027 21:54:01.582            18.840               Magadan2           588.750
        46   01 Jun 2027 21:54:43.473   01 Jun 2027 21:54:55.645            12.172               Magadan2           380.375
        47   01 Jun 2027 21:55:09.336   01 Jun 2027 21:55:26.762            17.426               Magadan1           544.562
        48   01 Jun 2027 23:16:40.488   01 Jun 2027 23:21:26.777           286.289                Anadyr2          8946.531
        49   01 Jun 2027 23:21:48.856   01 Jun 2027 23:22:03.896            15.040               Magadan2           470.000
        50   01 Jun 2027 23:22:06.115   01 Jun 2027 23:22:32.250            26.135                Norilsk           816.719
        51   01 Jun 2027 23:22:42.420   01 Jun 2027 23:23:17.143            34.723               Magadan1          1085.094
        52   01 Jun 2027 23:23:20.682   01 Jun 2027 23:23:46.031            25.349               Magadan2           792.156
        53   01 Jun 2027 23:24:22.132   01 Jun 2027 23:24:39.110            16.978               Magadan1           530.563
        54   01 Jun 2027 23:24:55.222   01 Jun 2027 23:25:09.137            13.915               Magadan2           434.844
        55   01 Jun 2027 23:25:27.006   01 Jun 2027 23:26:39.100            72.094                Irkutsk          2252.938
        56   01 Jun 2027 23:27:16.193   01 Jun 2027 23:27:22.052             5.859                Irkutsk           183.094
        57   01 Jun 2027 23:29:14.431   01 Jun 2027 23:29:43.530            29.099                Irkutsk           909.344
        58   01 Jun 2027 23:41:06.910   01 Jun 2027 23:43:39.887           152.977                Sumatra          4780.531
        59   02 Jun 2027 00:13:52.319   02 Jun 2027 00:14:19.145            26.826            RioGallegos           838.312
        60   02 Jun 2027 00:16:43.738   02 Jun 2027 00:17:21.272            37.534            RioGallegos          1172.937
        61   02 Jun 2027 00:20:58.852   02 Jun 2027 00:21:25.698            26.846            RioGallegos           838.938
        62   02 Jun 2027 00:22:17.757   02 Jun 2027 00:22:40.082            22.325            RioGallegos           697.656
        63   02 Jun 2027 00:52:07.720   02 Jun 2027 00:52:48.619            40.899                Anadyr1          1278.094
        64   02 Jun 2027 00:53:12.270   02 Jun 2027 00:53:40.410            28.140                Anadyr1           879.375
        65   02 Jun 2027 00:54:30.069   02 Jun 2027 00:56:23.590           113.521                Norilsk          3547.531
        66   02 Jun 2027 00:56:34.047   02 Jun 2027 00:56:52.581            18.534               Magadan2           579.188
        67   02 Jun 2027 00:56:58.425   02 Jun 2027 00:57:39.403            40.978               Magadan2          1280.562
        68   02 Jun 2027 00:58:31.025   02 Jun 2027 00:59:46.354            75.329                Irkutsk          2354.031
        69   02 Jun 2027 01:01:50.798   02 Jun 2027 01:02:10.371            19.573                Novosib           611.656
        70   02 Jun 2027 01:02:43.702   02 Jun 2027 01:02:58.004            14.302                Novosib           446.938
        71   02 Jun 2027 01:03:34.468   02 Jun 2027 01:04:02.825            28.357                Novosib           886.156
        72   02 Jun 2027 01:06:28.794   02 Jun 2027 01:06:34.566             5.772                Irkutsk           180.375
        73   02 Jun 2027 01:07:08.313   02 Jun 2027 01:07:43.776            35.463                Novosib          1108.219
        74   02 Jun 2027 01:12:13.495   02 Jun 2027 01:12:36.987            23.492                Sumatra           734.125
        75   02 Jun 2027 01:14:51.169   02 Jun 2027 01:15:23.132            31.963                Sumatra           998.844
        76   02 Jun 2027 01:16:20.034   02 Jun 2027 01:16:32.433            12.399                Sumatra           387.469
        77   02 Jun 2027 01:18:04.499   02 Jun 2027 01:18:56.814            52.315                Sumatra          1634.844
        78   02 Jun 2027 01:21:48.869   02 Jun 2027 01:23:34.242           105.373                Sumatra          3292.906
        79   02 Jun 2027 01:56:04.788   02 Jun 2027 01:57:29.906            85.118            RioGallegos          2659.937
        80   02 Jun 2027 02:30:30.433   02 Jun 2027 02:31:20.436            50.003                Norilsk          1562.594
        81   02 Jun 2027 02:31:27.891   02 Jun 2027 02:31:30.021             2.130                Norilsk            66.563
        82   02 Jun 2027 02:32:11.693   02 Jun 2027 02:32:55.600            43.907               Magadan2          1372.094
        83   02 Jun 2027 02:34:04.516   02 Jun 2027 02:34:41.362            36.846              Murmansk2          1151.437
        84   02 Jun 2027 02:34:42.716   02 Jun 2027 02:36:00.969            78.253                Irkutsk          2445.406
        85   02 Jun 2027 02:39:51.357   02 Jun 2027 02:40:02.721            11.364                Irkutsk           355.125
        86   02 Jun 2027 02:40:19.971   02 Jun 2027 02:41:14.839            54.868                Irkutsk          1714.625
        87   02 Jun 2027 02:45:52.973   02 Jun 2027 02:47:50.509           117.536                  Delhi          3673.000
        88   02 Jun 2027 03:24:14.104   02 Jun 2027 03:24:53.293            39.189            RioGallegos          1224.656
        89   02 Jun 2027 03:26:11.617   02 Jun 2027 03:26:12.993             1.376            RioGallegos            43.000
        90   02 Jun 2027 03:27:23.635   02 Jun 2027 03:27:43.460            19.825            RioGallegos           619.531
        91   02 Jun 2027 03:28:54.354   02 Jun 2027 03:29:20.781            26.427            RioGallegos           825.844
        92   02 Jun 2027 03:30:40.302   02 Jun 2027 03:31:13.200            32.898            RioGallegos          1028.062
        93   02 Jun 2027 04:13:01.303   02 Jun 2027 04:14:14.428            73.125                Novosib          2285.156
        94   02 Jun 2027 04:15:05.181   02 Jun 2027 04:18:38.738           213.557                Irkutsk          6673.656
        95   02 Jun 2027 04:18:52.735   02 Jun 2027 04:19:16.666            23.931                Norilsk           747.844
        96   02 Jun 2027 04:19:32.379   02 Jun 2027 04:20:50.338            77.959                Novosib          2436.219
        97   02 Jun 2027 04:21:05.666   02 Jun 2027 04:25:45.276           279.610                  Delhi          8737.813
        98   02 Jun 2027 05:53:19.953   02 Jun 2027 05:54:51.939            91.986                Novosib          2874.563
        99   02 Jun 2027 05:56:23.531   02 Jun 2027 05:58:40.175           136.644                 Moscow          4270.125
       100   02 Jun 2027 05:59:04.004   02 Jun 2027 06:00:41.656            97.652                 Moscow          3051.625
       101   02 Jun 2027 06:16:07.011   02 Jun 2027 06:17:52.092           105.081               CapeTown          3283.781
       102   02 Jun 2027 07:15:40.056   02 Jun 2027 07:16:30.232            50.176                Anadyr2          1568.000
       103   02 Jun 2027 07:16:32.222   02 Jun 2027 07:19:25.558           173.336               Magadan1          5416.750
       104   02 Jun 2027 07:20:02.190   02 Jun 2027 07:21:24.187            81.997                Anadyr1          2562.406
       105   02 Jun 2027 07:55:58.361   02 Jun 2027 07:57:23.788            85.427               CapeTown          2669.594
       106   02 Jun 2027 08:52:19.812   02 Jun 2027 08:54:44.865           145.053                Anadyr2          4532.906
       107   02 Jun 2027 08:55:04.439   02 Jun 2027 08:55:50.865            46.426               Magadan2          1450.812
       108   02 Jun 2027 08:55:58.902   02 Jun 2027 08:57:15.532            76.630                Anadyr1          2394.688
       109   02 Jun 2027 10:24:18.029   02 Jun 2027 10:25:28.269            70.240               Magadan1          2195.000
       110   02 Jun 2027 10:25:45.480   02 Jun 2027 10:26:02.670            17.190               Magadan2           537.187
       111   02 Jun 2027 10:26:56.550   02 Jun 2027 10:27:10.420            13.870               Magadan2           433.437
       112   02 Jun 2027 10:28:33.670   02 Jun 2027 10:29:39.459            65.789                Anadyr2          2055.906
       113   02 Jun 2027 10:30:01.457   02 Jun 2027 10:30:28.608            27.151                Norilsk           848.469
       114   02 Jun 2027 10:30:29.860   02 Jun 2027 10:31:58.445            88.585               Magadan1          2768.281
       115   02 Jun 2027 10:32:09.024   02 Jun 2027 10:32:09.852             0.828                Norilsk            25.875
       116   02 Jun 2027 10:32:10.745   02 Jun 2027 10:32:11.872             1.127                Norilsk            35.219
       117   02 Jun 2027 10:32:57.927   02 Jun 2027 10:33:38.800            40.873                Norilsk          1277.281
       118   02 Jun 2027 11:07:59.878   02 Jun 2027 11:08:04.760             4.882            RioGallegos           152.562
       119   02 Jun 2027 11:09:18.740   02 Jun 2027 11:09:37.609            18.869            RioGallegos           589.656
       120   02 Jun 2027 11:10:32.046   02 Jun 2027 11:11:23.272            51.226            RioGallegos          1600.813
       121   02 Jun 2027 11:46:06.867   02 Jun 2027 11:47:10.744            63.877                Sumatra          1996.156
       122   02 Jun 2027 12:01:14.647   02 Jun 2027 12:05:18.095           243.448               Magadan2          7607.750
       123   02 Jun 2027 13:26:59.528   02 Jun 2027 13:27:25.340            25.812                Sumatra           806.625
       124   02 Jun 2027 13:32:37.096   02 Jun 2027 13:34:47.692           130.596                Irkutsk          4081.125
       125   02 Jun 2027 13:41:26.353   02 Jun 2027 13:42:30.124            63.771                Irkutsk          1992.844
       126   02 Jun 2027 13:43:40.359   02 Jun 2027 13:44:19.467            39.108                Irkutsk          1222.125
       127   02 Jun 2027 14:24:12.932   02 Jun 2027 14:28:00.719           227.787            RioGallegos          7118.344
       128   02 Jun 2027 15:10:31.055   02 Jun 2027 15:11:02.964            31.909                Novosib           997.156
       129   02 Jun 2027 15:12:01.246   02 Jun 2027 15:15:34.956           213.710                Novosib          6678.437
       130   02 Jun 2027 16:46:50.130   02 Jun 2027 16:48:07.871            77.741                 Moscow          2429.406
       131   02 Jun 2027 16:49:33.977   02 Jun 2027 16:49:40.884             6.907                 Moscow           215.844
       132   02 Jun 2027 16:51:14.761   02 Jun 2027 16:51:43.916            29.155              Murmansk2           911.094
       133   02 Jun 2027 16:54:34.097   02 Jun 2027 17:01:07.050           392.953                Norilsk         12279.781
       134   02 Jun 2027 18:24:23.529   02 Jun 2027 18:25:20.542            57.013                 Moscow          1781.656
       135   02 Jun 2027 18:27:27.795   02 Jun 2027 18:28:10.384            42.589              Murmansk2          1330.906
       136   02 Jun 2027 18:29:02.924   02 Jun 2027 18:29:42.670            39.746                 Moscow          1242.063
       137   02 Jun 2027 18:37:13.822   02 Jun 2027 18:37:17.552             3.730              Murmansk2           116.562
       138   02 Jun 2027 18:45:35.902   02 Jun 2027 18:46:09.301            33.399                Anadyr1          1043.719
       139   02 Jun 2027 18:47:02.442   02 Jun 2027 18:47:46.844            44.402                Anadyr1          1387.562
       140   02 Jun 2027 18:48:40.204   02 Jun 2027 18:48:48.129             7.925                Anadyr1           247.656
       141   02 Jun 2027 18:49:07.529   02 Jun 2027 18:49:35.263            27.734                Anadyr1           866.687
       142   02 Jun 2027 19:36:23.066   02 Jun 2027 19:37:35.265            72.199               CapeTown          2256.219
       143   02 Jun 2027 19:42:22.122   02 Jun 2027 19:44:48.362           146.240               CapeTown          4570.000
       144   02 Jun 2027 20:06:55.745   02 Jun 2027 20:08:26.103            90.358              Murmansk2          2823.688
       145   02 Jun 2027 20:08:39.866   02 Jun 2027 20:11:32.957           173.091              Murmansk1          5409.094
       146   02 Jun 2027 20:12:03.288   02 Jun 2027 20:12:36.746            33.458              Murmansk2          1045.562
       147   02 Jun 2027 20:14:26.546   02 Jun 2027 20:14:54.095            27.549              Murmansk1           860.906
       148   02 Jun 2027 21:52:49.386   02 Jun 2027 21:54:36.342           106.956                Anadyr1          3342.375
       149   02 Jun 2027 21:54:47.414   02 Jun 2027 21:55:57.827            70.413                Anadyr2          2200.406
       150   02 Jun 2027 21:56:01.792   02 Jun 2027 21:58:40.717           158.925               Magadan1          4966.406
       151   02 Jun 2027 21:59:13.609   02 Jun 2027 21:59:13.769             0.160               Magadan2             5.000
       152   02 Jun 2027 22:00:01.325   02 Jun 2027 22:00:10.740             9.415               Magadan2           294.219
       153   02 Jun 2027 22:00:41.300   02 Jun 2027 22:00:41.608             0.308               Magadan2             9.625
       154   02 Jun 2027 22:02:09.670   02 Jun 2027 22:02:38.477            28.807               Magadan1           900.219
       155   02 Jun 2027 22:03:39.528   02 Jun 2027 22:04:02.798            23.270               Magadan1           727.187
       156   02 Jun 2027 22:49:43.945   02 Jun 2027 22:51:31.844           107.899            RioGallegos          3371.844
       157   02 Jun 2027 23:28:40.635   02 Jun 2027 23:30:05.838            85.203                Anadyr2          2662.594
       158   02 Jun 2027 23:30:10.546   02 Jun 2027 23:31:23.665            73.119                Anadyr1          2284.969
       159   02 Jun 2027 23:31:40.296   02 Jun 2027 23:33:00.643            80.347               Magadan1          2510.844
       160   02 Jun 2027 23:33:20.072   02 Jun 2027 23:34:23.199            63.127               Magadan2          1972.719
       161   02 Jun 2027 23:35:19.748   02 Jun 2027 23:35:50.889            31.141               Magadan2           973.156
       162   02 Jun 2027 23:35:57.635   02 Jun 2027 23:37:31.559            93.924                Irkutsk          2935.125
       163   02 Jun 2027 23:51:25.017   02 Jun 2027 23:53:16.697           111.680                Sumatra          3490.000
       164   02 Jun 2027 23:54:16.416   02 Jun 2027 23:56:13.206           116.790                Sumatra          3649.688
       165   03 Jun 2027 01:04:02.144   03 Jun 2027 01:04:03.278             1.134                Anadyr2            35.438
       166   03 Jun 2027 01:04:10.961   03 Jun 2027 01:04:34.837            23.876                Anadyr2           746.125
       167   03 Jun 2027 01:04:37.890   03 Jun 2027 01:05:05.691            27.801                Anadyr1           868.781
       168   03 Jun 2027 01:05:39.337   03 Jun 2027 01:06:18.429            39.092                Anadyr1          1221.625
       169   03 Jun 2027 01:06:31.939   03 Jun 2027 01:07:05.845            33.906                Norilsk          1059.563
       170   03 Jun 2027 01:07:09.759   03 Jun 2027 01:08:41.419            91.660               Magadan1          2864.375
       171   03 Jun 2027 01:08:57.977   03 Jun 2027 01:09:32.010            34.033               Magadan1          1063.531
       172   03 Jun 2027 01:10:29.482   03 Jun 2027 01:11:58.925            89.443                Irkutsk          2795.094
       173   03 Jun 2027 01:13:31.672   03 Jun 2027 01:13:53.782            22.110                Irkutsk           690.938
       174   03 Jun 2027 01:15:10.800   03 Jun 2027 01:15:47.578            36.778                Novosib          1149.312
       175   03 Jun 2027 01:19:57.074   03 Jun 2027 01:20:26.077            29.003                Novosib           906.344
       176   03 Jun 2027 01:22:39.530   03 Jun 2027 01:23:19.917            40.387                  Delhi          1262.094
       177   03 Jun 2027 01:24:16.993   03 Jun 2027 01:25:43.111            86.118                Sumatra          2691.188
       178   03 Jun 2027 01:33:42.654   03 Jun 2027 01:33:50.194             7.540                Sumatra           235.625
       179   03 Jun 2027 02:00:54.529   03 Jun 2027 02:00:57.838             3.309            RioGallegos           103.406
       180   03 Jun 2027 02:01:26.392   03 Jun 2027 02:02:20.266            53.874            RioGallegos          1683.562
       181   03 Jun 2027 02:10:05.828   03 Jun 2027 02:10:09.423             3.595            RioGallegos           112.344
       182   03 Jun 2027 02:38:16.412   03 Jun 2027 02:38:19.799             3.387                Anadyr2           105.844
       183   03 Jun 2027 02:39:35.430   03 Jun 2027 02:39:56.827            21.397                Anadyr2           668.656
       184   03 Jun 2027 02:40:46.366   03 Jun 2027 02:40:56.166             9.800                Anadyr2           306.250
       185   03 Jun 2027 02:42:00.068   03 Jun 2027 02:42:07.615             7.547                Anadyr2           235.844
       186   03 Jun 2027 02:42:32.835   03 Jun 2027 02:44:00.298            87.463                Norilsk          2733.219
       187   03 Jun 2027 02:44:13.915   03 Jun 2027 02:44:41.354            27.439                Norilsk           857.469
       188   03 Jun 2027 02:45:37.425   03 Jun 2027 02:46:19.051            41.626              Murmansk1          1300.812
       189   03 Jun 2027 02:46:21.928   03 Jun 2027 02:47:18.273            56.345                Novosib          1760.781
       190   03 Jun 2027 02:47:51.510   03 Jun 2027 02:48:13.926            22.416                Novosib           700.500
       191   03 Jun 2027 02:48:46.382   03 Jun 2027 02:48:55.337             8.955                Irkutsk           279.844
       192   03 Jun 2027 02:49:54.682   03 Jun 2027 02:50:50.760            56.078                Irkutsk          1752.437
       193   03 Jun 2027 02:57:27.253   03 Jun 2027 02:57:35.530             8.277                  Delhi           258.656
       194   03 Jun 2027 02:57:46.174   03 Jun 2027 02:58:19.278            33.104                Irkutsk          1034.500
       195   03 Jun 2027 03:00:40.546   03 Jun 2027 03:01:14.020            33.474                  Delhi          1046.062
       196   03 Jun 2027 03:35:27.097   03 Jun 2027 03:37:16.317           109.220            RioGallegos          3413.125
       197   03 Jun 2027 03:40:52.229   03 Jun 2027 03:42:18.277            86.048            RioGallegos          2689.000
       198   03 Jun 2027 04:26:54.187   03 Jun 2027 04:27:34.696            40.509              Murmansk2          1265.906
       199   03 Jun 2027 04:27:34.696   03 Jun 2027 04:28:15.764            41.068              Murmansk1          1283.375
       200   03 Jun 2027 04:28:43.824   03 Jun 2027 04:29:10.791            26.967                Norilsk           842.719
       201   03 Jun 2027 04:29:11.189   03 Jun 2027 04:30:03.453            52.264              Murmansk2          1633.250
       202   03 Jun 2027 04:30:37.821   03 Jun 2027 04:30:52.656            14.835                Novosib           463.594
       203   03 Jun 2027 04:31:03.835   03 Jun 2027 04:31:17.234            13.399                  Delhi           418.719
       204   03 Jun 2027 04:31:43.680   03 Jun 2027 04:33:49.900           126.220                  Delhi          3944.375
       205   03 Jun 2027 04:33:52.434   03 Jun 2027 04:34:10.301            17.867                Novosib           558.344
       206   03 Jun 2027 04:37:21.432   03 Jun 2027 04:39:32.861           131.429                  Delhi          4107.156
       207   03 Jun 2027 06:06:03.110   03 Jun 2027 06:06:13.672            10.562                Novosib           330.063
       208   03 Jun 2027 06:07:00.923   03 Jun 2027 06:07:29.976            29.053                 Moscow           907.906
       209   03 Jun 2027 06:07:30.970   03 Jun 2027 06:07:35.418             4.448                 Moscow           139.000
       210   03 Jun 2027 06:07:59.996   03 Jun 2027 06:08:10.970            10.974                 Moscow           342.938
       211   03 Jun 2027 06:12:21.218   03 Jun 2027 06:12:46.537            25.319                 Moscow           791.219
       212   03 Jun 2027 06:23:46.379   03 Jun 2027 06:26:59.229           192.850               CapeTown          6026.563
       213   03 Jun 2027 07:26:53.583   03 Jun 2027 07:27:35.530            41.947                Anadyr1          1310.844
       214   03 Jun 2027 07:27:35.530   03 Jun 2027 07:28:43.114            67.584                Anadyr2          2112.000
       215   03 Jun 2027 08:02:44.329   03 Jun 2027 08:06:54.134           249.805               CapeTown          7806.406
       216   03 Jun 2027 09:02:57.518   03 Jun 2027 09:03:10.711            13.193                Anadyr2           412.281
       217   03 Jun 2027 09:03:18.927   03 Jun 2027 09:04:05.025            46.098               Magadan1          1440.562
       218   03 Jun 2027 09:04:48.232   03 Jun 2027 09:05:06.300            18.068               Magadan2           564.625
       219   03 Jun 2027 09:05:16.251   03 Jun 2027 09:05:43.667            27.416               Magadan1           856.750
       220   03 Jun 2027 09:05:43.667   03 Jun 2027 09:07:04.842            81.175               Magadan2          2536.719
       221   03 Jun 2027 10:37:57.231   03 Jun 2027 10:38:16.582            19.351               Magadan2           604.719
       222   03 Jun 2027 10:38:24.882   03 Jun 2027 10:38:39.926            15.044               Magadan1           470.125
       223   03 Jun 2027 10:38:39.926   03 Jun 2027 10:38:52.070            12.144               Magadan2           379.500
       224   03 Jun 2027 10:39:57.381   03 Jun 2027 10:41:29.819            92.438                Anadyr2          2888.688
       225   03 Jun 2027 10:42:13.756   03 Jun 2027 10:42:45.430            31.674                Irkutsk           989.813
       226   03 Jun 2027 10:42:58.022   03 Jun 2027 10:43:11.380            13.358               Magadan2           417.437
       227   03 Jun 2027 10:43:13.250   03 Jun 2027 10:44:00.106            46.856                Anadyr1          1464.250
       228   03 Jun 2027 10:44:10.239   03 Jun 2027 10:44:18.946             8.707                Norilsk           272.094
       229   03 Jun 2027 10:44:40.069   03 Jun 2027 10:44:51.752            11.683                Norilsk           365.094
       230   03 Jun 2027 11:19:47.889   03 Jun 2027 11:20:30.801            42.912            RioGallegos          1341.000
       231   03 Jun 2027 11:24:29.205   03 Jun 2027 11:25:13.842            44.637            RioGallegos          1394.906
       232   03 Jun 2027 11:56:52.342   03 Jun 2027 11:58:49.664           117.322                Sumatra          3666.312
       233   03 Jun 2027 12:12:24.438   03 Jun 2027 12:13:05.370            40.932                Novosib          1279.125
       234   03 Jun 2027 12:14:36.349   03 Jun 2027 12:18:09.752           213.403               Magadan1          6668.844
       235   03 Jun 2027 13:30:20.922   03 Jun 2027 13:33:19.235           178.313                Sumatra          5572.281
       236   03 Jun 2027 13:38:46.341   03 Jun 2027 13:40:04.514            78.173                Sumatra          2442.906
       237   03 Jun 2027 13:53:00.236   03 Jun 2027 13:54:58.475           118.239                Irkutsk          3694.969
       238   03 Jun 2027 14:38:22.012   03 Jun 2027 14:40:04.927           102.915            RioGallegos          3216.094
       239   03 Jun 2027 15:17:22.870   03 Jun 2027 15:19:54.782           151.912                  Delhi          4747.250
       240   03 Jun 2027 15:27:29.345   03 Jun 2027 15:28:22.103            52.758                Novosib          1648.688
       241   03 Jun 2027 15:31:46.968   03 Jun 2027 15:32:59.939            72.971                Novosib          2280.344
       242   03 Jun 2027 17:00:06.115   03 Jun 2027 17:00:44.079            37.964                 Moscow          1186.375
       243   03 Jun 2027 17:02:22.792   03 Jun 2027 17:03:12.948            50.156              Murmansk1          1567.375
       244   03 Jun 2027 17:07:21.945   03 Jun 2027 17:11:43.323           261.378                Norilsk          8168.063
       245   03 Jun 2027 18:22:21.537   03 Jun 2027 18:22:43.747            22.210               CapeTown           694.062
       246   03 Jun 2027 18:36:56.089   03 Jun 2027 18:38:38.822           102.733                 Moscow          3210.406
       247   03 Jun 2027 18:39:47.649   03 Jun 2027 18:43:07.225           199.576              Murmansk2          6236.750
       248   03 Jun 2027 19:01:29.681   03 Jun 2027 19:02:13.555            43.874                Anadyr2          1371.063
       249   03 Jun 2027 19:48:32.487   03 Jun 2027 19:51:03.727           151.240               CapeTown          4726.250
       250   03 Jun 2027 20:19:38.087   03 Jun 2027 20:24:08.808           270.721              Murmansk2          8460.031
       251   03 Jun 2027 20:25:26.154   03 Jun 2027 20:25:34.324             8.170              Murmansk1           255.313
       252   03 Jun 2027 22:04:51.178   03 Jun 2027 22:09:14.445           263.267                Anadyr1          8227.094
       253   03 Jun 2027 22:09:17.287   03 Jun 2027 22:10:43.663            86.376               Magadan1          2699.250
       254   03 Jun 2027 22:11:12.929   03 Jun 2027 22:12:48.083            95.154               Magadan1          2973.563
       255   03 Jun 2027 22:14:15.761   03 Jun 2027 22:14:42.931            27.170               Magadan2           849.063
       256   03 Jun 2027 22:15:19.420   03 Jun 2027 22:15:26.782             7.362               Magadan2           230.062
       257   03 Jun 2027 22:16:04.204   03 Jun 2027 22:16:12.402             8.198               Magadan2           256.187
       258   03 Jun 2027 22:16:38.816   03 Jun 2027 22:16:44.792             5.976               Magadan2           186.750
       259   03 Jun 2027 22:18:04.008   03 Jun 2027 22:18:05.687             1.679               Magadan2            52.469
       260   03 Jun 2027 23:00:44.830   03 Jun 2027 23:03:27.450           162.620            RioGallegos          5081.875
       261   03 Jun 2027 23:05:57.463   03 Jun 2027 23:06:43.406            45.943            RioGallegos          1435.719
       262   03 Jun 2027 23:40:40.340   03 Jun 2027 23:42:08.509            88.169                Anadyr2          2755.281
       263   03 Jun 2027 23:42:36.503   03 Jun 2027 23:42:55.615            19.112                Anadyr2           597.250
       264   03 Jun 2027 23:43:04.056   03 Jun 2027 23:44:11.997            67.941                Norilsk          2123.156
       265   03 Jun 2027 23:44:40.030   03 Jun 2027 23:44:50.107            10.077               Magadan1           314.906
       266   03 Jun 2027 23:44:50.107   03 Jun 2027 23:46:00.614            70.507               Magadan2          2203.344
       267   03 Jun 2027 23:47:36.540   03 Jun 2027 23:48:10.955            34.415                Irkutsk          1075.469
       268   03 Jun 2027 23:50:03.645   03 Jun 2027 23:50:53.002            49.357                Irkutsk          1542.406
       269   03 Jun 2027 23:52:05.419   03 Jun 2027 23:52:06.632             1.213                Irkutsk            37.906
       270   03 Jun 2027 23:52:52.533   03 Jun 2027 23:53:05.213            12.680                Irkutsk           396.250
       271   04 Jun 2027 00:02:25.653   04 Jun 2027 00:04:22.250           116.597                Sumatra          3643.656
       272   04 Jun 2027 00:34:39.306   04 Jun 2027 00:35:26.227            46.921            RioGallegos          1466.281
       273   04 Jun 2027 00:41:07.179   04 Jun 2027 00:41:30.619            23.440            RioGallegos           732.500
       274   04 Jun 2027 00:45:38.799   04 Jun 2027 00:46:03.261            24.462            RioGallegos           764.438
       275   04 Jun 2027 01:15:55.435   04 Jun 2027 01:16:19.853            24.418                Anadyr2           763.063
       276   04 Jun 2027 01:16:58.193   04 Jun 2027 01:18:08.517            70.324                Anadyr2          2197.625
       277   04 Jun 2027 01:18:30.292   04 Jun 2027 01:18:42.827            12.535                Anadyr1           391.719
       278   04 Jun 2027 01:18:48.219   04 Jun 2027 01:19:07.311            19.092                Anadyr1           596.625
       279   04 Jun 2027 01:19:11.536   04 Jun 2027 01:20:28.177            76.641                Norilsk          2395.031
       280   04 Jun 2027 01:20:32.391   04 Jun 2027 01:20:58.442            26.051               Magadan2           814.094
       281   04 Jun 2027 01:20:58.442   04 Jun 2027 01:22:06.509            68.067               Magadan1          2127.094
       282   04 Jun 2027 01:22:29.066   04 Jun 2027 01:23:35.195            66.129                Irkutsk          2066.531
       283   04 Jun 2027 01:25:41.007   04 Jun 2027 01:26:07.775            26.768                Irkutsk           836.500
       284   04 Jun 2027 01:31:24.772   04 Jun 2027 01:32:12.619            47.847                Novosib          1495.219
       285   04 Jun 2027 01:36:26.372   04 Jun 2027 01:36:27.839             1.467                Sumatra            45.844
       286   04 Jun 2027 01:37:57.058   04 Jun 2027 01:38:32.678            35.620                  Delhi          1113.125
       287   04 Jun 2027 01:39:15.021   04 Jun 2027 01:41:57.021           162.000                Sumatra          5062.500
       288   04 Jun 2027 02:22:07.488   04 Jun 2027 02:22:32.226            24.738            RioGallegos           773.063
       289   04 Jun 2027 02:51:58.084   04 Jun 2027 02:52:38.529            40.445                Anadyr2          1263.906
       290   04 Jun 2027 02:54:35.179   04 Jun 2027 02:55:11.234            36.055                Norilsk          1126.719
       291   04 Jun 2027 02:55:13.174   04 Jun 2027 02:55:47.972            34.798               Magadan1          1087.437
       292   04 Jun 2027 02:57:22.905   04 Jun 2027 02:58:20.860            57.955              Murmansk1          1811.094
       293   04 Jun 2027 02:58:22.606   04 Jun 2027 02:59:14.525            51.919                Novosib          1622.469
       294   04 Jun 2027 02:59:14.728   04 Jun 2027 03:00:03.429            48.701                Irkutsk          1521.906
       295   04 Jun 2027 03:00:18.674   04 Jun 2027 03:00:44.340            25.666              Murmansk2           802.063
       296   04 Jun 2027 03:00:53.601   04 Jun 2027 03:01:30.914            37.313              Murmansk1          1166.031
       297   04 Jun 2027 03:01:39.334   04 Jun 2027 03:02:25.405            46.071                Novosib          1439.719
       298   04 Jun 2027 03:02:39.267   04 Jun 2027 03:03:29.389            50.122                Irkutsk          1566.313
       299   04 Jun 2027 03:03:49.120   04 Jun 2027 03:05:14.934            85.814                Novosib          2681.688
       300   04 Jun 2027 03:05:29.983   04 Jun 2027 03:07:08.613            98.630                Novosib          3082.187
       301   04 Jun 2027 03:07:11.407   04 Jun 2027 03:07:30.334            18.927                Norilsk           591.469
       302   04 Jun 2027 03:08:42.770   04 Jun 2027 03:10:32.213           109.443                  Delhi          3420.094
       303   04 Jun 2027 03:47:46.022   04 Jun 2027 03:48:23.562            37.540            RioGallegos          1173.125
       304   04 Jun 2027 03:50:09.569   04 Jun 2027 03:52:58.604           169.035            RioGallegos          5282.344
       305   04 Jun 2027 04:38:52.830   04 Jun 2027 04:39:37.102            44.272              Murmansk1          1383.500
       306   04 Jun 2027 04:39:37.102   04 Jun 2027 04:40:02.809            25.707              Murmansk2           803.344
       307   04 Jun 2027 04:40:37.536   04 Jun 2027 04:40:54.070            16.534                Irkutsk           516.687
       308   04 Jun 2027 04:41:04.678   04 Jun 2027 04:42:02.913            58.235              Murmansk2          1819.844
       309   04 Jun 2027 04:42:08.712   04 Jun 2027 04:43:10.374            61.662                Novosib          1926.938
       310   04 Jun 2027 04:43:47.921   04 Jun 2027 04:48:22.640           274.719                  Delhi          8584.969
       311   04 Jun 2027 06:18:31.702   04 Jun 2027 06:18:48.322            16.620              Murmansk1           519.375
       312   04 Jun 2027 06:18:57.956   04 Jun 2027 06:19:09.946            11.990                 Moscow           374.687
       313   04 Jun 2027 06:19:26.690   04 Jun 2027 06:19:39.230            12.540                 Moscow           391.875
       314   04 Jun 2027 06:35:47.840   04 Jun 2027 06:39:00.625           192.785               CapeTown          6024.531
       315   04 Jun 2027 07:38:46.913   04 Jun 2027 07:39:43.053            56.140                Anadyr2          1754.375
       316   04 Jun 2027 07:40:12.021   04 Jun 2027 07:40:16.979             4.958                Anadyr1           154.937
       317   04 Jun 2027 07:40:35.085   04 Jun 2027 07:40:47.636            12.551               Magadan2           392.219
       318   04 Jun 2027 07:40:58.424   04 Jun 2027 07:41:15.777            17.353                Anadyr2           542.281
       319   04 Jun 2027 07:42:00.966   04 Jun 2027 07:42:13.704            12.738                Anadyr1           398.062
       320   04 Jun 2027 07:42:38.132   04 Jun 2027 07:42:51.769            13.637               Magadan2           426.156
       321   04 Jun 2027 07:43:29.355   04 Jun 2027 07:44:49.210            79.855                Anadyr1          2495.469
       322   04 Jun 2027 08:16:15.395   04 Jun 2027 08:19:40.368           204.973               CapeTown          6405.406
       323   04 Jun 2027 09:15:27.901   04 Jun 2027 09:15:45.142            17.241               Magadan1           538.781
       324   04 Jun 2027 09:15:58.950   04 Jun 2027 09:17:24.677            85.727                Anadyr2          2678.969
       325   04 Jun 2027 09:17:39.256   04 Jun 2027 09:18:53.314            74.058                Anadyr1          2314.312
       326   04 Jun 2027 10:47:11.165   04 Jun 2027 10:47:39.700            28.535               Magadan2           891.719
       327   04 Jun 2027 10:50:30.847   04 Jun 2027 10:50:45.908            15.061               Magadan2           470.656
       328   04 Jun 2027 10:51:49.008   04 Jun 2027 10:52:18.303            29.295               Magadan2           915.469
       329   04 Jun 2027 10:52:18.303   04 Jun 2027 10:52:58.363            40.060               Magadan1          1251.875
       330   04 Jun 2027 10:52:59.794   04 Jun 2027 10:53:22.821            23.027                Anadyr2           719.594
       331   04 Jun 2027 10:53:27.735   04 Jun 2027 10:53:36.050             8.315                Irkutsk           259.844
       332   04 Jun 2027 10:54:04.291   04 Jun 2027 10:56:00.424           116.133               Magadan2          3629.156
       333   04 Jun 2027 10:56:08.939   04 Jun 2027 10:56:11.157             2.218                Norilsk            69.312
       334   04 Jun 2027 10:56:27.660   04 Jun 2027 10:56:46.611            18.951                Norilsk           592.219
       335   04 Jun 2027 11:31:39.143   04 Jun 2027 11:32:47.987            68.844            RioGallegos          2151.375
       336   04 Jun 2027 12:08:03.356   04 Jun 2027 12:08:13.242             9.886                Sumatra           308.937
       337   04 Jun 2027 12:09:48.628   04 Jun 2027 12:10:41.877            53.249                Sumatra          1664.031
       338   04 Jun 2027 12:19:54.149   04 Jun 2027 12:21:48.024           113.875                Irkutsk          3558.594
       339   04 Jun 2027 12:25:25.550   04 Jun 2027 12:25:54.727            29.177                Norilsk           911.781
       340   04 Jun 2027 12:35:30.243   04 Jun 2027 12:35:49.318            19.075                Norilsk           596.094
       341   04 Jun 2027 13:08:13.117   04 Jun 2027 13:08:28.751            15.634            RioGallegos           488.563
       342   04 Jun 2027 13:10:15.010   04 Jun 2027 13:13:10.759           175.749            RioGallegos          5492.156
       343   04 Jun 2027 13:42:33.434   04 Jun 2027 13:43:01.981            28.547                Sumatra           892.094
       344   04 Jun 2027 13:45:09.279   04 Jun 2027 13:47:24.754           135.475                Sumatra          4233.594
       345   04 Jun 2027 13:57:30.877   04 Jun 2027 13:58:56.691            85.814                Irkutsk          2681.688
       346   04 Jun 2027 14:01:50.523   04 Jun 2027 14:02:25.446            34.923                Irkutsk          1091.344
       347   04 Jun 2027 15:27:17.195   04 Jun 2027 15:29:17.508           120.313                  Delhi          3759.781
       348   04 Jun 2027 15:31:59.958   04 Jun 2027 15:32:44.848            44.890                  Delhi          1402.813
       349   04 Jun 2027 15:35:12.629   04 Jun 2027 15:37:15.906           123.277                  Delhi          3852.406
       350   04 Jun 2027 15:38:48.606   04 Jun 2027 15:39:11.947            23.341                Novosib           729.406
       351   04 Jun 2027 15:39:22.534   04 Jun 2027 15:40:22.668            60.134                Norilsk          1879.187
       352   04 Jun 2027 15:43:56.394   04 Jun 2027 15:44:20.974            24.580                Norilsk           768.125
       353   04 Jun 2027 15:45:08.969   04 Jun 2027 15:45:25.685            16.716                Novosib           522.375
       354   04 Jun 2027 15:48:31.684   04 Jun 2027 15:49:19.112            47.428                Norilsk          1482.125
       355   04 Jun 2027 17:10:57.948   04 Jun 2027 17:12:03.206            65.258                 Moscow          2039.313
       356   04 Jun 2027 17:12:21.882   04 Jun 2027 17:13:13.315            51.433                 Moscow          1607.281
       357   04 Jun 2027 17:14:29.333   04 Jun 2027 17:15:09.965            40.632              Murmansk1          1269.750
       358   04 Jun 2027 17:20:16.091   04 Jun 2027 17:24:27.552           251.461                Norilsk          7858.156
       359   04 Jun 2027 18:49:34.793   04 Jun 2027 18:54:13.695           278.902                 Moscow          8715.688
       360   04 Jun 2027 19:13:59.074   04 Jun 2027 19:14:19.069            19.995                Anadyr2           624.844
       361   04 Jun 2027 20:00:45.282   04 Jun 2027 20:02:45.487           120.205               CapeTown          3756.406
       362   04 Jun 2027 20:05:20.203   04 Jun 2027 20:05:23.463             3.260               CapeTown           101.875
       363   04 Jun 2027 20:08:57.254   04 Jun 2027 20:10:32.444            95.190               CapeTown          2974.687
       364   04 Jun 2027 20:32:25.162   04 Jun 2027 20:36:48.116           262.954              Murmansk2          8217.313
       365   04 Jun 2027 20:37:27.051   04 Jun 2027 20:38:41.885            74.834              Murmansk1          2338.562
       366   04 Jun 2027 22:16:52.861   04 Jun 2027 22:19:49.577           176.716                Anadyr1          5522.375
       367   04 Jun 2027 22:19:49.977   04 Jun 2027 22:20:33.735            43.758                Anadyr2          1367.437
       368   04 Jun 2027 22:20:53.925   04 Jun 2027 22:23:10.714           136.789               Magadan2          4274.656
       369   04 Jun 2027 22:23:18.526   04 Jun 2027 22:23:28.153             9.627               Magadan1           300.844
       370   04 Jun 2027 22:23:50.564   04 Jun 2027 22:24:05.137            14.573               Magadan2           455.406
       371   04 Jun 2027 22:24:46.804   04 Jun 2027 22:25:35.620            48.816               Magadan1          1525.500
       372   04 Jun 2027 23:12:11.221   04 Jun 2027 23:14:26.159           134.938            RioGallegos          4216.812
       373   04 Jun 2027 23:18:02.223   04 Jun 2027 23:18:36.435            34.212            RioGallegos          1069.125
       374   04 Jun 2027 23:52:39.534   04 Jun 2027 23:54:55.095           135.561                Anadyr2          4236.281
       375   04 Jun 2027 23:55:08.144   04 Jun 2027 23:55:30.917            22.773               Magadan2           711.656
       376   04 Jun 2027 23:55:30.917   04 Jun 2027 23:56:19.145            48.228               Magadan1          1507.125
       377   04 Jun 2027 23:57:41.096   04 Jun 2027 23:58:32.890            51.794               Magadan2          1618.562
       378   04 Jun 2027 23:59:21.267   05 Jun 2027 00:00:25.583            64.316                Irkutsk          2009.875
       379   05 Jun 2027 00:07:45.571   05 Jun 2027 00:08:05.210            19.639                Irkutsk           613.719
       380   05 Jun 2027 00:13:44.518   05 Jun 2027 00:16:34.059           169.541                Sumatra          5298.156
       381   05 Jun 2027 00:24:00.572   05 Jun 2027 00:24:14.128            13.556                Sumatra           423.625
       382   05 Jun 2027 00:50:25.437   05 Jun 2027 00:50:36.177            10.740            RioGallegos           335.625
       383   05 Jun 2027 00:52:49.168   05 Jun 2027 00:53:43.463            54.295            RioGallegos          1696.719
       384   05 Jun 2027 01:27:47.511   05 Jun 2027 01:28:13.625            26.114                Anadyr2           816.062
       385   05 Jun 2027 01:28:57.537   05 Jun 2027 01:30:14.178            76.641                Anadyr1          2395.031
       386   05 Jun 2027 01:30:34.479   05 Jun 2027 01:30:38.297             3.818                Anadyr2           119.313
       387   05 Jun 2027 01:30:45.684   05 Jun 2027 01:32:30.406           104.722                Norilsk          3272.562
       388   05 Jun 2027 01:33:46.552   05 Jun 2027 01:34:24.157            37.605               Magadan1          1175.156
       389   05 Jun 2027 01:34:29.661   05 Jun 2027 01:36:15.195           105.534                Irkutsk          3297.937
       390   05 Jun 2027 01:37:31.625   05 Jun 2027 01:37:46.847            15.222                Irkutsk           475.687
       391   05 Jun 2027 01:41:41.453   05 Jun 2027 01:43:17.422            95.969                Irkutsk          2999.031
       392   05 Jun 2027 01:48:42.227   05 Jun 2027 01:49:48.291            66.064                Sumatra          2064.500
       393   05 Jun 2027 01:53:43.288   05 Jun 2027 01:53:46.159             2.871                Sumatra            89.719
       394   05 Jun 2027 01:54:50.545   05 Jun 2027 01:57:04.157           133.612                Sumatra          4175.375
       395   05 Jun 2027 03:10:39.391   05 Jun 2027 03:11:57.799            78.408               Magadan2          2450.250
       396   05 Jun 2027 03:13:37.766   05 Jun 2027 03:13:42.938             5.172                Novosib           161.625
       397   05 Jun 2027 03:13:49.656   05 Jun 2027 03:14:47.013            57.357                Irkutsk          1792.406
       398   05 Jun 2027 03:14:55.567   05 Jun 2027 03:20:12.241           316.674                Irkutsk          9896.063
       399   05 Jun 2027 03:20:54.330   05 Jun 2027 03:21:18.708            24.378                  Delhi           761.813
       400   05 Jun 2027 04:00:11.191   05 Jun 2027 04:05:14.616           303.425            RioGallegos          9482.031
       401   05 Jun 2027 04:51:27.146   05 Jun 2027 04:51:37.491            10.345                Irkutsk           323.281
       402   05 Jun 2027 04:53:29.187   05 Jun 2027 04:55:50.917           141.730                Novosib          4429.063
       403   05 Jun 2027 04:57:04.235   05 Jun 2027 05:00:51.527           227.292                  Delhi          7102.875
       404   05 Jun 2027 06:30:26.989   05 Jun 2027 06:30:35.460             8.471              Murmansk2           264.719
       405   05 Jun 2027 06:30:47.720   05 Jun 2027 06:31:26.486            38.766              Murmansk2          1211.438
       406   05 Jun 2027 06:47:54.478   05 Jun 2027 06:50:42.149           167.671               CapeTown          5239.719
       407   05 Jun 2027 07:50:37.643   05 Jun 2027 07:51:44.239            66.596                Anadyr1          2081.125
       408   05 Jun 2027 07:52:00.862   05 Jun 2027 07:52:05.444             4.582               Magadan2           143.188
       409   05 Jun 2027 07:52:41.399   05 Jun 2027 07:53:13.466            32.067                Anadyr2          1002.094
       410   05 Jun 2027 07:54:21.926   05 Jun 2027 07:55:29.699            67.773                Anadyr2          2117.906
       411   05 Jun 2027 09:27:20.698   05 Jun 2027 09:27:42.260            21.562               Magadan1           673.812
       412   05 Jun 2027 09:27:48.463   05 Jun 2027 09:28:40.939            52.476                Anadyr2          1639.875
       413   05 Jun 2027 09:28:40.939   05 Jun 2027 09:29:03.128            22.189                Anadyr1           693.406
       414   05 Jun 2027 09:29:11.151   05 Jun 2027 09:29:50.177            39.026               Magadan1          1219.562
       415   05 Jun 2027 09:30:39.368   05 Jun 2027 09:30:44.565             5.197                Irkutsk           162.406
       416   05 Jun 2027 09:30:55.091   05 Jun 2027 09:32:37.674           102.583                Anadyr1          3205.719
       417   05 Jun 2027 10:58:37.518   05 Jun 2027 10:59:03.110            25.592               Magadan2           799.750
       418   05 Jun 2027 11:02:37.540   05 Jun 2027 11:02:54.019            16.479               Magadan2           514.969
       419   05 Jun 2027 11:02:54.019   05 Jun 2027 11:04:56.613           122.594               Magadan1          3831.062
       420   05 Jun 2027 11:05:32.823   05 Jun 2027 11:05:46.071            13.248               Magadan2           414.000
       421   05 Jun 2027 11:05:59.117   05 Jun 2027 11:06:45.575            46.458                Irkutsk          1451.813
       422   05 Jun 2027 11:06:54.397   05 Jun 2027 11:06:56.759             2.362                Irkutsk            73.812
       423   05 Jun 2027 11:07:24.704   05 Jun 2027 11:08:29.797            65.093                Irkutsk          2034.156
       424   05 Jun 2027 11:08:32.443   05 Jun 2027 11:08:37.611             5.168               Magadan2           161.500
       425   05 Jun 2027 11:08:42.570   05 Jun 2027 11:09:44.439            61.869                Norilsk          1933.406
       426   05 Jun 2027 11:43:33.628   05 Jun 2027 11:44:47.638            74.010            RioGallegos          2312.812
       427   05 Jun 2027 12:19:59.787   05 Jun 2027 12:20:22.395            22.608                Sumatra           706.500
       428   05 Jun 2027 12:31:55.684   05 Jun 2027 12:35:06.561           190.877                Irkutsk          5964.906
       429   05 Jun 2027 13:20:37.615   05 Jun 2027 13:21:25.250            47.635            RioGallegos          1488.594
       430   05 Jun 2027 13:22:19.558   05 Jun 2027 13:25:40.499           200.941            RioGallegos          6279.406
       431   05 Jun 2027 13:54:52.917   05 Jun 2027 13:56:52.795           119.878                Sumatra          3746.188
       432   05 Jun 2027 14:10:06.531   05 Jun 2027 14:13:04.313           177.782                Irkutsk          5555.688
       433   05 Jun 2027 14:14:46.820   05 Jun 2027 14:14:50.895             4.075                Irkutsk           127.344
       434   05 Jun 2027 15:39:49.164   05 Jun 2027 15:44:41.771           292.607                  Delhi          9143.969
       435   05 Jun 2027 15:48:13.439   05 Jun 2027 15:50:47.138           153.699                Novosib          4803.094
       436   05 Jun 2027 17:23:58.916   05 Jun 2027 17:26:11.783           132.867                 Moscow          4152.094
       437   05 Jun 2027 17:33:21.117   05 Jun 2027 17:36:28.088           186.971                Norilsk          5842.844
       438   05 Jun 2027 18:42:37.448   05 Jun 2027 18:42:55.260            17.812               CapeTown           556.625
       439   05 Jun 2027 18:47:56.022   05 Jun 2027 18:48:19.616            23.594               CapeTown           737.312
       440   05 Jun 2027 19:02:21.250   05 Jun 2027 19:06:47.599           266.349                 Moscow          8323.406
       441   05 Jun 2027 19:11:59.143   05 Jun 2027 19:13:10.441            71.298              Murmansk1          2228.063
       442   05 Jun 2027 20:13:02.102   05 Jun 2027 20:14:21.264            79.162               CapeTown          2473.813
       443   05 Jun 2027 20:15:53.530   05 Jun 2027 20:16:36.340            42.810               CapeTown          1337.813
       444   05 Jun 2027 20:17:17.405   05 Jun 2027 20:17:57.395            39.990               CapeTown          1249.688
       445   05 Jun 2027 20:45:18.598   05 Jun 2027 20:50:30.204           311.606              Murmansk2          9737.688
       446   05 Jun 2027 22:28:54.400   05 Jun 2027 22:32:44.188           229.788                Anadyr2          7180.875
       447   05 Jun 2027 22:32:48.375   05 Jun 2027 22:35:52.649           184.274               Magadan2          5758.562
       448   05 Jun 2027 22:35:52.649   05 Jun 2027 22:36:34.714            42.065               Magadan1          1314.531
       449   05 Jun 2027 22:41:56.818   05 Jun 2027 22:42:08.293            11.475               Magadan1           358.594
       450   05 Jun 2027 22:42:29.950   05 Jun 2027 22:43:42.445            72.495               Magadan1          2265.469
       451   05 Jun 2027 23:23:48.421   05 Jun 2027 23:24:31.792            43.371            RioGallegos          1355.344
       452   05 Jun 2027 23:24:34.720   05 Jun 2027 23:25:40.055            65.335            RioGallegos          2041.719
       453   06 Jun 2027 00:04:38.134   06 Jun 2027 00:06:00.649            82.515                Anadyr2          2578.594
       454   06 Jun 2027 00:06:43.828   06 Jun 2027 00:08:31.714           107.886                Norilsk          3371.438
       455   06 Jun 2027 00:09:17.058   06 Jun 2027 00:10:14.778            57.720               Magadan1          1803.750
       456   06 Jun 2027 00:10:49.536   06 Jun 2027 00:11:26.871            37.335               Magadan2          1166.719
       457   06 Jun 2027 00:11:26.871   06 Jun 2027 00:11:56.329            29.458               Magadan1           920.562
       458   06 Jun 2027 00:12:03.190   06 Jun 2027 00:12:25.509            22.319                Irkutsk           697.469
       459   06 Jun 2027 00:13:17.499   06 Jun 2027 00:13:25.815             8.316                Irkutsk           259.875
       460   06 Jun 2027 00:15:47.080   06 Jun 2027 00:16:09.695            22.615                Irkutsk           706.719
       461   06 Jun 2027 00:16:34.595   06 Jun 2027 00:16:43.670             9.075                Irkutsk           283.594
       462   06 Jun 2027 00:16:57.273   06 Jun 2027 00:17:15.650            18.377                Irkutsk           574.281
       463   06 Jun 2027 00:19:25.782   06 Jun 2027 00:19:57.995            32.213                Irkutsk          1006.656
       464   06 Jun 2027 00:25:15.016   06 Jun 2027 00:26:29.327            74.311                Sumatra          2322.219
       465   06 Jun 2027 00:31:56.203   06 Jun 2027 00:31:58.105             1.902                Sumatra            59.438
       466   06 Jun 2027 00:33:45.071   06 Jun 2027 00:34:32.135            47.064                Sumatra          1470.750
       467   06 Jun 2027 01:01:04.241   06 Jun 2027 01:01:49.588            45.347            RioGallegos          1417.094
       468   06 Jun 2027 01:08:11.775   06 Jun 2027 01:08:35.184            23.409            RioGallegos           731.531
       469   06 Jun 2027 01:39:38.299   06 Jun 2027 01:41:33.242           114.943                Anadyr2          3591.969
       470   06 Jun 2027 01:42:27.346   06 Jun 2027 01:42:45.054            17.708                Anadyr2           553.375
       471   06 Jun 2027 01:43:03.095   06 Jun 2027 01:44:18.404            75.309                Norilsk          2353.406
       472   06 Jun 2027 01:44:31.316   06 Jun 2027 01:45:01.243            29.927               Magadan2           935.219
       473   06 Jun 2027 01:46:31.173   06 Jun 2027 01:48:50.764           139.591                Irkutsk          4362.219
       474   06 Jun 2027 01:51:51.491   06 Jun 2027 01:51:57.642             6.151                Novosib           192.219
       475   06 Jun 2027 01:52:34.355   06 Jun 2027 01:52:42.403             8.048                Novosib           251.500
       476   06 Jun 2027 01:53:28.732   06 Jun 2027 01:54:45.619            76.887                Irkutsk          2402.719
       477   06 Jun 2027 02:01:05.731   06 Jun 2027 02:02:41.791            96.060                Sumatra          3001.875
       478   06 Jun 2027 02:04:56.511   06 Jun 2027 02:06:12.740            76.229                Sumatra          2382.156
       479   06 Jun 2027 02:40:21.277   06 Jun 2027 02:41:44.453            83.176            RioGallegos          2599.250
       480   06 Jun 2027 03:23:08.545   06 Jun 2027 03:23:26.623            18.078               Magadan2           564.937
       481   06 Jun 2027 03:24:43.884   06 Jun 2027 03:25:53.731            69.847                Irkutsk          2182.719
       482   06 Jun 2027 03:27:07.275   06 Jun 2027 03:27:44.447            37.172                Irkutsk          1161.625
