uniorb/output/strategy_4/Drop/Drop_KinoSat_111802.txt

KinoSat_111802
-------------------------
    Access    *     Start Time (UTCG)     *     Stop Time (UTCG)  *   Duration (s)        *       Station  *  Data (Mbytes)
         1   01 Jun 2027 03:36:15.261   01 Jun 2027 03:37:16.565            61.304                Novosib          1915.750
         2   01 Jun 2027 03:37:37.329   01 Jun 2027 03:40:58.388           201.059              Murmansk1          6283.094
         3   01 Jun 2027 03:41:16.455   01 Jun 2027 03:42:35.578            79.123                  Delhi          2472.594
         4   01 Jun 2027 03:45:02.945   01 Jun 2027 03:45:38.451            35.506                  Delhi          1109.562
         5   01 Jun 2027 05:13:01.377   01 Jun 2027 05:13:39.798            38.421                Novosib          1200.656
         6   01 Jun 2027 05:15:11.946   01 Jun 2027 05:15:33.982            22.036              Murmansk1           688.625
         7   01 Jun 2027 05:15:35.585   01 Jun 2027 05:16:00.424            24.839                Norilsk           776.219
         8   01 Jun 2027 05:16:17.794   01 Jun 2027 05:16:55.298            37.504              Murmansk1          1172.000
         9   01 Jun 2027 05:16:55.298   01 Jun 2027 05:17:11.727            16.429              Murmansk2           513.406
        10   01 Jun 2027 05:17:15.771   01 Jun 2027 05:18:28.314            72.543                Novosib          2266.969
        11   01 Jun 2027 05:18:39.007   01 Jun 2027 05:20:00.592            81.585              Murmansk2          2549.531
        12   01 Jun 2027 05:20:22.231   01 Jun 2027 05:23:39.003           196.772                 Moscow          6149.125
        13   01 Jun 2027 05:35:02.067   01 Jun 2027 05:37:50.922           168.855               CapeTown          5276.719
        14   01 Jun 2027 06:39:18.686   01 Jun 2027 06:42:33.212           194.526                Anadyr1          6078.937
        15   01 Jun 2027 06:42:43.140   01 Jun 2027 06:43:13.593            30.453                Anadyr1           951.656
        16   01 Jun 2027 06:43:22.453   01 Jun 2027 06:43:28.787             6.334               Magadan2           197.937
        17   01 Jun 2027 06:43:28.787   01 Jun 2027 06:43:46.511            17.724               Magadan1           553.875
        18   01 Jun 2027 06:49:59.933   01 Jun 2027 06:54:05.934           246.001                 Moscow          7687.531
        19   01 Jun 2027 07:12:10.208   01 Jun 2027 07:12:35.217            25.009               CapeTown           781.531
        20   01 Jun 2027 07:15:42.578   01 Jun 2027 07:17:06.035            83.457               CapeTown          2608.031
        21   01 Jun 2027 08:14:46.732   01 Jun 2027 08:17:48.910           182.178               Magadan1          5693.062
        22   01 Jun 2027 08:18:07.297   01 Jun 2027 08:20:19.849           132.552                Anadyr2          4142.250
        23   01 Jun 2027 09:47:52.967   01 Jun 2027 09:55:34.944           461.977                Anadyr2         14436.781
        24   01 Jun 2027 11:23:56.460   01 Jun 2027 11:25:59.786           123.326               Magadan2          3853.938
        25   01 Jun 2027 11:27:08.572   01 Jun 2027 11:30:30.509           201.937               Magadan2          6310.531
        26   01 Jun 2027 13:46:11.332   01 Jun 2027 13:51:04.510           293.178            RioGallegos          9161.813
        27   01 Jun 2027 14:21:45.467   01 Jun 2027 14:24:30.739           165.272                Sumatra          5164.750
        28   01 Jun 2027 14:37:39.588   01 Jun 2027 14:39:49.706           130.118                Irkutsk          4066.188
        29   01 Jun 2027 16:21:31.787   01 Jun 2027 16:22:37.086            65.299                Norilsk          2040.594
        30   01 Jun 2027 19:29:25.461   01 Jun 2027 19:30:18.908            53.447              Murmansk1          1670.219
        31   01 Jun 2027 19:32:04.433   01 Jun 2027 19:34:49.698           165.265              Murmansk2          5164.531
        32   01 Jun 2027 19:35:23.727   01 Jun 2027 19:38:01.010           157.283              Murmansk1          4915.094
        33   01 Jun 2027 20:38:32.902   01 Jun 2027 20:42:14.627           221.725               CapeTown          6928.906
        34   01 Jun 2027 22:53:56.972   01 Jun 2027 22:55:11.219            74.247                Norilsk          2320.219
        35   01 Jun 2027 22:55:14.715   01 Jun 2027 22:55:52.647            37.932               Magadan1          1185.375
        36   01 Jun 2027 22:59:29.742   01 Jun 2027 22:59:31.307             1.565                Irkutsk            48.906
        37   01 Jun 2027 23:00:25.567   01 Jun 2027 23:01:44.056            78.489                Irkutsk          2452.781
        38   01 Jun 2027 23:04:15.147   01 Jun 2027 23:04:49.129            33.982                Irkutsk          1061.937
        39   01 Jun 2027 23:15:57.755   01 Jun 2027 23:16:52.545            54.790                Sumatra          1712.187
        40   01 Jun 2027 23:18:37.220   01 Jun 2027 23:19:27.775            50.555                Sumatra          1579.844
        41   01 Jun 2027 23:45:51.181   01 Jun 2027 23:47:16.494            85.313            RioGallegos          2666.031
        42   01 Jun 2027 23:49:19.803   01 Jun 2027 23:49:26.977             7.174            RioGallegos           224.188
        43   01 Jun 2027 23:52:22.867   01 Jun 2027 23:52:56.516            33.649            RioGallegos          1051.531
        44   02 Jun 2027 00:27:11.447   02 Jun 2027 00:27:26.870            15.423                Anadyr1           481.969
        45   02 Jun 2027 00:27:35.666   02 Jun 2027 00:27:44.175             8.509                Anadyr2           265.906
        46   02 Jun 2027 00:27:44.175   02 Jun 2027 00:27:47.092             2.917                Anadyr1            91.156
        47   02 Jun 2027 00:28:37.340   02 Jun 2027 00:30:02.334            84.994                Anadyr1          2656.062
        48   02 Jun 2027 00:30:10.983   02 Jun 2027 00:33:05.646           174.663               Magadan2          5458.219
        49   02 Jun 2027 00:33:35.353   02 Jun 2027 00:35:14.736            99.383                Irkutsk          3105.719
        50   02 Jun 2027 00:36:23.198   02 Jun 2027 00:37:34.806            71.608                Novosib          2237.750
        51   02 Jun 2027 00:40:32.767   02 Jun 2027 00:41:03.442            30.675                Irkutsk           958.594
        52   02 Jun 2027 00:47:18.033   02 Jun 2027 00:49:52.295           154.262                Sumatra          4820.687
        53   02 Jun 2027 01:24:37.862   02 Jun 2027 01:25:27.732            49.870            RioGallegos          1558.438
        54   02 Jun 2027 01:31:09.598   02 Jun 2027 01:31:54.300            44.702            RioGallegos          1396.937
        55   02 Jun 2027 02:01:34.679   02 Jun 2027 02:01:36.034             1.355                Anadyr2            42.344
        56   02 Jun 2027 02:02:36.622   02 Jun 2027 02:03:19.821            43.199                Anadyr2          1349.969
        57   02 Jun 2027 02:05:35.162   02 Jun 2027 02:06:54.154            78.992                Norilsk          2468.500
        58   02 Jun 2027 02:07:04.706   02 Jun 2027 02:07:20.703            15.997                Norilsk           499.906
        59   02 Jun 2027 02:08:35.068   02 Jun 2027 02:09:40.729            65.661               Magadan2          2051.906
        60   02 Jun 2027 02:09:49.044   02 Jun 2027 02:10:55.492            66.448                Irkutsk          2076.500
        61   02 Jun 2027 02:14:10.953   02 Jun 2027 02:14:59.323            48.370                Novosib          1511.563
        62   02 Jun 2027 02:19:37.954   02 Jun 2027 02:20:10.936            32.982                Irkutsk          1030.688
        63   02 Jun 2027 02:24:49.724   02 Jun 2027 02:24:58.373             8.649                  Delhi           270.281
        64   02 Jun 2027 02:26:23.030   02 Jun 2027 02:27:11.882            48.852                  Delhi          1526.625
        65   02 Jun 2027 02:58:17.374   02 Jun 2027 02:59:30.803            73.429            RioGallegos          2294.656
        66   02 Jun 2027 02:59:54.091   02 Jun 2027 03:00:25.978            31.887            RioGallegos           996.469
        67   02 Jun 2027 03:00:58.992   02 Jun 2027 03:02:44.799           105.807            RioGallegos          3306.469
        68   02 Jun 2027 03:06:04.303   02 Jun 2027 03:06:51.640            47.337            RioGallegos          1479.281
        69   02 Jun 2027 03:48:47.641   02 Jun 2027 03:50:22.299            94.658                Irkutsk          2958.062
        70   02 Jun 2027 03:50:31.489   02 Jun 2027 03:51:18.780            47.291              Murmansk1          1477.844
        71   02 Jun 2027 03:51:26.791   02 Jun 2027 03:51:52.707            25.916                Irkutsk           809.875
        72   02 Jun 2027 03:51:58.620   02 Jun 2027 03:53:00.294            61.674              Murmansk1          1927.313
        73   02 Jun 2027 05:29:18.626   02 Jun 2027 05:29:53.227            34.601                Novosib          1081.281
        74   02 Jun 2027 05:30:02.436   02 Jun 2027 05:32:31.532           149.096                 Moscow          4659.250
        75   02 Jun 2027 05:33:34.727   02 Jun 2027 05:33:39.593             4.866                 Moscow           152.063
        76   02 Jun 2027 05:35:18.695   02 Jun 2027 05:35:46.671            27.976                 Moscow           874.250
        77   02 Jun 2027 06:46:23.542   02 Jun 2027 06:46:39.817            16.275               Magadan2           508.594
        78   02 Jun 2027 06:49:58.774   02 Jun 2027 06:50:19.701            20.927                Anadyr1           653.969
        79   02 Jun 2027 06:50:41.415   02 Jun 2027 06:53:08.361           146.946                Anadyr1          4592.063
        80   02 Jun 2027 06:53:08.361   02 Jun 2027 06:53:29.615            21.254                Anadyr2           664.187
        81   02 Jun 2027 06:53:44.194   02 Jun 2027 06:54:28.132            43.938               Magadan1          1373.062
        82   02 Jun 2027 06:55:16.678   02 Jun 2027 06:56:00.411            43.733               Magadan2          1366.656
        83   02 Jun 2027 07:07:31.782   02 Jun 2027 07:08:00.999            29.217                 Moscow           913.031
        84   02 Jun 2027 08:24:37.900   02 Jun 2027 08:25:52.658            74.758                Anadyr2          2336.188
        85   02 Jun 2027 08:28:12.481   02 Jun 2027 08:32:05.828           233.347               Magadan2          7292.094
        86   02 Jun 2027 10:00:15.071   02 Jun 2027 10:00:30.262            15.191               Magadan2           474.719
        87   02 Jun 2027 10:00:40.939   02 Jun 2027 10:01:13.451            32.512               Magadan2          1016.000
        88   02 Jun 2027 10:01:57.661   02 Jun 2027 10:02:09.598            11.937               Magadan1           373.031
        89   02 Jun 2027 10:02:09.598   02 Jun 2027 10:04:07.760           118.162               Magadan2          3692.562
        90   02 Jun 2027 10:04:09.695   02 Jun 2027 10:05:09.781            60.086                Anadyr1          1877.687
        91   02 Jun 2027 10:05:21.405   02 Jun 2027 10:05:38.896            17.491                Irkutsk           546.594
        92   02 Jun 2027 10:05:42.116   02 Jun 2027 10:06:51.575            69.459               Magadan1          2170.594
        93   02 Jun 2027 10:07:00.288   02 Jun 2027 10:07:14.397            14.109                Irkutsk           440.906
        94   02 Jun 2027 10:07:16.064   02 Jun 2027 10:07:33.236            17.172                Norilsk           536.625
        95   02 Jun 2027 10:07:57.285   02 Jun 2027 10:08:12.274            14.989                Norilsk           468.406
        96   02 Jun 2027 10:43:03.006   02 Jun 2027 10:43:26.056            23.050            RioGallegos           720.313
        97   02 Jun 2027 10:44:33.594   02 Jun 2027 10:45:05.518            31.924            RioGallegos           997.625
        98   02 Jun 2027 10:49:32.464   02 Jun 2027 10:50:02.435            29.971            RioGallegos           936.594
        99   02 Jun 2027 11:21:02.594   02 Jun 2027 11:22:11.880            69.286                Sumatra          2165.188
       100   02 Jun 2027 11:36:25.965   02 Jun 2027 11:38:42.378           136.413               Magadan2          4262.906
       101   02 Jun 2027 11:38:42.378   02 Jun 2027 11:38:57.924            15.546               Magadan1           485.812
       102   02 Jun 2027 11:39:15.070   02 Jun 2027 11:40:47.056            91.986               Magadan2          2874.563
       103   02 Jun 2027 11:40:47.056   02 Jun 2027 11:42:11.366            84.310               Magadan1          2634.687
       104   02 Jun 2027 11:42:27.656   02 Jun 2027 11:42:39.974            12.318                Irkutsk           384.937
       105   02 Jun 2027 11:42:46.020   02 Jun 2027 11:42:55.755             9.735                Novosib           304.219
       106   02 Jun 2027 11:42:58.021   02 Jun 2027 11:43:08.900            10.879                Norilsk           339.969
       107   02 Jun 2027 11:43:14.537   02 Jun 2027 11:43:47.567            33.030                Irkutsk          1032.188
       108   02 Jun 2027 12:18:43.681   02 Jun 2027 12:19:12.777            29.096            RioGallegos           909.250
       109   02 Jun 2027 12:20:14.430   02 Jun 2027 12:21:36.370            81.940            RioGallegos          2560.625
       110   02 Jun 2027 12:53:19.302   02 Jun 2027 12:55:22.802           123.500                Sumatra          3859.375
       111   02 Jun 2027 13:07:43.651   02 Jun 2027 13:08:41.907            58.256                Irkutsk          1820.500
       112   02 Jun 2027 13:09:37.144   02 Jun 2027 13:10:27.925            50.781                Novosib          1586.906
       113   02 Jun 2027 13:11:56.809   02 Jun 2027 13:12:43.471            46.662                Norilsk          1458.187
       114   02 Jun 2027 13:18:57.502   02 Jun 2027 13:19:38.705            41.203                Norilsk          1287.594
       115   02 Jun 2027 13:59:26.007   02 Jun 2027 14:02:12.811           166.804            RioGallegos          5212.625
       116   02 Jun 2027 14:45:38.015   02 Jun 2027 14:46:00.704            22.689                Novosib           709.031
       117   02 Jun 2027 14:46:18.560   02 Jun 2027 14:47:01.469            42.909                Novosib          1340.906
       118   02 Jun 2027 14:49:24.119   02 Jun 2027 14:50:40.669            76.550                Novosib          2392.188
       119   02 Jun 2027 14:50:55.087   02 Jun 2027 14:52:44.058           108.971                Norilsk          3405.344
       120   02 Jun 2027 14:55:39.997   02 Jun 2027 14:56:01.826            21.829                Novosib           682.156
       121   02 Jun 2027 16:21:54.654   02 Jun 2027 16:25:13.581           198.927                 Moscow          6216.469
       122   02 Jun 2027 16:25:22.750   02 Jun 2027 16:26:17.976            55.226              Murmansk2          1725.812
       123   02 Jun 2027 16:26:35.856   02 Jun 2027 16:26:42.964             7.108              Murmansk1           222.125
       124   02 Jun 2027 16:29:43.185   02 Jun 2027 16:35:35.860           352.675                Norilsk         11021.094
       125   02 Jun 2027 17:59:30.859   02 Jun 2027 18:00:17.993            47.134                 Moscow          1472.937
       126   02 Jun 2027 18:02:34.071   02 Jun 2027 18:03:12.931            38.860              Murmansk1          1214.375
       127   02 Jun 2027 18:04:03.725   02 Jun 2027 18:04:33.863            30.138                 Moscow           941.812
       128   02 Jun 2027 18:04:41.914   02 Jun 2027 18:06:18.278            96.364              Murmansk2          3011.375
       129   02 Jun 2027 18:16:20.894   02 Jun 2027 18:17:00.603            39.709                Anadyr1          1240.906
       130   02 Jun 2027 19:11:28.183   02 Jun 2027 19:13:15.379           107.196               CapeTown          3349.875
       131   02 Jun 2027 19:14:19.954   02 Jun 2027 19:15:29.574            69.620               CapeTown          2175.625
       132   02 Jun 2027 19:42:04.238   02 Jun 2027 19:46:48.010           283.772              Murmansk2          8867.875
       133   02 Jun 2027 19:47:02.298   02 Jun 2027 19:49:29.058           146.760              Murmansk1          4586.250
       134   02 Jun 2027 21:27:53.938   02 Jun 2027 21:30:58.242           184.304                Anadyr2          5759.500
       135   02 Jun 2027 21:30:59.040   02 Jun 2027 21:31:52.957            53.917               Magadan2          1684.906
       136   02 Jun 2027 21:31:56.361   02 Jun 2027 21:32:55.876            59.515               Magadan1          1859.844
       137   02 Jun 2027 21:33:26.779   02 Jun 2027 21:33:43.509            16.730               Magadan1           522.813
       138   02 Jun 2027 21:34:36.767   02 Jun 2027 21:35:08.928            32.161               Magadan1          1005.031
       139   02 Jun 2027 21:35:18.495   02 Jun 2027 21:35:41.897            23.402               Magadan1           731.312
       140   02 Jun 2027 21:38:43.044   02 Jun 2027 21:40:01.271            78.227               Magadan2          2444.594
       141   02 Jun 2027 22:24:41.326   02 Jun 2027 22:26:37.807           116.481            RioGallegos          3640.031
       142   02 Jun 2027 23:03:44.898   02 Jun 2027 23:05:03.843            78.945                Anadyr2          2467.031
       143   02 Jun 2027 23:05:09.936   02 Jun 2027 23:05:33.391            23.455                Anadyr1           732.969
       144   02 Jun 2027 23:05:52.663   02 Jun 2027 23:07:21.020            88.357                Norilsk          2761.156
       145   02 Jun 2027 23:07:41.107   02 Jun 2027 23:07:53.163            12.056               Magadan2           376.750
       146   02 Jun 2027 23:08:20.714   02 Jun 2027 23:08:37.328            16.614               Magadan1           519.187
       147   02 Jun 2027 23:09:23.168   02 Jun 2027 23:09:31.830             8.662               Magadan1           270.687
       148   02 Jun 2027 23:10:40.970   02 Jun 2027 23:10:52.212            11.242               Magadan1           351.313
       149   02 Jun 2027 23:11:00.095   02 Jun 2027 23:11:56.715            56.620                Irkutsk          1769.375
       150   02 Jun 2027 23:13:27.861   02 Jun 2027 23:14:03.877            36.016                Irkutsk          1125.500
       151   02 Jun 2027 23:16:12.028   02 Jun 2027 23:17:27.195            75.167                Irkutsk          2348.969
       152   02 Jun 2027 23:26:22.864   02 Jun 2027 23:28:12.672           109.808                Sumatra          3431.500
       153   03 Jun 2027 00:05:42.225   03 Jun 2027 00:05:53.897            11.672            RioGallegos           364.750
       154   03 Jun 2027 00:08:27.306   03 Jun 2027 00:08:56.710            29.404            RioGallegos           918.875
       155   03 Jun 2027 00:39:05.728   03 Jun 2027 00:39:49.788            44.060                Anadyr1          1376.875
       156   03 Jun 2027 00:40:31.940   03 Jun 2027 00:41:19.620            47.680                Anadyr1          1490.000
       157   03 Jun 2027 00:41:36.701   03 Jun 2027 00:43:23.859           107.158                Norilsk          3348.687
       158   03 Jun 2027 00:44:07.503   03 Jun 2027 00:44:34.482            26.979               Magadan2           843.094
       159   03 Jun 2027 00:45:33.867   03 Jun 2027 00:47:46.004           132.137                Irkutsk          4129.281
       160   03 Jun 2027 00:51:00.795   03 Jun 2027 00:52:04.086            63.291                Novosib          1977.844
       161   03 Jun 2027 00:57:25.093   03 Jun 2027 00:58:17.540            52.447                  Delhi          1638.969
       162   03 Jun 2027 01:03:40.920   03 Jun 2027 01:05:05.617            84.697                Sumatra          2646.781
       163   03 Jun 2027 01:36:29.975   03 Jun 2027 01:37:21.764            51.789            RioGallegos          1618.406
       164   03 Jun 2027 01:44:02.034   03 Jun 2027 01:44:55.582            53.548            RioGallegos          1673.375
       165   03 Jun 2027 02:15:20.553   03 Jun 2027 02:15:47.854            27.301                Anadyr1           853.156
       166   03 Jun 2027 02:17:37.516   03 Jun 2027 02:18:59.434            81.918                Norilsk          2559.937
       167   03 Jun 2027 02:20:22.511   03 Jun 2027 02:20:30.355             7.844               Magadan2           245.125
       168   03 Jun 2027 02:20:40.871   03 Jun 2027 02:21:53.210            72.339              Murmansk2          2260.594
       169   03 Jun 2027 02:22:06.631   03 Jun 2027 02:23:15.743            69.112                Irkutsk          2159.750
       170   03 Jun 2027 02:25:55.913   03 Jun 2027 02:25:58.656             2.743                Irkutsk            85.719
       171   03 Jun 2027 02:27:28.962   03 Jun 2027 02:28:33.989            65.027                Irkutsk          2032.094
       172   03 Jun 2027 02:35:41.793   03 Jun 2027 02:36:08.626            26.833                  Delhi           838.531
       173   03 Jun 2027 02:41:07.179   03 Jun 2027 02:41:33.393            26.214                  Delhi           819.187
       174   03 Jun 2027 03:10:32.753   03 Jun 2027 03:11:30.067            57.314            RioGallegos          1791.062
       175   03 Jun 2027 03:13:11.264   03 Jun 2027 03:15:14.455           123.191            RioGallegos          3849.719
       176   03 Jun 2027 04:02:00.468   03 Jun 2027 04:03:45.551           105.083                Irkutsk          3283.844
       177   03 Jun 2027 04:03:46.053   03 Jun 2027 04:06:00.617           134.564              Murmansk2          4205.125
       178   03 Jun 2027 04:06:00.617   03 Jun 2027 04:06:21.374            20.757              Murmansk1           648.656
       179   03 Jun 2027 04:06:22.809   03 Jun 2027 04:08:12.224           109.415                Novosib          3419.219
       180   03 Jun 2027 04:09:25.003   03 Jun 2027 04:11:19.542           114.539                  Delhi          3579.344
       181   03 Jun 2027 05:38:56.270   03 Jun 2027 05:39:42.261            45.991                Novosib          1437.219
       182   03 Jun 2027 05:40:48.502   03 Jun 2027 05:40:55.826             7.324                Norilsk           228.875
       183   03 Jun 2027 05:42:02.240   03 Jun 2027 05:43:47.150           104.910                 Moscow          3278.437
       184   03 Jun 2027 05:44:00.909   03 Jun 2027 05:44:23.803            22.894              Murmansk1           715.438
       185   03 Jun 2027 05:58:50.713   03 Jun 2027 05:59:42.184            51.471               CapeTown          1608.469
       186   03 Jun 2027 06:07:42.845   03 Jun 2027 06:08:23.488            40.643               CapeTown          1270.094
       187   03 Jun 2027 07:01:53.880   03 Jun 2027 07:02:36.922            43.042                Anadyr2          1345.062
       188   03 Jun 2027 07:02:36.922   03 Jun 2027 07:03:41.895            64.973                Anadyr1          2030.406
       189   03 Jun 2027 07:04:03.998   03 Jun 2027 07:04:08.189             4.191               Magadan2           130.969
       190   03 Jun 2027 07:04:14.946   03 Jun 2027 07:04:38.899            23.953                Anadyr2           748.531
       191   03 Jun 2027 07:04:38.899   03 Jun 2027 07:05:12.531            33.632                Anadyr1          1051.000
       192   03 Jun 2027 07:37:55.500   03 Jun 2027 07:39:31.810            96.310               CapeTown          3009.687
       193   03 Jun 2027 08:37:42.778   03 Jun 2027 08:37:50.695             7.917                Anadyr1           247.406
       194   03 Jun 2027 08:37:58.295   03 Jun 2027 08:37:59.170             0.875               Magadan1            27.344
       195   03 Jun 2027 08:38:00.350   03 Jun 2027 08:38:09.228             8.878                Anadyr2           277.438
       196   03 Jun 2027 08:38:20.253   03 Jun 2027 08:39:03.865            43.612               Magadan2          1362.875
       197   03 Jun 2027 08:39:46.102   03 Jun 2027 08:40:15.154            29.052               Magadan2           907.875
       198   03 Jun 2027 08:40:17.280   03 Jun 2027 08:40:48.148            30.868               Magadan1           964.625
       199   03 Jun 2027 08:41:59.095   03 Jun 2027 08:42:24.050            24.955                Anadyr2           779.844
       200   03 Jun 2027 08:43:24.762   03 Jun 2027 08:44:03.732            38.970                Anadyr2          1217.812
       201   03 Jun 2027 10:12:16.151   03 Jun 2027 10:12:59.269            43.118               Magadan2          1347.438
       202   03 Jun 2027 10:13:25.611   03 Jun 2027 10:13:27.914             2.303               Magadan1            71.969
       203   03 Jun 2027 10:13:34.765   03 Jun 2027 10:16:07.393           152.628               Magadan1          4769.625
       204   03 Jun 2027 10:17:16.481   03 Jun 2027 10:18:04.775            48.294               Magadan2          1509.187
       205   03 Jun 2027 10:18:09.326   03 Jun 2027 10:18:47.533            38.207               Magadan2          1193.969
       206   03 Jun 2027 10:19:10.602   03 Jun 2027 10:19:23.245            12.643                Norilsk           395.094
       207   03 Jun 2027 10:19:34.263   03 Jun 2027 10:20:43.449            69.186                Norilsk          2162.063
       208   03 Jun 2027 10:54:51.309   03 Jun 2027 10:55:28.577            37.268            RioGallegos          1164.625
       209   03 Jun 2027 11:31:51.486   03 Jun 2027 11:33:49.683           118.197                Sumatra          3693.656
       210   03 Jun 2027 11:49:51.291   03 Jun 2027 11:50:49.943            58.652               Magadan2          1832.875
       211   03 Jun 2027 11:50:56.664   03 Jun 2027 11:51:12.463            15.799                Irkutsk           493.719
       212   03 Jun 2027 11:51:18.806   03 Jun 2027 11:53:24.538           125.732               Magadan1          3929.125
       213   03 Jun 2027 11:53:43.463   03 Jun 2027 11:54:25.144            41.681                Irkutsk          1302.531
       214   03 Jun 2027 11:54:41.418   03 Jun 2027 11:54:59.687            18.269                Norilsk           570.906
       215   03 Jun 2027 11:55:01.054   03 Jun 2027 11:55:26.670            25.616                Norilsk           800.500
       216   03 Jun 2027 11:55:48.177   03 Jun 2027 11:56:57.179            69.002                Novosib          2156.312
       217   03 Jun 2027 12:35:05.506   03 Jun 2027 12:35:32.803            27.297            RioGallegos           853.031
       218   03 Jun 2027 12:40:17.516   03 Jun 2027 12:40:49.272            31.756            RioGallegos           992.375
       219   03 Jun 2027 12:42:58.124   03 Jun 2027 12:43:04.607             6.483            RioGallegos           202.594
       220   03 Jun 2027 13:05:26.195   03 Jun 2027 13:05:57.058            30.863                Sumatra           964.469
       221   03 Jun 2027 13:08:22.948   03 Jun 2027 13:09:53.587            90.639                Sumatra          2832.469
       222   03 Jun 2027 13:14:14.513   03 Jun 2027 13:15:10.246            55.733                Sumatra          1741.656
       223   03 Jun 2027 13:20:08.353   03 Jun 2027 13:21:47.565            99.212                Irkutsk          3100.375
       224   03 Jun 2027 13:27:43.380   03 Jun 2027 13:30:05.877           142.497                Irkutsk          4453.031
       225   03 Jun 2027 14:14:07.923   03 Jun 2027 14:14:30.980            23.057            RioGallegos           720.531
       226   03 Jun 2027 14:50:00.022   03 Jun 2027 14:50:31.545            31.523                  Delhi           985.094
       227   03 Jun 2027 14:54:32.506   03 Jun 2027 14:54:56.906            24.400                  Delhi           762.500
       228   03 Jun 2027 14:57:40.854   03 Jun 2027 14:59:52.710           131.856                  Delhi          4120.500
       229   03 Jun 2027 15:01:23.566   03 Jun 2027 15:03:08.225           104.659                Novosib          3270.594
       230   03 Jun 2027 15:04:41.768   03 Jun 2027 15:05:42.995            61.227                Norilsk          1913.344
       231   03 Jun 2027 15:12:16.825   03 Jun 2027 15:12:40.172            23.347                Norilsk           729.594
       232   03 Jun 2027 16:33:57.303   03 Jun 2027 16:37:02.282           184.979                 Moscow          5780.594
       233   03 Jun 2027 16:37:27.742   03 Jun 2027 16:38:16.004            48.262              Murmansk2          1508.187
       234   03 Jun 2027 16:42:31.555   03 Jun 2027 16:46:59.954           268.399                Norilsk          8387.469
       235   03 Jun 2027 17:57:41.311   03 Jun 2027 17:58:04.092            22.781               CapeTown           711.906
       236   03 Jun 2027 18:12:03.912   03 Jun 2027 18:13:35.454            91.542                 Moscow          2860.687
       237   03 Jun 2027 18:14:52.974   03 Jun 2027 18:16:58.545           125.571                 Moscow          3924.094
       238   03 Jun 2027 18:18:31.586   03 Jun 2027 18:19:29.201            57.615              Murmansk2          1800.469
       239   03 Jun 2027 18:22:00.943   03 Jun 2027 18:22:01.785             0.842                 Moscow            26.313
       240   03 Jun 2027 18:36:41.620   03 Jun 2027 18:36:46.286             4.666                Anadyr1           145.813
       241   03 Jun 2027 18:37:46.312   03 Jun 2027 18:38:01.221            14.909                Anadyr1           465.906
       242   03 Jun 2027 18:38:29.919   03 Jun 2027 18:38:44.480            14.561                Anadyr1           455.031
       243   03 Jun 2027 19:23:37.831   03 Jun 2027 19:25:12.906            95.075               CapeTown          2971.094
       244   03 Jun 2027 19:29:09.477   03 Jun 2027 19:29:10.517             1.040               CapeTown            32.500
       245   03 Jun 2027 19:30:32.341   03 Jun 2027 19:31:01.212            28.871               CapeTown           902.219
       246   03 Jun 2027 19:32:55.542   03 Jun 2027 19:33:22.122            26.580               CapeTown           830.625
       247   03 Jun 2027 19:54:46.973   03 Jun 2027 19:57:10.908           143.935              Murmansk2          4497.969
       248   03 Jun 2027 19:57:29.975   03 Jun 2027 20:01:30.123           240.148              Murmansk1          7504.625
       249   03 Jun 2027 21:39:55.675   03 Jun 2027 21:43:06.993           191.318                Anadyr2          5978.688
       250   03 Jun 2027 21:43:11.968   03 Jun 2027 21:43:22.087            10.119                Anadyr2           316.219
       251   03 Jun 2027 21:43:29.079   03 Jun 2027 21:45:44.185           135.106               Magadan1          4222.062
       252   03 Jun 2027 21:45:54.209   03 Jun 2027 21:46:50.531            56.322               Magadan2          1760.063
       253   03 Jun 2027 21:47:05.295   03 Jun 2027 21:47:18.213            12.918               Magadan2           403.688
       254   03 Jun 2027 21:50:12.395   03 Jun 2027 21:51:30.195            77.800               Magadan2          2431.250
       255   03 Jun 2027 22:35:45.886   03 Jun 2027 22:37:47.628           121.742            RioGallegos          3804.438
       256   03 Jun 2027 22:40:22.058   03 Jun 2027 22:40:49.247            27.189            RioGallegos           849.656
       257   03 Jun 2027 22:41:01.337   03 Jun 2027 22:41:43.015            41.678            RioGallegos          1302.438
       258   03 Jun 2027 23:15:44.512   03 Jun 2027 23:17:30.304           105.792                Anadyr1          3306.000
       259   03 Jun 2027 23:17:50.113   03 Jun 2027 23:18:34.898            44.785                Norilsk          1399.531
       260   03 Jun 2027 23:18:52.084   03 Jun 2027 23:19:22.827            30.743                Norilsk           960.719
       261   03 Jun 2027 23:19:50.770   03 Jun 2027 23:20:23.154            32.384               Magadan1          1012.000
       262   03 Jun 2027 23:21:12.573   03 Jun 2027 23:22:18.593            66.020               Magadan1          2063.125
       263   03 Jun 2027 23:23:02.972   03 Jun 2027 23:23:24.891            21.919                Irkutsk           684.969
       264   03 Jun 2027 23:25:52.243   03 Jun 2027 23:25:54.343             2.100                Irkutsk            65.625
       265   03 Jun 2027 23:26:18.982   03 Jun 2027 23:27:04.455            45.473                Irkutsk          1421.031
       266   03 Jun 2027 23:37:25.699   03 Jun 2027 23:38:05.699            40.000                Sumatra          1250.000
       267   03 Jun 2027 23:38:44.711   03 Jun 2027 23:39:22.154            37.443                Sumatra          1170.094
       268   03 Jun 2027 23:41:12.231   03 Jun 2027 23:41:38.809            26.578                Sumatra           830.562
       269   04 Jun 2027 00:09:50.214   04 Jun 2027 00:10:53.095            62.881            RioGallegos          1965.031
       270   04 Jun 2027 00:19:13.639   04 Jun 2027 00:20:26.481            72.842            RioGallegos          2276.313
       271   04 Jun 2027 00:50:58.874   04 Jun 2027 00:51:26.938            28.064                Anadyr2           877.000
       272   04 Jun 2027 00:52:28.231   04 Jun 2027 00:52:50.877            22.646                Anadyr1           707.687
       273   04 Jun 2027 00:53:31.603   04 Jun 2027 00:53:41.542             9.939                Anadyr1           310.594
       274   04 Jun 2027 00:53:51.906   04 Jun 2027 00:54:28.927            37.021                Norilsk          1156.906
       275   04 Jun 2027 00:54:31.638   04 Jun 2027 00:55:35.206            63.568               Magadan1          1986.500
       276   04 Jun 2027 00:55:35.206   04 Jun 2027 00:56:02.602            27.396               Magadan2           856.125
       277   04 Jun 2027 00:57:33.501   04 Jun 2027 00:59:23.441           109.940                Irkutsk          3435.625
       278   04 Jun 2027 01:02:21.719   04 Jun 2027 01:02:53.955            32.236                Novosib          1007.375
       279   04 Jun 2027 01:05:02.630   04 Jun 2027 01:05:09.922             7.292                Irkutsk           227.875
       280   04 Jun 2027 01:06:07.483   04 Jun 2027 01:06:17.172             9.689                Novosib           302.781
       281   04 Jun 2027 01:06:55.414   04 Jun 2027 01:07:15.015            19.601                Novosib           612.531
       282   04 Jun 2027 01:07:41.738   04 Jun 2027 01:08:47.935            66.197                  Delhi          2068.656
       283   04 Jun 2027 01:19:18.015   04 Jun 2027 01:20:14.870            56.855                Sumatra          1776.719
       284   04 Jun 2027 01:21:18.589   04 Jun 2027 01:21:57.148            38.559                Sumatra          1204.969
       285   04 Jun 2027 01:54:07.009   04 Jun 2027 01:54:22.732            15.723            RioGallegos           491.344
       286   04 Jun 2027 01:56:29.186   04 Jun 2027 01:56:57.764            28.578            RioGallegos           893.062
       287   04 Jun 2027 02:25:02.410   04 Jun 2027 02:25:10.920             8.510                Anadyr2           265.938
       288   04 Jun 2027 02:26:24.070   04 Jun 2027 02:26:54.390            30.320                Anadyr1           947.500
       289   04 Jun 2027 02:27:04.775   04 Jun 2027 02:27:22.276            17.501                Anadyr2           546.906
       290   04 Jun 2027 02:29:07.849   04 Jun 2027 02:30:13.064            65.215                Anadyr2          2037.969
       291   04 Jun 2027 02:30:19.616   04 Jun 2027 02:30:33.601            13.985                Norilsk           437.031
       292   04 Jun 2027 02:30:37.849   04 Jun 2027 02:30:48.135            10.286                Norilsk           321.438
       293   04 Jun 2027 02:32:26.842   04 Jun 2027 02:33:28.653            61.811              Murmansk2          1931.594
       294   04 Jun 2027 02:33:43.834   04 Jun 2027 02:35:06.134            82.300                Irkutsk          2571.875
       295   04 Jun 2027 02:40:47.135   04 Jun 2027 02:43:13.731           146.596                  Delhi          4581.125
       296   04 Jun 2027 03:23:28.630   04 Jun 2027 03:23:47.786            19.156            RioGallegos           598.625
       297   04 Jun 2027 03:24:12.042   04 Jun 2027 03:24:47.809            35.767            RioGallegos          1117.719
       298   04 Jun 2027 03:26:06.372   04 Jun 2027 03:28:08.987           122.615            RioGallegos          3831.719
       299   04 Jun 2027 04:14:12.216   04 Jun 2027 04:15:43.890            91.674                Irkutsk          2864.812
       300   04 Jun 2027 04:15:52.151   04 Jun 2027 04:16:14.730            22.579              Murmansk2           705.594
       301   04 Jun 2027 04:16:30.331   04 Jun 2027 04:17:02.344            32.013                 Moscow          1000.406
       302   04 Jun 2027 04:17:08.133   04 Jun 2027 04:17:12.386             4.253                 Moscow           132.906
       303   04 Jun 2027 04:17:16.329   04 Jun 2027 04:18:29.605            73.276                 Moscow          2289.875
       304   04 Jun 2027 04:18:37.937   04 Jun 2027 04:18:46.608             8.671              Murmansk1           270.969
       305   04 Jun 2027 04:18:57.101   04 Jun 2027 04:25:27.394           390.293                  Delhi         12196.656
       306   04 Jun 2027 05:50:22.657   04 Jun 2027 05:51:00.470            37.813                Novosib          1181.656
       307   04 Jun 2027 05:53:29.953   04 Jun 2027 05:53:59.202            29.249                 Moscow           914.031
       308   04 Jun 2027 05:54:16.228   04 Jun 2027 05:54:25.772             9.544              Murmansk2           298.250
       309   04 Jun 2027 05:54:38.143   04 Jun 2027 05:57:23.279           165.136                 Moscow          5160.500
       310   04 Jun 2027 06:10:52.611   04 Jun 2027 06:11:11.876            19.265               CapeTown           602.031
       311   04 Jun 2027 06:11:29.946   04 Jun 2027 06:13:15.557           105.611               CapeTown          3300.344
       312   04 Jun 2027 07:13:47.105   04 Jun 2027 07:15:08.298            81.193                Anadyr2          2537.281
       313   04 Jun 2027 07:15:18.416   04 Jun 2027 07:15:57.088            38.672                Anadyr2          1208.500
       314   04 Jun 2027 07:15:57.088   04 Jun 2027 07:16:40.796            43.708                Anadyr1          1365.875
       315   04 Jun 2027 07:51:31.971   04 Jun 2027 07:54:18.789           166.818               CapeTown          5213.063
       316   04 Jun 2027 08:50:14.682   04 Jun 2027 08:50:53.114            38.432                Anadyr2          1201.000
       317   04 Jun 2027 08:51:16.699   04 Jun 2027 08:51:42.359            25.660               Magadan1           801.875
       318   04 Jun 2027 08:51:44.658   04 Jun 2027 08:52:17.615            32.957               Magadan2          1029.906
       319   04 Jun 2027 08:52:32.871   04 Jun 2027 08:53:52.334            79.463                Anadyr2          2483.219
       320   04 Jun 2027 10:22:15.096   04 Jun 2027 10:22:38.739            23.643               Magadan1           738.844
       321   04 Jun 2027 10:24:16.750   04 Jun 2027 10:25:32.943            76.193               Magadan1          2381.031
       322   04 Jun 2027 10:25:45.539   04 Jun 2027 10:25:46.829             1.290               Magadan2            40.312
       323   04 Jun 2027 10:26:42.771   04 Jun 2027 10:28:06.296            83.525               Magadan1          2610.156
       324   04 Jun 2027 10:29:03.543   04 Jun 2027 10:30:31.295            87.752               Magadan2          2742.250
       325   04 Jun 2027 10:30:44.643   04 Jun 2027 10:31:03.472            18.829                Norilsk           588.406
       326   04 Jun 2027 10:34:04.893   04 Jun 2027 10:34:20.230            15.337                Norilsk           479.281
       327   04 Jun 2027 11:06:42.848   04 Jun 2027 11:07:47.077            64.229            RioGallegos          2007.156
       328   04 Jun 2027 11:43:04.092   04 Jun 2027 11:43:10.827             6.735                Sumatra           210.469
       329   04 Jun 2027 11:44:48.381   04 Jun 2027 11:45:42.911            54.530                Sumatra          1704.062
       330   04 Jun 2027 12:03:58.890   04 Jun 2027 12:04:31.362            32.472                Irkutsk          1014.750
       331   04 Jun 2027 12:06:04.905   04 Jun 2027 12:06:47.038            42.133                Irkutsk          1316.656
       332   04 Jun 2027 12:47:33.977   04 Jun 2027 12:48:12.795            38.818            RioGallegos          1213.063
       333   04 Jun 2027 12:51:22.832   04 Jun 2027 12:51:57.687            34.855            RioGallegos          1089.219
       334   04 Jun 2027 12:53:13.154   04 Jun 2027 12:53:43.951            30.797            RioGallegos           962.406
       335   04 Jun 2027 13:19:20.694   04 Jun 2027 13:20:12.388            51.694                Sumatra          1615.437
       336   04 Jun 2027 13:24:41.751   04 Jun 2027 13:26:13.815            92.064                Sumatra          2877.000
       337   04 Jun 2027 13:27:28.788   04 Jun 2027 13:28:49.777            80.989                Sumatra          2530.906
       338   04 Jun 2027 13:39:20.029   04 Jun 2027 13:39:38.901            18.872                Irkutsk           589.750
       339   04 Jun 2027 13:42:46.258   04 Jun 2027 13:43:05.665            19.407                Irkutsk           606.469
       340   04 Jun 2027 13:43:24.739   04 Jun 2027 13:43:59.003            34.264                Novosib          1070.750
       341   04 Jun 2027 15:02:24.119   04 Jun 2027 15:04:11.849           107.730                  Delhi          3366.562
       342   04 Jun 2027 15:06:35.825   04 Jun 2027 15:07:34.973            59.148                  Delhi          1848.375
       343   04 Jun 2027 15:10:19.524   04 Jun 2027 15:12:23.523           123.999                  Delhi          3874.969
       344   04 Jun 2027 15:14:12.510   04 Jun 2027 15:15:33.863            81.353                Novosib          2542.281
       345   04 Jun 2027 15:22:36.928   04 Jun 2027 15:24:26.349           109.421                Norilsk          3419.406
       346   04 Jun 2027 16:46:02.980   04 Jun 2027 16:49:15.945           192.965                 Moscow          6030.156
       347   04 Jun 2027 16:55:26.524   04 Jun 2027 16:56:37.242            70.718                Norilsk          2209.937
       348   04 Jun 2027 16:56:46.874   04 Jun 2027 16:59:45.002           178.128                Norilsk          5566.500
       349   04 Jun 2027 18:11:03.143   04 Jun 2027 18:11:31.442            28.299               CapeTown           884.344
       350   04 Jun 2027 18:24:43.224   04 Jun 2027 18:29:27.989           284.765                 Moscow          8898.906
       351   04 Jun 2027 18:44:07.868   04 Jun 2027 18:44:27.700            19.832                Anadyr2           619.750
       352   04 Jun 2027 19:35:50.892   04 Jun 2027 19:37:13.338            82.446               CapeTown          2576.437
       353   04 Jun 2027 19:37:47.923   04 Jun 2027 19:40:20.906           152.983               CapeTown          4780.719
       354   04 Jun 2027 20:07:34.565   04 Jun 2027 20:13:44.857           370.292              Murmansk1         11571.625
       355   04 Jun 2027 21:51:57.304   04 Jun 2027 21:54:52.022           174.718                Anadyr2          5459.938
       356   04 Jun 2027 21:55:19.065   04 Jun 2027 21:55:57.600            38.535               Magadan1          1204.219
       357   04 Jun 2027 21:56:01.514   04 Jun 2027 21:57:23.926            82.412               Magadan2          2575.375
       358   04 Jun 2027 21:57:47.093   04 Jun 2027 21:58:07.006            19.913               Magadan1           622.281
       359   04 Jun 2027 21:58:17.698   04 Jun 2027 21:58:27.936            10.238               Magadan2           319.938
       360   04 Jun 2027 21:58:59.364   04 Jun 2027 21:59:25.049            25.685               Magadan2           802.656
       361   04 Jun 2027 21:59:25.049   04 Jun 2027 22:00:02.230            37.181               Magadan1          1161.906
       362   04 Jun 2027 22:47:13.475   04 Jun 2027 22:49:08.990           115.515            RioGallegos          3609.844
       363   04 Jun 2027 22:50:12.566   04 Jun 2027 22:50:14.431             1.865            RioGallegos            58.281
       364   04 Jun 2027 22:52:18.355   04 Jun 2027 22:52:22.766             4.411            RioGallegos           137.844
       365   04 Jun 2027 22:53:06.111   04 Jun 2027 22:53:35.905            29.794            RioGallegos           931.063
       366   04 Jun 2027 23:27:43.606   04 Jun 2027 23:28:52.458            68.852                Anadyr1          2151.625
       367   04 Jun 2027 23:28:54.766   04 Jun 2027 23:29:16.114            21.348                Anadyr2           667.125
       368   04 Jun 2027 23:29:40.507   04 Jun 2027 23:30:58.197            77.690                Anadyr1          2427.812
       369   04 Jun 2027 23:31:17.133   04 Jun 2027 23:31:57.811            40.678               Magadan1          1271.187
       370   04 Jun 2027 23:32:21.892   04 Jun 2027 23:32:40.638            18.746               Magadan1           585.813
       371   04 Jun 2027 23:32:57.650   04 Jun 2027 23:33:48.215            50.565               Magadan1          1580.156
       372   04 Jun 2027 23:34:24.663   04 Jun 2027 23:35:23.622            58.959                Irkutsk          1842.469
       373   04 Jun 2027 23:36:29.724   04 Jun 2027 23:36:46.013            16.289                Irkutsk           509.031
       374   04 Jun 2027 23:40:39.491   04 Jun 2027 23:41:19.320            39.829                Irkutsk          1244.656
       375   04 Jun 2027 23:48:45.812   04 Jun 2027 23:50:04.787            78.975                Sumatra          2467.969
       376   04 Jun 2027 23:52:13.844   04 Jun 2027 23:53:31.696            77.852                Sumatra          2432.875
       377   05 Jun 2027 00:28:44.770   05 Jun 2027 00:29:13.707            28.937            RioGallegos           904.281
       378   05 Jun 2027 01:02:50.798   05 Jun 2027 01:04:07.421            76.623                Anadyr2          2394.469
       379   05 Jun 2027 01:04:26.289   05 Jun 2027 01:04:50.780            24.491                Anadyr2           765.344
       380   05 Jun 2027 01:05:15.495   05 Jun 2027 01:05:25.912            10.417                Anadyr2           325.531
       381   05 Jun 2027 01:05:40.931   05 Jun 2027 01:07:28.261           107.330                Norilsk          3354.063
       382   05 Jun 2027 01:09:34.132   05 Jun 2027 01:11:34.890           120.758                Irkutsk          3773.688
       383   05 Jun 2027 01:12:22.205   05 Jun 2027 01:13:02.446            40.241                Novosib          1257.531
       384   05 Jun 2027 01:16:35.391   05 Jun 2027 01:18:22.196           106.805                Irkutsk          3337.656
       385   05 Jun 2027 01:23:48.342   05 Jun 2027 01:24:43.435            55.093                Sumatra          1721.656
       386   05 Jun 2027 01:32:11.323   05 Jun 2027 01:34:48.407           157.084                Sumatra          4908.875
       387   05 Jun 2027 02:41:42.000   05 Jun 2027 02:42:44.267            62.267                Norilsk          1945.844
       388   05 Jun 2027 02:42:59.710   05 Jun 2027 02:43:24.265            24.555                Norilsk           767.344
       389   05 Jun 2027 02:44:18.088   05 Jun 2027 02:44:34.881            16.793              Murmansk1           524.781
       390   05 Jun 2027 02:44:34.881   05 Jun 2027 02:45:38.574            63.693              Murmansk2          1990.406
       391   05 Jun 2027 02:45:51.064   05 Jun 2027 02:46:32.360            41.296                Irkutsk          1290.500
       392   05 Jun 2027 02:46:35.448   05 Jun 2027 02:46:48.331            12.883                Irkutsk           402.594
       393   05 Jun 2027 02:47:10.272   05 Jun 2027 02:47:22.575            12.303                Irkutsk           384.469
       394   05 Jun 2027 02:50:53.705   05 Jun 2027 02:51:43.324            49.619                Irkutsk          1550.594
       395   05 Jun 2027 02:56:13.758   05 Jun 2027 02:56:53.100            39.342                  Delhi          1229.437
       396   05 Jun 2027 03:35:17.760   05 Jun 2027 03:37:42.992           145.232            RioGallegos          4538.500
       397   05 Jun 2027 03:38:46.285   05 Jun 2027 03:40:25.976            99.691            RioGallegos          3115.344
       398   05 Jun 2027 04:24:02.701   05 Jun 2027 04:24:39.876            37.175                Irkutsk          1161.719
       399   05 Jun 2027 04:26:19.067   05 Jun 2027 04:27:07.478            48.411              Murmansk2          1512.844
       400   05 Jun 2027 04:27:24.308   05 Jun 2027 04:28:41.383            77.075              Murmansk2          2408.594
       401   05 Jun 2027 04:28:41.383   05 Jun 2027 04:29:05.745            24.362              Murmansk1           761.313
       402   05 Jun 2027 04:29:05.887   05 Jun 2027 04:30:51.838           105.951                Novosib          3310.969
       403   05 Jun 2027 04:35:09.188   05 Jun 2027 04:35:42.915            33.727                  Delhi          1053.969
       404   05 Jun 2027 06:01:45.721   05 Jun 2027 06:02:09.630            23.909                Novosib           747.156
       405   05 Jun 2027 06:06:12.321   05 Jun 2027 06:06:43.572            31.251              Murmansk1           976.594
       406   05 Jun 2027 06:07:30.852   05 Jun 2027 06:08:02.381            31.529                 Moscow           985.281
       407   05 Jun 2027 06:22:59.707   05 Jun 2027 06:25:00.894           121.187               CapeTown          3787.094
       408   05 Jun 2027 07:25:40.104   05 Jun 2027 07:25:57.558            17.454               Magadan1           545.438
       409   05 Jun 2027 07:26:24.669   05 Jun 2027 07:26:31.419             6.750               Magadan1           210.937
       410   05 Jun 2027 07:26:31.419   05 Jun 2027 07:27:00.074            28.655               Magadan2           895.469
       411   05 Jun 2027 07:27:13.168   05 Jun 2027 07:28:04.182            51.014               Magadan1          1594.187
       412   05 Jun 2027 07:30:28.653   05 Jun 2027 07:31:02.066            33.413                Anadyr2          1044.156
       413   05 Jun 2027 09:00:41.436   05 Jun 2027 09:02:19.212            97.776                Anadyr1          3055.500
       414   05 Jun 2027 09:02:33.809   05 Jun 2027 09:02:54.159            20.350               Magadan1           635.937
       415   05 Jun 2027 09:03:32.588   05 Jun 2027 09:03:37.190             4.602               Magadan2           143.812
       416   05 Jun 2027 09:03:44.303   05 Jun 2027 09:04:19.823            35.520               Magadan2          1110.000
       417   05 Jun 2027 09:04:32.598   05 Jun 2027 09:05:42.852            70.254                Anadyr1          2195.437
       418   05 Jun 2027 10:36:16.786   05 Jun 2027 10:37:38.347            81.561               Magadan2          2548.781
       419   05 Jun 2027 10:38:06.552   05 Jun 2027 10:38:12.089             5.537               Magadan2           173.031
       420   05 Jun 2027 10:40:04.323   05 Jun 2027 10:40:45.432            41.109               Magadan1          1284.656
       421   05 Jun 2027 10:40:56.553   05 Jun 2027 10:41:02.131             5.578                Norilsk           174.312
       422   05 Jun 2027 10:41:29.143   05 Jun 2027 10:42:39.225            70.082               Magadan1          2190.063
       423   05 Jun 2027 10:42:46.258   05 Jun 2027 10:43:03.361            17.103                Norilsk           534.469
       424   05 Jun 2027 10:43:10.389   05 Jun 2027 10:43:35.214            24.825                Norilsk           775.781
       425   05 Jun 2027 10:43:41.753   05 Jun 2027 10:43:42.472             0.719                Norilsk            22.469
       426   05 Jun 2027 10:43:42.572   05 Jun 2027 10:44:46.380            63.808                Norilsk          1994.000
       427   05 Jun 2027 11:18:37.613   05 Jun 2027 11:19:46.706            69.093            RioGallegos          2159.156
       428   05 Jun 2027 12:07:00.331   05 Jun 2027 12:08:06.085            65.754                Irkutsk          2054.812
       429   05 Jun 2027 12:09:20.591   05 Jun 2027 12:09:48.058            27.467                Novosib           858.344
       430   05 Jun 2027 12:13:14.463   05 Jun 2027 12:13:58.933            44.470                Norilsk          1389.687
       431   05 Jun 2027 12:55:44.514   05 Jun 2027 12:56:22.417            37.903            RioGallegos          1184.469
       432   05 Jun 2027 12:57:23.102   05 Jun 2027 12:59:34.117           131.015            RioGallegos          4094.219
       433   05 Jun 2027 13:29:59.368   05 Jun 2027 13:31:14.821            75.453                Sumatra          2357.906
       434   05 Jun 2027 13:34:34.518   05 Jun 2027 13:35:14.251            39.733                Sumatra          1241.656
       435   05 Jun 2027 13:45:14.590   05 Jun 2027 13:47:54.306           159.716                Irkutsk          4991.125
       436   05 Jun 2027 13:59:23.719   05 Jun 2027 14:00:08.178            44.459                Norilsk          1389.344
       437   05 Jun 2027 15:14:56.929   05 Jun 2027 15:19:54.161           297.232                  Delhi          9288.500
       438   05 Jun 2027 15:25:19.403   05 Jun 2027 15:28:04.416           165.013                Novosib          5156.656
       439   05 Jun 2027 15:32:04.429   05 Jun 2027 15:32:14.260             9.831                Novosib           307.219
       440   05 Jun 2027 16:58:11.804   05 Jun 2027 16:58:48.178            36.374                 Moscow          1136.687
       441   05 Jun 2027 16:59:51.561   05 Jun 2027 17:01:16.044            84.483                 Moscow          2640.094
       442   05 Jun 2027 17:04:49.225   05 Jun 2027 17:05:30.909            41.684              Murmansk2          1302.625
       443   05 Jun 2027 17:08:33.382   05 Jun 2027 17:09:32.084            58.702                Norilsk          1834.438
       444   05 Jun 2027 17:11:23.022   05 Jun 2027 17:11:40.747            17.725                Norilsk           553.906
       445   05 Jun 2027 17:17:32.956   05 Jun 2027 17:17:44.451            11.495                Anadyr1           359.219
       446   05 Jun 2027 17:18:45.875   05 Jun 2027 17:19:21.124            35.249                Anadyr1          1101.531
       447   05 Jun 2027 17:22:36.367   05 Jun 2027 17:22:47.048            10.681                Anadyr1           333.781
       448   05 Jun 2027 18:11:40.485   05 Jun 2027 18:12:36.967            56.482               CapeTown          1765.062
       449   05 Jun 2027 18:17:51.354   05 Jun 2027 18:18:32.052            40.698               CapeTown          1271.812
       450   05 Jun 2027 18:22:52.225   05 Jun 2027 18:23:16.433            24.208               CapeTown           756.500
       451   05 Jun 2027 18:37:30.493   05 Jun 2027 18:38:46.887            76.394                 Moscow          2387.312
       452   05 Jun 2027 18:39:40.974   05 Jun 2027 18:40:19.209            38.235              Murmansk2          1194.844
       453   05 Jun 2027 18:41:11.124   05 Jun 2027 18:42:02.974            51.850                 Moscow          1620.312
       454   05 Jun 2027 18:42:09.316   05 Jun 2027 18:42:35.905            26.589              Murmansk1           830.906
       455   05 Jun 2027 18:44:30.867   05 Jun 2027 18:44:48.137            17.270              Murmansk1           539.687
       456   05 Jun 2027 18:46:31.401   05 Jun 2027 18:48:09.228            97.827              Murmansk1          3057.094
       457   05 Jun 2027 19:48:08.046   05 Jun 2027 19:49:16.579            68.533               CapeTown          2141.656
       458   05 Jun 2027 19:51:36.912   05 Jun 2027 19:52:58.982            82.070               CapeTown          2564.687
       459   05 Jun 2027 20:20:28.785   05 Jun 2027 20:25:32.486           303.701              Murmansk2          9490.656
       460   05 Jun 2027 20:37:20.942   05 Jun 2027 20:37:51.700            30.758               Magadan2           961.187
       461   05 Jun 2027 22:03:58.776   05 Jun 2027 22:07:45.318           226.542                Anadyr1          7079.438
       462   05 Jun 2027 22:07:47.829   05 Jun 2027 22:11:19.997           212.168               Magadan1          6630.250
       463   05 Jun 2027 22:13:10.331   05 Jun 2027 22:13:21.454            11.123               Magadan1           347.594
       464   05 Jun 2027 22:16:56.142   05 Jun 2027 22:16:59.441             3.299               Magadan2           103.094
       465   05 Jun 2027 22:17:07.825   05 Jun 2027 22:17:39.924            32.099               Magadan2          1003.094
       466   05 Jun 2027 22:58:51.302   05 Jun 2027 23:01:09.691           138.389            RioGallegos          4324.656
       467   05 Jun 2027 23:04:02.282   05 Jun 2027 23:04:11.455             9.173            RioGallegos           286.656
       468   05 Jun 2027 23:04:51.401   05 Jun 2027 23:05:11.781            20.380            RioGallegos           636.875
       469   05 Jun 2027 23:39:42.108   05 Jun 2027 23:41:00.775            78.667                Anadyr2          2458.344
       470   05 Jun 2027 23:41:28.949   05 Jun 2027 23:42:59.149            90.200                Anadyr1          2818.750
       471   05 Jun 2027 23:43:10.894   05 Jun 2027 23:43:26.074            15.180                Norilsk           474.375
       472   05 Jun 2027 23:44:16.717   05 Jun 2027 23:45:39.247            82.530               Magadan1          2579.063
       473   05 Jun 2027 23:46:13.608   05 Jun 2027 23:47:23.425            69.817                Irkutsk          2181.781
       474   05 Jun 2027 23:54:23.658   05 Jun 2027 23:54:47.266            23.608                Irkutsk           737.750
       475   05 Jun 2027 23:56:18.237   05 Jun 2027 23:56:58.298            40.061                Irkutsk          1251.906
       476   06 Jun 2027 00:00:17.171   06 Jun 2027 00:01:25.757            68.586                Sumatra          2143.313
       477   06 Jun 2027 00:06:20.800   06 Jun 2027 00:06:32.276            11.476                Sumatra           358.625
       478   06 Jun 2027 00:11:14.766   06 Jun 2027 00:11:46.618            31.852                Sumatra           995.375
       479   06 Jun 2027 00:35:32.719   06 Jun 2027 00:35:48.449            15.730            RioGallegos           491.562
       480   06 Jun 2027 00:38:03.159   06 Jun 2027 00:39:00.923            57.764            RioGallegos          1805.125
       481   06 Jun 2027 01:14:41.440   06 Jun 2027 01:15:29.236            47.796                Anadyr2          1493.625
       482   06 Jun 2027 01:15:29.236   06 Jun 2027 01:15:41.154            11.918                Anadyr1           372.438
