uniorb/output/strategy_4/Drop/Drop_KinoSat_111402.txt

KinoSat_111402
-------------------------
    Access    *     Start Time (UTCG)     *     Stop Time (UTCG)  *   Duration (s)        *       Station  *  Data (Mbytes)
         1   01 Jun 2027 03:54:43.530   01 Jun 2027 03:55:47.754            64.224                Norilsk          2007.000
         2   01 Jun 2027 03:55:48.646   01 Jun 2027 03:56:09.370            20.724              Murmansk2           647.625
         3   01 Jun 2027 03:56:23.616   01 Jun 2027 03:57:25.103            61.487              Murmansk2          1921.469
         4   01 Jun 2027 03:57:42.865   01 Jun 2027 03:59:23.223           100.358              Murmansk2          3136.188
         5   01 Jun 2027 04:00:41.255   01 Jun 2027 04:01:32.259            51.004                 Moscow          1593.875
         6   01 Jun 2027 04:02:33.184   01 Jun 2027 04:02:54.296            21.112                 Moscow           659.750
         7   01 Jun 2027 04:23:27.462   01 Jun 2027 04:24:02.418            34.956               CapeTown          1092.375
         8   01 Jun 2027 05:17:38.990   01 Jun 2027 05:18:56.787            77.797                Anadyr2          2431.156
         9   01 Jun 2027 05:18:56.787   01 Jun 2027 05:19:49.888            53.101                Anadyr1          1659.406
        10   01 Jun 2027 05:20:00.697   01 Jun 2027 05:20:15.256            14.559                Anadyr1           454.969
        11   01 Jun 2027 05:21:09.431   01 Jun 2027 05:21:31.025            21.594                Anadyr1           674.813
        12   01 Jun 2027 06:52:19.681   01 Jun 2027 06:53:22.018            62.337               Magadan1          1948.031
        13   01 Jun 2027 06:53:29.310   01 Jun 2027 06:54:38.629            69.319                Anadyr2          2166.219
        14   01 Jun 2027 06:54:38.629   01 Jun 2027 06:55:50.665            72.036                Anadyr1          2251.125
        15   01 Jun 2027 06:56:27.167   01 Jun 2027 06:58:44.951           137.784                Anadyr2          4305.750
        16   01 Jun 2027 06:58:44.951   01 Jun 2027 06:59:24.085            39.134                Anadyr1          1222.937
        17   01 Jun 2027 06:59:55.964   01 Jun 2027 07:00:10.264            14.300              Murmansk2           446.875
        18   01 Jun 2027 07:00:45.716   01 Jun 2027 07:01:02.514            16.798              Murmansk2           524.938
        19   01 Jun 2027 07:01:25.816   01 Jun 2027 07:02:10.590            44.774              Murmansk2          1399.188
        20   01 Jun 2027 07:02:49.238   01 Jun 2027 07:03:49.456            60.218                 Moscow          1881.812
        21   01 Jun 2027 07:37:54.003   01 Jun 2027 07:38:12.337            18.334            RioGallegos           572.938
        22   01 Jun 2027 08:27:32.635   01 Jun 2027 08:27:48.854            16.219                Irkutsk           506.844
        23   01 Jun 2027 08:28:15.709   01 Jun 2027 08:31:47.183           211.474                Anadyr1          6608.563
        24   01 Jun 2027 08:31:47.183   01 Jun 2027 08:33:10.456            83.273                Anadyr2          2602.281
        25   01 Jun 2027 08:33:15.565   01 Jun 2027 08:33:35.773            20.208                Anadyr2           631.500
        26   01 Jun 2027 08:34:57.344   01 Jun 2027 08:35:22.310            24.966              Murmansk1           780.187
        27   01 Jun 2027 08:35:22.310   01 Jun 2027 08:36:50.020            87.710              Murmansk2          2740.938
        28   01 Jun 2027 09:10:02.244   01 Jun 2027 09:11:31.300            89.056            RioGallegos          2783.000
        29   01 Jun 2027 10:04:08.135   01 Jun 2027 10:05:27.155            79.020               Magadan2          2469.375
        30   01 Jun 2027 10:06:16.694   01 Jun 2027 10:08:19.964           123.270               Magadan1          3852.188
        31   01 Jun 2027 10:08:19.964   01 Jun 2027 10:08:29.960             9.996               Magadan2           312.375
        32   01 Jun 2027 10:09:23.267   01 Jun 2027 10:11:37.026           133.759                Norilsk          4179.969
        33   01 Jun 2027 10:11:56.407   01 Jun 2027 10:12:00.824             4.417              Murmansk2           138.031
        34   01 Jun 2027 10:45:55.704   01 Jun 2027 10:48:10.275           134.571            RioGallegos          4205.344
        35   01 Jun 2027 10:49:09.502   01 Jun 2027 10:50:04.299            54.797            RioGallegos          1712.406
        36   01 Jun 2027 11:20:26.821   01 Jun 2027 11:22:57.000           150.179                Sumatra          4693.094
        37   01 Jun 2027 11:24:31.312   01 Jun 2027 11:24:41.098             9.786                Sumatra           305.812
        38   01 Jun 2027 11:43:04.678   01 Jun 2027 11:44:47.976           103.298                Norilsk          3228.063
        39   01 Jun 2027 11:44:55.057   01 Jun 2027 11:46:24.518            89.461                Irkutsk          2795.656
        40   01 Jun 2027 11:46:33.759   01 Jun 2027 11:48:41.445           127.686              Murmansk1          3990.188
        41   01 Jun 2027 11:48:49.538   01 Jun 2027 11:48:58.914             9.376                 Moscow           293.000
        42   01 Jun 2027 11:51:27.773   01 Jun 2027 11:51:37.572             9.799              Murmansk1           306.219
        43   01 Jun 2027 11:51:42.208   01 Jun 2027 11:52:05.402            23.194              Murmansk1           724.813
        44   01 Jun 2027 12:27:21.167   01 Jun 2027 12:30:36.690           195.523            RioGallegos          6110.094
        45   01 Jun 2027 13:04:55.152   01 Jun 2027 13:04:59.460             4.308                  Delhi           134.625
        46   01 Jun 2027 13:06:47.398   01 Jun 2027 13:07:36.164            48.766                  Delhi          1523.937
        47   01 Jun 2027 13:12:56.129   01 Jun 2027 13:16:45.297           229.168                Novosib          7161.500
        48   01 Jun 2027 13:16:54.728   01 Jun 2027 13:17:08.066            13.338              Murmansk2           416.812
        49   01 Jun 2027 13:17:36.464   01 Jun 2027 13:18:13.605            37.141                Norilsk          1160.656
        50   01 Jun 2027 13:19:10.277   01 Jun 2027 13:19:50.983            40.706                Norilsk          1272.062
        51   01 Jun 2027 14:49:00.643   01 Jun 2027 14:52:56.604           235.961                 Moscow          7373.781
        52   01 Jun 2027 14:53:47.686   01 Jun 2027 14:55:48.766           121.080              Murmansk2          3783.750
        53   01 Jun 2027 14:57:11.814   01 Jun 2027 15:00:09.826           178.012                Norilsk          5562.875
        54   01 Jun 2027 16:03:15.091   01 Jun 2027 16:06:22.899           187.808               CapeTown          5869.000
        55   01 Jun 2027 16:07:28.217   01 Jun 2027 16:07:51.204            22.987               CapeTown           718.344
        56   01 Jun 2027 16:26:50.859   01 Jun 2027 16:27:32.309            41.450                 Moscow          1295.312
        57   01 Jun 2027 16:27:44.556   01 Jun 2027 16:27:55.188            10.632                 Moscow           332.250
        58   01 Jun 2027 16:29:48.499   01 Jun 2027 16:29:52.386             3.887              Murmansk1           121.469
        59   01 Jun 2027 16:30:05.811   01 Jun 2027 16:31:08.912            63.101              Murmansk2          1971.906
        60   01 Jun 2027 16:31:47.187   01 Jun 2027 16:32:00.417            13.230              Murmansk1           413.438
        61   01 Jun 2027 16:32:00.417   01 Jun 2027 16:32:33.976            33.559              Murmansk2          1048.719
        62   01 Jun 2027 16:36:08.658   01 Jun 2027 16:36:53.014            44.356                 Moscow          1386.125
        63   01 Jun 2027 16:39:15.691   01 Jun 2027 16:39:39.280            23.589              Murmansk1           737.156
        64   01 Jun 2027 16:40:29.276   01 Jun 2027 16:40:44.181            14.905              Murmansk2           465.781
        65   01 Jun 2027 16:43:25.419   01 Jun 2027 16:44:57.322            91.903                Anadyr1          2871.969
        66   01 Jun 2027 16:45:03.997   01 Jun 2027 16:45:23.209            19.212                Anadyr2           600.375
        67   01 Jun 2027 16:46:32.502   01 Jun 2027 16:46:46.634            14.132                Anadyr1           441.625
        68   01 Jun 2027 16:48:01.865   01 Jun 2027 16:48:23.567            21.702                Anadyr2           678.188
        69   01 Jun 2027 16:49:47.991   01 Jun 2027 16:50:15.629            27.638                Anadyr2           863.688
        70   01 Jun 2027 16:51:29.804   01 Jun 2027 16:51:59.506            29.702                Anadyr1           928.187
        71   01 Jun 2027 16:52:49.428   01 Jun 2027 16:53:14.430            25.002                Anadyr2           781.312
        72   01 Jun 2027 17:39:06.943   01 Jun 2027 17:39:31.676            24.733               CapeTown           772.906
        73   01 Jun 2027 17:43:15.669   01 Jun 2027 17:43:21.109             5.440               CapeTown           170.000
        74   01 Jun 2027 17:43:44.668   01 Jun 2027 17:44:15.690            31.022               CapeTown           969.437
        75   01 Jun 2027 17:47:26.618   01 Jun 2027 17:48:00.797            34.179               CapeTown          1068.094
        76   01 Jun 2027 17:49:16.470   01 Jun 2027 17:49:39.538            23.068               CapeTown           720.875
        77   01 Jun 2027 18:09:29.800   01 Jun 2027 18:13:26.112           236.312              Murmansk2          7384.750
        78   01 Jun 2027 18:13:43.868   01 Jun 2027 18:15:06.966            83.098              Murmansk1          2596.813
        79   01 Jun 2027 18:22:12.347   01 Jun 2027 18:23:09.573            57.226               Magadan1          1788.312
        80   01 Jun 2027 18:24:28.674   01 Jun 2027 18:24:43.394            14.720               Magadan1           460.000
        81   01 Jun 2027 18:30:13.960   01 Jun 2027 18:30:57.325            43.365               Magadan2          1355.156
        82   01 Jun 2027 19:54:59.635   01 Jun 2027 19:58:51.438           231.803                Anadyr2          7243.844
        83   01 Jun 2027 19:59:12.719   01 Jun 2027 20:02:09.667           176.948               Magadan1          5529.625
        84   01 Jun 2027 20:04:16.359   01 Jun 2027 20:04:59.807            43.448               Magadan1          1357.750
        85   01 Jun 2027 20:07:56.035   01 Jun 2027 20:08:07.661            11.626               Magadan2           363.312
        86   01 Jun 2027 20:08:26.632   01 Jun 2027 20:08:56.554            29.922               Magadan1           935.062
        87   01 Jun 2027 20:51:19.144   01 Jun 2027 20:53:43.573           144.429            RioGallegos          4513.406
        88   01 Jun 2027 20:56:10.059   01 Jun 2027 20:56:37.072            27.013            RioGallegos           844.156
        89   01 Jun 2027 21:31:11.787   01 Jun 2027 21:33:11.059           119.272                Anadyr1          3727.250
        90   01 Jun 2027 21:33:13.109   01 Jun 2027 21:34:43.833            90.724               Magadan1          2835.125
        91   01 Jun 2027 21:35:23.900   01 Jun 2027 21:35:50.238            26.338               Magadan1           823.063
        92   01 Jun 2027 21:36:13.850   01 Jun 2027 21:37:35.433            81.583               Magadan1          2549.469
        93   01 Jun 2027 21:40:04.293   01 Jun 2027 21:40:27.969            23.676                Irkutsk           739.875
        94   01 Jun 2027 21:43:38.013   01 Jun 2027 21:45:11.273            93.260                Irkutsk          2914.375
        95   01 Jun 2027 21:52:59.508   01 Jun 2027 21:54:32.142            92.634                Sumatra          2894.813
        96   01 Jun 2027 21:58:12.434   01 Jun 2027 21:58:27.524            15.090                Sumatra           471.563
        97   01 Jun 2027 22:01:04.861   01 Jun 2027 22:01:06.611             1.750                Sumatra            54.687
        98   01 Jun 2027 22:36:08.558   01 Jun 2027 22:36:53.387            44.829            RioGallegos          1400.906
        99   01 Jun 2027 23:06:06.639   01 Jun 2027 23:06:35.995            29.356                Anadyr1           917.375
       100   01 Jun 2027 23:07:22.825   01 Jun 2027 23:08:38.404            75.579                Anadyr2          2361.844
       101   01 Jun 2027 23:08:43.408   01 Jun 2027 23:09:23.705            40.297                Norilsk          1259.281
       102   01 Jun 2027 23:09:23.787   01 Jun 2027 23:10:11.110            47.323               Magadan2          1478.844
       103   01 Jun 2027 23:10:11.110   01 Jun 2027 23:10:31.003            19.893               Magadan1           621.656
       104   01 Jun 2027 23:11:02.190   01 Jun 2027 23:11:11.784             9.594               Magadan1           299.812
       105   01 Jun 2027 23:11:44.371   01 Jun 2027 23:11:48.869             4.498               Magadan2           140.563
       106   01 Jun 2027 23:12:36.399   01 Jun 2027 23:12:44.103             7.704               Magadan2           240.750
       107   01 Jun 2027 23:13:20.797   01 Jun 2027 23:15:57.890           157.093                Novosib          4909.156
       108   01 Jun 2027 23:22:02.650   01 Jun 2027 23:22:50.857            48.207                Novosib          1506.469
       109   01 Jun 2027 23:23:32.677   01 Jun 2027 23:24:42.271            69.594                  Delhi          2174.812
       110   01 Jun 2027 23:34:53.843   01 Jun 2027 23:35:10.395            16.552                Sumatra           517.250
       111   02 Jun 2027 00:06:30.299   02 Jun 2027 00:06:37.809             7.510            RioGallegos           234.688
       112   02 Jun 2027 00:07:18.386   02 Jun 2027 00:07:35.503            17.117            RioGallegos           534.906
       113   02 Jun 2027 00:08:34.204   02 Jun 2027 00:08:42.657             8.453            RioGallegos           264.156
       114   02 Jun 2027 00:09:27.268   02 Jun 2027 00:09:37.033             9.765            RioGallegos           305.156
       115   02 Jun 2027 00:10:47.131   02 Jun 2027 00:11:47.030            59.899            RioGallegos          1871.844
       116   02 Jun 2027 00:41:17.257   02 Jun 2027 00:42:21.078            63.821                Anadyr2          1994.406
       117   02 Jun 2027 00:44:43.831   02 Jun 2027 00:44:54.547            10.716                Norilsk           334.875
       118   02 Jun 2027 00:45:09.955   02 Jun 2027 00:45:38.673            28.718                Anadyr2           897.438
       119   02 Jun 2027 00:45:46.756   02 Jun 2027 00:46:47.448            60.692                Norilsk          1896.625
       120   02 Jun 2027 00:47:22.435   02 Jun 2027 00:48:30.408            67.973               Magadan1          2124.156
       121   02 Jun 2027 00:48:31.872   02 Jun 2027 00:49:39.617            67.745                Novosib          2117.031
       122   02 Jun 2027 00:49:58.701   02 Jun 2027 00:51:46.082           107.381                Novosib          3355.656
       123   02 Jun 2027 01:00:02.411   02 Jun 2027 01:01:24.551            82.140                Novosib          2566.875
       124   02 Jun 2027 01:08:33.962   02 Jun 2027 01:08:39.464             5.502                  Delhi           171.937
       125   02 Jun 2027 01:37:44.267   02 Jun 2027 01:39:07.433            83.166            RioGallegos          2598.937
       126   02 Jun 2027 01:44:46.840   02 Jun 2027 01:44:57.325            10.485            RioGallegos           327.656
       127   02 Jun 2027 02:13:33.013   02 Jun 2027 02:13:49.885            16.872                Anadyr2           527.250
       128   02 Jun 2027 02:13:59.704   02 Jun 2027 02:14:14.924            15.220                Anadyr1           475.625
       129   02 Jun 2027 02:14:23.450   02 Jun 2027 02:14:59.618            36.168                Anadyr1          1130.250
       130   02 Jun 2027 02:16:10.705   02 Jun 2027 02:16:22.934            12.229                Anadyr2           382.156
       131   02 Jun 2027 02:18:01.915   02 Jun 2027 02:18:19.875            17.960                Anadyr2           561.250
       132   02 Jun 2027 02:19:14.916   02 Jun 2027 02:19:24.605             9.689                Anadyr1           302.781
       133   02 Jun 2027 02:19:28.562   02 Jun 2027 02:19:41.405            12.843                Anadyr2           401.344
       134   02 Jun 2027 02:20:16.858   02 Jun 2027 02:20:50.539            33.681               Magadan1          1052.531
       135   02 Jun 2027 02:21:07.975   02 Jun 2027 02:21:45.565            37.590               Magadan2          1174.687
       136   02 Jun 2027 02:22:04.754   02 Jun 2027 02:22:21.022            16.268                Norilsk           508.375
       137   02 Jun 2027 02:22:54.138   02 Jun 2027 02:23:01.328             7.190              Murmansk2           224.688
       138   02 Jun 2027 02:23:02.295   02 Jun 2027 02:24:16.216            73.921              Murmansk1          2310.031
       139   02 Jun 2027 02:24:37.326   02 Jun 2027 02:24:48.502            11.176                Novosib           349.250
       140   02 Jun 2027 02:26:03.015   02 Jun 2027 02:27:14.360            71.345                Irkutsk          2229.531
       141   02 Jun 2027 02:30:31.804   02 Jun 2027 02:30:59.969            28.165                Irkutsk           880.156
       142   02 Jun 2027 02:34:50.454   02 Jun 2027 02:35:55.649            65.195                  Delhi          2037.344
       143   02 Jun 2027 02:58:54.098   02 Jun 2027 03:00:19.336            85.238               CapeTown          2663.688
       144   02 Jun 2027 04:07:47.259   02 Jun 2027 04:08:02.669            15.410                Novosib           481.563
       145   02 Jun 2027 04:08:11.748   02 Jun 2027 04:11:26.626           194.878              Murmansk2          6089.937
       146   02 Jun 2027 04:11:26.626   02 Jun 2027 04:11:32.917             6.291              Murmansk1           196.594
       147   02 Jun 2027 04:11:38.418   02 Jun 2027 04:12:22.887            44.469                 Moscow          1389.656
       148   02 Jun 2027 04:25:55.993   02 Jun 2027 04:28:39.903           163.910               CapeTown          5122.187
       149   02 Jun 2027 05:29:30.568   02 Jun 2027 05:32:00.601           150.033                Anadyr1          4688.531
       150   02 Jun 2027 05:32:00.601   02 Jun 2027 05:32:20.235            19.634                Anadyr2           613.563
       151   02 Jun 2027 05:34:24.149   02 Jun 2027 05:35:18.776            54.627                Anadyr1          1707.094
       152   02 Jun 2027 08:40:52.360   02 Jun 2027 08:41:24.107            31.747               Magadan2           992.094
       153   02 Jun 2027 08:41:53.642   02 Jun 2027 08:42:56.375            62.733                Anadyr2          1960.406
       154   02 Jun 2027 08:43:17.876   02 Jun 2027 08:46:52.802           214.926               Magadan2          6716.437
       155   02 Jun 2027 10:18:10.166   02 Jun 2027 10:19:33.502            83.336               Magadan1          2604.250
       156   02 Jun 2027 10:20:06.200   02 Jun 2027 10:20:06.776             0.576                Norilsk            18.000
       157   02 Jun 2027 10:20:26.839   02 Jun 2027 10:20:56.608            29.769                Norilsk           930.281
       158   02 Jun 2027 10:21:00.359   02 Jun 2027 10:21:32.428            32.069                Irkutsk          1002.156
       159   02 Jun 2027 10:21:43.683   02 Jun 2027 10:22:03.168            19.485                Novosib           608.906
       160   02 Jun 2027 10:22:10.251   02 Jun 2027 10:22:25.266            15.015                Irkutsk           469.219
       161   02 Jun 2027 10:22:35.410   02 Jun 2027 10:22:49.191            13.781                Irkutsk           430.656
       162   02 Jun 2027 10:58:13.249   02 Jun 2027 10:58:37.451            24.202            RioGallegos           756.312
       163   02 Jun 2027 10:59:09.299   02 Jun 2027 10:59:39.492            30.193            RioGallegos           943.531
       164   02 Jun 2027 11:06:34.874   02 Jun 2027 11:07:12.262            37.388            RioGallegos          1168.375
       165   02 Jun 2027 11:32:36.182   02 Jun 2027 11:34:43.948           127.766                Sumatra          3992.688
       166   02 Jun 2027 11:53:57.980   02 Jun 2027 11:54:46.630            48.650                Irkutsk          1520.313
       167   02 Jun 2027 11:54:51.851   02 Jun 2027 11:55:02.464            10.613                Irkutsk           331.656
       168   02 Jun 2027 11:55:45.795   02 Jun 2027 11:55:46.610             0.815                Novosib            25.469
       169   02 Jun 2027 11:56:00.137   02 Jun 2027 11:56:08.642             8.505                Novosib           265.781
       170   02 Jun 2027 11:56:39.906   02 Jun 2027 11:57:08.285            28.379                Novosib           886.844
       171   02 Jun 2027 11:57:11.335   02 Jun 2027 11:57:26.331            14.996                Irkutsk           468.625
       172   02 Jun 2027 11:58:02.796   02 Jun 2027 11:58:17.429            14.633                Norilsk           457.281
       173   02 Jun 2027 11:58:21.139   02 Jun 2027 11:58:47.563            26.424                Norilsk           825.750
       174   02 Jun 2027 12:01:51.395   02 Jun 2027 12:02:03.399            12.004                Norilsk           375.125
       175   02 Jun 2027 12:03:36.919   02 Jun 2027 12:03:41.730             4.811              Murmansk1           150.344
       176   02 Jun 2027 12:03:54.166   02 Jun 2027 12:04:21.042            26.876              Murmansk1           839.875
       177   02 Jun 2027 12:05:39.733   02 Jun 2027 12:05:50.229            10.496              Murmansk1           328.000
       178   02 Jun 2027 13:17:14.996   02 Jun 2027 13:18:12.783            57.787                  Delhi          1805.844
       179   02 Jun 2027 13:21:35.453   02 Jun 2027 13:22:17.633            42.180                  Delhi          1318.125
       180   02 Jun 2027 13:22:40.723   02 Jun 2027 13:22:46.473             5.750                  Delhi           179.688
       181   02 Jun 2027 13:23:29.799   02 Jun 2027 13:24:12.883            43.084                  Delhi          1346.375
       182   02 Jun 2027 13:24:43.352   02 Jun 2027 13:25:33.477            50.125                  Delhi          1566.406
       183   02 Jun 2027 13:26:05.110   02 Jun 2027 13:29:24.846           199.736                Novosib          6241.750
       184   02 Jun 2027 13:32:45.593   02 Jun 2027 13:33:58.477            72.884                Norilsk          2277.625
       185   02 Jun 2027 15:01:04.531   02 Jun 2027 15:04:20.427           195.896                 Moscow          6121.750
       186   02 Jun 2027 15:04:29.064   02 Jun 2027 15:05:07.860            38.796                 Moscow          1212.375
       187   02 Jun 2027 15:08:52.112   02 Jun 2027 15:09:08.681            16.569              Murmansk1           517.781
       188   02 Jun 2027 15:10:03.100   02 Jun 2027 15:13:37.661           214.561                Norilsk          6705.031
       189   02 Jun 2027 16:17:01.314   02 Jun 2027 16:17:11.149             9.835               CapeTown           307.344
       190   02 Jun 2027 16:21:18.397   02 Jun 2027 16:22:05.849            47.452               CapeTown          1482.875
       191   02 Jun 2027 16:24:50.098   02 Jun 2027 16:25:13.668            23.570               CapeTown           736.562
       192   02 Jun 2027 16:39:26.466   02 Jun 2027 16:39:49.861            23.395                 Moscow           731.094
       193   02 Jun 2027 16:40:33.036   02 Jun 2027 16:41:08.754            35.718                 Moscow          1116.187
       194   02 Jun 2027 16:42:09.378   02 Jun 2027 16:42:38.466            29.088              Murmansk1           909.000
       195   02 Jun 2027 16:44:24.191   02 Jun 2027 16:44:27.622             3.431                 Moscow           107.219
       196   02 Jun 2027 16:45:23.216   02 Jun 2027 16:45:54.808            31.592              Murmansk1           987.250
       197   02 Jun 2027 16:48:58.603   02 Jun 2027 16:49:24.982            26.379              Murmansk1           824.344
       198   02 Jun 2027 16:51:43.916   02 Jun 2027 16:52:01.958            18.042              Murmansk2           563.813
       199   02 Jun 2027 16:55:22.315   02 Jun 2027 16:56:57.974            95.659                Anadyr2          2989.344
       200   02 Jun 2027 16:59:46.165   02 Jun 2027 16:59:52.881             6.716                Anadyr1           209.875
       201   02 Jun 2027 17:00:17.058   02 Jun 2027 17:00:37.322            20.264                Anadyr1           633.250
       202   02 Jun 2027 17:00:47.490   02 Jun 2027 17:01:07.829            20.339                Anadyr2           635.594
       203   02 Jun 2027 17:50:47.815   02 Jun 2027 17:51:48.782            60.967               CapeTown          1905.219
       204   02 Jun 2027 17:58:48.924   02 Jun 2027 17:59:19.330            30.406               CapeTown           950.188
       205   02 Jun 2027 18:02:02.454   02 Jun 2027 18:02:10.970             8.516               CapeTown           266.125
       206   02 Jun 2027 18:22:14.617   02 Jun 2027 18:27:27.795           313.178              Murmansk2          9786.812
       207   02 Jun 2027 18:34:01.164   02 Jun 2027 18:34:50.443            49.279               Magadan1          1539.969
       208   02 Jun 2027 18:43:18.700   02 Jun 2027 18:43:28.743            10.043               Magadan2           313.844
       209   02 Jun 2027 20:07:01.115   02 Jun 2027 20:10:28.903           207.788                Anadyr2          6493.375
       210   02 Jun 2027 20:10:33.192   02 Jun 2027 20:13:35.773           182.581               Magadan1          5705.656
       211   02 Jun 2027 20:13:35.773   02 Jun 2027 20:13:55.771            19.998               Magadan2           624.937
       212   02 Jun 2027 20:14:00.262   02 Jun 2027 20:14:11.854            11.592               Magadan2           362.250
       213   02 Jun 2027 20:15:48.533   02 Jun 2027 20:16:21.202            32.669               Magadan1          1020.906
       214   02 Jun 2027 21:02:36.331   02 Jun 2027 21:05:26.054           169.723            RioGallegos          5303.844
       215   02 Jun 2027 21:08:04.463   02 Jun 2027 21:08:08.017             3.554            RioGallegos           111.063
       216   02 Jun 2027 21:08:44.246   02 Jun 2027 21:09:14.842            30.596            RioGallegos           956.125
       217   02 Jun 2027 21:09:39.965   02 Jun 2027 21:09:47.688             7.723            RioGallegos           241.344
       218   02 Jun 2027 21:43:13.038   02 Jun 2027 21:44:56.145           103.107                Anadyr2          3222.094
       219   02 Jun 2027 21:44:57.568   02 Jun 2027 21:46:03.653            66.085                Norilsk          2065.156
       220   02 Jun 2027 21:46:37.361   02 Jun 2027 21:46:44.841             7.480                Norilsk           233.750
       221   02 Jun 2027 21:47:15.568   02 Jun 2027 21:47:39.136            23.568                Norilsk           736.500
       222   02 Jun 2027 21:48:08.221   02 Jun 2027 21:48:22.203            13.982                Norilsk           436.938
       223   02 Jun 2027 21:49:38.372   02 Jun 2027 21:52:01.867           143.495                Irkutsk          4484.219
       224   02 Jun 2027 22:04:20.913   02 Jun 2027 22:04:36.950            16.037                Sumatra           501.156
       225   02 Jun 2027 22:07:25.661   02 Jun 2027 22:08:05.311            39.650                Sumatra          1239.063
       226   02 Jun 2027 22:08:48.075   02 Jun 2027 22:10:06.204            78.129                Sumatra          2441.531
       227   02 Jun 2027 23:17:59.076   02 Jun 2027 23:18:38.261            39.185                Anadyr2          1224.531
       228   02 Jun 2027 23:20:28.806   02 Jun 2027 23:20:34.923             6.117                Anadyr2           191.156
       229   02 Jun 2027 23:20:45.285   02 Jun 2027 23:22:37.189           111.904                Norilsk          3497.000
       230   02 Jun 2027 23:23:17.845   02 Jun 2027 23:23:23.815             5.970               Magadan2           186.563
       231   02 Jun 2027 23:23:28.652   02 Jun 2027 23:24:37.566            68.914               Magadan1          2153.563
       232   02 Jun 2027 23:24:38.736   02 Jun 2027 23:25:36.637            57.901                Irkutsk          1809.406
       233   02 Jun 2027 23:25:41.763   02 Jun 2027 23:26:57.621            75.858                Irkutsk          2370.562
       234   02 Jun 2027 23:34:20.922   02 Jun 2027 23:36:40.128           139.206                  Delhi          4350.188
       235   03 Jun 2027 00:20:58.398   03 Jun 2027 00:21:29.327            30.929            RioGallegos           966.531
       236   03 Jun 2027 00:51:58.355   03 Jun 2027 00:52:17.940            19.585                Anadyr1           612.031
       237   03 Jun 2027 00:52:38.771   03 Jun 2027 00:53:18.532            39.761                Anadyr1          1242.531
       238   03 Jun 2027 00:53:18.532   03 Jun 2027 00:54:15.133            56.601                Anadyr2          1768.781
       239   03 Jun 2027 00:56:45.873   03 Jun 2027 00:56:56.215            10.342                Norilsk           323.187
       240   03 Jun 2027 00:57:18.755   03 Jun 2027 00:57:43.231            24.476               Magadan2           764.875
       241   03 Jun 2027 00:58:03.073   03 Jun 2027 00:59:15.633            72.560               Magadan1          2267.500
       242   03 Jun 2027 00:59:29.759   03 Jun 2027 01:00:59.632            89.873              Murmansk2          2808.531
       243   03 Jun 2027 01:01:15.704   03 Jun 2027 01:02:05.236            49.532              Murmansk2          1547.875
       244   03 Jun 2027 01:06:19.187   03 Jun 2027 01:07:00.669            41.482                Novosib          1296.313
       245   03 Jun 2027 01:08:12.696   03 Jun 2027 01:10:40.397           147.701                  Delhi          4615.656
       246   03 Jun 2027 01:54:31.437   03 Jun 2027 01:55:07.108            35.671            RioGallegos          1114.719
       247   03 Jun 2027 02:25:15.197   03 Jun 2027 02:25:21.088             5.891                Anadyr2           184.094
       248   03 Jun 2027 02:25:38.624   03 Jun 2027 02:26:16.261            37.637                Anadyr1          1176.156
       249   03 Jun 2027 02:26:49.148   03 Jun 2027 02:27:00.456            11.308                Anadyr2           353.375
       250   03 Jun 2027 02:27:57.754   03 Jun 2027 02:28:18.147            20.393                Anadyr1           637.281
       251   03 Jun 2027 02:31:10.977   03 Jun 2027 02:32:49.737            98.760               Magadan1          3086.250
       252   03 Jun 2027 02:34:43.640   03 Jun 2027 02:34:48.907             5.267                Norilsk           164.594
       253   03 Jun 2027 02:34:54.802   03 Jun 2027 02:35:44.531            49.729              Murmansk2          1554.031
       254   03 Jun 2027 02:35:44.531   03 Jun 2027 02:36:08.273            23.742              Murmansk1           741.937
       255   03 Jun 2027 02:36:09.379   03 Jun 2027 02:36:22.736            13.357              Murmansk1           417.406
       256   03 Jun 2027 02:36:42.334   03 Jun 2027 02:37:15.708            33.374                Novosib          1042.937
       257   03 Jun 2027 02:38:05.947   03 Jun 2027 02:38:10.334             4.387                Novosib           137.094
       258   03 Jun 2027 02:38:32.715   03 Jun 2027 02:38:38.145             5.430                Novosib           169.687
       259   03 Jun 2027 02:39:50.691   03 Jun 2027 02:40:56.447            65.756                Irkutsk          2054.875
       260   03 Jun 2027 02:47:06.782   03 Jun 2027 02:47:56.617            49.835                  Delhi          1557.344
       261   03 Jun 2027 03:13:25.239   03 Jun 2027 03:13:55.955            30.716               CapeTown           959.875
       262   03 Jun 2027 04:19:38.779   03 Jun 2027 04:23:19.153           220.374              Murmansk2          6886.688
       263   03 Jun 2027 04:23:40.185   03 Jun 2027 04:24:21.790            41.605                 Moscow          1300.156
       264   03 Jun 2027 05:41:18.826   03 Jun 2027 05:47:37.597           378.771                Anadyr2         11836.594
       265   03 Jun 2027 07:18:45.954   03 Jun 2027 07:18:50.087             4.133               Magadan1           129.156
       266   03 Jun 2027 07:18:56.571   03 Jun 2027 07:19:22.163            25.592               Magadan2           799.750
       267   03 Jun 2027 07:19:30.431   03 Jun 2027 07:19:57.086            26.655               Magadan1           832.969
       268   03 Jun 2027 07:19:57.086   03 Jun 2027 07:20:15.403            18.317               Magadan2           572.406
       269   03 Jun 2027 07:20:30.065   03 Jun 2027 07:20:50.792            20.727                Anadyr1           647.719
       270   03 Jun 2027 07:21:06.911   03 Jun 2027 07:21:32.054            25.143               Magadan2           785.719
       271   03 Jun 2027 07:21:53.561   03 Jun 2027 07:22:33.786            40.225                Anadyr1          1257.031
       272   03 Jun 2027 08:52:29.452   03 Jun 2027 08:52:45.001            15.549               Magadan1           485.906
       273   03 Jun 2027 08:53:09.463   03 Jun 2027 08:54:22.534            73.071               Magadan2          2283.469
       274   03 Jun 2027 08:54:48.739   03 Jun 2027 08:55:16.037            27.298               Magadan1           853.063
       275   03 Jun 2027 08:55:29.931   03 Jun 2027 08:56:09.628            39.697               Magadan1          1240.531
       276   03 Jun 2027 08:57:03.560   03 Jun 2027 08:57:32.160            28.600                Irkutsk           893.750
       277   03 Jun 2027 08:57:50.023   03 Jun 2027 08:58:21.734            31.711               Magadan1           990.969
       278   03 Jun 2027 08:58:28.113   03 Jun 2027 08:58:34.262             6.149               Magadan1           192.156
       279   03 Jun 2027 08:58:46.071   03 Jun 2027 08:58:49.419             3.348              Murmansk1           104.625
       280   03 Jun 2027 09:33:44.879   03 Jun 2027 09:34:44.408            59.529            RioGallegos          1860.281
       281   03 Jun 2027 09:34:50.761   03 Jun 2027 09:35:47.091            56.330            RioGallegos          1760.313
       282   03 Jun 2027 10:09:52.701   03 Jun 2027 10:10:22.936            30.235                Sumatra           944.844
       283   03 Jun 2027 10:30:11.490   03 Jun 2027 10:30:15.930             4.440                Irkutsk           138.750
       284   03 Jun 2027 10:32:42.989   03 Jun 2027 10:33:01.138            18.149                Irkutsk           567.156
       285   03 Jun 2027 10:33:06.720   03 Jun 2027 10:34:00.663            53.943                Irkutsk          1685.719
       286   03 Jun 2027 10:34:18.406   03 Jun 2027 10:34:36.737            18.331                Irkutsk           572.844
       287   03 Jun 2027 10:34:45.617   03 Jun 2027 10:35:00.125            14.508                Novosib           453.375
       288   03 Jun 2027 11:10:35.310   03 Jun 2027 11:11:11.716            36.406            RioGallegos          1137.688
       289   03 Jun 2027 11:12:31.038   03 Jun 2027 11:12:59.025            27.987            RioGallegos           874.594
       290   03 Jun 2027 11:14:55.623   03 Jun 2027 11:15:30.540            34.917            RioGallegos          1091.156
       291   03 Jun 2027 11:44:51.987   03 Jun 2027 11:45:28.483            36.496                Sumatra          1140.500
       292   03 Jun 2027 11:49:42.228   03 Jun 2027 11:49:45.175             2.947                Sumatra            92.094
       293   03 Jun 2027 11:53:14.730   03 Jun 2027 11:53:44.446            29.716                  Delhi           928.625
       294   03 Jun 2027 12:06:47.769   03 Jun 2027 12:07:32.073            44.304                Novosib          1384.500
       295   03 Jun 2027 13:29:42.548   03 Jun 2027 13:33:16.195           213.647                  Delhi          6676.469
       296   03 Jun 2027 13:33:47.120   03 Jun 2027 13:34:57.040            69.920                  Delhi          2185.000
       297   03 Jun 2027 13:39:03.003   03 Jun 2027 13:39:39.537            36.534                Novosib          1141.688
       298   03 Jun 2027 13:42:43.038   03 Jun 2027 13:43:03.401            20.363                Novosib           636.344
       299   03 Jun 2027 13:49:36.815   03 Jun 2027 13:50:12.082            35.267                Norilsk          1102.094
       300   03 Jun 2027 15:13:11.477   03 Jun 2027 15:15:13.499           122.022                 Moscow          3813.188
       301   03 Jun 2027 15:16:20.710   03 Jun 2027 15:17:22.566            61.856                 Moscow          1933.000
       302   03 Jun 2027 15:18:08.427   03 Jun 2027 15:18:36.195            27.768              Murmansk1           867.750
       303   03 Jun 2027 15:21:57.768   03 Jun 2027 15:21:58.880             1.112              Murmansk2            34.750
       304   03 Jun 2027 15:22:48.378   03 Jun 2027 15:22:53.638             5.260                 Moscow           164.375
       305   03 Jun 2027 15:23:03.064   03 Jun 2027 15:25:53.864           170.800                Norilsk          5337.500
       306   03 Jun 2027 15:33:15.746   03 Jun 2027 15:33:18.805             3.059                Anadyr2            95.594
       307   03 Jun 2027 15:33:41.672   03 Jun 2027 15:34:18.798            37.126                Anadyr1          1160.187
       308   03 Jun 2027 16:27:06.011   03 Jun 2027 16:27:43.253            37.242               CapeTown          1163.812
       309   03 Jun 2027 16:33:32.112   03 Jun 2027 16:33:58.950            26.838               CapeTown           838.688
       310   03 Jun 2027 16:34:40.283   03 Jun 2027 16:35:57.448            77.165               CapeTown          2411.406
       311   03 Jun 2027 16:52:08.987   03 Jun 2027 16:52:11.362             2.375                 Moscow            74.219
       312   03 Jun 2027 16:54:08.602   03 Jun 2027 16:55:01.213            52.611                 Moscow          1644.094
       313   03 Jun 2027 16:57:56.744   03 Jun 2027 16:58:22.514            25.770              Murmansk1           805.313
       314   03 Jun 2027 17:01:41.438   03 Jun 2027 17:03:12.948            91.510              Murmansk2          2859.688
       315   03 Jun 2027 17:07:48.389   03 Jun 2027 17:08:22.668            34.279                Anadyr1          1071.219
       316   03 Jun 2027 17:11:00.273   03 Jun 2027 17:11:21.506            21.233                Anadyr2           663.531
       317   03 Jun 2027 17:12:03.578   03 Jun 2027 17:12:23.955            20.377                Anadyr2           636.781
       318   03 Jun 2027 17:14:31.417   03 Jun 2027 17:14:32.165             0.748                Anadyr2            23.375
       319   03 Jun 2027 17:16:04.731   03 Jun 2027 17:16:52.218            47.487                Anadyr2          1483.969
       320   03 Jun 2027 18:07:07.573   03 Jun 2027 18:07:38.216            30.643               CapeTown           957.594
       321   03 Jun 2027 18:11:06.413   03 Jun 2027 18:12:51.238           104.825               CapeTown          3275.781
       322   03 Jun 2027 18:35:05.058   03 Jun 2027 18:37:43.452           158.394              Murmansk1          4949.812
       323   03 Jun 2027 18:39:39.531   03 Jun 2027 18:39:47.649             8.118              Murmansk2           253.687
       324   03 Jun 2027 18:45:52.865   03 Jun 2027 18:47:13.930            81.065               Magadan1          2533.281
       325   03 Jun 2027 18:47:44.016   03 Jun 2027 18:48:01.884            17.868               Magadan2           558.375
       326   03 Jun 2027 18:48:47.480   03 Jun 2027 18:48:57.126             9.646               Magadan2           301.438
       327   03 Jun 2027 18:50:12.147   03 Jun 2027 18:50:18.106             5.959               Magadan2           186.219
       328   03 Jun 2027 18:54:22.765   03 Jun 2027 18:55:36.660            73.895               Magadan1          2309.219
       329   03 Jun 2027 20:19:02.456   03 Jun 2027 20:22:13.089           190.633                Anadyr1          5957.281
       330   03 Jun 2027 20:22:29.196   03 Jun 2027 20:22:46.610            17.414                Anadyr1           544.187
       331   03 Jun 2027 20:23:09.477   03 Jun 2027 20:24:28.815            79.338                Anadyr2          2479.313
       332   03 Jun 2027 20:24:32.141   03 Jun 2027 20:25:23.833            51.692               Magadan2          1615.375
       333   03 Jun 2027 20:25:40.438   03 Jun 2027 20:25:54.011            13.573               Magadan1           424.156
       334   03 Jun 2027 20:26:21.540   03 Jun 2027 20:27:11.807            50.267               Magadan2          1570.844
       335   03 Jun 2027 21:14:08.830   03 Jun 2027 21:16:11.163           122.333            RioGallegos          3822.906
       336   03 Jun 2027 21:16:25.716   03 Jun 2027 21:17:01.822            36.106            RioGallegos          1128.313
       337   03 Jun 2027 21:19:55.692   03 Jun 2027 21:20:25.662            29.970            RioGallegos           936.563
       338   03 Jun 2027 21:54:46.965   03 Jun 2027 21:55:15.536            28.571                Anadyr2           892.844
       339   03 Jun 2027 21:56:40.151   03 Jun 2027 21:57:09.254            29.103                Anadyr1           909.469
       340   03 Jun 2027 21:57:18.409   03 Jun 2027 21:59:21.782           123.373               Magadan2          3855.406
       341   03 Jun 2027 21:59:43.917   03 Jun 2027 22:00:37.022            53.105                Norilsk          1659.531
       342   03 Jun 2027 22:01:25.051   03 Jun 2027 22:02:33.028            67.977                Irkutsk          2124.281
       343   03 Jun 2027 22:15:36.889   03 Jun 2027 22:18:32.588           175.699                Sumatra          5490.594
       344   03 Jun 2027 23:29:50.286   03 Jun 2027 23:31:01.566            71.280                Anadyr1          2227.500
       345   03 Jun 2027 23:32:13.053   03 Jun 2027 23:32:32.318            19.265                Anadyr2           602.031
       346   03 Jun 2027 23:32:47.300   03 Jun 2027 23:34:52.346           125.046                Norilsk          3907.687
       347   03 Jun 2027 23:36:32.222   03 Jun 2027 23:36:44.120            11.898               Magadan2           371.813
       348   03 Jun 2027 23:37:02.939   03 Jun 2027 23:39:47.754           164.815                Novosib          5150.469
       349   03 Jun 2027 23:43:25.585   03 Jun 2027 23:44:10.682            45.097                Novosib          1409.281
       350   03 Jun 2027 23:48:20.103   03 Jun 2027 23:48:20.534             0.431                  Delhi            13.469
       351   03 Jun 2027 23:48:55.265   03 Jun 2027 23:48:58.736             3.471                  Delhi           108.469
       352   03 Jun 2027 23:49:45.171   03 Jun 2027 23:50:02.428            17.257                  Delhi           539.281
       353   03 Jun 2027 23:54:21.328   03 Jun 2027 23:54:34.305            12.977                  Delhi           405.531
       354   04 Jun 2027 00:27:40.367   04 Jun 2027 00:28:33.294            52.927            RioGallegos          1653.969
       355   04 Jun 2027 01:03:40.506   04 Jun 2027 01:04:39.640            59.134                Anadyr2          1847.938
       356   04 Jun 2027 01:05:19.856   04 Jun 2027 01:06:01.474            41.618                Anadyr1          1300.562
       357   04 Jun 2027 01:07:30.035   04 Jun 2027 01:08:04.703            34.668                Anadyr1          1083.375
       358   04 Jun 2027 01:08:47.808   04 Jun 2027 01:09:29.370            41.562                Norilsk          1298.812
       359   04 Jun 2027 01:10:05.343   04 Jun 2027 01:11:04.893            59.550               Magadan2          1860.938
       360   04 Jun 2027 01:11:22.044   04 Jun 2027 01:13:24.720           122.676              Murmansk1          3833.625
       361   04 Jun 2027 01:13:24.720   04 Jun 2027 01:13:44.099            19.379              Murmansk2           605.594
       362   04 Jun 2027 01:13:48.471   04 Jun 2027 01:14:06.693            18.222              Murmansk2           569.437
       363   04 Jun 2027 01:18:30.788   04 Jun 2027 01:18:38.109             7.321                Novosib           228.781
       364   04 Jun 2027 01:19:34.825   04 Jun 2027 01:20:13.615            38.790                Novosib          1212.187
       365   04 Jun 2027 01:24:26.894   04 Jun 2027 01:24:52.584            25.690                  Delhi           802.812
       366   04 Jun 2027 01:28:32.742   04 Jun 2027 01:28:54.718            21.976                  Delhi           686.750
       367   04 Jun 2027 02:02:34.705   04 Jun 2027 02:04:49.243           134.538            RioGallegos          4204.312
       368   04 Jun 2027 02:36:58.088   04 Jun 2027 02:37:26.029            27.941                Anadyr1           873.156
       369   04 Jun 2027 02:38:20.153   04 Jun 2027 02:39:03.228            43.075                Anadyr1          1346.094
       370   04 Jun 2027 02:42:41.101   04 Jun 2027 02:43:51.749            70.648               Magadan2          2207.750
       371   04 Jun 2027 02:44:58.581   04 Jun 2027 02:44:59.100             0.519                Norilsk            16.219
       372   04 Jun 2027 02:46:09.547   04 Jun 2027 02:46:26.294            16.747                Norilsk           523.344
       373   04 Jun 2027 02:46:38.445   04 Jun 2027 02:47:05.128            26.683                Norilsk           833.844
       374   04 Jun 2027 02:47:06.559   04 Jun 2027 02:47:59.510            52.951              Murmansk1          1654.719
       375   04 Jun 2027 02:48:31.778   04 Jun 2027 02:48:34.876             3.098              Murmansk2            96.812
       376   04 Jun 2027 02:48:47.878   04 Jun 2027 02:49:33.439            45.561                Novosib          1423.781
       377   04 Jun 2027 02:50:28.432   04 Jun 2027 02:50:41.880            13.448                Novosib           420.250
       378   04 Jun 2027 02:51:49.923   04 Jun 2027 02:52:09.611            19.688                Irkutsk           615.250
       379   04 Jun 2027 02:59:04.272   04 Jun 2027 02:59:38.173            33.901                 Moscow          1059.406
       380   04 Jun 2027 03:16:26.215   04 Jun 2027 03:16:40.900            14.685               CapeTown           458.906
       381   04 Jun 2027 04:32:45.719   04 Jun 2027 04:34:08.335            82.616                 Moscow          2581.750
       382   04 Jun 2027 04:35:10.701   04 Jun 2027 04:35:47.060            36.359              Murmansk1          1136.219
       383   04 Jun 2027 04:36:53.616   04 Jun 2027 04:37:33.868            40.252                 Moscow          1257.875
       384   04 Jun 2027 04:50:09.422   04 Jun 2027 04:51:10.183            60.761               CapeTown          1898.781
       385   04 Jun 2027 05:53:01.786   04 Jun 2027 05:54:42.710           100.924                Anadyr2          3153.875
       386   04 Jun 2027 05:55:21.134   04 Jun 2027 05:57:35.835           134.701               Magadan1          4209.406
       387   04 Jun 2027 05:57:35.835   04 Jun 2027 05:58:24.108            48.273               Magadan2          1508.531
       388   04 Jun 2027 07:30:07.696   04 Jun 2027 07:31:11.801            64.105                Anadyr2          2003.281
       389   04 Jun 2027 07:31:25.566   04 Jun 2027 07:31:32.253             6.687               Magadan1           208.969
       390   04 Jun 2027 07:31:42.640   04 Jun 2027 07:32:34.497            51.857                Anadyr1          1620.531
       391   04 Jun 2027 07:32:39.289   04 Jun 2027 07:33:54.528            75.239                Anadyr1          2351.219
       392   04 Jun 2027 08:13:32.735   04 Jun 2027 08:14:31.400            58.665            RioGallegos          1833.281
       393   04 Jun 2027 09:04:23.431   04 Jun 2027 09:04:35.125            11.694               Magadan1           365.438
       394   04 Jun 2027 09:05:32.394   04 Jun 2027 09:05:44.933            12.539               Magadan2           391.844
       395   04 Jun 2027 09:06:33.190   04 Jun 2027 09:07:32.643            59.453               Magadan1          1857.906
       396   04 Jun 2027 09:07:32.643   04 Jun 2027 09:07:36.614             3.971               Magadan2           124.094
       397   04 Jun 2027 09:08:09.642   04 Jun 2027 09:09:30.576            80.934               Magadan2          2529.188
       398   04 Jun 2027 09:09:42.044   04 Jun 2027 09:10:10.963            28.919                Irkutsk           903.719
       399   04 Jun 2027 09:10:22.828   04 Jun 2027 09:10:42.074            19.246               Magadan1           601.437
       400   04 Jun 2027 09:45:41.014   04 Jun 2027 09:46:09.365            28.351            RioGallegos           885.969
       401   04 Jun 2027 09:46:49.656   04 Jun 2027 09:47:45.945            56.289            RioGallegos          1759.031
       402   04 Jun 2027 10:21:23.467   04 Jun 2027 10:22:36.741            73.274                Sumatra          2289.812
       403   04 Jun 2027 10:41:52.630   04 Jun 2027 10:42:26.713            34.083                Irkutsk          1065.094
       404   04 Jun 2027 10:42:31.074   04 Jun 2027 10:42:36.903             5.829                Norilsk           182.156
       405   04 Jun 2027 10:42:39.250   04 Jun 2027 10:42:45.553             6.303                Novosib           196.969
       406   04 Jun 2027 10:42:47.109   04 Jun 2027 10:42:49.832             2.723                Norilsk            85.094
       407   04 Jun 2027 10:43:10.895   04 Jun 2027 10:43:48.124            37.229                Novosib          1163.406
       408   04 Jun 2027 10:44:08.796   04 Jun 2027 10:44:38.213            29.417                Irkutsk           919.281
       409   04 Jun 2027 10:44:52.198   04 Jun 2027 10:45:20.119            27.921                Norilsk           872.531
       410   04 Jun 2027 10:45:37.757   04 Jun 2027 10:45:39.803             2.046                Norilsk            63.938
       411   04 Jun 2027 10:45:43.291   04 Jun 2027 10:46:03.476            20.185                Novosib           630.781
       412   04 Jun 2027 10:46:06.414   04 Jun 2027 10:46:34.853            28.439                Norilsk           888.719
       413   04 Jun 2027 10:46:46.160   04 Jun 2027 10:47:13.490            27.330                Norilsk           854.063
       414   04 Jun 2027 11:23:02.448   04 Jun 2027 11:23:56.321            53.873            RioGallegos          1683.531
       415   04 Jun 2027 11:27:36.001   04 Jun 2027 11:28:13.667            37.666            RioGallegos          1177.062
       416   04 Jun 2027 11:57:15.429   04 Jun 2027 11:57:46.481            31.052                Sumatra           970.375
       417   04 Jun 2027 12:07:06.284   04 Jun 2027 12:07:20.979            14.695                  Delhi           459.219
       418   04 Jun 2027 12:11:42.694   04 Jun 2027 12:12:30.648            47.954                Novosib          1498.562
       419   04 Jun 2027 12:12:38.505   04 Jun 2027 12:12:53.044            14.539                Irkutsk           454.344
       420   04 Jun 2027 12:13:35.604   04 Jun 2027 12:14:11.433            35.829                Irkutsk          1119.656
       421   04 Jun 2027 12:22:24.451   04 Jun 2027 12:22:54.327            29.876                Norilsk           933.625
       422   04 Jun 2027 13:42:19.826   04 Jun 2027 13:45:54.353           214.527                  Delhi          6703.969
       423   04 Jun 2027 13:50:48.333   04 Jun 2027 13:51:47.706            59.373                Novosib          1855.406
       424   04 Jun 2027 13:52:34.220   04 Jun 2027 13:53:30.013            55.793                Novosib          1743.531
       425   04 Jun 2027 13:54:54.054   04 Jun 2027 13:56:01.529            67.475                Novosib          2108.594
       426   04 Jun 2027 15:25:21.617   04 Jun 2027 15:27:12.052           110.435                 Moscow          3451.094
       427   04 Jun 2027 15:28:52.017   04 Jun 2027 15:31:53.506           181.489              Murmansk1          5671.531
       428   04 Jun 2027 15:36:24.750   04 Jun 2027 15:38:19.059           114.309                Norilsk          3572.156
       429   04 Jun 2027 15:44:29.901   04 Jun 2027 15:45:14.605            44.704                Anadyr2          1397.000
       430   04 Jun 2027 15:46:13.232   04 Jun 2027 15:46:20.138             6.906                Anadyr1           215.813
       431   04 Jun 2027 16:41:08.923   04 Jun 2027 16:41:38.506            29.583               CapeTown           924.469
       432   04 Jun 2027 16:46:16.867   04 Jun 2027 16:46:38.340            21.473               CapeTown           671.031
       433   04 Jun 2027 16:50:34.759   04 Jun 2027 16:51:02.517            27.758               CapeTown           867.437
       434   04 Jun 2027 17:05:00.698   04 Jun 2027 17:05:26.979            26.281                 Moscow           821.281
       435   04 Jun 2027 17:06:03.371   04 Jun 2027 17:06:59.099            55.728                 Moscow          1741.500
       436   04 Jun 2027 17:08:06.556   04 Jun 2027 17:08:33.143            26.587              Murmansk1           830.844
       437   04 Jun 2027 17:10:24.914   04 Jun 2027 17:11:31.591            66.677              Murmansk1          2083.656
       438   04 Jun 2027 17:19:18.973   04 Jun 2027 17:20:00.141            41.168                Anadyr2          1286.500
       439   04 Jun 2027 17:20:12.988   04 Jun 2027 17:20:41.956            28.968                Anadyr2           905.250
       440   04 Jun 2027 17:23:22.746   04 Jun 2027 17:24:09.376            46.630                Anadyr1          1457.188
       441   04 Jun 2027 17:30:32.050   04 Jun 2027 17:30:47.939            15.889                Anadyr2           496.531
       442   04 Jun 2027 18:16:05.783   04 Jun 2027 18:16:14.903             9.120               CapeTown           285.000
       443   04 Jun 2027 18:17:00.999   04 Jun 2027 18:17:08.855             7.856               CapeTown           245.500
       444   04 Jun 2027 18:18:19.377   04 Jun 2027 18:18:45.876            26.499               CapeTown           828.094
       445   04 Jun 2027 18:48:03.904   04 Jun 2027 18:52:02.315           238.411              Murmansk2          7450.344
       446   04 Jun 2027 18:52:21.462   04 Jun 2027 18:52:25.596             4.134              Murmansk1           129.187
       447   04 Jun 2027 18:55:07.957   04 Jun 2027 18:55:10.496             2.539                Anadyr2            79.344
       448   04 Jun 2027 18:57:46.700   04 Jun 2027 18:59:39.933           113.233               Magadan2          3538.531
       449   04 Jun 2027 19:02:21.302   04 Jun 2027 19:03:26.764            65.462               Magadan2          2045.687
       450   04 Jun 2027 20:31:03.637   04 Jun 2027 20:34:47.163           223.526                Anadyr2          6985.187
       451   04 Jun 2027 20:34:59.431   04 Jun 2027 20:37:43.072           163.641               Magadan2          5113.781
       452   04 Jun 2027 20:44:42.248   04 Jun 2027 20:45:00.590            18.342               Magadan1           573.188
       453   04 Jun 2027 21:25:49.376   04 Jun 2027 21:28:31.943           162.567            RioGallegos          5080.219
       454   04 Jun 2027 21:30:29.121   04 Jun 2027 21:30:43.185            14.064            RioGallegos           439.500
       455   04 Jun 2027 21:34:33.741   04 Jun 2027 21:34:56.547            22.806            RioGallegos           712.687
       456   04 Jun 2027 22:06:44.969   04 Jun 2027 22:07:34.678            49.709                Anadyr1          1553.406
       457   04 Jun 2027 22:08:54.404   04 Jun 2027 22:10:40.747           106.343                Norilsk          3323.219
       458   04 Jun 2027 22:10:50.956   04 Jun 2027 22:11:17.412            26.456               Magadan1           826.750
       459   04 Jun 2027 22:11:42.033   04 Jun 2027 22:12:24.910            42.877               Magadan1          1339.906
       460   04 Jun 2027 22:13:15.102   04 Jun 2027 22:14:28.961            73.859                Irkutsk          2308.094
       461   04 Jun 2027 22:21:40.284   04 Jun 2027 22:22:05.624            25.340                Irkutsk           791.875
       462   04 Jun 2027 22:27:12.153   04 Jun 2027 22:27:40.245            28.092                Sumatra           877.875
       463   04 Jun 2027 22:28:45.282   04 Jun 2027 22:30:24.069            98.787                Sumatra          3087.094
       464   04 Jun 2027 23:41:40.203   04 Jun 2027 23:42:45.168            64.965                Anadyr1          2030.156
       465   04 Jun 2027 23:44:13.383   04 Jun 2027 23:44:30.871            17.488                Anadyr2           546.500
       466   04 Jun 2027 23:44:49.402   04 Jun 2027 23:45:10.943            21.541                Norilsk           673.156
       467   04 Jun 2027 23:45:27.651   04 Jun 2027 23:46:27.370            59.719                Norilsk          1866.219
       468   04 Jun 2027 23:46:36.421   04 Jun 2027 23:46:49.207            12.786                Norilsk           399.562
       469   04 Jun 2027 23:47:03.339   04 Jun 2027 23:47:09.869             6.530               Magadan1           204.063
       470   04 Jun 2027 23:47:35.772   04 Jun 2027 23:48:23.918            48.146               Magadan1          1504.562
       471   04 Jun 2027 23:48:41.213   04 Jun 2027 23:49:15.849            34.636                Irkutsk          1082.375
       472   04 Jun 2027 23:49:45.516   04 Jun 2027 23:50:48.532            63.016                Novosib          1969.250
       473   04 Jun 2027 23:51:33.862   04 Jun 2027 23:52:22.543            48.681                Novosib          1521.281
       474   04 Jun 2027 23:56:00.263   04 Jun 2027 23:56:45.158            44.895                Novosib          1402.969
       475   04 Jun 2027 23:57:06.525   04 Jun 2027 23:57:48.008            41.483                  Delhi          1296.344
       476   05 Jun 2027 00:00:01.711   05 Jun 2027 00:00:06.625             4.914                  Delhi           153.562
       477   05 Jun 2027 00:01:57.988   05 Jun 2027 00:02:33.664            35.676                  Delhi          1114.875
       478   05 Jun 2027 00:06:43.357   05 Jun 2027 00:07:10.473            27.116                  Delhi           847.375
       479   05 Jun 2027 00:41:51.150   05 Jun 2027 00:42:36.025            44.875            RioGallegos          1402.344
       480   05 Jun 2027 01:15:22.087   05 Jun 2027 01:15:53.441            31.354                Anadyr1           979.812
       481   05 Jun 2027 01:16:12.886   05 Jun 2027 01:16:40.284            27.398                Anadyr2           856.188
       482   05 Jun 2027 01:17:21.201   05 Jun 2027 01:17:49.096            27.895                Anadyr1           871.719
