uniorb/output/strategy_4/Drop/Drop_KinoSat_111405.txt

KinoSat_111405
-------------------------
    Access    *     Start Time (UTCG)     *     Stop Time (UTCG)  *   Duration (s)        *       Station  *  Data (Mbytes)
         1   01 Jun 2027 03:25:31.094   01 Jun 2027 03:25:48.387            17.293                Novosib           540.406
         2   01 Jun 2027 03:25:57.846   01 Jun 2027 03:28:45.893           168.047              Murmansk2          5251.469
         3   01 Jun 2027 03:29:04.518   01 Jun 2027 03:30:09.461            64.943              Murmansk2          2029.469
         4   01 Jun 2027 03:30:16.614   01 Jun 2027 03:32:06.175           109.561                 Moscow          3423.781
         5   01 Jun 2027 03:45:36.524   01 Jun 2027 03:49:04.012           207.488               CapeTown          6484.000
         6   01 Jun 2027 04:48:57.847   01 Jun 2027 04:49:32.374            34.527                Anadyr1          1078.969
         7   01 Jun 2027 04:49:54.573   01 Jun 2027 04:50:44.825            50.252               Magadan2          1570.375
         8   01 Jun 2027 04:50:44.825   01 Jun 2027 04:51:16.091            31.266               Magadan1           977.062
         9   01 Jun 2027 05:00:46.336   01 Jun 2027 05:01:30.918            44.582                Norilsk          1393.188
        10   01 Jun 2027 05:01:31.169   01 Jun 2027 05:03:19.710           108.541              Murmansk1          3391.906
        11   01 Jun 2027 05:04:29.072   01 Jun 2027 05:04:44.164            15.092                 Moscow           471.625
        12   01 Jun 2027 05:04:46.520   01 Jun 2027 05:04:58.899            12.379              Murmansk2           386.844
        13   01 Jun 2027 06:23:57.053   01 Jun 2027 06:23:57.362             0.309               Magadan1             9.656
        14   01 Jun 2027 06:23:58.587   01 Jun 2027 06:24:17.249            18.662                Anadyr1           583.188
        15   01 Jun 2027 06:24:43.372   01 Jun 2027 06:27:44.772           181.400               Magadan2          5668.750
        16   01 Jun 2027 06:27:44.772   01 Jun 2027 06:28:04.534            19.762               Magadan1           617.562
        17   01 Jun 2027 08:00:22.246   01 Jun 2027 08:00:50.923            28.677               Magadan1           896.156
        18   01 Jun 2027 08:01:10.490   01 Jun 2027 08:06:04.357           293.867                Anadyr2          9183.344
        19   01 Jun 2027 09:35:18.157   01 Jun 2027 09:37:50.736           152.579               Magadan1          4768.094
        20   01 Jun 2027 09:38:00.161   01 Jun 2027 09:39:04.702            64.541               Magadan2          2016.906
        21   01 Jun 2027 09:40:28.386   01 Jun 2027 09:41:15.136            46.750               Magadan1          1460.938
        22   01 Jun 2027 10:54:42.842   01 Jun 2027 10:54:45.068             2.226                Sumatra            69.563
        23   01 Jun 2027 10:55:14.296   01 Jun 2027 10:55:25.408            11.112                Sumatra           347.250
        24   01 Jun 2027 11:13:46.339   01 Jun 2027 11:14:20.199            33.860                Novosib          1058.125
        25   01 Jun 2027 11:14:47.833   01 Jun 2027 11:15:27.962            40.129                Novosib          1254.031
        26   01 Jun 2027 11:15:31.192   01 Jun 2027 11:17:52.906           141.714                Norilsk          4428.563
        27   01 Jun 2027 11:18:14.729   01 Jun 2027 11:18:23.034             8.305              Murmansk2           259.531
        28   01 Jun 2027 11:18:26.605   01 Jun 2027 11:19:02.985            36.380                 Moscow          1136.875
        29   01 Jun 2027 11:19:05.372   01 Jun 2027 11:19:35.286            29.914                Novosib           934.812
        30   01 Jun 2027 11:22:27.343   01 Jun 2027 11:22:37.847            10.504                Norilsk           328.250
        31   01 Jun 2027 11:55:42.868   01 Jun 2027 11:58:47.888           185.020            RioGallegos          5781.875
        32   01 Jun 2027 12:30:15.646   01 Jun 2027 12:31:47.052            91.406                Sumatra          2856.438
        33   01 Jun 2027 12:43:18.004   01 Jun 2027 12:44:46.170            88.166                Novosib          2755.187
        34   01 Jun 2027 12:46:12.427   01 Jun 2027 12:48:25.166           132.739                Irkutsk          4148.094
        35   01 Jun 2027 12:49:03.389   01 Jun 2027 12:50:07.943            64.554                Irkutsk          2017.313
        36   01 Jun 2027 14:16:34.245   01 Jun 2027 14:19:05.870           151.625                  Delhi          4738.281
        37   01 Jun 2027 14:21:46.472   01 Jun 2027 14:22:30.907            44.435                 Moscow          1388.594
        38   01 Jun 2027 14:23:39.994   01 Jun 2027 14:26:10.426           150.432              Murmansk2          4701.000
        39   01 Jun 2027 14:26:24.463   01 Jun 2027 14:27:48.875            84.412                Novosib          2637.875
        40   01 Jun 2027 14:31:11.193   01 Jun 2027 14:31:44.477            33.284                Norilsk          1040.125
        41   01 Jun 2027 15:35:35.202   01 Jun 2027 15:38:14.692           159.490               CapeTown          4984.063
        42   01 Jun 2027 15:57:48.873   01 Jun 2027 15:58:21.834            32.961                 Moscow          1030.031
        43   01 Jun 2027 16:00:24.263   01 Jun 2027 16:01:53.321            89.058              Murmansk2          2783.062
        44   01 Jun 2027 16:04:44.922   01 Jun 2027 16:04:46.731             1.809              Murmansk2            56.531
        45   01 Jun 2027 16:08:50.650   01 Jun 2027 16:09:39.247            48.597              Murmansk2          1518.656
        46   01 Jun 2027 16:14:55.876   01 Jun 2027 16:16:07.843            71.967                Anadyr1          2248.969
        47   01 Jun 2027 16:16:07.843   01 Jun 2027 16:16:13.837             5.994                Anadyr2           187.312
        48   01 Jun 2027 16:17:25.178   01 Jun 2027 16:18:15.271            50.093                Anadyr1          1565.406
        49   01 Jun 2027 16:18:30.025   01 Jun 2027 16:18:32.018             1.993                Anadyr2            62.281
        50   01 Jun 2027 17:09:40.295   01 Jun 2027 17:12:04.908           144.613               CapeTown          4519.156
        51   01 Jun 2027 17:39:16.185   01 Jun 2027 17:39:51.756            35.571              Murmansk1          1111.594
        52   01 Jun 2027 17:40:29.260   01 Jun 2027 17:44:27.496           238.236              Murmansk2          7444.875
        53   01 Jun 2027 17:44:51.059   01 Jun 2027 17:44:55.897             4.838              Murmansk1           151.187
        54   01 Jun 2027 17:50:19.008   01 Jun 2027 17:50:43.614            24.606                Anadyr2           768.937
        55   01 Jun 2027 17:54:17.916   01 Jun 2027 17:55:01.882            43.966               Magadan1          1373.938
        56   01 Jun 2027 17:55:39.231   01 Jun 2027 17:56:09.004            29.773               Magadan2           930.406
        57   01 Jun 2027 17:58:33.736   01 Jun 2027 17:59:25.619            51.883               Magadan1          1621.344
        58   01 Jun 2027 18:47:46.536   01 Jun 2027 18:48:10.662            24.126               CapeTown           753.938
        59   01 Jun 2027 18:51:53.788   01 Jun 2027 18:52:41.279            47.491               CapeTown          1484.094
        60   01 Jun 2027 19:26:12.698   01 Jun 2027 19:27:59.343           106.645                Anadyr2          3332.656
        61   01 Jun 2027 19:27:59.881   01 Jun 2027 19:29:58.336           118.455                Anadyr1          3701.719
        62   01 Jun 2027 19:30:17.511   01 Jun 2027 19:33:36.221           198.710               Magadan2          6209.688
        63   01 Jun 2027 21:02:06.197   01 Jun 2027 21:05:41.786           215.589                Anadyr1          6737.156
        64   01 Jun 2027 21:05:48.330   01 Jun 2027 21:05:50.523             2.193                Norilsk            68.531
        65   01 Jun 2027 21:05:58.340   01 Jun 2027 21:09:42.788           224.448               Magadan1          7014.000
        66   01 Jun 2027 21:10:38.774   01 Jun 2027 21:11:13.581            34.807                Irkutsk          1087.719
        67   01 Jun 2027 21:11:24.852   01 Jun 2027 21:11:52.624            27.772                Irkutsk           867.875
        68   01 Jun 2027 21:13:12.960   01 Jun 2027 21:13:42.984            30.024                Irkutsk           938.250
        69   01 Jun 2027 21:56:20.188   01 Jun 2027 21:57:34.773            74.585            RioGallegos          2330.781
        70   01 Jun 2027 22:01:39.244   01 Jun 2027 22:02:27.913            48.669            RioGallegos          1520.906
        71   01 Jun 2027 22:05:03.443   01 Jun 2027 22:05:47.057            43.614            RioGallegos          1362.938
        72   01 Jun 2027 22:37:37.023   01 Jun 2027 22:39:11.550            94.527                Anadyr2          2953.969
        73   01 Jun 2027 22:39:56.667   01 Jun 2027 22:41:46.966           110.299                Norilsk          3446.844
        74   01 Jun 2027 22:41:48.451   01 Jun 2027 22:43:35.237           106.786               Magadan1          3337.063
        75   01 Jun 2027 22:44:00.649   01 Jun 2027 22:44:25.567            24.918                Irkutsk           778.687
        76   01 Jun 2027 22:45:19.353   01 Jun 2027 22:45:39.129            19.776                Novosib           618.000
        77   01 Jun 2027 22:45:45.585   01 Jun 2027 22:46:56.482            70.897                Novosib          2215.531
        78   01 Jun 2027 22:51:43.297   01 Jun 2027 22:52:08.906            25.609                Novosib           800.281
        79   01 Jun 2027 22:57:43.796   01 Jun 2027 22:58:17.295            33.499                Sumatra          1046.844
        80   01 Jun 2027 23:06:16.092   01 Jun 2027 23:07:14.522            58.430                Sumatra          1825.938
        81   01 Jun 2027 23:37:05.008   01 Jun 2027 23:37:41.290            36.282            RioGallegos          1133.812
        82   01 Jun 2027 23:40:59.334   01 Jun 2027 23:41:27.947            28.613            RioGallegos           894.156
        83   01 Jun 2027 23:43:46.940   01 Jun 2027 23:44:28.721            41.781            RioGallegos          1305.656
        84   02 Jun 2027 00:12:31.017   02 Jun 2027 00:13:22.260            51.243                Anadyr1          1601.344
        85   02 Jun 2027 00:14:26.657   02 Jun 2027 00:14:58.973            32.316                Anadyr2          1009.875
        86   02 Jun 2027 00:15:55.597   02 Jun 2027 00:17:46.333           110.736                Norilsk          3460.500
        87   02 Jun 2027 00:18:23.544   02 Jun 2027 00:19:51.690            88.146               Magadan2          2754.563
        88   02 Jun 2027 00:21:00.607   02 Jun 2027 00:21:33.616            33.009                Novosib          1031.531
        89   02 Jun 2027 00:23:23.446   02 Jun 2027 00:24:03.184            39.738                Irkutsk          1241.812
        90   02 Jun 2027 00:25:06.078   02 Jun 2027 00:25:37.713            31.635                Novosib           988.594
        91   02 Jun 2027 00:29:34.358   02 Jun 2027 00:29:50.708            16.350                  Delhi           510.937
        92   02 Jun 2027 00:30:58.768   02 Jun 2027 00:31:24.064            25.296                Novosib           790.500
        93   02 Jun 2027 00:32:06.690   02 Jun 2027 00:33:37.809            91.119                  Delhi          2847.469
        94   02 Jun 2027 01:12:19.720   02 Jun 2027 01:12:30.228            10.508            RioGallegos           328.375
        95   02 Jun 2027 01:13:46.148   02 Jun 2027 01:14:04.734            18.586            RioGallegos           580.812
        96   02 Jun 2027 01:15:49.081   02 Jun 2027 01:16:33.924            44.843            RioGallegos          1401.344
        97   02 Jun 2027 01:45:34.271   02 Jun 2027 01:45:48.023            13.752                Anadyr2           429.750
        98   02 Jun 2027 01:45:57.420   02 Jun 2027 01:46:21.509            24.089                Anadyr2           752.781
        99   02 Jun 2027 01:46:46.005   02 Jun 2027 01:47:00.136            14.131                Anadyr1           441.594
       100   02 Jun 2027 01:47:42.173   02 Jun 2027 01:48:03.681            21.508                Anadyr1           672.125
       101   02 Jun 2027 01:48:23.631   02 Jun 2027 01:48:26.248             2.617                Anadyr2            81.781
       102   02 Jun 2027 01:48:32.418   02 Jun 2027 01:48:37.531             5.113                Anadyr2           159.781
       103   02 Jun 2027 01:51:05.993   02 Jun 2027 01:51:34.452            28.459                Anadyr2           889.344
       104   02 Jun 2027 01:51:45.698   02 Jun 2027 01:52:03.440            17.742               Magadan2           554.438
       105   02 Jun 2027 01:52:06.622   02 Jun 2027 01:52:58.364            51.742               Magadan1          1616.938
       106   02 Jun 2027 01:53:24.018   02 Jun 2027 01:53:34.371            10.353                Norilsk           323.531
       107   02 Jun 2027 01:54:11.506   02 Jun 2027 01:54:13.739             2.233              Murmansk1            69.781
       108   02 Jun 2027 01:55:00.382   02 Jun 2027 01:56:16.972            76.590              Murmansk1          2393.437
       109   02 Jun 2027 01:56:25.411   02 Jun 2027 01:58:11.243           105.832                Novosib          3307.250
       110   02 Jun 2027 02:05:06.728   02 Jun 2027 02:07:21.961           135.233                  Delhi          4226.031
       111   02 Jun 2027 03:26:54.477   02 Jun 2027 03:27:36.199            41.722               Magadan2          1303.813
       112   02 Jun 2027 03:37:05.554   02 Jun 2027 03:37:28.790            23.236                Norilsk           726.125
       113   02 Jun 2027 03:37:37.258   02 Jun 2027 03:38:02.304            25.046                Norilsk           782.687
       114   02 Jun 2027 03:38:42.152   02 Jun 2027 03:39:45.422            63.270              Murmansk1          1977.188
       115   02 Jun 2027 03:39:56.062   02 Jun 2027 03:40:02.626             6.564              Murmansk1           205.125
       116   02 Jun 2027 03:40:02.626   02 Jun 2027 03:41:43.257           100.631              Murmansk2          3144.719
       117   02 Jun 2027 03:41:51.214   02 Jun 2027 03:44:04.669           133.455                 Moscow          4170.469
       118   02 Jun 2027 05:00:32.905   02 Jun 2027 05:01:32.953            60.048               Magadan2          1876.500
       119   02 Jun 2027 05:01:40.600   02 Jun 2027 05:02:25.350            44.750                Anadyr1          1398.437
       120   02 Jun 2027 05:02:51.565   02 Jun 2027 05:03:04.530            12.965                Anadyr2           405.156
       121   02 Jun 2027 05:03:19.034   02 Jun 2027 05:03:28.564             9.530                Anadyr1           297.813
       122   02 Jun 2027 05:03:40.918   02 Jun 2027 05:03:48.965             8.047               Magadan2           251.469
       123   02 Jun 2027 05:05:10.115   02 Jun 2027 05:05:15.711             5.596               Magadan2           174.875
       124   02 Jun 2027 06:37:34.687   02 Jun 2027 06:39:59.631           144.944                Anadyr1          4529.500
       125   02 Jun 2027 06:40:27.216   02 Jun 2027 06:40:59.404            32.188                Anadyr1          1005.875
       126   02 Jun 2027 08:12:53.572   02 Jun 2027 08:15:44.306           170.734               Magadan2          5335.438
       127   02 Jun 2027 08:15:52.761   02 Jun 2027 08:18:15.725           142.964               Magadan1          4467.625
       128   02 Jun 2027 09:48:46.050   02 Jun 2027 09:50:30.323           104.273               Magadan2          3258.531
       129   02 Jun 2027 09:50:35.921   02 Jun 2027 09:50:39.717             3.796               Magadan2           118.625
       130   02 Jun 2027 09:51:13.210   02 Jun 2027 09:51:58.413            45.203                Irkutsk          1412.594
       131   02 Jun 2027 09:52:05.015   02 Jun 2027 09:52:24.907            19.892                Norilsk           621.625
       132   02 Jun 2027 09:52:26.027   02 Jun 2027 09:52:56.420            30.393               Magadan1           949.781
       133   02 Jun 2027 09:53:04.193   02 Jun 2027 09:53:05.121             0.928                Irkutsk            29.000
       134   02 Jun 2027 09:53:08.882   02 Jun 2027 09:53:31.493            22.611                Irkutsk           706.594
       135   02 Jun 2027 09:54:02.608   02 Jun 2027 09:54:06.906             4.298                Irkutsk           134.313
       136   02 Jun 2027 10:28:55.019   02 Jun 2027 10:29:35.018            39.999            RioGallegos          1249.969
       137   02 Jun 2027 10:30:42.789   02 Jun 2027 10:30:54.657            11.868            RioGallegos           370.875
       138   02 Jun 2027 10:31:51.320   02 Jun 2027 10:31:59.708             8.388            RioGallegos           262.125
       139   02 Jun 2027 11:03:40.342   02 Jun 2027 11:04:38.274            57.932                Sumatra          1810.375
       140   02 Jun 2027 11:06:33.506   02 Jun 2027 11:06:43.718            10.212                Sumatra           319.125
       141   02 Jun 2027 11:16:56.216   02 Jun 2027 11:17:27.970            31.754                  Delhi           992.313
       142   02 Jun 2027 11:25:08.564   02 Jun 2027 11:26:03.406            54.842                Irkutsk          1713.812
       143   02 Jun 2027 11:27:01.515   02 Jun 2027 11:27:22.847            21.332                Novosib           666.625
       144   02 Jun 2027 11:27:29.027   02 Jun 2027 11:27:50.248            21.221                Novosib           663.156
       145   02 Jun 2027 11:27:53.463   02 Jun 2027 11:28:20.706            27.243                Novosib           851.344
       146   02 Jun 2027 11:28:25.390   02 Jun 2027 11:28:56.988            31.598                Irkutsk           987.437
       147   02 Jun 2027 11:29:10.051   02 Jun 2027 11:29:32.358            22.307                Novosib           697.094
       148   02 Jun 2027 11:29:35.608   02 Jun 2027 11:29:38.479             2.871                Norilsk            89.719
       149   02 Jun 2027 11:29:44.111   02 Jun 2027 11:30:51.898            67.787                Novosib          2118.344
       150   02 Jun 2027 12:08:39.671   02 Jun 2027 12:08:59.777            20.106            RioGallegos           628.313
       151   02 Jun 2027 12:12:53.872   02 Jun 2027 12:13:10.982            17.110            RioGallegos           534.688
       152   02 Jun 2027 12:44:26.010   02 Jun 2027 12:46:32.841           126.831                Sumatra          3963.469
       153   02 Jun 2027 12:56:18.693   02 Jun 2027 12:56:52.927            34.234                Novosib          1069.813
       154   02 Jun 2027 12:57:43.594   02 Jun 2027 13:00:03.009           139.415                Novosib          4356.719
       155   02 Jun 2027 14:32:16.984   02 Jun 2027 14:36:03.130           226.146                 Moscow          7067.062
       156   02 Jun 2027 14:37:01.825   02 Jun 2027 14:37:44.677            42.852              Murmansk1          1339.125
       157   02 Jun 2027 14:37:55.070   02 Jun 2027 14:38:11.268            16.198              Murmansk2           506.187
       158   02 Jun 2027 14:38:45.585   02 Jun 2027 14:39:03.139            17.554              Murmansk1           548.563
       159   02 Jun 2027 14:39:10.945   02 Jun 2027 14:39:28.035            17.090              Murmansk1           534.063
       160   02 Jun 2027 14:39:30.025   02 Jun 2027 14:40:55.158            85.133                Norilsk          2660.406
       161   02 Jun 2027 14:41:32.630   02 Jun 2027 14:43:10.713            98.083                Norilsk          3065.094
       162   02 Jun 2027 15:47:02.533   02 Jun 2027 15:48:16.187            73.654               CapeTown          2301.687
       163   02 Jun 2027 16:09:27.609   02 Jun 2027 16:10:31.090            63.481                 Moscow          1983.781
       164   02 Jun 2027 16:12:40.077   02 Jun 2027 16:13:20.075            39.998              Murmansk2          1249.937
       165   02 Jun 2027 16:14:40.246   02 Jun 2027 16:15:01.871            21.625              Murmansk1           675.781
       166   02 Jun 2027 16:20:29.750   02 Jun 2027 16:20:52.608            22.858              Murmansk2           714.313
       167   02 Jun 2027 16:21:30.022   02 Jun 2027 16:21:50.859            20.837              Murmansk1           651.156
       168   02 Jun 2027 16:26:48.868   02 Jun 2027 16:28:03.094            74.226                Anadyr1          2319.562
       169   02 Jun 2027 16:28:03.094   02 Jun 2027 16:28:25.626            22.532                Anadyr2           704.125
       170   02 Jun 2027 16:29:48.015   02 Jun 2027 16:30:25.565            37.550                Anadyr2          1173.438
       171   02 Jun 2027 16:35:02.389   02 Jun 2027 16:35:13.589            11.200                Anadyr1           350.000
       172   02 Jun 2027 16:35:48.350   02 Jun 2027 16:36:03.289            14.939                Anadyr2           466.844
       173   02 Jun 2027 17:21:44.029   02 Jun 2027 17:23:49.105           125.076               CapeTown          3908.625
       174   02 Jun 2027 17:51:51.697   02 Jun 2027 17:52:45.489            53.792              Murmansk2          1681.000
       175   02 Jun 2027 17:53:45.932   02 Jun 2027 17:54:21.913            35.981              Murmansk1          1124.406
       176   02 Jun 2027 17:55:01.884   02 Jun 2027 17:56:44.612           102.728              Murmansk1          3210.250
       177   02 Jun 2027 18:02:19.556   02 Jun 2027 18:02:29.394             9.838                Anadyr1           307.438
       178   02 Jun 2027 18:03:00.226   02 Jun 2027 18:03:23.512            23.286                Anadyr1           727.688
       179   02 Jun 2027 18:03:33.134   02 Jun 2027 18:03:47.106            13.972                Anadyr1           436.625
       180   02 Jun 2027 18:04:00.320   02 Jun 2027 18:04:06.142             5.822                Anadyr1           181.937
       181   02 Jun 2027 18:05:52.070   02 Jun 2027 18:06:29.617            37.547               Magadan1          1173.344
       182   02 Jun 2027 18:06:29.617   02 Jun 2027 18:08:31.292           121.675               Magadan2          3802.344
       183   02 Jun 2027 18:12:10.307   02 Jun 2027 18:13:09.346            59.039               Magadan1          1844.969
       184   02 Jun 2027 19:38:14.330   02 Jun 2027 19:39:59.890           105.560                Anadyr2          3298.750
       185   02 Jun 2027 19:40:16.451   02 Jun 2027 19:41:59.763           103.312                Anadyr1          3228.500
       186   02 Jun 2027 19:42:01.227   02 Jun 2027 19:43:00.676            59.449               Magadan1          1857.781
       187   02 Jun 2027 19:43:03.088   02 Jun 2027 19:43:22.925            19.837               Magadan2           619.906
       188   02 Jun 2027 19:43:38.671   02 Jun 2027 19:43:47.720             9.049               Magadan2           282.781
       189   02 Jun 2027 19:45:36.768   02 Jun 2027 19:45:45.766             8.998               Magadan1           281.187
       190   02 Jun 2027 19:48:14.650   02 Jun 2027 19:48:32.388            17.738               Magadan2           554.312
       191   02 Jun 2027 19:49:18.199   02 Jun 2027 19:49:54.007            35.808               Magadan2          1119.000
       192   02 Jun 2027 21:14:06.406   02 Jun 2027 21:16:16.368           129.962                Anadyr1          4061.313
       193   02 Jun 2027 21:16:21.007   02 Jun 2027 21:19:55.168           214.161                Norilsk          6692.531
       194   02 Jun 2027 21:20:05.050   02 Jun 2027 21:20:39.445            34.395               Magadan2          1074.844
       195   02 Jun 2027 21:20:49.895   02 Jun 2027 21:21:32.261            42.366               Magadan1          1323.937
       196   02 Jun 2027 21:21:51.235   02 Jun 2027 21:21:57.469             6.234                Irkutsk           194.812
       197   02 Jun 2027 21:23:18.884   02 Jun 2027 21:24:07.723            48.839                Irkutsk          1526.219
       198   02 Jun 2027 21:24:11.044   02 Jun 2027 21:24:15.284             4.240                Irkutsk           132.500
       199   02 Jun 2027 21:27:17.475   02 Jun 2027 21:28:09.804            52.329                Irkutsk          1635.281
       200   02 Jun 2027 21:38:10.294   02 Jun 2027 21:39:11.642            61.348                Sumatra          1917.125
       201   02 Jun 2027 21:42:32.211   02 Jun 2027 21:42:56.339            24.128                Sumatra           754.000
       202   02 Jun 2027 22:16:36.176   02 Jun 2027 22:17:17.177            41.001            RioGallegos          1281.281
       203   02 Jun 2027 22:49:32.079   02 Jun 2027 22:50:57.224            85.145                Anadyr1          2660.781
       204   02 Jun 2027 22:51:58.018   02 Jun 2027 22:53:33.008            94.990                Norilsk          2968.437
       205   02 Jun 2027 22:54:05.033   02 Jun 2027 22:54:33.525            28.492               Magadan1           890.375
       206   02 Jun 2027 22:55:57.733   02 Jun 2027 22:57:06.645            68.912                Irkutsk          2153.500
       207   02 Jun 2027 22:57:10.100   02 Jun 2027 22:57:45.619            35.519                Novosib          1109.969
       208   02 Jun 2027 22:59:38.461   02 Jun 2027 23:00:24.768            46.307                Novosib          1447.094
       209   02 Jun 2027 23:09:40.304   02 Jun 2027 23:10:10.591            30.287                Sumatra           946.469
       210   02 Jun 2027 23:12:07.182   02 Jun 2027 23:12:31.231            24.049                Sumatra           751.531
       211   02 Jun 2027 23:14:07.230   02 Jun 2027 23:15:38.214            90.984                Sumatra          2843.250
       212   03 Jun 2027 00:23:54.400   03 Jun 2027 00:25:32.191            97.791                Anadyr1          3055.969
       213   03 Jun 2027 00:27:57.774   03 Jun 2027 00:28:10.120            12.346                Norilsk           385.813
       214   03 Jun 2027 00:28:35.860   03 Jun 2027 00:30:39.812           123.952               Magadan2          3873.500
       215   03 Jun 2027 00:31:31.252   03 Jun 2027 00:32:39.003            67.751              Murmansk1          2117.219
       216   03 Jun 2027 00:32:39.003   03 Jun 2027 00:34:23.081           104.078              Murmansk2          3252.437
       217   03 Jun 2027 00:39:14.607   03 Jun 2027 00:40:06.380            51.773                  Delhi          1617.906
       218   03 Jun 2027 00:46:18.119   03 Jun 2027 00:46:43.319            25.200                  Delhi           787.500
       219   03 Jun 2027 01:20:39.279   03 Jun 2027 01:21:04.432            25.153            RioGallegos           786.031
       220   03 Jun 2027 01:22:00.176   03 Jun 2027 01:22:12.902            12.726            RioGallegos           397.687
       221   03 Jun 2027 01:23:34.063   03 Jun 2027 01:23:58.613            24.550            RioGallegos           767.188
       222   03 Jun 2027 01:25:02.600   03 Jun 2027 01:25:45.699            43.099            RioGallegos          1346.844
       223   03 Jun 2027 01:57:15.422   03 Jun 2027 01:57:20.515             5.093                Anadyr1           159.156
       224   03 Jun 2027 01:57:29.737   03 Jun 2027 01:57:40.942            11.205                Anadyr1           350.156
       225   03 Jun 2027 01:57:55.781   03 Jun 2027 01:58:17.996            22.215                Anadyr1           694.219
       226   03 Jun 2027 01:59:14.447   03 Jun 2027 01:59:41.424            26.977                Anadyr1           843.031
       227   03 Jun 2027 02:00:15.869   03 Jun 2027 02:00:26.643            10.774                Anadyr2           336.688
       228   03 Jun 2027 02:02:14.004   03 Jun 2027 02:03:01.320            47.316                Anadyr1          1478.625
       229   03 Jun 2027 02:03:27.571   03 Jun 2027 02:03:43.812            16.241               Magadan1           507.531
       230   03 Jun 2027 02:03:55.259   03 Jun 2027 02:04:08.192            12.933                Norilsk           404.156
       231   03 Jun 2027 02:04:08.914   03 Jun 2027 02:04:32.394            23.480               Magadan2           733.750
       232   03 Jun 2027 02:05:19.021   03 Jun 2027 02:05:45.777            26.756               Magadan2           836.125
       233   03 Jun 2027 02:06:10.880   03 Jun 2027 02:07:40.970            90.090              Murmansk2          2815.312
       234   03 Jun 2027 02:07:48.087   03 Jun 2027 02:08:51.377            63.290                Novosib          1977.813
       235   03 Jun 2027 02:14:35.916   03 Jun 2027 02:14:44.628             8.712                 Moscow           272.250
       236   03 Jun 2027 02:15:24.081   03 Jun 2027 02:15:35.075            10.994                Novosib           343.563
       237   03 Jun 2027 02:16:03.177   03 Jun 2027 02:16:34.794            31.617                  Delhi           988.031
       238   03 Jun 2027 02:18:24.910   03 Jun 2027 02:19:17.164            52.254                  Delhi          1632.938
       239   03 Jun 2027 03:35:07.178   03 Jun 2027 03:35:20.651            13.473                Anadyr2           421.031
       240   03 Jun 2027 03:38:34.365   03 Jun 2027 03:39:28.892            54.527               Magadan2          1703.969
       241   03 Jun 2027 03:49:37.861   03 Jun 2027 03:49:43.896             6.035                Norilsk           188.594
       242   03 Jun 2027 03:50:17.453   03 Jun 2027 03:50:38.742            21.289              Murmansk1           665.281
       243   03 Jun 2027 03:50:38.742   03 Jun 2027 03:51:39.752            61.010              Murmansk2          1906.563
       244   03 Jun 2027 03:51:44.777   03 Jun 2027 03:54:35.895           171.118              Murmansk2          5347.437
       245   03 Jun 2027 03:54:56.955   03 Jun 2027 03:55:21.365            24.410                 Moscow           762.813
       246   03 Jun 2027 03:56:00.375   03 Jun 2027 03:56:47.320            46.945                 Moscow          1467.031
       247   03 Jun 2027 05:12:49.976   03 Jun 2027 05:16:34.488           224.512               Magadan1          7016.000
       248   03 Jun 2027 05:16:47.413   03 Jun 2027 05:18:50.991           123.578                Anadyr2          3861.813
       249   03 Jun 2027 06:48:15.297   03 Jun 2027 06:48:21.985             6.688               Magadan2           209.000
       250   03 Jun 2027 06:48:21.985   03 Jun 2027 06:48:38.306            16.321               Magadan1           510.031
       251   03 Jun 2027 06:48:46.827   03 Jun 2027 06:49:19.212            32.385                Anadyr1          1012.031
       252   03 Jun 2027 06:49:19.212   03 Jun 2027 06:49:44.297            25.085                Anadyr2           783.906
       253   03 Jun 2027 06:49:53.035   03 Jun 2027 06:51:00.407            67.372                Anadyr1          2105.375
       254   03 Jun 2027 06:51:07.370   03 Jun 2027 06:51:10.404             3.034               Magadan1            94.813
       255   03 Jun 2027 06:51:10.404   03 Jun 2027 06:51:22.109            11.705               Magadan2           365.781
       256   03 Jun 2027 06:51:44.776   03 Jun 2027 06:52:32.956            48.180                Anadyr1          1505.625
       257   03 Jun 2027 06:52:42.031   03 Jun 2027 06:53:30.005            47.974               Magadan2          1499.187
       258   03 Jun 2027 08:21:02.376   03 Jun 2027 08:21:38.768            36.392               Magadan1          1137.250
       259   03 Jun 2027 08:22:54.504   03 Jun 2027 08:23:18.818            24.314               Magadan1           759.813
       260   03 Jun 2027 08:23:45.361   03 Jun 2027 08:24:10.046            24.685               Magadan1           771.406
       261   03 Jun 2027 08:24:56.006   03 Jun 2027 08:25:25.320            29.314               Magadan2           916.062
       262   03 Jun 2027 08:25:42.890   03 Jun 2027 08:25:56.386            13.496                Irkutsk           421.750
       263   03 Jun 2027 08:26:21.168   03 Jun 2027 08:26:54.699            33.531                Irkutsk          1047.844
       264   03 Jun 2027 08:27:04.009   03 Jun 2027 08:27:45.752            41.743                Anadyr1          1304.469
       265   03 Jun 2027 08:27:52.183   03 Jun 2027 08:28:06.130            13.947               Magadan2           435.844
       266   03 Jun 2027 08:28:21.674   03 Jun 2027 08:28:54.259            32.585                Anadyr1          1018.281
       267   03 Jun 2027 08:29:21.439   03 Jun 2027 08:30:13.878            52.439               Magadan2          1638.719
       268   03 Jun 2027 09:05:23.926   03 Jun 2027 09:06:05.851            41.925            RioGallegos          1310.156
       269   03 Jun 2027 09:43:18.493   03 Jun 2027 09:44:40.759            82.266                Sumatra          2570.812
       270   03 Jun 2027 10:01:52.281   03 Jun 2027 10:02:18.082            25.801                Irkutsk           806.281
       271   03 Jun 2027 10:02:48.556   03 Jun 2027 10:02:56.661             8.105                Irkutsk           253.281
       272   03 Jun 2027 10:04:05.324   03 Jun 2027 10:04:07.206             1.882                Irkutsk            58.813
       273   03 Jun 2027 10:04:13.769   03 Jun 2027 10:04:19.400             5.631                Norilsk           175.969
       274   03 Jun 2027 10:04:22.546   03 Jun 2027 10:04:28.306             5.760               Magadan1           180.000
       275   03 Jun 2027 10:04:32.475   03 Jun 2027 10:04:39.607             7.132                Norilsk           222.875
       276   03 Jun 2027 10:04:42.866   03 Jun 2027 10:04:52.617             9.751                Novosib           304.719
       277   03 Jun 2027 10:05:03.839   03 Jun 2027 10:05:17.385            13.546                Irkutsk           423.313
       278   03 Jun 2027 10:05:21.169   03 Jun 2027 10:05:23.219             2.050                Irkutsk            64.063
       279   03 Jun 2027 10:05:36.685   03 Jun 2027 10:05:53.907            17.222                Novosib           538.187
       280   03 Jun 2027 10:05:55.847   03 Jun 2027 10:06:18.155            22.308                Norilsk           697.125
       281   03 Jun 2027 10:41:06.954   03 Jun 2027 10:42:20.189            73.235            RioGallegos          2288.594
       282   03 Jun 2027 11:15:41.682   03 Jun 2027 11:15:47.521             5.839                Sumatra           182.469
       283   03 Jun 2027 11:17:35.136   03 Jun 2027 11:18:20.771            45.635                Sumatra          1426.094
       284   03 Jun 2027 11:28:14.097   03 Jun 2027 11:28:38.008            23.911                  Delhi           747.219
       285   03 Jun 2027 11:36:55.324   03 Jun 2027 11:37:09.054            13.730                Irkutsk           429.062
       286   03 Jun 2027 11:37:51.575   03 Jun 2027 11:38:17.765            26.190                Novosib           818.438
       287   03 Jun 2027 11:38:40.853   03 Jun 2027 11:39:12.893            32.040                Novosib          1001.250
       288   03 Jun 2027 11:39:15.933   03 Jun 2027 11:39:36.396            20.463                Novosib           639.469
       289   03 Jun 2027 11:40:02.708   03 Jun 2027 11:40:41.722            39.014                Norilsk          1219.188
       290   03 Jun 2027 11:40:48.904   03 Jun 2027 11:41:31.243            42.339                Novosib          1323.094
       291   03 Jun 2027 11:41:36.597   03 Jun 2027 11:41:37.293             0.696                Norilsk            21.750
       292   03 Jun 2027 11:41:49.312   03 Jun 2027 11:42:39.113            49.801                Novosib          1556.281
       293   03 Jun 2027 12:21:56.889   03 Jun 2027 12:22:40.013            43.124            RioGallegos          1347.625
       294   03 Jun 2027 13:01:00.706   03 Jun 2027 13:01:16.286            15.580                  Delhi           486.875
       295   03 Jun 2027 13:02:06.868   03 Jun 2027 13:02:55.972            49.104                  Delhi          1534.500
       296   03 Jun 2027 13:03:36.425   03 Jun 2027 13:04:40.128            63.703                  Delhi          1990.719
       297   03 Jun 2027 13:08:02.447   03 Jun 2027 13:08:26.084            23.637                Novosib           738.656
       298   03 Jun 2027 13:09:38.763   03 Jun 2027 13:10:13.384            34.621                Novosib          1081.906
       299   03 Jun 2027 13:12:02.697   03 Jun 2027 13:13:01.141            58.444                Novosib          1826.375
       300   03 Jun 2027 13:15:08.577   03 Jun 2027 13:15:34.955            26.378                Norilsk           824.313
       301   03 Jun 2027 14:44:16.818   03 Jun 2027 14:47:58.545           221.727                 Moscow          6928.969
       302   03 Jun 2027 14:49:03.680   03 Jun 2027 14:50:25.916            82.236              Murmansk1          2569.875
       303   03 Jun 2027 14:52:10.582   03 Jun 2027 14:53:31.017            80.435                Norilsk          2513.594
       304   03 Jun 2027 14:55:09.347   03 Jun 2027 14:56:56.576           107.229                Norilsk          3350.906
       305   03 Jun 2027 15:58:39.151   03 Jun 2027 15:59:51.555            72.404               CapeTown          2262.625
       306   03 Jun 2027 16:02:01.913   03 Jun 2027 16:02:46.570            44.657               CapeTown          1395.531
       307   03 Jun 2027 16:21:55.625   03 Jun 2027 16:22:43.684            48.059                 Moscow          1501.844
       308   03 Jun 2027 16:24:57.954   03 Jun 2027 16:26:12.347            74.393              Murmansk1          2324.781
       309   03 Jun 2027 16:27:17.033   03 Jun 2027 16:28:43.198            86.165              Murmansk2          2692.656
       310   03 Jun 2027 16:38:43.837   03 Jun 2027 16:39:57.359            73.522                Anadyr1          2297.563
       311   03 Jun 2027 16:40:22.228   03 Jun 2027 16:40:40.101            17.873                Anadyr2           558.531
       312   03 Jun 2027 16:45:05.850   03 Jun 2027 16:45:39.464            33.614                Anadyr2          1050.437
       313   03 Jun 2027 17:33:50.578   03 Jun 2027 17:34:40.678            50.100               CapeTown          1565.625
       314   03 Jun 2027 17:34:51.442   03 Jun 2027 17:35:52.951            61.509               CapeTown          1922.156
       315   03 Jun 2027 18:04:30.688   03 Jun 2027 18:05:53.821            83.133              Murmansk1          2597.906
       316   03 Jun 2027 18:05:55.984   03 Jun 2027 18:08:43.669           167.685              Murmansk2          5240.156
       317   03 Jun 2027 18:14:20.412   03 Jun 2027 18:14:45.335            24.923                Anadyr1           778.844
       318   03 Jun 2027 18:15:53.008   03 Jun 2027 18:16:07.627            14.619                Anadyr1           456.844
       319   03 Jun 2027 18:17:34.559   03 Jun 2027 18:18:28.702            54.143               Magadan2          1691.969
       320   03 Jun 2027 18:18:28.702   03 Jun 2027 18:18:46.637            17.935               Magadan1           560.469
       321   03 Jun 2027 18:19:03.547   03 Jun 2027 18:19:12.560             9.013               Magadan1           281.656
       322   03 Jun 2027 18:19:32.778   03 Jun 2027 18:19:57.903            25.125               Magadan1           785.156
       323   03 Jun 2027 19:50:15.924   03 Jun 2027 19:52:00.136           104.212                Anadyr2          3256.625
       324   03 Jun 2027 19:52:06.639   03 Jun 2027 19:54:01.057           114.418                Anadyr1          3575.562
       325   03 Jun 2027 19:54:08.507   03 Jun 2027 19:54:55.850            47.343               Magadan1          1479.469
       326   03 Jun 2027 19:55:08.087   03 Jun 2027 19:55:50.055            41.968               Magadan2          1311.500
       327   03 Jun 2027 19:56:18.810   03 Jun 2027 19:56:37.133            18.323               Magadan1           572.594
       328   03 Jun 2027 19:57:30.837   03 Jun 2027 19:57:56.099            25.262               Magadan2           789.438
       329   03 Jun 2027 19:57:56.099   03 Jun 2027 19:59:23.221            87.122               Magadan1          2722.562
       330   03 Jun 2027 20:47:01.158   03 Jun 2027 20:49:08.783           127.625            RioGallegos          3988.281
       331   03 Jun 2027 21:26:06.225   03 Jun 2027 21:27:28.254            82.029                Anadyr1          2563.406
       332   03 Jun 2027 21:27:41.070   03 Jun 2027 21:27:48.855             7.785                Anadyr1           243.281
       333   03 Jun 2027 21:28:16.394   03 Jun 2027 21:30:17.186           120.792                Norilsk          3774.750
       334   03 Jun 2027 21:30:31.947   03 Jun 2027 21:30:51.781            19.834                Norilsk           619.813
       335   03 Jun 2027 21:30:52.491   03 Jun 2027 21:30:59.680             7.189               Magadan2           224.656
       336   03 Jun 2027 21:31:13.506   03 Jun 2027 21:32:17.937            64.431                Norilsk          2013.469
       337   03 Jun 2027 21:33:21.954   03 Jun 2027 21:35:03.925           101.971                Irkutsk          3186.594
       338   03 Jun 2027 21:48:40.317   03 Jun 2027 21:50:36.783           116.466                Sumatra          3639.563
       339   03 Jun 2027 21:53:00.330   03 Jun 2027 21:53:33.147            32.817                Sumatra          1025.531
       340   03 Jun 2027 21:54:23.747   03 Jun 2027 21:56:16.858           113.111                Sumatra          3534.719
       341   03 Jun 2027 23:03:59.625   03 Jun 2027 23:04:11.276            11.651                Norilsk           364.094
       342   03 Jun 2027 23:04:25.036   03 Jun 2027 23:05:12.556            47.520                Norilsk          1485.000
       343   03 Jun 2027 23:05:19.098   03 Jun 2027 23:05:32.296            13.198               Magadan1           412.438
       344   03 Jun 2027 23:05:51.637   03 Jun 2027 23:06:28.015            36.378               Magadan1          1136.812
       345   03 Jun 2027 23:07:56.093   03 Jun 2027 23:09:05.395            69.302                Irkutsk          2165.688
       346   03 Jun 2027 23:09:08.807   03 Jun 2027 23:09:43.826            35.019                Novosib          1094.344
       347   03 Jun 2027 23:16:42.335   03 Jun 2027 23:16:51.124             8.789                Novosib           274.656
       348   03 Jun 2027 23:18:00.640   03 Jun 2027 23:18:20.908            20.268                Novosib           633.375
       349   03 Jun 2027 23:19:37.505   03 Jun 2027 23:20:37.328            59.823                  Delhi          1869.469
       350   03 Jun 2027 23:27:33.796   03 Jun 2027 23:28:00.369            26.573                Sumatra           830.406
       351   03 Jun 2027 23:30:36.471   03 Jun 2027 23:30:37.336             0.865                Sumatra            27.031
       352   03 Jun 2027 23:31:26.348   03 Jun 2027 23:31:51.068            24.720                Sumatra           772.500
       353   04 Jun 2027 00:05:36.556   04 Jun 2027 00:06:06.702            30.146            RioGallegos           942.062
       354   04 Jun 2027 00:07:57.375   04 Jun 2027 00:08:10.567            13.192            RioGallegos           412.250
       355   04 Jun 2027 00:35:38.638   04 Jun 2027 00:36:33.163            54.525                Anadyr2          1703.906
       356   04 Jun 2027 00:37:37.226   04 Jun 2027 00:37:55.978            18.752                Anadyr2           586.000
       357   04 Jun 2027 00:38:08.433   04 Jun 2027 00:38:22.401            13.968                Anadyr1           436.500
       358   04 Jun 2027 00:39:59.912   04 Jun 2027 00:40:23.907            23.995                Norilsk           749.844
       359   04 Jun 2027 00:40:36.480   04 Jun 2027 00:42:17.944           101.464               Magadan2          3170.750
       360   04 Jun 2027 00:42:42.668   04 Jun 2027 00:42:50.486             7.818               Magadan2           244.312
       361   04 Jun 2027 00:43:05.040   04 Jun 2027 00:45:19.445           134.405              Murmansk2          4200.156
       362   04 Jun 2027 00:51:10.101   04 Jun 2027 00:51:54.931            44.830                  Delhi          1400.937
       363   04 Jun 2027 00:53:43.563   04 Jun 2027 00:54:02.860            19.297                  Delhi           603.031
       364   04 Jun 2027 00:54:17.226   04 Jun 2027 00:54:47.644            30.418                  Delhi           950.562
       365   04 Jun 2027 00:58:01.137   04 Jun 2027 00:59:00.942            59.805                  Delhi          1868.906
       366   04 Jun 2027 01:32:54.403   04 Jun 2027 01:33:23.239            28.836            RioGallegos           901.125
       367   04 Jun 2027 01:35:05.826   04 Jun 2027 01:35:16.889            11.063            RioGallegos           345.719
       368   04 Jun 2027 01:35:21.772   04 Jun 2027 01:35:39.946            18.174            RioGallegos           567.937
       369   04 Jun 2027 01:38:26.120   04 Jun 2027 01:38:53.671            27.551            RioGallegos           860.969
       370   04 Jun 2027 02:08:56.885   04 Jun 2027 02:09:11.093            14.208                Anadyr1           444.000
       371   04 Jun 2027 02:09:41.282   04 Jun 2027 02:10:19.500            38.218                Anadyr2          1194.313
       372   04 Jun 2027 02:11:33.194   04 Jun 2027 02:11:40.067             6.873                Anadyr2           214.781
       373   04 Jun 2027 02:13:35.785   04 Jun 2027 02:14:15.627            39.842                Anadyr1          1245.062
       374   04 Jun 2027 02:15:05.011   04 Jun 2027 02:15:57.608            52.597               Magadan2          1643.656
       375   04 Jun 2027 02:17:09.009   04 Jun 2027 02:17:21.469            12.460                Norilsk           389.375
       376   04 Jun 2027 02:17:36.516   04 Jun 2027 02:18:03.762            27.246                Norilsk           851.437
       377   04 Jun 2027 02:18:10.885   04 Jun 2027 02:19:35.158            84.273              Murmansk2          2633.531
       378   04 Jun 2027 02:19:52.413   04 Jun 2027 02:21:08.808            76.395                Novosib          2387.344
       379   04 Jun 2027 02:26:23.269   04 Jun 2027 02:26:36.927            13.658                Irkutsk           426.813
       380   04 Jun 2027 02:29:02.618   04 Jun 2027 02:29:23.524            20.906                  Delhi           653.313
       381   04 Jun 2027 02:31:57.528   04 Jun 2027 02:33:43.559           106.031                  Delhi          3313.469
       382   04 Jun 2027 04:02:37.757   04 Jun 2027 04:03:02.554            24.797                Novosib           774.906
       383   04 Jun 2027 04:04:00.316   04 Jun 2027 04:04:35.019            34.703              Murmansk1          1084.469
       384   04 Jun 2027 04:04:38.642   04 Jun 2027 04:06:46.290           127.648              Murmansk1          3989.000
       385   04 Jun 2027 04:07:53.343   04 Jun 2027 04:08:13.266            19.923                 Moscow           622.594
       386   04 Jun 2027 04:30:48.303   04 Jun 2027 04:33:24.194           155.891               CapeTown          4871.594
       387   04 Jun 2027 05:24:38.700   04 Jun 2027 05:30:26.548           347.848               Magadan2         10870.250
       388   04 Jun 2027 05:30:32.966   04 Jun 2027 05:30:52.536            19.570                Anadyr1           611.563
       389   04 Jun 2027 07:01:19.119   04 Jun 2027 07:02:00.982            41.863                Anadyr2          1308.219
       390   04 Jun 2027 07:02:18.989   04 Jun 2027 07:02:19.891             0.902               Magadan2            28.187
       391   04 Jun 2027 07:02:31.068   04 Jun 2027 07:02:34.961             3.893               Magadan2           121.656
       392   04 Jun 2027 07:02:40.986   04 Jun 2027 07:02:44.455             3.469               Magadan2           108.406
       393   04 Jun 2027 07:03:00.755   04 Jun 2027 07:03:09.206             8.451                Anadyr2           264.094
       394   04 Jun 2027 07:03:09.206   04 Jun 2027 07:04:18.238            69.032                Anadyr1          2157.250
       395   04 Jun 2027 08:34:55.160   04 Jun 2027 08:35:17.738            22.578               Magadan1           705.563
       396   04 Jun 2027 08:36:00.382   04 Jun 2027 08:36:11.456            11.074               Magadan2           346.063
       397   04 Jun 2027 08:36:15.015   04 Jun 2027 08:36:58.196            43.181               Magadan2          1349.406
       398   04 Jun 2027 08:37:11.115   04 Jun 2027 08:38:17.545            66.430                Anadyr2          2075.938
       399   04 Jun 2027 08:38:17.545   04 Jun 2027 08:39:05.398            47.853                Anadyr1          1495.406
       400   04 Jun 2027 08:39:30.831   04 Jun 2027 08:39:35.322             4.491               Magadan1           140.344
       401   04 Jun 2027 08:40:14.813   04 Jun 2027 08:40:38.787            23.974                Anadyr1           749.188
       402   04 Jun 2027 08:40:46.219   04 Jun 2027 08:41:31.965            45.746               Magadan1          1429.563
       403   04 Jun 2027 08:44:39.577   04 Jun 2027 08:44:49.936            10.359                Norilsk           323.719
       404   04 Jun 2027 09:17:12.413   04 Jun 2027 09:17:46.317            33.904            RioGallegos          1059.500
       405   04 Jun 2027 09:18:07.206   04 Jun 2027 09:18:24.820            17.614            RioGallegos           550.437
       406   04 Jun 2027 09:22:55.740   04 Jun 2027 09:23:13.061            17.321            RioGallegos           541.281
       407   04 Jun 2027 09:54:09.883   04 Jun 2027 09:55:40.108            90.225                Sumatra          2819.531
       408   04 Jun 2027 10:12:43.077   04 Jun 2027 10:13:22.736            39.659               Magadan1          1239.344
       409   04 Jun 2027 10:13:43.605   04 Jun 2027 10:14:24.750            41.145                Irkutsk          1285.781
       410   04 Jun 2027 10:14:42.110   04 Jun 2027 10:15:31.568            49.458               Magadan2          1545.562
       411   04 Jun 2027 10:15:43.829   04 Jun 2027 10:15:59.868            16.039                Norilsk           501.219
       412   04 Jun 2027 10:16:03.840   04 Jun 2027 10:16:06.595             2.755                Irkutsk            86.094
       413   04 Jun 2027 10:16:14.882   04 Jun 2027 10:16:58.317            43.435                Irkutsk          1357.344
       414   04 Jun 2027 10:17:25.341   04 Jun 2027 10:17:34.840             9.499                Novosib           296.844
       415   04 Jun 2027 10:17:37.793   04 Jun 2027 10:17:42.460             4.667                Irkutsk           145.844
       416   04 Jun 2027 10:18:03.083   04 Jun 2027 10:18:14.413            11.330                Novosib           354.062
       417   04 Jun 2027 10:53:22.883   04 Jun 2027 10:54:01.042            38.159            RioGallegos          1192.469
       418   04 Jun 2027 10:54:25.303   04 Jun 2027 10:54:54.973            29.670            RioGallegos           927.187
       419   04 Jun 2027 11:27:48.750   04 Jun 2027 11:28:06.950            18.200                Sumatra           568.750
       420   04 Jun 2027 11:30:44.261   04 Jun 2027 11:32:13.015            88.754                Sumatra          2773.563
       421   04 Jun 2027 11:48:40.251   04 Jun 2027 11:49:12.830            32.579                Irkutsk          1018.094
       422   04 Jun 2027 11:49:57.609   04 Jun 2027 11:50:52.369            54.760                Novosib          1711.250
       423   04 Jun 2027 11:50:56.317   04 Jun 2027 11:51:06.728            10.411                Novosib           325.344
       424   04 Jun 2027 11:51:22.017   04 Jun 2027 11:51:56.015            33.998                Novosib          1062.438
       425   04 Jun 2027 11:52:00.750   04 Jun 2027 11:52:23.312            22.562                Novosib           705.062
       426   04 Jun 2027 11:52:28.338   04 Jun 2027 11:52:30.496             2.158                Irkutsk            67.438
       427   04 Jun 2027 11:52:34.761   04 Jun 2027 11:53:18.773            44.012                Norilsk          1375.375
       428   04 Jun 2027 11:53:29.153   04 Jun 2027 11:53:53.999            24.846                Novosib           776.437
       429   04 Jun 2027 11:54:04.093   04 Jun 2027 11:54:40.096            36.003                Norilsk          1125.094
       430   04 Jun 2027 13:12:23.421   04 Jun 2027 13:12:57.001            33.580                  Delhi          1049.375
       431   04 Jun 2027 13:14:02.197   04 Jun 2027 13:14:41.287            39.090                  Delhi          1221.562
       432   04 Jun 2027 13:17:13.394   04 Jun 2027 13:17:16.930             3.536                  Delhi           110.500
       433   04 Jun 2027 13:18:40.266   04 Jun 2027 13:19:56.869            76.603                  Delhi          2393.844
       434   04 Jun 2027 13:20:31.508   04 Jun 2027 13:21:32.152            60.644                Novosib          1895.125
       435   04 Jun 2027 13:22:16.667   04 Jun 2027 13:24:01.498           104.831                Novosib          3275.969
       436   04 Jun 2027 13:24:07.977   04 Jun 2027 13:24:11.469             3.492              Murmansk1           109.125
       437   04 Jun 2027 13:24:27.639   04 Jun 2027 13:25:24.524            56.885                Norilsk          1777.656
       438   04 Jun 2027 13:29:15.153   04 Jun 2027 13:29:15.237             0.084                Norilsk             2.625
       439   04 Jun 2027 13:29:55.282   04 Jun 2027 13:30:32.841            37.559                Novosib          1173.719
       440   04 Jun 2027 13:36:16.902   04 Jun 2027 13:36:46.910            30.008              Murmansk1           937.750
       441   04 Jun 2027 14:56:19.564   04 Jun 2027 14:59:30.339           190.775                 Moscow          5961.719
       442   04 Jun 2027 14:59:50.176   04 Jun 2027 15:01:05.503            75.327              Murmansk1          2353.969
       443   04 Jun 2027 15:01:34.813   04 Jun 2027 15:02:35.634            60.821              Murmansk1          1900.656
       444   04 Jun 2027 15:04:59.516   04 Jun 2027 15:05:36.286            36.770                Norilsk          1149.062
       445   04 Jun 2027 15:06:19.155   04 Jun 2027 15:07:06.769            47.614                Norilsk          1487.938
       446   04 Jun 2027 15:08:25.158   04 Jun 2027 15:09:15.052            49.894                Norilsk          1559.188
       447   04 Jun 2027 16:10:22.198   04 Jun 2027 16:10:49.388            27.190               CapeTown           849.688
       448   04 Jun 2027 16:10:59.317   04 Jun 2027 16:11:20.205            20.888               CapeTown           652.750
       449   04 Jun 2027 16:12:59.103   04 Jun 2027 16:13:41.908            42.805               CapeTown          1337.656
       450   04 Jun 2027 16:19:46.631   04 Jun 2027 16:20:23.977            37.346               CapeTown          1167.062
       451   04 Jun 2027 16:34:28.943   04 Jun 2027 16:34:59.814            30.871                 Moscow           964.719
       452   04 Jun 2027 16:35:49.407   04 Jun 2027 16:36:04.324            14.917                 Moscow           466.156
       453   04 Jun 2027 16:37:17.983   04 Jun 2027 16:38:15.228            57.245              Murmansk1          1788.906
       454   04 Jun 2027 16:42:48.765   04 Jun 2027 16:43:11.084            22.319              Murmansk1           697.469
       455   04 Jun 2027 16:50:40.265   04 Jun 2027 16:52:38.676           118.411                Anadyr2          3700.344
       456   04 Jun 2027 16:55:55.394   04 Jun 2027 16:56:07.661            12.267                Anadyr2           383.344
       457   04 Jun 2027 16:56:10.743   04 Jun 2027 16:56:39.415            28.672                Anadyr1           896.000
       458   04 Jun 2027 16:57:53.413   04 Jun 2027 16:58:01.039             7.626                Anadyr1           238.312
       459   04 Jun 2027 16:59:20.706   04 Jun 2027 16:59:29.805             9.099                Anadyr2           284.344
       460   04 Jun 2027 17:46:00.141   04 Jun 2027 17:46:50.517            50.376               CapeTown          1574.250
       461   04 Jun 2027 17:53:19.584   04 Jun 2027 17:53:47.138            27.554               CapeTown           861.062
       462   04 Jun 2027 17:56:45.552   04 Jun 2027 17:57:04.132            18.580               CapeTown           580.625
       463   04 Jun 2027 18:17:13.723   04 Jun 2027 18:20:57.842           224.119              Murmansk2          7003.719
       464   04 Jun 2027 18:26:21.515   04 Jun 2027 18:26:26.014             4.499                Anadyr2           140.594
       465   04 Jun 2027 18:29:06.302   04 Jun 2027 18:29:27.754            21.452                Anadyr1           670.375
       466   04 Jun 2027 18:30:17.662   04 Jun 2027 18:31:03.151            45.489               Magadan2          1421.531
       467   04 Jun 2027 18:31:46.626   04 Jun 2027 18:33:04.104            77.478               Magadan2          2421.188
       468   04 Jun 2027 18:38:27.523   04 Jun 2027 18:38:41.853            14.330               Magadan1           447.812
       469   04 Jun 2027 20:02:17.438   04 Jun 2027 20:04:23.702           126.264                Anadyr2          3945.750
       470   04 Jun 2027 20:04:35.353   04 Jun 2027 20:08:53.111           257.758               Magadan2          8054.937
       471   04 Jun 2027 20:09:19.986   04 Jun 2027 20:09:30.734            10.748               Magadan2           335.875
       472   04 Jun 2027 20:09:30.734   04 Jun 2027 20:10:08.585            37.851               Magadan1          1182.844
       473   04 Jun 2027 20:17:14.209   04 Jun 2027 20:17:18.745             4.536               Magadan1           141.750
       474   04 Jun 2027 20:58:07.151   04 Jun 2027 21:00:48.997           161.846            RioGallegos          5057.688
       475   04 Jun 2027 21:03:23.506   04 Jun 2027 21:03:38.870            15.364            RioGallegos           480.125
       476   04 Jun 2027 21:04:35.494   04 Jun 2027 21:04:41.949             6.455            RioGallegos           201.719
       477   04 Jun 2027 21:38:05.592   04 Jun 2027 21:40:18.408           132.816                Anadyr1          4150.500
       478   04 Jun 2027 21:40:31.555   04 Jun 2027 21:42:05.379            93.824               Magadan1          2932.000
       479   04 Jun 2027 21:42:21.526   04 Jun 2027 21:43:19.635            58.109               Magadan2          1815.906
       480   04 Jun 2027 21:45:01.535   04 Jun 2027 21:45:51.154            49.619                Irkutsk          1550.594
       481   04 Jun 2027 21:51:00.770   04 Jun 2027 21:51:28.956            28.186                Irkutsk           880.812
       482   04 Jun 2027 22:00:51.350   04 Jun 2027 22:02:11.698            80.348                Sumatra          2510.875
