uniorb/output/strategy_4/Drop/Drop_KinoSat_110503.txt

KinoSat_110503
-------------------------
    Access    *     Start Time (UTCG)     *     Stop Time (UTCG)  *   Duration (s)        *       Station  *  Data (Mbytes)
         1   01 Jun 2027 04:06:14.357   01 Jun 2027 04:07:18.878            64.521               Magadan2          8065.125
         2   01 Jun 2027 04:07:18.878   01 Jun 2027 04:07:25.521             6.643               Magadan1           830.375
         3   01 Jun 2027 04:07:54.083   01 Jun 2027 04:10:33.298           159.215               Magadan2         19901.875
         4   01 Jun 2027 04:10:42.595   01 Jun 2027 04:11:30.003            47.408               Magadan2          5926.000
         5   01 Jun 2027 04:11:37.005   01 Jun 2027 04:11:49.704            12.699               Magadan1          1587.375
         6   01 Jun 2027 04:12:03.810   01 Jun 2027 04:13:07.901            64.091               Magadan1          8011.375
         7   01 Jun 2027 04:13:07.901   01 Jun 2027 04:13:31.568            23.667               Magadan2          2958.375
         8   01 Jun 2027 04:56:37.842   01 Jun 2027 04:56:51.675            13.833            RioGallegos          1729.125
         9   01 Jun 2027 05:26:28.408   01 Jun 2027 05:28:04.396            95.988                Sumatra         11998.500
        10   01 Jun 2027 05:44:42.113   01 Jun 2027 05:45:46.569            64.456               Magadan1          8057.000
        11   01 Jun 2027 05:46:06.713   01 Jun 2027 05:46:31.458            24.745                Irkutsk          3093.125
        12   01 Jun 2027 05:46:39.963   01 Jun 2027 05:47:29.728            49.765                Novosib          6220.625
        13   01 Jun 2027 05:47:38.634   01 Jun 2027 05:48:21.745            43.111                Novosib          5388.875
        14   01 Jun 2027 05:48:34.774   01 Jun 2027 05:49:46.870            72.096                Irkutsk          9012.000
        15   01 Jun 2027 07:09:56.812   01 Jun 2027 07:10:18.966            22.154                  Delhi          2769.250
        16   01 Jun 2027 07:21:39.107   01 Jun 2027 07:22:07.356            28.249                 Moscow          3531.125
        17   01 Jun 2027 07:22:13.162   01 Jun 2027 07:22:49.137            35.975                Novosib          4496.875
        18   01 Jun 2027 07:23:09.211   01 Jun 2027 07:23:14.526             5.315              Murmansk1           664.375
        19   01 Jun 2027 07:23:17.453   01 Jun 2027 07:23:32.117            14.664                 Moscow          1833.000
        20   01 Jun 2027 07:23:40.846   01 Jun 2027 07:25:16.666            95.820                Irkutsk         11977.500
        21   01 Jun 2027 07:25:53.568   01 Jun 2027 07:26:09.793            16.225                Norilsk          2028.125
        22   01 Jun 2027 07:26:32.562   01 Jun 2027 07:27:15.790            43.228                Novosib          5403.500
        23   01 Jun 2027 08:43:47.061   01 Jun 2027 08:44:47.718            60.657                  Delhi          7582.125
        24   01 Jun 2027 08:59:43.464   01 Jun 2027 09:04:40.260           296.796                 Moscow         37099.500
        25   01 Jun 2027 09:04:49.293   01 Jun 2027 09:06:40.527           111.234                Norilsk         13904.250
        26   01 Jun 2027 09:07:04.745   01 Jun 2027 09:08:22.620            77.875              Murmansk1          9734.375
        27   01 Jun 2027 10:31:12.029   01 Jun 2027 10:31:58.460            46.431                 Moscow          5803.875
        28   01 Jun 2027 10:32:21.443   01 Jun 2027 10:33:08.506            47.063              Murmansk2          5882.875
        29   01 Jun 2027 10:36:30.413   01 Jun 2027 10:44:17.025           466.612              Murmansk2         58326.500
        30   01 Jun 2027 11:43:22.563   01 Jun 2027 11:50:08.023           405.460               CapeTown         50682.500
        31   01 Jun 2027 12:22:19.856   01 Jun 2027 12:24:30.116           130.260                Anadyr1         16282.500
        32   01 Jun 2027 12:25:58.495   01 Jun 2027 12:28:24.679           146.184                Anadyr2         18273.000
        33   01 Jun 2027 12:31:11.259   01 Jun 2027 12:31:51.458            40.199                Anadyr2          5024.875
        34   01 Jun 2027 14:01:07.755   01 Jun 2027 14:04:32.616           204.861               Magadan2         25607.625
        35   01 Jun 2027 14:09:23.260   01 Jun 2027 14:09:28.096             4.836               Magadan1           604.500
        36   01 Jun 2027 16:30:18.709   01 Jun 2027 16:33:04.023           165.314            RioGallegos         20664.250
        37   01 Jun 2027 16:35:07.751   01 Jun 2027 16:35:22.077            14.326            RioGallegos          1790.750
        38   01 Jun 2027 17:16:52.181   01 Jun 2027 17:23:10.964           378.783                Irkutsk         47347.875
        39   01 Jun 2027 17:31:55.781   01 Jun 2027 17:34:24.268           148.487                Sumatra         18560.875
        40   01 Jun 2027 17:36:14.969   01 Jun 2027 17:36:36.894            21.925                Sumatra          2740.625
        41   01 Jun 2027 17:38:15.176   01 Jun 2027 17:40:15.480           120.304                Sumatra         15038.000
        42   01 Jun 2027 18:55:02.783   01 Jun 2027 18:56:15.442            72.659                Novosib          9082.375
        43   01 Jun 2027 19:02:33.516   01 Jun 2027 19:03:09.273            35.757                  Delhi          3865.751
        44   02 Jun 2027 04:24:41.171   02 Jun 2027 04:25:02.295            21.124               Magadan2          2640.500
        45   02 Jun 2027 04:25:08.942   02 Jun 2027 04:25:27.830            18.888               Magadan1          2361.000
        46   02 Jun 2027 04:25:50.379   02 Jun 2027 04:31:00.134           309.755                Norilsk         38719.375
        47   02 Jun 2027 04:31:23.656   02 Jun 2027 04:32:29.389            65.733              Murmansk1          8216.625
        48   02 Jun 2027 05:37:29.031   02 Jun 2027 05:38:23.110            54.079                Sumatra          6759.875
        49   02 Jun 2027 05:43:26.068   02 Jun 2027 05:44:35.019            68.951                Sumatra          8618.875
        50   02 Jun 2027 05:58:01.291   02 Jun 2027 05:58:16.969            15.678                Irkutsk          1959.750
        51   02 Jun 2027 05:59:08.588   02 Jun 2027 06:00:16.537            67.949                Irkutsk          8493.625
        52   02 Jun 2027 06:00:27.122   02 Jun 2027 06:01:02.847            35.725                Irkutsk          4465.625
        53   02 Jun 2027 06:01:37.740   02 Jun 2027 06:01:48.586            10.846                Irkutsk          1355.750
        54   02 Jun 2027 06:01:52.244   02 Jun 2027 06:03:02.243            69.999                Norilsk          8749.875
        55   02 Jun 2027 06:03:27.565   02 Jun 2027 06:04:38.319            70.754              Murmansk1          8844.250
        56   02 Jun 2027 06:04:38.319   02 Jun 2027 06:06:36.196           117.877              Murmansk2         14734.625
        57   02 Jun 2027 06:08:09.873   02 Jun 2027 06:09:38.504            88.631              Murmansk1         11078.875
        58   02 Jun 2027 06:43:09.066   02 Jun 2027 06:48:58.741           349.675            RioGallegos         43709.375
        59   02 Jun 2027 07:11:27.850   02 Jun 2027 07:14:16.787           168.937                Sumatra         21117.125
        60   02 Jun 2027 07:37:41.358   02 Jun 2027 07:42:43.898           302.540                Norilsk         37817.500
        61   02 Jun 2027 07:44:01.616   02 Jun 2027 07:44:43.675            42.059              Murmansk1          5257.375
        62   02 Jun 2027 09:01:22.256   02 Jun 2027 09:07:40.988           378.732                  Delhi         47341.500
        63   02 Jun 2027 09:07:49.248   02 Jun 2027 09:08:36.941            47.693                Novosib          5961.625
        64   02 Jun 2027 09:13:07.544   02 Jun 2027 09:14:30.613            83.069                Novosib         10383.625
        65   02 Jun 2027 09:14:31.273   02 Jun 2027 09:18:41.341           250.068                Norilsk         31258.500
        66   02 Jun 2027 09:18:54.340   02 Jun 2027 09:20:23.087            88.747              Murmansk1         11093.375
        67   02 Jun 2027 10:43:12.719   02 Jun 2027 10:45:00.179           107.460                 Moscow         13432.500
        68   02 Jun 2027 10:48:12.640   02 Jun 2027 10:52:47.319           274.679                 Moscow         34334.875
        69   02 Jun 2027 10:52:50.852   02 Jun 2027 10:54:00.656            69.804                Norilsk          8725.500
        70   02 Jun 2027 10:54:40.303   02 Jun 2027 10:56:18.668            98.365              Murmansk1         12295.625
        71   02 Jun 2027 12:05:27.973   02 Jun 2027 12:05:44.781            16.808               CapeTown          2101.000
        72   02 Jun 2027 12:18:26.913   02 Jun 2027 12:27:51.621           564.708                 Moscow         70588.500
        73   02 Jun 2027 12:28:28.702   02 Jun 2027 12:32:15.103           226.401              Murmansk2         28300.125
        74   02 Jun 2027 12:34:16.297   02 Jun 2027 12:40:45.462           389.165                Anadyr2         48645.625
        75   02 Jun 2027 12:42:11.697   02 Jun 2027 12:43:09.630            57.933                Anadyr2          7241.625
        76   02 Jun 2027 14:12:55.897   02 Jun 2027 14:18:40.902           345.005               Magadan2         43125.625
        77   02 Jun 2027 16:41:33.356   02 Jun 2027 16:44:50.780           197.424            RioGallegos         24678.000
        78   02 Jun 2027 17:30:38.240   02 Jun 2027 17:34:49.769           251.529                Irkutsk         31441.125
        79   02 Jun 2027 17:43:06.603   02 Jun 2027 17:46:09.481           182.878                Sumatra         22859.750
        80   02 Jun 2027 17:47:50.700   02 Jun 2027 17:48:53.391            62.691                Sumatra          7836.375
        81   02 Jun 2027 17:50:38.799   02 Jun 2027 17:51:20.659            41.860                Sumatra          5232.500
        82   02 Jun 2027 19:13:18.269   02 Jun 2027 19:15:57.730           159.461                  Delhi         19932.625
        83   02 Jun 2027 20:39:46.756   02 Jun 2027 20:40:08.254            21.498              Murmansk1          2687.250
        84   02 Jun 2027 20:41:20.358   02 Jun 2027 20:42:11.034            50.676              Murmansk1          6334.500
        85   02 Jun 2027 20:44:04.562   02 Jun 2027 20:44:33.471            28.909              Murmansk1          3613.625
        86   02 Jun 2027 22:16:42.510   02 Jun 2027 22:19:03.552           141.042              Murmansk2         12453.125
        87   03 Jun 2027 04:36:41.286   03 Jun 2027 04:36:51.084             9.798               Magadan1          1224.750
        88   03 Jun 2027 04:37:57.016   03 Jun 2027 04:42:44.380           287.364              Murmansk2         35920.500
        89   03 Jun 2027 04:42:44.380   03 Jun 2027 04:42:58.691            14.311              Murmansk1          1788.875
        90   03 Jun 2027 05:50:58.331   03 Jun 2027 05:52:04.441            66.110                Sumatra          8263.750
        91   03 Jun 2027 06:13:43.202   03 Jun 2027 06:15:18.002            94.800                Norilsk         11850.000
        92   03 Jun 2027 06:15:25.979   03 Jun 2027 06:18:31.458           185.479              Murmansk1         23184.875
        93   03 Jun 2027 06:18:37.541   03 Jun 2027 06:18:46.723             9.182                Norilsk          1147.750
        94   03 Jun 2027 06:20:09.859   03 Jun 2027 06:21:31.003            81.144              Murmansk2         10143.000
        95   03 Jun 2027 06:55:11.289   03 Jun 2027 07:00:51.551           340.262            RioGallegos         42532.750
        96   03 Jun 2027 07:28:40.288   03 Jun 2027 07:35:22.375           402.087                Sumatra         50260.875
        97   03 Jun 2027 07:38:49.979   03 Jun 2027 07:45:04.669           374.690                Irkutsk         46836.250
        98   03 Jun 2027 07:49:01.539   03 Jun 2027 07:51:16.476           134.937                Novosib         16867.125
        99   03 Jun 2027 07:51:19.512   03 Jun 2027 07:54:45.781           206.269                Norilsk         25783.625
       100   03 Jun 2027 07:56:03.204   03 Jun 2027 07:56:41.454            38.250              Murmansk1          4781.250
       101   03 Jun 2027 09:12:31.613   03 Jun 2027 09:19:20.914           409.301                  Delhi         51162.625
       102   03 Jun 2027 09:19:44.733   03 Jun 2027 09:19:51.411             6.678                Novosib           834.750
       103   03 Jun 2027 09:20:07.879   03 Jun 2027 09:20:41.787            33.908                Novosib          4238.500
       104   03 Jun 2027 09:25:25.716   03 Jun 2027 09:26:17.905            52.189                Novosib          6523.625
       105   03 Jun 2027 09:26:18.747   03 Jun 2027 09:30:41.760           263.013                Norilsk         32876.625
       106   03 Jun 2027 09:30:44.713   03 Jun 2027 09:32:23.810            99.097              Murmansk2         12387.125
       107   03 Jun 2027 10:55:12.722   03 Jun 2027 10:57:06.811           114.089                 Moscow         14261.125
       108   03 Jun 2027 10:58:20.223   03 Jun 2027 10:59:34.692            74.469              Murmansk1          9308.625
       109   03 Jun 2027 10:59:34.692   03 Jun 2027 11:08:20.334           525.642              Murmansk2         65705.250
       110   03 Jun 2027 11:13:23.084   03 Jun 2027 11:15:50.815           147.731                Anadyr1         18466.375
       111   03 Jun 2027 12:13:11.514   03 Jun 2027 12:14:55.246           103.732               CapeTown         12966.500
       112   03 Jun 2027 12:47:31.267   03 Jun 2027 12:48:40.216            68.949                Anadyr2          8618.625
       113   03 Jun 2027 14:24:47.026   03 Jun 2027 14:28:57.475           250.449               Magadan1         31306.125
       114   03 Jun 2027 16:53:04.545   03 Jun 2027 16:58:05.940           301.395            RioGallegos         37674.375
       115   03 Jun 2027 17:38:17.574   03 Jun 2027 17:38:33.811            16.237                Norilsk          2029.625
       116   03 Jun 2027 17:43:56.540   03 Jun 2027 17:46:17.909           141.369                Irkutsk         17671.125
       117   03 Jun 2027 17:58:19.437   03 Jun 2027 18:01:41.317           201.880                Sumatra         25235.000
       118   03 Jun 2027 19:24:32.855   03 Jun 2027 19:27:43.663           190.808                  Delhi         23851.000
       119   03 Jun 2027 19:32:00.603   03 Jun 2027 19:32:42.060            41.457                  Delhi          5182.125
       120   03 Jun 2027 20:50:17.516   03 Jun 2027 20:50:23.509             5.993              Murmansk1           749.125
       121   03 Jun 2027 20:51:42.431   03 Jun 2027 20:53:56.313           133.882              Murmansk2         16735.250
       122   03 Jun 2027 22:59:10.413   03 Jun 2027 23:00:33.180            82.767               CapeTown         10345.875
       123   04 Jun 2027 04:53:16.096   04 Jun 2027 04:54:32.154            76.058              Murmansk2          9507.250
       124   04 Jun 2027 04:54:43.974   04 Jun 2027 04:54:58.150            14.176                Norilsk          1772.000
       125   04 Jun 2027 04:56:33.385   04 Jun 2027 04:58:52.858           139.473              Murmansk1         17434.125
       126   04 Jun 2027 05:32:17.504   04 Jun 2027 05:37:24.499           306.995            RioGallegos         38374.375
       127   04 Jun 2027 06:11:17.899   04 Jun 2027 06:11:41.360            23.461                Sumatra          2932.625
       128   04 Jun 2027 06:15:11.059   04 Jun 2027 06:20:26.966           315.907                Irkutsk         39488.375
       129   04 Jun 2027 06:25:44.906   04 Jun 2027 06:30:48.091           303.185                Norilsk         37898.125
       130   04 Jun 2027 06:32:10.150   04 Jun 2027 06:33:24.249            74.099              Murmansk1          9262.375
       131   04 Jun 2027 07:06:50.413   04 Jun 2027 07:12:41.923           351.510            RioGallegos         43938.750
       132   04 Jun 2027 07:39:33.290   04 Jun 2027 07:46:55.717           442.427                Sumatra         55303.375
       133   04 Jun 2027 07:52:58.844   04 Jun 2027 07:55:52.562           173.718                Irkutsk         21714.750
       134   04 Jun 2027 08:01:44.711   04 Jun 2027 08:06:47.634           302.923                Norilsk         37865.375
       135   04 Jun 2027 08:08:04.213   04 Jun 2027 08:08:39.731            35.518              Murmansk2          4439.750
       136   04 Jun 2027 09:22:59.751   04 Jun 2027 09:30:53.200           473.449                  Delhi         59181.125
       137   04 Jun 2027 09:31:13.321   04 Jun 2027 09:33:17.383           124.062                Novosib         15507.750
       138   04 Jun 2027 09:37:38.814   04 Jun 2027 09:42:41.676           302.862                Norilsk         37857.750
       139   04 Jun 2027 09:43:06.367   04 Jun 2027 09:44:24.742            78.375              Murmansk1          9796.875
       140   04 Jun 2027 11:06:05.001   04 Jun 2027 11:06:08.791             3.790                 Moscow           473.750
       141   04 Jun 2027 11:10:21.205   04 Jun 2027 11:11:38.076            76.871              Murmansk1          9608.875
       142   04 Jun 2027 11:11:38.076   04 Jun 2027 11:20:21.990           523.914              Murmansk2         65489.250
       143   04 Jun 2027 11:26:06.706   04 Jun 2027 11:29:02.507           175.801                Anadyr1         21975.125
       144   04 Jun 2027 12:25:08.845   04 Jun 2027 12:27:06.756           117.911               CapeTown         14738.875
       145   04 Jun 2027 14:36:40.347   04 Jun 2027 14:40:35.659           235.312               Magadan1         29414.000
       146   04 Jun 2027 17:06:33.881   04 Jun 2027 17:11:06.373           272.492            RioGallegos         34061.500
       147   04 Jun 2027 17:49:55.172   04 Jun 2027 17:53:06.139           190.967                Norilsk         23870.875
       148   04 Jun 2027 18:11:39.419   04 Jun 2027 18:12:42.372            62.953                Sumatra          7869.125
       149   04 Jun 2027 19:38:21.531   04 Jun 2027 19:41:34.438           192.907                  Delhi         24113.375
       150   04 Jun 2027 19:42:21.937   04 Jun 2027 19:43:02.868            40.931                  Delhi          5116.375
       151   04 Jun 2027 21:03:02.537   04 Jun 2027 21:03:33.903            31.366              Murmansk1          3920.750
       152   04 Jun 2027 21:03:35.685   04 Jun 2027 21:06:13.669           157.984              Murmansk2         19748.000
       153   04 Jun 2027 21:08:04.097   04 Jun 2027 21:09:33.028            88.931                 Moscow         11116.375
       154   04 Jun 2027 23:11:51.948   04 Jun 2027 23:12:40.055            48.107               CapeTown          6013.375
       155   05 Jun 2027 05:02:38.071   05 Jun 2027 05:02:55.056            16.985                Novosib          2123.125
       156   05 Jun 2027 05:05:06.159   05 Jun 2027 05:07:00.507           114.348              Murmansk1         14293.500
       157   05 Jun 2027 05:08:30.754   05 Jun 2027 05:10:41.317           130.563              Murmansk2         16320.375
       158   05 Jun 2027 05:44:15.695   05 Jun 2027 05:49:25.485           309.790            RioGallegos         38723.750
       159   05 Jun 2027 06:22:57.227   05 Jun 2027 06:23:58.881            61.654                Sumatra          7706.750
       160   05 Jun 2027 06:26:12.704   05 Jun 2027 06:31:57.520           344.816                Irkutsk         43102.000
       161   05 Jun 2027 06:37:35.404   05 Jun 2027 06:38:16.947            41.543                Novosib          5192.875
       162   05 Jun 2027 06:38:24.936   05 Jun 2027 06:42:49.599           264.663                Norilsk         33082.875
       163   05 Jun 2027 06:44:10.720   05 Jun 2027 06:45:18.227            67.507              Murmansk1          8438.375
       164   05 Jun 2027 07:18:20.739   05 Jun 2027 07:24:29.135           368.396            RioGallegos         46049.500
       165   05 Jun 2027 07:49:18.089   05 Jun 2027 07:58:18.877           540.788                Sumatra         67598.500
       166   05 Jun 2027 08:02:44.746   05 Jun 2027 08:03:26.277            41.531                Novosib          5191.375
       167   05 Jun 2027 08:03:39.205   05 Jun 2027 08:06:27.285           168.080                  Delhi         21010.000
       168   05 Jun 2027 08:13:14.773   05 Jun 2027 08:15:14.022           119.249                Novosib         14906.125
       169   05 Jun 2027 08:15:14.159   05 Jun 2027 08:16:50.262            96.103              Murmansk2         12012.875
       170   05 Jun 2027 08:16:50.262   05 Jun 2027 08:18:00.365            70.103              Murmansk1          8762.875
       171   05 Jun 2027 08:18:22.874   05 Jun 2027 08:18:49.425            26.551                Norilsk          3318.875
       172   05 Jun 2027 08:20:05.006   05 Jun 2027 08:20:38.467            33.461              Murmansk2          4182.625
       173   05 Jun 2027 09:33:58.693   05 Jun 2027 09:42:14.108           495.415                  Delhi         61926.875
       174   05 Jun 2027 09:42:31.726   05 Jun 2027 09:44:58.762           147.036                Novosib         18379.500
       175   05 Jun 2027 09:50:08.610   05 Jun 2027 09:54:40.934           272.324                Norilsk         34040.500
       176   05 Jun 2027 09:54:44.676   05 Jun 2027 09:56:25.867           101.191              Murmansk1         12648.875
       177   05 Jun 2027 11:17:51.341   05 Jun 2027 11:18:34.678            43.337                 Moscow          5417.125
       178   05 Jun 2027 11:22:47.781   05 Jun 2027 11:23:39.452            51.671              Murmansk2          6458.875
       179   05 Jun 2027 11:24:06.129   05 Jun 2027 11:28:42.756           276.627                 Moscow         34578.375
       180   05 Jun 2027 11:28:59.718   05 Jun 2027 11:32:23.605           203.887              Murmansk2         25485.875
       181   05 Jun 2027 11:38:45.067   05 Jun 2027 11:41:58.903           193.836                Anadyr2         24229.500
       182   05 Jun 2027 12:37:01.240   05 Jun 2027 12:38:59.289           118.049               CapeTown         14756.125
       183   05 Jun 2027 14:48:35.345   05 Jun 2027 14:50:37.308           121.963               Magadan1         15245.375
       184   05 Jun 2027 14:53:57.859   05 Jun 2027 14:55:38.489           100.630               Magadan2         12578.750
       185   05 Jun 2027 17:19:58.590   05 Jun 2027 17:22:31.282           152.692            RioGallegos         19086.500
       186   05 Jun 2027 18:06:18.615   05 Jun 2027 18:10:38.086           259.471                Novosib         32433.875
       187   05 Jun 2027 19:52:09.047   05 Jun 2027 19:54:06.693           117.646                  Delhi         14705.750
       188   05 Jun 2027 21:15:25.122   05 Jun 2027 21:19:35.458           250.336              Murmansk2         31292.000
       189   05 Jun 2027 21:20:03.362   05 Jun 2027 21:22:25.131           141.769                 Moscow         17721.125
       190   05 Jun 2027 21:24:35.336   05 Jun 2027 21:25:14.662            39.326                 Moscow          4915.750
       191   06 Jun 2027 05:15:53.979   06 Jun 2027 05:16:44.871            50.892              Murmansk2          6361.500
       192   06 Jun 2027 05:16:56.922   06 Jun 2027 05:18:48.018           111.096              Murmansk1         13887.000
       193   06 Jun 2027 05:20:28.661   06 Jun 2027 05:22:30.321           121.660              Murmansk2         15207.500
       194   06 Jun 2027 05:56:12.582   06 Jun 2027 06:01:25.498           312.916            RioGallegos         39114.500
       195   06 Jun 2027 06:31:03.234   06 Jun 2027 06:36:09.753           306.519                Sumatra         38314.875
       196   06 Jun 2027 06:37:14.535   06 Jun 2027 06:43:53.814           399.279                Irkutsk         49909.875
       197   06 Jun 2027 06:49:48.551   06 Jun 2027 06:54:51.237           302.686                Norilsk         37835.750
       198   06 Jun 2027 06:56:11.533   06 Jun 2027 06:57:12.931            61.398              Murmansk2          7674.750
       199   06 Jun 2027 07:29:33.346   06 Jun 2027 07:36:12.038           398.692            RioGallegos         49836.500
       200   06 Jun 2027 08:01:23.483   06 Jun 2027 08:09:27.152           483.669                Sumatra         60458.625
       201   06 Jun 2027 08:14:58.529   06 Jun 2027 08:15:23.008            24.479                Novosib          3059.875
       202   06 Jun 2027 08:15:51.745   06 Jun 2027 08:20:27.797           276.052                  Delhi         34506.500
       203   06 Jun 2027 08:20:33.000   06 Jun 2027 08:21:41.149            68.149                Irkutsk          8518.625
       204   06 Jun 2027 08:25:20.428   06 Jun 2027 08:27:11.321           110.893                Novosib         13861.625
       205   06 Jun 2027 08:27:13.828   06 Jun 2027 08:30:51.118           217.290                Norilsk         27161.250
       206   06 Jun 2027 08:32:06.011   06 Jun 2027 08:32:37.623            31.612              Murmansk1          3951.500
       207   06 Jun 2027 09:47:11.020   06 Jun 2027 09:53:14.116           363.096                  Delhi         45387.000
       208   06 Jun 2027 10:01:13.430   06 Jun 2027 10:01:42.605            29.175                 Moscow          3646.875
       209   06 Jun 2027 10:02:59.754   06 Jun 2027 10:06:39.336           219.582                Norilsk         27447.750
       210   06 Jun 2027 10:06:57.019   06 Jun 2027 10:08:27.143            90.124              Murmansk2         11265.500
       211   06 Jun 2027 11:31:07.582   06 Jun 2027 11:40:39.093           571.511                 Moscow         71438.875
       212   06 Jun 2027 11:40:57.186   06 Jun 2027 11:44:25.144           207.958              Murmansk2         25994.750
       213   06 Jun 2027 11:51:19.044   06 Jun 2027 11:54:46.677           207.633                Anadyr2         25954.125
       214   06 Jun 2027 12:48:48.574   06 Jun 2027 12:54:18.578           330.004               CapeTown         41250.500
       215   06 Jun 2027 13:10:32.083   06 Jun 2027 13:13:38.107           186.024                 Moscow         23253.000
       216   06 Jun 2027 13:13:48.026   06 Jun 2027 13:16:37.159           169.133              Murmansk1         21141.625
       217   06 Jun 2027 13:26:38.570   06 Jun 2027 13:31:08.428           269.858               Magadan2         33732.250
       218   06 Jun 2027 16:43:41.352   06 Jun 2027 16:45:37.787           116.435                Irkutsk         14554.375
       219   06 Jun 2027 18:17:32.193   06 Jun 2027 18:23:58.072           385.879                Novosib         48234.875
       220   06 Jun 2027 20:05:11.906   06 Jun 2027 20:05:29.438            17.532                  Delhi          2191.500
       221   06 Jun 2027 21:27:07.476   06 Jun 2027 21:27:51.959            44.483              Murmansk1          5560.375
       222   06 Jun 2027 21:28:47.640   06 Jun 2027 21:31:28.425           160.785              Murmansk2         20098.125
       223   06 Jun 2027 21:32:02.595   06 Jun 2027 21:38:16.533           373.938                 Moscow         46742.250
       224   07 Jun 2027 03:48:17.481   07 Jun 2027 03:50:06.794           109.313               Magadan1         13664.125
       225   07 Jun 2027 03:50:07.815   07 Jun 2027 03:51:13.297            65.482                Norilsk          8185.250
       226   07 Jun 2027 05:27:03.300   07 Jun 2027 05:27:09.018             5.718                Novosib           714.750
       227   07 Jun 2027 05:27:50.194   07 Jun 2027 05:28:38.899            48.705              Murmansk2          6088.125
       228   07 Jun 2027 05:28:48.415   07 Jun 2027 05:30:35.880           107.465              Murmansk1         13433.125
       229   07 Jun 2027 05:32:27.063   07 Jun 2027 05:34:19.954           112.891              Murmansk2         14111.375
       230   07 Jun 2027 06:08:07.933   07 Jun 2027 06:13:24.436           316.503            RioGallegos         39562.875
       231   07 Jun 2027 06:42:53.194   07 Jun 2027 06:48:14.706           321.512                Sumatra         40189.000
       232   07 Jun 2027 06:50:54.585   07 Jun 2027 06:55:41.839           287.254                Irkutsk         35906.750
       233   07 Jun 2027 07:01:42.680   07 Jun 2027 07:01:42.908             0.228                Irkutsk            28.500
       234   07 Jun 2027 07:01:45.997   07 Jun 2027 07:03:27.262           101.265                Novosib         12658.125
       235   07 Jun 2027 07:03:31.334   07 Jun 2027 07:05:05.762            94.428              Murmansk2         11803.500
       236   07 Jun 2027 07:05:05.762   07 Jun 2027 07:07:04.644           118.882              Murmansk1         14860.250
       237   07 Jun 2027 07:08:12.558   07 Jun 2027 07:09:08.315            55.757              Murmansk2          6969.625
       238   07 Jun 2027 07:39:53.583   07 Jun 2027 07:47:48.545           474.962            RioGallegos         59370.250
       239   07 Jun 2027 08:14:36.803   07 Jun 2027 08:20:07.309           330.506                Sumatra         41313.250
       240   07 Jun 2027 08:26:53.682   07 Jun 2027 08:32:25.475           331.793                  Delhi         41474.125
       241   07 Jun 2027 08:32:47.085   07 Jun 2027 08:33:48.905            61.820                Irkutsk          7727.500
       242   07 Jun 2027 08:37:25.531   07 Jun 2027 08:39:07.386           101.855                Novosib         12731.875
       243   07 Jun 2027 08:39:12.870   07 Jun 2027 08:42:52.670           219.800                Norilsk         27475.000
       244   07 Jun 2027 08:44:07.194   07 Jun 2027 08:44:37.158            29.964              Murmansk2          3745.500
       245   07 Jun 2027 10:13:26.572   07 Jun 2027 10:14:21.480            54.908                Norilsk          6863.500
       246   07 Jun 2027 10:14:39.194   07 Jun 2027 10:18:36.598           237.404                Norilsk         29675.500
       247   07 Jun 2027 10:18:51.250   07 Jun 2027 10:20:28.554            97.304              Murmansk1         12163.000
       248   07 Jun 2027 11:43:03.655   07 Jun 2027 11:44:13.061            69.406                 Moscow          8675.750
       249   07 Jun 2027 11:46:50.903   07 Jun 2027 11:47:12.135            21.232              Murmansk1          2654.000
       250   07 Jun 2027 11:47:17.491   07 Jun 2027 11:52:34.010           316.519                 Moscow         39564.875
       251   07 Jun 2027 11:52:55.203   07 Jun 2027 11:56:26.576           211.373              Murmansk1         26421.625
       252   07 Jun 2027 11:59:55.857   07 Jun 2027 12:07:28.293           452.436                Anadyr1         56554.500
       253   07 Jun 2027 13:00:30.581   07 Jun 2027 13:06:14.158           343.577               CapeTown         42947.125
       254   07 Jun 2027 13:23:20.714   07 Jun 2027 13:32:11.915           531.201              Murmansk1         66400.125
       255   07 Jun 2027 13:34:10.648   07 Jun 2027 13:38:27.945           257.297                Anadyr1         32162.125
       256   07 Jun 2027 13:39:17.920   07 Jun 2027 13:43:40.525           262.605               Magadan2         32825.625
       257   07 Jun 2027 16:54:13.038   07 Jun 2027 16:59:39.416           326.378                Irkutsk         40797.250
       258   07 Jun 2027 18:29:04.023   07 Jun 2027 18:36:13.906           429.883                Novosib         53735.375
       259   07 Jun 2027 21:38:29.648   07 Jun 2027 21:39:33.938            64.290              Murmansk1          8036.250
       260   07 Jun 2027 21:41:31.070   07 Jun 2027 21:43:23.672           112.602              Murmansk2         14075.250
       261   07 Jun 2027 21:43:32.154   07 Jun 2027 21:47:31.938           239.784                 Moscow         29973.000
       262   07 Jun 2027 22:10:26.635   07 Jun 2027 22:11:29.667            63.032               CapeTown          4573.001
       263   08 Jun 2027 04:00:46.134   08 Jun 2027 04:01:30.465            44.331                Anadyr2          5541.375
       264   08 Jun 2027 04:01:54.321   08 Jun 2027 04:07:18.474           324.153                Norilsk         40519.125
       265   08 Jun 2027 04:07:36.195   08 Jun 2027 04:09:02.333            86.138              Murmansk1         10767.250
       266   08 Jun 2027 05:16:21.959   08 Jun 2027 05:17:14.432            52.473                Sumatra          6559.125
       267   08 Jun 2027 05:18:52.367   08 Jun 2027 05:20:28.426            96.059                Sumatra         12007.375
       268   08 Jun 2027 05:38:20.282   08 Jun 2027 05:38:55.233            34.951                Norilsk          4368.875
       269   08 Jun 2027 05:39:01.568   08 Jun 2027 05:39:14.947            13.379                Novosib          1672.375
       270   08 Jun 2027 05:39:47.020   08 Jun 2027 05:40:31.824            44.804              Murmansk2          5600.500
       271   08 Jun 2027 05:40:40.657   08 Jun 2027 05:42:45.134           124.477              Murmansk1         15559.625
       272   08 Jun 2027 05:44:25.920   08 Jun 2027 05:46:10.256           104.336              Murmansk2         13042.000
       273   08 Jun 2027 06:20:01.466   08 Jun 2027 06:25:22.178           320.712            RioGallegos         40089.000
       274   08 Jun 2027 06:54:36.808   08 Jun 2027 07:00:14.052           337.244                Sumatra         42155.500
       275   08 Jun 2027 07:02:37.908   08 Jun 2027 07:04:37.471           119.563                Novosib         14945.375
       276   08 Jun 2027 07:05:14.138   08 Jun 2027 07:07:32.908           138.770                Irkutsk         17346.250
       277   08 Jun 2027 07:13:20.824   08 Jun 2027 07:13:58.527            37.703                Novosib          4712.875
       278   08 Jun 2027 07:14:21.453   08 Jun 2027 07:18:54.784           273.331                Norilsk         34166.375
       279   08 Jun 2027 07:20:13.773   08 Jun 2027 07:21:04.361            50.588              Murmansk2          6323.500
       280   08 Jun 2027 07:52:56.113   08 Jun 2027 07:59:14.194           378.081            RioGallegos         47260.125
       281   08 Jun 2027 08:38:35.737   08 Jun 2027 08:44:19.611           343.874                  Delhi         42984.250
       282   08 Jun 2027 08:45:18.422   08 Jun 2027 08:45:54.897            36.475                Norilsk          4559.375
       283   08 Jun 2027 08:49:48.880   08 Jun 2027 08:54:54.034           305.154                Norilsk         38144.250
       284   08 Jun 2027 08:56:08.524   08 Jun 2027 08:56:37.042            28.518              Murmansk2          3564.750
       285   08 Jun 2027 10:18:47.746   08 Jun 2027 10:19:25.358            37.612                 Moscow          4701.500
       286   08 Jun 2027 10:24:57.614   08 Jun 2027 10:25:06.416             8.802                Norilsk          1100.250
       287   08 Jun 2027 10:25:26.808   08 Jun 2027 10:30:32.255           305.447                Norilsk         38180.875
       288   08 Jun 2027 10:30:58.553   08 Jun 2027 10:32:30.070            91.517              Murmansk1         11439.625
       289   08 Jun 2027 11:56:37.260   08 Jun 2027 12:08:27.848           710.588              Murmansk2         88823.500
       290   08 Jun 2027 12:10:39.330   08 Jun 2027 12:20:05.014           565.684                Anadyr1         70710.500
       291   08 Jun 2027 13:08:38.134   08 Jun 2027 13:18:04.773           566.639               CapeTown         70829.875
       292   08 Jun 2027 13:35:57.257   08 Jun 2027 13:41:19.551           322.294              Murmansk2         40286.750
       293   08 Jun 2027 13:49:38.359   08 Jun 2027 13:55:51.682           373.323               Magadan2         46665.375
       294   08 Jun 2027 17:05:32.818   08 Jun 2027 17:11:22.021           349.203                Irkutsk         43650.375
       295   08 Jun 2027 17:21:23.468   08 Jun 2027 17:23:00.446            96.978                Sumatra         12122.250
       296   08 Jun 2027 17:24:27.603   08 Jun 2027 17:26:46.880           139.277                Sumatra         17409.625
       297   08 Jun 2027 18:41:47.076   08 Jun 2027 18:44:01.071           133.995                Novosib         16749.375
       298   08 Jun 2027 18:46:06.810   08 Jun 2027 18:47:19.176            72.366                Novosib          9045.750
       299   08 Jun 2027 20:16:46.519   08 Jun 2027 20:18:02.129            75.610              Murmansk1          9451.250
       300   08 Jun 2027 21:50:39.928   08 Jun 2027 21:52:03.842            83.914              Murmansk1         10489.250
       301   08 Jun 2027 21:54:03.522   08 Jun 2027 21:55:46.495           102.973                 Moscow         12871.625
       302   08 Jun 2027 21:56:33.556   08 Jun 2027 21:58:01.777            88.221                 Moscow         10474.000
       303   09 Jun 2027 04:12:56.510   09 Jun 2027 04:13:33.628            37.118                Irkutsk          4639.750
       304   09 Jun 2027 04:14:05.525   09 Jun 2027 04:14:26.551            21.026                Novosib          2628.250
       305   09 Jun 2027 04:14:59.963   09 Jun 2027 04:19:52.538           292.575              Murmansk1         36571.875
       306   09 Jun 2027 05:26:42.155   09 Jun 2027 05:28:19.544            97.389                Sumatra         12173.625
       307   09 Jun 2027 05:50:13.565   09 Jun 2027 05:51:21.640            68.075                Norilsk          8509.375
       308   09 Jun 2027 05:51:44.420   09 Jun 2027 05:52:33.649            49.229              Murmansk2          6153.625
       309   09 Jun 2027 05:52:33.649   09 Jun 2027 05:54:58.119           144.470              Murmansk1         18058.750
       310   09 Jun 2027 05:56:25.194   09 Jun 2027 05:58:01.277            96.083              Murmansk2         12010.375
       311   09 Jun 2027 06:31:52.744   09 Jun 2027 06:37:18.545           325.801            RioGallegos         40725.125
       312   09 Jun 2027 07:06:13.051   09 Jun 2027 07:12:07.783           354.732                Sumatra         44341.500
       313   09 Jun 2027 07:14:06.594   09 Jun 2027 07:15:30.421            83.827                Irkutsk         10478.375
       314   09 Jun 2027 07:16:02.222   09 Jun 2027 07:19:45.569           223.347                Irkutsk         27918.375
       315   09 Jun 2027 07:24:41.481   09 Jun 2027 07:25:00.319            18.838                Novosib          2354.750
       316   09 Jun 2027 07:25:52.866   09 Jun 2027 07:27:21.059            88.193                 Moscow         11024.125
       317   09 Jun 2027 07:27:24.631   09 Jun 2027 07:28:53.583            88.952              Murmansk1         11119.000
       318   09 Jun 2027 07:28:53.583   09 Jun 2027 07:30:45.202           111.619              Murmansk2         13952.375
       319   09 Jun 2027 07:32:15.135   09 Jun 2027 07:33:01.023            45.888              Murmansk1          5736.000
       320   09 Jun 2027 08:06:27.624   09 Jun 2027 08:10:14.002           226.378            RioGallegos         28297.250
       321   09 Jun 2027 08:50:10.944   09 Jun 2027 08:56:09.816           358.872                  Delhi         44859.000
       322   09 Jun 2027 09:01:34.226   09 Jun 2027 09:02:54.712            80.486                Novosib         10060.750
       323   09 Jun 2027 09:02:56.410   09 Jun 2027 09:06:55.154           238.744                Norilsk         29843.000
       324   09 Jun 2027 09:08:09.987   09 Jun 2027 09:08:37.239            27.252              Murmansk2          3406.500
       325   09 Jun 2027 10:30:43.478   09 Jun 2027 10:31:26.662            43.184                 Moscow          5398.000
       326   09 Jun 2027 10:36:52.631   09 Jun 2027 10:42:25.572           332.941                Norilsk         41617.625
       327   09 Jun 2027 10:42:56.784   09 Jun 2027 10:44:31.663            94.879              Murmansk1         11859.875
       328   09 Jun 2027 12:05:57.573   09 Jun 2027 12:16:18.090           620.517                 Moscow         77564.625
       329   09 Jun 2027 12:16:52.699   09 Jun 2027 12:20:28.917           216.218              Murmansk1         27027.250
       330   09 Jun 2027 12:22:37.340   09 Jun 2027 12:32:37.579           600.239                Anadyr1         75029.875
       331   09 Jun 2027 13:20:27.733   09 Jun 2027 13:29:50.254           562.521               CapeTown         70315.125
       332   09 Jun 2027 13:48:37.487   09 Jun 2027 13:50:28.300           110.813              Murmansk2         13851.625
       333   09 Jun 2027 14:01:22.215   09 Jun 2027 14:08:00.049           397.834               Magadan1         49729.250
       334   09 Jun 2027 16:30:32.615   09 Jun 2027 16:33:18.470           165.855            RioGallegos         20731.875
       335   09 Jun 2027 17:17:06.540   09 Jun 2027 17:20:46.636           220.096                Irkutsk         27512.000
       336   09 Jun 2027 17:23:25.827   09 Jun 2027 17:23:57.279            31.452                Irkutsk          3931.500
       337   09 Jun 2027 17:32:09.697   09 Jun 2027 17:34:38.681           148.984                Sumatra         18623.000
       338   09 Jun 2027 17:36:29.450   09 Jun 2027 17:38:28.410           118.960                Sumatra         14870.000
       339   09 Jun 2027 18:55:18.333   09 Jun 2027 18:56:02.189            43.856                Novosib          5482.000
       340   09 Jun 2027 19:02:46.871   09 Jun 2027 19:04:31.787           104.916                  Delhi         13114.500
       341   09 Jun 2027 19:05:21.458   09 Jun 2027 19:06:30.555            69.097                  Delhi          8637.125
       342   09 Jun 2027 20:28:07.101   09 Jun 2027 20:29:27.205            80.104              Murmansk2         10013.000
       343   09 Jun 2027 22:02:02.672   09 Jun 2027 22:02:47.351            44.679              Murmansk2          5584.875
       344   09 Jun 2027 22:03:58.969   09 Jun 2027 22:05:00.092            61.123              Murmansk1          7430.625
       345   10 Jun 2027 04:26:05.013   10 Jun 2027 04:27:01.621            56.608                Norilsk          7076.000
       346   10 Jun 2027 04:27:01.908   10 Jun 2027 04:35:01.187           479.279              Murmansk1         59909.875
       347   10 Jun 2027 05:37:43.065   10 Jun 2027 05:38:40.442            57.377                Sumatra          7172.125
       348   10 Jun 2027 05:43:00.859   10 Jun 2027 05:43:38.568            37.709                Sumatra          4713.625
       349   10 Jun 2027 06:01:51.669   10 Jun 2027 06:02:03.219            11.550                Irkutsk          1443.750
       350   10 Jun 2027 06:02:07.517   10 Jun 2027 06:03:29.303            81.786                Norilsk         10223.250
       351   10 Jun 2027 06:03:42.352   10 Jun 2027 06:06:50.734           188.382              Murmansk1         23547.750
       352   10 Jun 2027 06:08:24.846   10 Jun 2027 06:09:53.030            88.184              Murmansk2         11023.000
       353   10 Jun 2027 06:43:41.147   10 Jun 2027 06:49:13.282           332.135            RioGallegos         41516.875
       354   10 Jun 2027 07:17:40.059   10 Jun 2027 07:23:55.571           375.512                Sumatra         46939.000
       355   10 Jun 2027 07:28:04.675   10 Jun 2027 07:33:00.867           296.192                Irkutsk         37024.000
       356   10 Jun 2027 07:37:56.026   10 Jun 2027 07:42:58.537           302.511                Norilsk         37813.875
       357   10 Jun 2027 07:44:16.633   10 Jun 2027 07:44:58.265            41.632              Murmansk2          5204.000
       358   10 Jun 2027 09:01:36.379   10 Jun 2027 09:07:55.399           379.020                  Delhi         47377.500
       359   10 Jun 2027 09:08:04.304   10 Jun 2027 09:08:51.835            47.531                Novosib          5941.375
       360   10 Jun 2027 09:13:22.448   10 Jun 2027 09:14:45.092            82.644                Novosib         10330.500
       361   10 Jun 2027 09:14:47.308   10 Jun 2027 09:18:55.962           248.654                Norilsk         31081.750
       362   10 Jun 2027 09:19:08.908   10 Jun 2027 09:20:37.713            88.805              Murmansk2         11100.625
       363   10 Jun 2027 10:43:27.342   10 Jun 2027 10:45:22.154           114.812                 Moscow         14351.500
       364   10 Jun 2027 10:48:28.421   10 Jun 2027 10:53:01.933           273.512                 Moscow         34189.000
       365   10 Jun 2027 10:53:06.094   10 Jun 2027 10:54:15.104            69.010                Norilsk          8626.250
       366   10 Jun 2027 10:54:55.489   10 Jun 2027 10:56:33.304            97.815              Murmansk1         12226.875
       367   10 Jun 2027 12:05:42.494   10 Jun 2027 12:05:59.637            17.143               CapeTown          2142.875
       368   10 Jun 2027 12:18:41.396   10 Jun 2027 12:28:06.068           564.672                 Moscow         70584.000
       369   10 Jun 2027 12:28:45.087   10 Jun 2027 12:32:29.725           224.638              Murmansk2         28079.750
       370   10 Jun 2027 12:34:30.886   10 Jun 2027 12:38:52.568           261.682                Anadyr1         32710.250
       371   10 Jun 2027 12:38:56.899   10 Jun 2027 12:39:56.540            59.641                Anadyr1          7455.125
       372   10 Jun 2027 12:42:27.216   10 Jun 2027 12:43:21.990            54.774                Anadyr2          6846.750
       373   10 Jun 2027 14:13:10.396   10 Jun 2027 14:16:48.103           217.707               Magadan1         27213.375
       374   10 Jun 2027 14:20:05.747   10 Jun 2027 14:21:40.191            94.444               Magadan1         11805.500
       375   10 Jun 2027 16:41:47.563   10 Jun 2027 16:45:05.274           197.711            RioGallegos         24713.875
       376   10 Jun 2027 17:30:54.083   10 Jun 2027 17:32:39.715           105.632                Irkutsk         13204.000
       377   10 Jun 2027 17:34:39.194   10 Jun 2027 17:35:26.382            47.188                Irkutsk          5898.500
       378   10 Jun 2027 17:43:20.728   10 Jun 2027 17:48:05.040           284.312                Sumatra         35539.000
       379   10 Jun 2027 17:49:08.194   10 Jun 2027 17:50:53.638           105.444                Sumatra         13180.500
       380   10 Jun 2027 19:13:32.228   10 Jun 2027 19:16:12.161           159.933                  Delhi         19991.625
       381   10 Jun 2027 20:40:04.287   10 Jun 2027 20:41:35.470            91.183              Murmansk1         11397.875
       382   10 Jun 2027 22:16:58.245   10 Jun 2027 22:18:23.561            85.316              Murmansk2         10664.500
       383   10 Jun 2027 22:46:13.800   10 Jun 2027 22:48:27.211           133.411               CapeTown          1827.000
       384   11 Jun 2027 04:36:56.265   11 Jun 2027 04:37:07.715            11.450               Magadan2          1431.250
       385   11 Jun 2027 04:37:57.166   11 Jun 2027 04:38:51.849            54.683                Novosib          6835.375
       386   11 Jun 2027 04:38:55.594   11 Jun 2027 04:42:59.114           243.520              Murmansk1         30440.000
       387   11 Jun 2027 05:51:16.377   11 Jun 2027 05:52:18.972            62.595                Sumatra          7824.375
       388   11 Jun 2027 06:13:57.862   11 Jun 2027 06:15:34.745            96.883                Norilsk         12110.375
       389   11 Jun 2027 06:15:40.775   11 Jun 2027 06:18:47.398           186.623              Murmansk1         23327.875
       390   11 Jun 2027 06:18:54.066   11 Jun 2027 06:19:01.355             7.289                Norilsk           911.125
       391   11 Jun 2027 06:20:24.840   11 Jun 2027 06:21:45.540            80.700              Murmansk2         10087.500
       392   11 Jun 2027 06:55:25.706   11 Jun 2027 07:01:06.063           340.357            RioGallegos         42544.625
       393   11 Jun 2027 07:28:54.248   11 Jun 2027 07:35:36.721           402.473                Sumatra         50309.125
       394   11 Jun 2027 07:39:05.020   11 Jun 2027 07:39:54.145            49.125                Irkutsk          6140.625
       395   11 Jun 2027 07:41:03.860   11 Jun 2027 07:45:19.240           255.380                Irkutsk         31922.500
       396   11 Jun 2027 07:49:16.963   11 Jun 2027 07:51:31.087           134.124                Novosib         16765.500
       397   11 Jun 2027 07:51:35.390   11 Jun 2027 07:55:00.418           205.028                Norilsk         25628.500
       398   11 Jun 2027 07:56:18.223   11 Jun 2027 07:56:56.050            37.827              Murmansk1          4728.375
       399   11 Jun 2027 09:12:45.458   11 Jun 2027 09:19:35.246           409.788                  Delhi         51223.500
       400   11 Jun 2027 09:19:59.326   11 Jun 2027 09:20:06.454             7.128                Novosib           891.000
       401   11 Jun 2027 09:20:22.034   11 Jun 2027 09:20:56.737            34.703                Novosib          4337.875
       402   11 Jun 2027 09:25:41.000   11 Jun 2027 09:26:32.340            51.340                Novosib          6417.500
       403   11 Jun 2027 09:26:33.399   11 Jun 2027 09:30:56.374           262.975                Norilsk         32871.875
       404   11 Jun 2027 09:30:59.293   11 Jun 2027 09:32:38.434            99.141              Murmansk2         12392.625
       405   11 Jun 2027 10:55:27.333   11 Jun 2027 10:57:21.463           114.130                 Moscow         14266.250
       406   11 Jun 2027 10:58:34.953   11 Jun 2027 11:08:34.970           600.017              Murmansk1         75002.125
       407   11 Jun 2027 11:13:38.313   11 Jun 2027 11:16:06.433           148.120                Anadyr2         18515.000
       408   11 Jun 2027 12:13:26.151   11 Jun 2027 12:15:10.131           103.980               CapeTown         12997.500
       409   11 Jun 2027 12:47:48.233   11 Jun 2027 12:48:03.048            14.815                Anadyr1          1851.875
       410   11 Jun 2027 14:25:01.556   11 Jun 2027 14:28:19.274           197.718               Magadan2         24714.750
       411   11 Jun 2027 14:28:42.895   11 Jun 2027 14:28:49.143             6.248               Magadan1           781.000
       412   11 Jun 2027 14:29:12.080   11 Jun 2027 14:30:43.565            91.485               Magadan1         11435.625
       413   11 Jun 2027 16:53:18.883   11 Jun 2027 16:58:20.945           302.062            RioGallegos         37757.750
       414   11 Jun 2027 16:59:33.080   11 Jun 2027 17:00:22.445            49.365            RioGallegos          6170.625
       415   11 Jun 2027 17:38:22.199   11 Jun 2027 17:38:59.686            37.487                Norilsk          4685.875
       416   11 Jun 2027 17:44:11.995   11 Jun 2027 17:44:34.662            22.667                Irkutsk          2833.375
       417   11 Jun 2027 17:58:35.492   11 Jun 2027 18:01:55.054           199.562                Sumatra         24945.250
       418   11 Jun 2027 19:24:47.031   11 Jun 2027 19:27:58.157           191.126                  Delhi         23890.750
       419   11 Jun 2027 19:30:08.519   11 Jun 2027 19:32:15.335           126.816                  Delhi         15852.000
       420   11 Jun 2027 20:50:32.054   11 Jun 2027 20:50:46.765            14.711              Murmansk1          1838.875
       421   11 Jun 2027 20:51:59.766   11 Jun 2027 20:54:11.382           131.616              Murmansk2         16452.000
       422   11 Jun 2027 22:59:25.719   11 Jun 2027 23:01:44.980           139.261               CapeTown         15076.875
       423   12 Jun 2027 04:53:30.606   12 Jun 2027 04:54:46.894            76.288              Murmansk1          9536.000
       424   12 Jun 2027 04:55:00.273   12 Jun 2027 04:55:12.761            12.488                Norilsk          1561.000
       425   12 Jun 2027 04:56:48.297   12 Jun 2027 04:59:07.338           139.041              Murmansk2         17380.125
       426   12 Jun 2027 05:32:32.131   12 Jun 2027 05:37:39.133           307.002            RioGallegos         38375.250
       427   12 Jun 2027 06:11:32.366   12 Jun 2027 06:11:56.232            23.866                Sumatra          2983.250
       428   12 Jun 2027 06:13:13.505   12 Jun 2027 06:14:38.709            85.204                Irkutsk         10650.500
       429   12 Jun 2027 06:15:25.176   12 Jun 2027 06:20:41.453           316.277                Irkutsk         39534.625
       430   12 Jun 2027 06:25:59.568   12 Jun 2027 06:31:02.725           303.157                Norilsk         37894.625
       431   12 Jun 2027 06:32:25.139   12 Jun 2027 06:33:38.792            73.653              Murmansk1          9206.625
       432   12 Jun 2027 07:07:04.741   12 Jun 2027 07:12:56.402           351.661            RioGallegos         43957.625
       433   12 Jun 2027 07:39:46.871   12 Jun 2027 07:47:09.956           443.085                Sumatra         55385.625
       434   12 Jun 2027 07:51:33.855   12 Jun 2027 07:54:05.530           151.675                  Delhi         18959.375
       435   12 Jun 2027 08:01:59.369   12 Jun 2027 08:07:02.269           302.900                Norilsk         37862.500
       436   12 Jun 2027 08:08:18.934   12 Jun 2027 08:08:54.332            35.398              Murmansk2          4424.750
       437   12 Jun 2027 09:23:12.532   12 Jun 2027 09:31:07.419           474.887                  Delhi         59360.875
       438   12 Jun 2027 09:31:26.935   12 Jun 2027 09:33:32.419           125.484                Novosib         15685.500
       439   12 Jun 2027 09:37:54.177   12 Jun 2027 09:42:56.281           302.104                Norilsk         37763.000
       440   12 Jun 2027 09:43:26.271   12 Jun 2027 09:44:39.371            73.100              Murmansk2          9137.500
       441   12 Jun 2027 11:06:19.551   12 Jun 2027 11:06:24.067             4.516                 Moscow           564.500
       442   12 Jun 2027 11:10:35.931   12 Jun 2027 11:20:36.624           600.693              Murmansk1         75086.625
       443   12 Jun 2027 11:25:00.841   12 Jun 2027 11:27:24.422           143.581                Anadyr2         17947.625
       444   12 Jun 2027 14:36:54.899   12 Jun 2027 14:40:50.511           235.612               Magadan2         29451.500
       445   12 Jun 2027 14:44:41.540   12 Jun 2027 14:46:25.340           103.800               Magadan1         12975.000
       446   12 Jun 2027 17:06:49.865   12 Jun 2027 17:11:20.485           270.620            RioGallegos         33827.500
       447   12 Jun 2027 17:50:11.764   12 Jun 2027 17:53:20.764           189.000                Norilsk         23625.000
       448   12 Jun 2027 18:11:54.820   12 Jun 2027 18:12:56.406            61.586                Sumatra          7698.250
       449   12 Jun 2027 19:38:38.253   12 Jun 2027 19:41:48.875           190.622                  Delhi         23827.750
       450   12 Jun 2027 21:03:17.925   12 Jun 2027 21:06:44.903           206.978              Murmansk2         25872.250
       451   12 Jun 2027 21:06:55.101   12 Jun 2027 21:07:45.056            49.955              Murmansk1          6244.375
       452   12 Jun 2027 23:12:07.033   12 Jun 2027 23:12:54.124            47.091               CapeTown          5886.375
       453   13 Jun 2027 05:02:06.990   13 Jun 2027 05:03:09.774            62.784                Novosib          7848.000
       454   13 Jun 2027 05:05:20.678   13 Jun 2027 05:07:14.997           114.319              Murmansk2         14289.875
       455   13 Jun 2027 05:08:45.679   13 Jun 2027 05:10:55.803           130.124              Murmansk1         16265.500
       456   13 Jun 2027 05:44:30.303   13 Jun 2027 05:49:40.107           309.804            RioGallegos         38725.500
       457   13 Jun 2027 06:23:11.588   13 Jun 2027 06:24:13.666            62.078                Sumatra          7759.750
       458   13 Jun 2027 06:26:27.274   13 Jun 2027 06:32:10.323           343.049                Irkutsk         42881.125
       459   13 Jun 2027 06:37:48.025   13 Jun 2027 06:38:31.711            43.686                Novosib          5460.750
       460   13 Jun 2027 06:38:39.592   13 Jun 2027 06:43:04.234           264.642                Norilsk         33080.250
       461   13 Jun 2027 06:44:25.716   13 Jun 2027 06:45:32.781            67.065              Murmansk2          8383.125
       462   13 Jun 2027 07:18:34.923   13 Jun 2027 07:24:43.569           368.646            RioGallegos         46080.750
       463   13 Jun 2027 07:49:29.018   13 Jun 2027 07:58:32.972           543.954                Sumatra         67994.250
       464   13 Jun 2027 08:02:59.508   13 Jun 2027 08:03:40.925            41.417                Novosib          5177.125
       465   13 Jun 2027 08:03:54.036   13 Jun 2027 08:07:00.707           186.671                  Delhi         23333.875
       466   13 Jun 2027 08:13:30.152   13 Jun 2027 08:15:28.610           118.458                Novosib         14807.250
       467   13 Jun 2027 08:15:29.009   13 Jun 2027 08:16:52.339            83.330              Murmansk1         10416.250
       468   13 Jun 2027 08:16:52.339   13 Jun 2027 08:19:06.905           134.566              Murmansk2         16820.750
       469   13 Jun 2027 08:20:19.731   13 Jun 2027 08:20:53.073            33.342              Murmansk2          4167.750
       470   13 Jun 2027 09:34:14.017   13 Jun 2027 09:42:28.147           494.130                  Delhi         61766.250
       471   13 Jun 2027 09:42:47.067   13 Jun 2027 09:45:15.944           148.877                Novosib         18609.625
       472   13 Jun 2027 09:49:21.554   13 Jun 2027 09:49:38.603            17.049                Novosib          2131.125
       473   13 Jun 2027 09:50:24.807   13 Jun 2027 09:54:55.527           270.720                Norilsk         33840.000
       474   13 Jun 2027 09:55:00.149   13 Jun 2027 09:56:40.498           100.349              Murmansk2         12543.625
       475   13 Jun 2027 11:18:05.832   13 Jun 2027 11:18:12.101             6.269                 Moscow           783.625
       476   13 Jun 2027 11:23:02.414   13 Jun 2027 11:23:54.189            51.775              Murmansk1          6471.875
       477   13 Jun 2027 11:24:22.791   13 Jun 2027 11:28:57.333           274.542                 Moscow         34317.750
       478   13 Jun 2027 11:29:15.589   13 Jun 2027 11:32:38.238           202.649              Murmansk2         25331.125
       479   13 Jun 2027 11:39:00.156   13 Jun 2027 11:42:14.126           193.970                Anadyr1         24246.250
       480   13 Jun 2027 12:37:15.752   13 Jun 2027 12:37:33.555            17.803               CapeTown          2225.375
       481   13 Jun 2027 14:48:49.915   13 Jun 2027 14:50:59.669           129.754               Magadan2         16219.250
       482   13 Jun 2027 14:54:12.974   13 Jun 2027 14:55:53.307           100.333               Magadan1         12541.625
