uniorb/output/strategy_4/Drop/Drop_KinoSat_110401.txt

KinoSat_110401
-------------------------
    Access    *     Start Time (UTCG)     *     Stop Time (UTCG)  *   Duration (s)        *       Station  *  Data (Mbytes)
         1   01 Jun 2027 04:32:18.998   01 Jun 2027 04:32:34.500            15.502                Irkutsk          1937.750
         2   01 Jun 2027 04:32:41.139   01 Jun 2027 04:35:17.263           156.124                Irkutsk         19515.500
         3   01 Jun 2027 04:35:54.977   01 Jun 2027 04:36:10.886            15.909               Magadan2          1988.625
         4   01 Jun 2027 04:36:10.886   01 Jun 2027 04:36:29.467            18.581               Magadan1          2322.625
         5   01 Jun 2027 04:36:34.856   01 Jun 2027 04:36:40.207             5.351              Murmansk1           668.875
         6   01 Jun 2027 04:36:48.528   01 Jun 2027 04:37:19.215            30.687                Irkutsk          3835.875
         7   01 Jun 2027 04:37:23.983   01 Jun 2027 04:37:34.423            10.440                Norilsk          1305.000
         8   01 Jun 2027 04:38:10.155   01 Jun 2027 04:38:18.880             8.725                Novosib          1090.625
         9   01 Jun 2027 05:12:10.904   01 Jun 2027 05:13:30.619            79.715            RioGallegos          9964.375
        10   01 Jun 2027 05:47:17.456   01 Jun 2027 05:47:24.563             7.107                Sumatra           888.375
        11   01 Jun 2027 05:48:56.928   01 Jun 2027 05:50:03.705            66.777                Sumatra          8347.125
        12   01 Jun 2027 05:59:03.074   01 Jun 2027 06:00:11.412            68.338                  Delhi          8542.250
        13   01 Jun 2027 06:09:41.910   01 Jun 2027 06:11:57.484           135.574                Irkutsk         16946.750
        14   01 Jun 2027 06:12:28.728   01 Jun 2027 06:13:39.604            70.876                Novosib          8859.500
        15   01 Jun 2027 07:31:16.709   01 Jun 2027 07:32:54.728            98.019                  Delhi         12252.375
        16   01 Jun 2027 07:48:07.939   01 Jun 2027 07:48:50.657            42.718                Norilsk          5339.750
        17   01 Jun 2027 07:48:56.062   01 Jun 2027 07:49:16.142            20.080                Norilsk          2510.000
        18   01 Jun 2027 07:49:17.523   01 Jun 2027 07:49:35.263            17.740                Novosib          2217.500
        19   01 Jun 2027 09:10:50.963   01 Jun 2027 09:11:51.450            60.487                  Delhi          7560.875
        20   01 Jun 2027 09:21:32.539   01 Jun 2027 09:21:54.063            21.524                Novosib          2690.500
        21   01 Jun 2027 09:22:11.975   01 Jun 2027 09:24:34.323           142.348                Novosib         17793.500
        22   01 Jun 2027 09:24:52.531   01 Jun 2027 09:25:02.893            10.362              Murmansk1          1295.250
        23   01 Jun 2027 09:25:07.459   01 Jun 2027 09:25:37.370            29.911                 Moscow          3738.875
        24   01 Jun 2027 09:25:50.724   01 Jun 2027 09:30:15.449           264.725                Norilsk         33090.625
        25   01 Jun 2027 09:30:53.981   01 Jun 2027 09:32:03.362            69.381              Murmansk1          8672.625
        26   01 Jun 2027 10:33:56.239   01 Jun 2027 10:39:06.036           309.797               CapeTown         38724.625
        27   01 Jun 2027 10:54:10.218   01 Jun 2027 10:54:55.838            45.620                 Moscow          5702.500
        28   01 Jun 2027 10:55:43.335   01 Jun 2027 10:56:47.043            63.708              Murmansk1          7963.500
        29   01 Jun 2027 11:10:30.941   01 Jun 2027 11:14:41.860           250.919                Anadyr2         31364.875
        30   01 Jun 2027 11:15:08.293   01 Jun 2027 11:16:27.658            79.365                Anadyr1          9920.625
        31   01 Jun 2027 12:50:12.643   01 Jun 2027 12:52:43.038           150.395               Magadan2         18799.375
        32   01 Jun 2027 14:24:07.690   01 Jun 2027 14:26:03.931           116.241               Magadan2         14530.125
        33   01 Jun 2027 16:07:10.077   01 Jun 2027 16:09:22.801           132.724                Irkutsk         16590.500
        34   01 Jun 2027 16:51:53.563   01 Jun 2027 16:56:04.352           250.789            RioGallegos         31348.625
        35   01 Jun 2027 17:41:06.902   01 Jun 2027 17:44:32.681           205.779                Novosib         25722.375
        36   01 Jun 2027 17:47:06.045   01 Jun 2027 17:47:36.986            30.941                Novosib          3867.625
        37   01 Jun 2027 17:54:40.954   01 Jun 2027 17:56:09.160            88.206                Sumatra         11025.750
        38   01 Jun 2027 19:22:57.801   01 Jun 2027 19:27:09.288           251.487                  Delhi         24106.374
        39   02 Jun 2027 03:11:45.296   02 Jun 2027 03:12:46.370            61.074                Anadyr2          7634.250
        40   02 Jun 2027 03:13:05.228   02 Jun 2027 03:13:31.562            26.334               Magadan2          3291.750
        41   02 Jun 2027 04:44:45.183   02 Jun 2027 04:45:10.541            25.358               Magadan1          3169.750
        42   02 Jun 2027 04:45:11.657   02 Jun 2027 04:46:24.360            72.703                Irkutsk          9087.875
        43   02 Jun 2027 04:47:06.919   02 Jun 2027 04:47:58.251            51.332               Magadan1          6416.500
        44   02 Jun 2027 04:48:15.563   02 Jun 2027 04:48:33.218            17.655               Magadan1          2206.875
        45   02 Jun 2027 04:49:35.404   02 Jun 2027 04:49:54.359            18.955                Norilsk          2369.375
        46   02 Jun 2027 04:49:56.350   02 Jun 2027 04:50:45.421            49.071                Novosib          6133.875
        47   02 Jun 2027 04:52:29.586   02 Jun 2027 04:57:55.688           326.102              Murmansk1         40762.750
        48   02 Jun 2027 05:31:49.662   02 Jun 2027 05:37:00.540           310.878            RioGallegos         38859.750
        49   02 Jun 2027 05:59:09.410   02 Jun 2027 06:04:01.526           292.116                Sumatra         36514.500
        50   02 Jun 2027 06:25:35.122   02 Jun 2027 06:27:03.508            88.386                Novosib         11048.250
        51   02 Jun 2027 06:27:15.305   02 Jun 2027 06:30:29.215           193.910                Norilsk         24238.750
        52   02 Jun 2027 06:31:01.198   02 Jun 2027 06:32:44.289           103.091              Murmansk1         12886.375
        53   02 Jun 2027 07:07:55.206   02 Jun 2027 07:11:23.596           208.390            RioGallegos         26048.750
        54   02 Jun 2027 07:42:16.584   02 Jun 2027 07:43:39.059            82.475                Sumatra         10309.375
        55   02 Jun 2027 07:50:33.393   02 Jun 2027 07:56:01.473           328.080                  Delhi         41010.000
        56   02 Jun 2027 07:56:13.173   02 Jun 2027 07:57:22.242            69.069                Novosib          8633.625
        57   02 Jun 2027 08:00:58.892   02 Jun 2027 08:04:20.936           202.044                 Moscow         25255.500
        58   02 Jun 2027 08:04:23.401   02 Jun 2027 08:06:28.912           125.511                Norilsk         15688.875
        59   02 Jun 2027 08:07:07.748   02 Jun 2027 08:08:13.305            65.557              Murmansk1          8194.625
        60   02 Jun 2027 09:37:50.856   02 Jun 2027 09:42:12.664           261.808                Norilsk         32726.000
        61   02 Jun 2027 09:42:30.312   02 Jun 2027 09:44:04.782            94.470              Murmansk2         11808.750
        62   02 Jun 2027 10:48:31.944   02 Jun 2027 10:52:01.767           209.823               CapeTown         26227.875
        63   02 Jun 2027 11:06:39.644   02 Jun 2027 11:06:51.763            12.119                 Moscow          1514.875
        64   02 Jun 2027 11:10:27.141   02 Jun 2027 11:10:45.219            18.078              Murmansk2          2259.750
        65   02 Jun 2027 11:11:08.818   02 Jun 2027 11:16:09.949           301.131                 Moscow         37641.375
        66   02 Jun 2027 11:16:22.187   02 Jun 2027 11:20:02.811           220.624              Murmansk1         27578.000
        67   02 Jun 2027 11:22:21.855   02 Jun 2027 11:31:06.084           524.229                Anadyr2         65528.625
        68   02 Jun 2027 12:20:19.586   02 Jun 2027 12:29:50.032           570.446               CapeTown         71305.750
        69   02 Jun 2027 12:46:58.289   02 Jun 2027 12:53:25.602           387.313              Murmansk1         48414.125
        70   02 Jun 2027 13:01:36.441   02 Jun 2027 13:05:14.266           217.825               Magadan2         27228.125
        71   02 Jun 2027 13:07:41.634   02 Jun 2027 13:08:00.280            18.646               Magadan2          2330.750
        72   02 Jun 2027 14:39:02.275   02 Jun 2027 14:40:35.945            93.670               Magadan2         11708.750
        73   02 Jun 2027 16:17:47.031   02 Jun 2027 16:23:14.035           327.004                Irkutsk         40875.500
        74   02 Jun 2027 17:52:39.213   02 Jun 2027 17:56:23.719           224.506                Novosib         28063.250
        75   02 Jun 2027 17:57:26.668   02 Jun 2027 17:59:12.338           105.670                Novosib         13208.750
        76   02 Jun 2027 19:34:46.557   02 Jun 2027 19:36:52.100           125.543                  Delhi         15692.875
        77   02 Jun 2027 21:01:39.730   02 Jun 2027 21:03:00.913            81.183              Murmansk2         10147.875
        78   02 Jun 2027 21:05:54.187   02 Jun 2027 21:09:27.258           213.071                 Moscow         26633.875
        79   03 Jun 2027 03:24:34.845   03 Jun 2027 03:24:40.245             5.400               Magadan2           675.000
        80   03 Jun 2027 03:25:38.520   03 Jun 2027 03:25:41.255             2.735               Magadan2           341.875
        81   03 Jun 2027 03:25:49.085   03 Jun 2027 03:30:54.534           305.449                Norilsk         38181.125
        82   03 Jun 2027 03:31:10.124   03 Jun 2027 03:35:32.919           262.795              Murmansk2         32849.375
        83   03 Jun 2027 04:00:59.043   03 Jun 2027 04:02:26.233            87.190            RioGallegos         10898.750
        84   03 Jun 2027 04:39:52.155   03 Jun 2027 04:40:06.227            14.072                Sumatra          1759.000
        85   03 Jun 2027 04:42:01.405   03 Jun 2027 04:42:41.561            40.156                Sumatra          5019.500
        86   03 Jun 2027 05:01:36.579   03 Jun 2027 05:03:06.790            90.211                Norilsk         11276.375
        87   03 Jun 2027 05:04:21.988   03 Jun 2027 05:09:46.022           324.034              Murmansk1         40504.250
        88   03 Jun 2027 05:44:34.273   03 Jun 2027 05:48:58.234           263.961            RioGallegos         32995.125
        89   03 Jun 2027 06:19:01.763   03 Jun 2027 06:23:50.079           288.316                Sumatra         36039.500
        90   03 Jun 2027 06:27:24.814   03 Jun 2027 06:31:03.066           218.252                Irkutsk         27281.500
        91   03 Jun 2027 06:37:58.055   03 Jun 2027 06:42:31.035           272.980                Norilsk         34122.500
        92   03 Jun 2027 06:42:42.887   03 Jun 2027 06:44:40.365           117.478              Murmansk1         14684.750
        93   03 Jun 2027 07:19:43.797   03 Jun 2027 07:22:48.633           184.836            RioGallegos         23104.500
        94   03 Jun 2027 07:59:52.964   03 Jun 2027 08:07:55.464           482.500                  Delhi         60312.500
        95   03 Jun 2027 08:07:57.587   03 Jun 2027 08:09:10.065            72.478                Novosib          9059.750
        96   03 Jun 2027 08:13:09.208   03 Jun 2027 08:14:37.898            88.690                Novosib         11086.250
        97   03 Jun 2027 08:14:48.034   03 Jun 2027 08:18:30.274           222.240                Norilsk         27780.000
        98   03 Jun 2027 08:18:56.249   03 Jun 2027 08:20:13.208            76.959              Murmansk2          9619.875
        99   03 Jun 2027 09:42:35.681   03 Jun 2027 09:43:01.590            25.909                 Moscow          3238.625
       100   03 Jun 2027 09:49:50.397   03 Jun 2027 09:54:08.254           257.857                Norilsk         32232.125
       101   03 Jun 2027 09:54:33.132   03 Jun 2027 09:56:06.306            93.174              Murmansk2         11646.750
       102   03 Jun 2027 11:22:28.545   03 Jun 2027 11:24:09.722           101.177              Murmansk1         12647.125
       103   03 Jun 2027 11:24:30.831   03 Jun 2027 11:28:03.031           212.200                 Moscow         26525.000
       104   03 Jun 2027 11:28:14.507   03 Jun 2027 11:32:04.079           229.572              Murmansk2         28696.500
       105   03 Jun 2027 11:36:46.539   03 Jun 2027 11:43:42.624           416.085                Anadyr2         52010.625
       106   03 Jun 2027 12:32:13.973   03 Jun 2027 12:41:40.445           566.472               CapeTown         70809.000
       107   03 Jun 2027 12:59:34.973   03 Jun 2027 13:07:44.722           489.749              Murmansk1         61218.625
       108   03 Jun 2027 13:12:33.162   03 Jun 2027 13:22:20.257           587.095                Anadyr2         73386.875
       109   03 Jun 2027 14:09:30.687   03 Jun 2027 14:10:40.718            70.031               CapeTown          8753.875
       110   03 Jun 2027 14:45:41.533   03 Jun 2027 14:46:21.264            39.731                Anadyr2          4966.375
       111   03 Jun 2027 14:48:51.084   03 Jun 2027 14:49:18.029            26.945               Magadan1          3368.125
       112   03 Jun 2027 14:52:15.711   03 Jun 2027 14:54:56.262           160.551               Magadan2         20068.875
       113   03 Jun 2027 15:44:13.205   03 Jun 2027 15:44:37.809            24.604            RioGallegos          3075.500
       114   03 Jun 2027 16:29:07.654   03 Jun 2027 16:36:28.427           440.773                Irkutsk         55096.625
       115   03 Jun 2027 16:44:55.758   03 Jun 2027 16:46:38.258           102.500                Sumatra         12812.500
       116   03 Jun 2027 16:48:16.049   03 Jun 2027 16:50:35.688           139.639                Sumatra         17454.875
       117   03 Jun 2027 18:05:59.156   03 Jun 2027 18:07:56.733           117.577                Novosib         14697.125
       118   03 Jun 2027 21:13:38.980   03 Jun 2027 21:15:58.460           139.480              Murmansk1         17435.000
       119   03 Jun 2027 21:17:39.127   03 Jun 2027 21:19:40.039           120.912                 Moscow         15114.000
       120   03 Jun 2027 21:21:28.583   03 Jun 2027 21:21:43.647            15.064                 Moscow          1883.000
       121   03 Jun 2027 21:24:46.901   03 Jun 2027 21:26:15.069            88.168                 Moscow         11021.000
       122   03 Jun 2027 21:44:36.546   03 Jun 2027 21:45:27.276            50.730               CapeTown          6341.250
       123   03 Jun 2027 21:48:31.329   03 Jun 2027 21:50:12.405           101.076               CapeTown         10121.874
       124   04 Jun 2027 03:36:31.013   04 Jun 2027 03:36:49.900            18.887                Norilsk          2360.875
       125   04 Jun 2027 03:37:42.125   04 Jun 2027 03:42:52.449           310.324                Norilsk         38790.500
       126   04 Jun 2027 03:43:05.200   04 Jun 2027 03:44:53.365           108.165              Murmansk1         13520.625
       127   04 Jun 2027 04:50:15.368   04 Jun 2027 04:52:25.136           129.768                Sumatra         16221.000
       128   04 Jun 2027 05:13:41.821   04 Jun 2027 05:14:56.654            74.833                Novosib          9354.125
       129   04 Jun 2027 05:16:15.138   04 Jun 2027 05:21:37.073           321.935              Murmansk1         40241.875
       130   04 Jun 2027 05:56:34.692   04 Jun 2027 06:00:54.546           259.854            RioGallegos         32481.750
       131   04 Jun 2027 06:31:15.193   04 Jun 2027 06:35:43.578           268.385                Sumatra         33548.125
       132   04 Jun 2027 06:38:26.900   04 Jun 2027 06:43:21.938           295.038                Irkutsk         36879.750
       133   04 Jun 2027 06:49:39.539   04 Jun 2027 06:51:45.322           125.783                 Moscow         15722.875
       134   04 Jun 2027 06:51:48.621   04 Jun 2027 06:54:32.903           164.282                Norilsk         20535.250
       135   04 Jun 2027 06:54:36.306   04 Jun 2027 06:56:37.055           120.749              Murmansk1         15093.625
       136   04 Jun 2027 07:31:28.616   04 Jun 2027 07:33:46.474           137.858            RioGallegos         17232.250
       137   04 Jun 2027 08:15:36.866   04 Jun 2027 08:19:45.501           248.635                  Delhi         31079.375
       138   04 Jun 2027 08:19:54.766   04 Jun 2027 08:20:13.967            19.201              Murmansk2          2400.125
       139   04 Jun 2027 08:25:11.984   04 Jun 2027 08:28:31.284           199.300                 Moscow         24912.500
       140   04 Jun 2027 08:28:54.820   04 Jun 2027 08:30:31.389            96.569                Norilsk         12071.125
       141   04 Jun 2027 08:30:44.983   04 Jun 2027 08:32:13.418            88.435              Murmansk1         11054.375
       142   04 Jun 2027 09:59:12.065   04 Jun 2027 09:59:57.790            45.725              Murmansk1          5715.625
       143   04 Jun 2027 10:00:14.353   04 Jun 2027 10:02:08.331           113.978              Murmansk2         14247.250
       144   04 Jun 2027 10:02:12.346   04 Jun 2027 10:04:37.991           145.645                 Moscow         18205.625
       145   04 Jun 2027 10:04:40.070   04 Jun 2027 10:06:01.466            81.396                Norilsk         10174.500
       146   04 Jun 2027 10:06:02.597   04 Jun 2027 10:08:07.906           125.309              Murmansk1         15663.625
       147   04 Jun 2027 11:34:29.778   04 Jun 2027 11:36:06.956            97.178              Murmansk2         12147.250
       148   04 Jun 2027 11:36:51.970   04 Jun 2027 11:39:53.856           181.886                 Moscow         22735.750
       149   04 Jun 2027 11:40:13.489   04 Jun 2027 11:44:05.147           231.658              Murmansk2         28957.250
       150   04 Jun 2027 11:49:37.364   04 Jun 2027 11:56:15.032           397.668                Anadyr1         49708.500
       151   04 Jun 2027 12:49:28.041   04 Jun 2027 12:53:25.710           237.669               CapeTown         29708.625
       152   04 Jun 2027 13:12:15.366   04 Jun 2027 13:19:39.803           444.437              Murmansk1         55554.625
       153   04 Jun 2027 13:24:47.887   04 Jun 2027 13:33:43.301           535.414                Anadyr1         66926.750
       154   04 Jun 2027 15:54:06.288   04 Jun 2027 15:59:17.734           311.446            RioGallegos         38930.750
       155   04 Jun 2027 16:40:41.779   04 Jun 2027 16:44:27.889           226.110                Irkutsk         28263.750
       156   04 Jun 2027 16:46:01.953   04 Jun 2027 16:47:21.703            79.750                Irkutsk          9968.750
       157   04 Jun 2027 16:55:43.471   04 Jun 2027 16:58:18.029           154.558                Sumatra         19319.750
       158   04 Jun 2027 17:00:13.498   04 Jun 2027 17:00:38.531            25.033                Sumatra          3129.125
       159   04 Jun 2027 18:18:38.607   04 Jun 2027 18:22:03.255           204.648                Novosib         25581.000
       160   04 Jun 2027 18:26:18.743   04 Jun 2027 18:28:10.121           111.378                  Delhi         13922.250
       161   04 Jun 2027 18:30:22.287   04 Jun 2027 18:31:18.274            55.987                  Delhi          6998.375
       162   04 Jun 2027 21:31:49.817   04 Jun 2027 21:36:05.317           255.500                 Moscow         31937.500
       163   04 Jun 2027 21:55:38.736   04 Jun 2027 21:57:39.057           120.321               CapeTown          3913.751
       164   05 Jun 2027 03:49:42.961   05 Jun 2027 03:58:36.887           533.926              Murmansk1         66740.750
       165   05 Jun 2027 05:01:17.240   05 Jun 2027 05:04:10.539           173.299                Sumatra         21662.375
       166   05 Jun 2027 05:25:31.575   05 Jun 2027 05:25:39.447             7.872                Irkutsk           984.000
       167   05 Jun 2027 05:25:52.631   05 Jun 2027 05:27:01.454            68.823                Novosib          8602.875
       168   05 Jun 2027 05:28:09.026   05 Jun 2027 05:30:35.663           146.637              Murmansk2         18329.625
       169   05 Jun 2027 05:30:35.663   05 Jun 2027 05:33:28.859           173.196              Murmansk1         21649.500
       170   05 Jun 2027 06:08:34.075   05 Jun 2027 06:12:49.216           255.141            RioGallegos         31892.625
       171   05 Jun 2027 06:43:22.469   05 Jun 2027 06:47:31.112           248.643                Sumatra         31080.375
       172   05 Jun 2027 06:50:55.339   05 Jun 2027 06:51:30.876            35.537                Irkutsk          4442.125
       173   05 Jun 2027 06:52:38.351   05 Jun 2027 06:55:46.366           188.015                Irkutsk         23501.875
       174   05 Jun 2027 07:01:39.518   05 Jun 2027 07:03:57.022           137.504                 Moscow         17188.000
       175   05 Jun 2027 07:04:19.170   05 Jun 2027 07:06:45.353           146.183              Murmansk2         18272.875
       176   05 Jun 2027 07:06:45.353   05 Jun 2027 07:08:34.323           108.970              Murmansk1         13621.250
       177   05 Jun 2027 08:27:35.897   05 Jun 2027 08:31:30.879           234.982                  Delhi         29372.750
       178   05 Jun 2027 08:31:38.767   05 Jun 2027 08:32:03.920            25.153                 Moscow          3144.125
       179   05 Jun 2027 08:32:06.727   05 Jun 2027 08:32:30.931            24.204                Novosib          3025.500
       180   05 Jun 2027 08:37:03.472   05 Jun 2027 08:38:20.838            77.366                Novosib          9670.750
       181   05 Jun 2027 08:38:27.663   05 Jun 2027 08:42:32.190           244.527                Norilsk         30565.875
       182   05 Jun 2027 08:42:34.384   05 Jun 2027 08:44:13.907            99.523              Murmansk1         12440.375
       183   05 Jun 2027 10:07:03.534   05 Jun 2027 10:08:26.417            82.883                 Moscow         10360.375
       184   05 Jun 2027 10:11:45.486   05 Jun 2027 10:14:10.871           145.385              Murmansk1         18173.125
       185   05 Jun 2027 10:14:14.987   05 Jun 2027 10:16:38.103           143.116                 Moscow         17889.500
       186   05 Jun 2027 10:17:29.360   05 Jun 2027 10:20:09.554           160.194              Murmansk2         20024.250
       187   05 Jun 2027 11:29:26.695   05 Jun 2027 11:29:36.627             9.932               CapeTown          1241.500
       188   05 Jun 2027 11:46:30.798   05 Jun 2027 11:47:51.797            80.999              Murmansk2         10124.875
       189   05 Jun 2027 11:48:56.901   05 Jun 2027 11:51:41.701           164.800                 Moscow         20600.000
       190   05 Jun 2027 11:51:45.417   05 Jun 2027 11:56:05.949           260.532              Murmansk2         32566.500
       191   05 Jun 2027 11:58:46.566   05 Jun 2027 11:59:47.857            61.291                Anadyr1          7661.375
       192   05 Jun 2027 12:00:37.442   05 Jun 2027 12:08:43.811           486.369                Anadyr2         60796.125
       193   05 Jun 2027 13:01:25.603   05 Jun 2027 13:05:05.489           219.886               CapeTown         27485.750
       194   05 Jun 2027 13:25:00.201   05 Jun 2027 13:28:10.383           190.182              Murmansk1         23772.750
       195   05 Jun 2027 13:36:46.122   05 Jun 2027 13:40:57.336           251.214               Magadan1         31401.750
       196   05 Jun 2027 13:42:43.617   05 Jun 2027 13:44:02.861            79.244               Magadan2          9905.500
       197   05 Jun 2027 16:05:22.267   05 Jun 2027 16:08:45.852           203.585            RioGallegos         25448.125
       198   05 Jun 2027 16:54:11.228   05 Jun 2027 16:58:26.698           255.470                Irkutsk         31933.750
       199   05 Jun 2027 17:06:55.213   05 Jun 2027 17:10:04.637           189.424                Sumatra         23678.000
       200   05 Jun 2027 17:12:53.564   05 Jun 2027 17:15:22.182           148.618                Sumatra         18577.250
       201   05 Jun 2027 18:37:06.106   05 Jun 2027 18:39:30.545           144.439                  Delhi         18054.875
       202   05 Jun 2027 21:39:49.339   05 Jun 2027 21:42:16.576           147.237              Murmansk1         18404.625
       203   05 Jun 2027 21:42:44.107   05 Jun 2027 21:42:46.859             2.752              Murmansk1           344.000
       204   05 Jun 2027 21:45:32.902   05 Jun 2027 21:45:56.178            23.276                 Moscow          2909.500
       205   05 Jun 2027 22:06:54.010   05 Jun 2027 22:09:28.380           154.370               CapeTown          8281.375
       206   06 Jun 2027 04:00:33.670   06 Jun 2027 04:00:34.510             0.840               Magadan1           105.000
       207   06 Jun 2027 04:01:47.692   06 Jun 2027 04:06:49.671           301.979                Norilsk         37747.375
       208   06 Jun 2027 05:12:36.520   06 Jun 2027 05:13:17.238            40.718                Sumatra          5089.750
       209   06 Jun 2027 05:13:54.407   06 Jun 2027 05:16:00.239           125.832                Sumatra         15729.000
       210   06 Jun 2027 05:37:41.088   06 Jun 2027 05:42:37.586           296.498                Norilsk         37062.250
       211   06 Jun 2027 05:42:51.112   06 Jun 2027 05:45:21.402           150.290              Murmansk1         18786.250
       212   06 Jun 2027 06:20:32.318   06 Jun 2027 06:24:41.916           249.598            RioGallegos         31199.750
       213   06 Jun 2027 06:55:24.059   06 Jun 2027 06:59:11.966           227.907                Sumatra         28488.375
       214   06 Jun 2027 07:02:42.643   06 Jun 2027 07:08:42.329           359.686                Irkutsk         44960.750
       215   06 Jun 2027 07:13:11.268   06 Jun 2027 07:15:07.255           115.987                Novosib         14498.375
       216   06 Jun 2027 07:15:18.915   06 Jun 2027 07:18:36.686           197.771                Norilsk         24721.375
       217   06 Jun 2027 07:19:01.102   06 Jun 2027 07:20:32.132            91.030              Murmansk1         11378.750
       218   06 Jun 2027 08:39:31.491   06 Jun 2027 08:43:10.461           218.970                  Delhi         27371.250
       219   06 Jun 2027 08:43:15.261   06 Jun 2027 08:44:37.279            82.018                Novosib         10252.250
       220   06 Jun 2027 08:49:33.664   06 Jun 2027 08:50:07.942            34.278                Novosib          4284.750
       221   06 Jun 2027 08:50:37.179   06 Jun 2027 08:54:32.591           235.412                Norilsk         29426.500
       222   06 Jun 2027 08:54:39.402   06 Jun 2027 08:56:14.642            95.240              Murmansk1         11905.000
       223   06 Jun 2027 10:19:03.496   06 Jun 2027 10:20:32.516            89.020                 Moscow         11127.500
       224   06 Jun 2027 10:22:24.689   06 Jun 2027 10:23:52.015            87.326              Murmansk1         10915.750
       225   06 Jun 2027 10:23:52.015   06 Jun 2027 10:25:56.047           124.032              Murmansk2         15504.000
       226   06 Jun 2027 10:25:58.943   06 Jun 2027 10:29:32.722           213.779                Norilsk         26722.375
       227   06 Jun 2027 10:29:45.056   06 Jun 2027 10:32:11.225           146.169              Murmansk2         18271.125
       228   06 Jun 2027 10:37:30.586   06 Jun 2027 10:39:46.179           135.593                Anadyr1         16949.125
       229   06 Jun 2027 11:37:08.877   06 Jun 2027 11:41:53.061           284.184               CapeTown         35523.000
       230   06 Jun 2027 11:58:31.534   06 Jun 2027 12:00:03.069            91.535              Murmansk2         11441.875
       231   06 Jun 2027 12:00:57.067   06 Jun 2027 12:01:19.850            22.783                 Moscow          2847.875
       232   06 Jun 2027 12:11:14.659   06 Jun 2027 12:11:29.723            15.064                Anadyr2          1883.000
       233   06 Jun 2027 13:48:37.390   06 Jun 2027 13:53:37.208           299.818               Magadan2         37477.250
       234   06 Jun 2027 13:56:04.764   06 Jun 2027 13:57:30.817            86.053               Magadan2         10756.625
       235   06 Jun 2027 16:16:54.049   06 Jun 2027 16:20:36.492           222.443            RioGallegos         27805.375
       236   06 Jun 2027 16:22:09.567   06 Jun 2027 16:23:28.785            79.218            RioGallegos          9902.250
       237   06 Jun 2027 17:07:33.232   06 Jun 2027 17:08:16.689            43.457                Irkutsk          5432.125
       238   06 Jun 2027 17:19:24.254   06 Jun 2027 17:25:33.454           369.200                Sumatra         46150.000
       239   06 Jun 2027 18:44:02.714   06 Jun 2027 18:44:05.952             3.238                Novosib           404.750
       240   06 Jun 2027 18:48:21.663   06 Jun 2027 18:51:42.659           200.996                  Delhi         25124.500
       241   06 Jun 2027 21:52:43.204   06 Jun 2027 21:52:44.585             1.381              Murmansk1           172.625
       242   06 Jun 2027 21:53:12.936   06 Jun 2027 21:56:00.019           167.083                 Moscow         20885.375
       243   06 Jun 2027 21:58:39.917   06 Jun 2027 21:58:42.223             2.306                 Moscow           288.250
       244   06 Jun 2027 22:18:18.511   06 Jun 2027 22:19:09.943            51.432               CapeTown          2942.000
       245   07 Jun 2027 04:13:43.393   07 Jun 2027 04:14:37.950            54.557                Novosib          6819.625
       246   07 Jun 2027 04:14:38.669   07 Jun 2027 04:15:02.074            23.405              Murmansk1          2925.625
       247   07 Jun 2027 05:24:07.046   07 Jun 2027 05:25:39.430            92.384                Sumatra         11548.000
       248   07 Jun 2027 05:49:42.825   07 Jun 2027 05:54:38.966           296.141                Norilsk         37017.625
       249   07 Jun 2027 05:54:53.150   07 Jun 2027 05:57:14.687           141.537              Murmansk2         17692.125
       250   07 Jun 2027 06:32:29.266   07 Jun 2027 06:36:32.146           242.880            RioGallegos         30360.000
       251   07 Jun 2027 07:07:20.074   07 Jun 2027 07:10:44.834           204.760                Sumatra         25595.000
       252   07 Jun 2027 07:14:25.612   07 Jun 2027 07:15:11.678            46.066                Novosib          5758.250
       253   07 Jun 2027 07:15:16.104   07 Jun 2027 07:20:13.634           297.530                  Delhi         37191.250
       254   07 Jun 2027 07:20:18.986   07 Jun 2027 07:20:43.236            24.250                Irkutsk          3031.250
       255   07 Jun 2027 07:25:27.587   07 Jun 2027 07:27:06.431            98.844                Novosib         12355.500
       256   07 Jun 2027 07:27:07.386   07 Jun 2027 07:30:38.540           211.154                Norilsk         26394.250
       257   07 Jun 2027 07:30:46.786   07 Jun 2027 07:32:30.437           103.651              Murmansk1         12956.375
       258   07 Jun 2027 08:51:23.346   07 Jun 2027 08:54:42.262           198.916                  Delhi         24864.500
       259   07 Jun 2027 08:54:50.841   07 Jun 2027 08:56:41.578           110.737                Novosib         13842.125
       260   07 Jun 2027 09:01:33.862   07 Jun 2027 09:01:50.530            16.668                Novosib          2083.500
       261   07 Jun 2027 09:02:03.815   07 Jun 2027 09:06:32.483           268.668                Norilsk         33583.500
       262   07 Jun 2027 09:06:34.154   07 Jun 2027 09:08:15.593           101.439              Murmansk2         12679.875
       263   07 Jun 2027 10:31:02.681   07 Jun 2027 10:32:26.426            83.745                 Moscow         10468.125
       264   07 Jun 2027 10:34:25.592   07 Jun 2027 10:35:39.263            73.671              Murmansk2          9208.875
       265   07 Jun 2027 10:35:39.263   07 Jun 2027 10:38:06.399           147.136              Murmansk1         18392.000
       266   07 Jun 2027 10:38:07.534   07 Jun 2027 10:40:35.930           148.396                 Moscow         18549.500
       267   07 Jun 2027 10:41:29.076   07 Jun 2027 10:44:12.883           163.807              Murmansk1         20475.875
       268   07 Jun 2027 10:47:16.732   07 Jun 2027 10:52:56.659           339.927                Anadyr2         42490.875
       269   07 Jun 2027 11:49:05.153   07 Jun 2027 11:54:03.691           298.538               CapeTown         37317.250
       270   07 Jun 2027 14:00:30.817   07 Jun 2027 14:02:56.300           145.483               Magadan1         18185.375
       271   07 Jun 2027 14:03:06.036   07 Jun 2027 14:04:52.421           106.385               Magadan2         13298.125
       272   07 Jun 2027 16:28:34.020   07 Jun 2027 16:34:55.372           381.352            RioGallegos         47669.000
       273   07 Jun 2027 17:15:59.122   07 Jun 2027 17:17:10.650            71.528                Irkutsk          8941.000
       274   07 Jun 2027 17:18:33.725   07 Jun 2027 17:19:46.105            72.380                Irkutsk          9047.500
       275   07 Jun 2027 17:29:55.594   07 Jun 2027 17:31:52.160           116.566                Sumatra         14570.750
       276   07 Jun 2027 17:33:55.599   07 Jun 2027 17:36:31.805           156.206                Sumatra         19525.750
       277   07 Jun 2027 18:51:41.053   07 Jun 2027 18:53:31.102           110.049                Novosib         13756.125
       278   07 Jun 2027 19:00:13.967   07 Jun 2027 19:01:41.420            87.453                  Delhi         10931.625
       279   07 Jun 2027 19:01:45.187   07 Jun 2027 19:03:30.154           104.967                  Delhi         13120.875
       280   07 Jun 2027 20:31:50.695   07 Jun 2027 20:33:42.312           111.617                 Moscow         13952.125
       281   07 Jun 2027 22:01:41.123   07 Jun 2027 22:02:28.266            47.143              Murmansk2          4868.375
       282   08 Jun 2027 04:25:48.394   08 Jun 2027 04:28:48.090           179.696                Norilsk         22462.000
       283   08 Jun 2027 05:37:36.476   08 Jun 2027 05:39:29.100           112.624                Sumatra         14078.000
       284   08 Jun 2027 05:49:45.714   08 Jun 2027 05:50:28.065            42.351                  Delhi          5293.875
       285   08 Jun 2027 05:51:23.257   08 Jun 2027 05:53:08.404           105.147                  Delhi         13143.375
       286   08 Jun 2027 06:01:35.034   08 Jun 2027 06:03:12.938            97.904                Novosib         12238.000
       287   08 Jun 2027 06:03:17.254   08 Jun 2027 06:06:40.486           203.232                Norilsk         25404.000
       288   08 Jun 2027 06:06:55.097   08 Jun 2027 06:09:08.707           133.610              Murmansk1         16701.250
       289   08 Jun 2027 06:44:24.690   08 Jun 2027 06:48:19.171           234.481            RioGallegos         29310.125
       290   08 Jun 2027 07:19:10.311   08 Jun 2027 07:22:07.353           177.042                Sumatra         22130.250
       291   08 Jun 2027 07:27:10.773   08 Jun 2027 07:32:17.735           306.962                  Delhi         38370.250
       292   08 Jun 2027 07:32:18.863   08 Jun 2027 07:33:30.958            72.095                Irkutsk          9011.875
       293   08 Jun 2027 07:37:40.413   08 Jun 2027 07:39:04.715            84.302                Novosib         10537.750
       294   08 Jun 2027 07:39:15.225   08 Jun 2027 07:42:40.332           205.107                Norilsk         25638.375
       295   08 Jun 2027 07:42:40.660   08 Jun 2027 07:44:29.200           108.540              Murmansk2         13567.500
       296   08 Jun 2027 09:03:10.889   08 Jun 2027 09:06:02.391           171.502                  Delhi         21437.750
       297   08 Jun 2027 09:06:25.701   08 Jun 2027 09:08:45.401           139.700                Novosib         17462.500
       298   08 Jun 2027 09:13:02.299   08 Jun 2027 09:13:19.939            17.640                Novosib          2205.000
       299   08 Jun 2027 09:14:04.757   08 Jun 2027 09:18:31.707           266.950                Norilsk         33368.750
       300   08 Jun 2027 09:19:20.328   08 Jun 2027 09:20:16.730            56.402              Murmansk2          7050.250
       301   08 Jun 2027 10:23:50.131   08 Jun 2027 10:25:58.257           128.126               CapeTown         16015.750
       302   08 Jun 2027 10:43:00.970   08 Jun 2027 10:43:46.512            45.542                 Moscow          5692.750
       303   08 Jun 2027 10:46:38.677   08 Jun 2027 10:49:41.293           182.616              Murmansk1         22827.000
       304   08 Jun 2027 10:50:05.149   08 Jun 2027 10:52:33.404           148.255                 Moscow         18531.875
       305   08 Jun 2027 10:52:34.491   08 Jun 2027 10:56:14.500           220.009              Murmansk1         27501.125
       306   08 Jun 2027 10:58:58.116   08 Jun 2027 11:05:24.784           386.668                Anadyr1         48333.500
       307   08 Jun 2027 12:40:11.886   08 Jun 2027 12:40:39.891            28.005               Magadan1          3500.625
       308   08 Jun 2027 14:12:25.899   08 Jun 2027 14:14:21.579           115.680               Magadan2         14460.000
       309   08 Jun 2027 14:15:12.795   08 Jun 2027 14:16:51.206            98.411               Magadan1         12301.375
       310   08 Jun 2027 14:20:52.042   08 Jun 2027 14:21:32.024            39.982               Magadan2          4997.750
       311   08 Jun 2027 16:40:19.209   08 Jun 2027 16:46:18.482           359.273            RioGallegos         44909.125
       312   08 Jun 2027 17:29:38.509   08 Jun 2027 17:30:30.494            51.985                Irkutsk          6498.125
       313   08 Jun 2027 17:32:11.330   08 Jun 2027 17:34:34.194           142.864                Novosib         17858.000
       314   08 Jun 2027 17:41:38.187   08 Jun 2027 17:43:24.924           106.737                Sumatra         13342.125
       315   08 Jun 2027 17:44:11.493   08 Jun 2027 17:44:35.531            24.038                Sumatra          3004.750
       316   08 Jun 2027 17:45:59.502   08 Jun 2027 17:47:49.073           109.571                Sumatra         13696.375
       317   08 Jun 2027 19:11:28.376   08 Jun 2027 19:15:25.345           236.969                  Delhi         29621.125
       318   08 Jun 2027 20:41:47.422   08 Jun 2027 20:42:26.091            38.669              Murmansk1          4833.625
       319   08 Jun 2027 20:42:59.210   08 Jun 2027 20:45:41.539           162.329                 Moscow          9170.125
       320   09 Jun 2027 04:37:49.145   09 Jun 2027 04:42:48.452           299.307                Norilsk         37413.375
       321   09 Jun 2027 05:47:31.954   09 Jun 2027 05:47:52.636            20.682                Sumatra          2585.250
       322   09 Jun 2027 05:48:39.924   09 Jun 2027 05:49:11.258            31.334                Sumatra          3916.750
       323   09 Jun 2027 05:50:18.504   09 Jun 2027 05:52:03.611           105.107                Sumatra         13138.375
       324   09 Jun 2027 05:59:16.856   09 Jun 2027 06:00:26.667            69.811                  Delhi          8726.375
       325   09 Jun 2027 06:13:46.519   09 Jun 2027 06:14:07.331            20.812                Norilsk          2601.500
       326   09 Jun 2027 06:14:09.930   09 Jun 2027 06:18:42.133           272.203                Norilsk         34025.375
       327   09 Jun 2027 06:18:51.059   09 Jun 2027 06:21:03.451           132.392              Murmansk1         16549.000
       328   09 Jun 2027 06:56:18.306   09 Jun 2027 07:00:01.799           223.493            RioGallegos         27936.625
       329   09 Jun 2027 07:30:54.245   09 Jun 2027 07:33:14.601           140.356                Sumatra         17544.500
       330   09 Jun 2027 07:38:50.163   09 Jun 2027 07:40:08.274            78.111                Novosib          9763.875
       331   09 Jun 2027 07:41:10.613   09 Jun 2027 07:44:11.711           181.098                Irkutsk         22637.250
       332   09 Jun 2027 07:44:16.180   09 Jun 2027 07:44:32.342            16.162              Murmansk2          2020.250
       333   09 Jun 2027 07:44:41.213   09 Jun 2027 07:45:55.372            74.159                Irkutsk          9269.875
       334   09 Jun 2027 07:49:31.951   09 Jun 2027 07:51:01.958            90.007                Novosib         11250.875
       335   09 Jun 2027 07:51:04.056   09 Jun 2027 07:54:42.023           217.967                Norilsk         27245.875
       336   09 Jun 2027 07:54:46.919   09 Jun 2027 07:56:28.381           101.462              Murmansk2         12682.750
       337   09 Jun 2027 09:14:53.221   09 Jun 2027 09:17:00.704           127.483                  Delhi         15935.375
       338   09 Jun 2027 09:26:35.285   09 Jun 2027 09:30:30.069           234.784                Norilsk         29348.000
       339   09 Jun 2027 09:31:10.998   09 Jun 2027 09:32:18.018            67.020              Murmansk1          8377.500
       340   09 Jun 2027 10:36:22.624   09 Jun 2027 10:39:21.500           178.876               CapeTown         22359.500
       341   09 Jun 2027 10:54:58.220   09 Jun 2027 10:55:10.129            11.909                 Moscow          1488.625
       342   09 Jun 2027 10:58:40.281   09 Jun 2027 11:01:14.987           154.706              Murmansk2         19338.250
       343   09 Jun 2027 11:02:00.974   09 Jun 2027 11:04:29.676           148.702                 Moscow         18587.750
       344   09 Jun 2027 11:04:35.631   09 Jun 2027 11:08:16.038           220.407              Murmansk1         27550.875
       345   09 Jun 2027 11:10:45.444   09 Jun 2027 11:18:39.883           474.439                Anadyr2         59304.875
       346   09 Jun 2027 12:12:42.694   09 Jun 2027 12:18:09.268           326.574               CapeTown         40821.750
       347   09 Jun 2027 12:34:30.303   09 Jun 2027 12:37:23.457           173.154                 Moscow         21644.250
       348   09 Jun 2027 12:37:52.167   09 Jun 2027 12:42:12.419           260.252              Murmansk2         32531.500
       349   09 Jun 2027 12:46:29.242   09 Jun 2027 12:47:01.994            32.752                Anadyr2          4094.000
       350   09 Jun 2027 12:50:26.672   09 Jun 2027 12:52:57.994           151.322               Magadan1         18915.250
       351   09 Jun 2027 14:24:22.290   09 Jun 2027 14:25:59.499            97.209               Magadan2         12151.125
       352   09 Jun 2027 14:27:16.961   09 Jun 2027 14:28:50.439            93.478               Magadan1         11684.750
       353   09 Jun 2027 16:07:22.675   09 Jun 2027 16:09:39.919           137.244                Irkutsk         17155.500
       354   09 Jun 2027 16:52:08.075   09 Jun 2027 16:54:41.128           153.053            RioGallegos         19131.625
       355   09 Jun 2027 16:56:19.426   09 Jun 2027 16:56:28.909             9.483            RioGallegos          1185.375
       356   09 Jun 2027 17:39:45.565   09 Jun 2027 17:42:01.339           135.774                Irkutsk         16971.750
       357   09 Jun 2027 17:44:10.729   09 Jun 2027 17:47:21.195           190.466                Novosib         23808.250
       358   09 Jun 2027 17:56:23.917   09 Jun 2027 17:57:36.118            72.201                Sumatra          9025.125
       359   09 Jun 2027 19:23:12.270   09 Jun 2027 19:25:19.542           127.272                  Delhi         15909.000
       360   09 Jun 2027 19:28:51.686   09 Jun 2027 19:29:16.929            25.243                  Delhi          3155.375
       361   09 Jun 2027 20:50:38.344   09 Jun 2027 20:51:36.544            58.200              Murmansk1          7275.000
       362   09 Jun 2027 20:54:29.191   09 Jun 2027 20:57:41.556           192.365                 Moscow         24045.625
       363   10 Jun 2027 03:12:10.780   10 Jun 2027 03:13:09.104            58.324                Novosib          7290.500
       364   10 Jun 2027 03:13:19.816   10 Jun 2027 03:13:57.542            37.726               Magadan2          4715.750
       365   10 Jun 2027 03:14:08.644   10 Jun 2027 03:15:18.082            69.438              Murmansk2          8679.750
       366   10 Jun 2027 04:50:22.103   10 Jun 2027 04:51:16.608            54.505                Norilsk          6813.125
       367   10 Jun 2027 04:52:44.176   10 Jun 2027 04:58:10.201           326.025              Murmansk1         40753.125
       368   10 Jun 2027 05:32:47.558   10 Jun 2027 05:37:15.159           267.601            RioGallegos         33450.125
       369   10 Jun 2027 06:06:56.139   10 Jun 2027 06:12:05.618           309.479                Sumatra         38684.875
       370   10 Jun 2027 06:14:32.704   10 Jun 2027 06:19:17.408           284.704                Irkutsk         35588.000
       371   10 Jun 2027 06:25:48.268   10 Jun 2027 06:27:18.177            89.909                Novosib         11238.625
       372   10 Jun 2027 06:27:44.266   10 Jun 2027 06:30:43.878           179.612                Norilsk         22451.500
       373   10 Jun 2027 06:30:58.631   10 Jun 2027 06:32:58.874           120.243              Murmansk1         15030.375
       374   10 Jun 2027 07:08:09.702   10 Jun 2027 07:11:37.888           208.186            RioGallegos         26023.250
       375   10 Jun 2027 07:42:30.870   10 Jun 2027 07:43:52.322            81.452                Sumatra         10181.500
       376   10 Jun 2027 07:50:47.880   10 Jun 2027 07:56:16.060           328.180                  Delhi         41022.500
       377   10 Jun 2027 07:56:27.798   10 Jun 2027 07:57:21.472            53.674                Novosib          6709.250
       378   10 Jun 2027 08:01:16.763   10 Jun 2027 08:04:35.645           198.882                 Moscow         24860.250
       379   10 Jun 2027 08:04:39.532   10 Jun 2027 08:06:43.571           124.039                Norilsk         15504.875
       380   10 Jun 2027 08:06:46.410   10 Jun 2027 08:08:27.940           101.530              Murmansk2         12691.250
       381   10 Jun 2027 09:35:21.140   10 Jun 2027 09:35:23.880             2.740                Novosib           342.500
       382   10 Jun 2027 09:38:05.468   10 Jun 2027 09:42:27.263           261.795                Norilsk         32724.375
       383   10 Jun 2027 09:42:46.030   10 Jun 2027 09:44:19.440            93.410              Murmansk1         11676.250
       384   10 Jun 2027 11:06:54.226   10 Jun 2027 11:07:08.746            14.520                 Moscow          1815.000
       385   10 Jun 2027 11:10:41.800   10 Jun 2027 11:11:01.876            20.076              Murmansk1          2509.500
       386   10 Jun 2027 11:11:24.133   10 Jun 2027 11:16:24.515           300.382                 Moscow         37547.750
       387   10 Jun 2027 11:16:36.923   10 Jun 2027 11:20:17.468           220.545              Murmansk1         27568.125
       388   10 Jun 2027 11:24:00.719   10 Jun 2027 11:31:21.209           440.490                Anadyr1         55061.250
       389   10 Jun 2027 12:20:34.186   10 Jun 2027 12:30:04.586           570.400               CapeTown         71300.000
       390   10 Jun 2027 12:47:13.365   10 Jun 2027 12:56:02.617           529.252              Murmansk1         66156.500
       391   10 Jun 2027 12:58:01.451   10 Jun 2027 13:10:22.919           741.468                Anadyr1         92683.500
       392   10 Jun 2027 14:36:22.193   10 Jun 2027 14:37:43.964            81.771               Magadan1         10221.375
       393   10 Jun 2027 14:39:18.222   10 Jun 2027 14:41:36.359           138.137               Magadan2         17267.125
       394   10 Jun 2027 14:43:48.741   10 Jun 2027 14:43:51.662             2.921               Magadan2           365.125
       395   10 Jun 2027 16:18:01.034   10 Jun 2027 16:23:34.712           333.678                Irkutsk         41709.750
       396   10 Jun 2027 17:05:46.231   10 Jun 2027 17:06:42.576            56.345            RioGallegos          7043.125
       397   10 Jun 2027 17:52:53.562   10 Jun 2027 17:59:27.421           393.859                Novosib         49232.375
       398   10 Jun 2027 19:37:06.579   10 Jun 2027 19:38:58.583           112.004                  Delhi         14000.500
       399   10 Jun 2027 21:01:54.354   10 Jun 2027 21:02:31.191            36.837              Murmansk2          4604.625
       400   10 Jun 2027 21:06:08.606   10 Jun 2027 21:09:42.261           213.655                 Moscow         26706.875
       401   10 Jun 2027 23:07:17.665   10 Jun 2027 23:08:01.125            43.460               CapeTown          5432.500
       402   11 Jun 2027 03:24:49.417   11 Jun 2027 03:24:54.886             5.469               Magadan2           683.625
       403   11 Jun 2027 03:25:53.687   11 Jun 2027 03:25:55.869             2.182               Magadan2           272.750
       404   11 Jun 2027 03:26:03.777   11 Jun 2027 03:31:09.143           305.366                Norilsk         38170.750
       405   11 Jun 2027 03:31:24.824   11 Jun 2027 03:35:47.396           262.572              Murmansk1         32821.500
       406   11 Jun 2027 04:01:13.494   11 Jun 2027 04:03:31.371           137.877            RioGallegos         17234.625
       407   11 Jun 2027 04:40:05.037   11 Jun 2027 04:40:21.538            16.501                Sumatra          2062.625
       408   11 Jun 2027 04:42:56.261   11 Jun 2027 04:44:26.540            90.279                Sumatra         11284.875
       409   11 Jun 2027 05:01:51.307   11 Jun 2027 05:03:21.713            90.406                Norilsk         11300.750
       410   11 Jun 2027 05:04:36.589   11 Jun 2027 05:10:00.544           323.955              Murmansk1         40494.375
       411   11 Jun 2027 05:44:48.901   11 Jun 2027 05:49:12.837           263.936            RioGallegos         32992.000
       412   11 Jun 2027 06:19:16.579   11 Jun 2027 06:24:04.672           288.093                Sumatra         36011.625
       413   11 Jun 2027 06:27:39.335   11 Jun 2027 06:31:17.354           218.019                Irkutsk         27252.375
       414   11 Jun 2027 06:38:12.690   11 Jun 2027 06:42:45.697           273.007                Norilsk         34125.875
       415   11 Jun 2027 06:43:00.157   11 Jun 2027 06:44:54.958           114.801              Murmansk2         14350.125
       416   11 Jun 2027 07:19:58.252   11 Jun 2027 07:23:02.726           184.474            RioGallegos         23059.250
       417   11 Jun 2027 08:00:10.446   11 Jun 2027 08:08:10.004           479.558                  Delhi         59944.750
       418   11 Jun 2027 08:08:22.904   11 Jun 2027 08:08:36.653            13.749                Novosib          1718.625
       419   11 Jun 2027 08:08:46.177   11 Jun 2027 08:08:59.722            13.545                 Moscow          1693.125
       420   11 Jun 2027 08:09:09.325   11 Jun 2027 08:09:12.629             3.304                Norilsk           413.000
       421   11 Jun 2027 08:13:24.189   11 Jun 2027 08:14:52.459            88.270                Novosib         11033.750
       422   11 Jun 2027 08:14:54.829   11 Jun 2027 08:16:41.082           106.253                 Moscow         13281.625
       423   11 Jun 2027 08:16:51.728   11 Jun 2027 08:20:27.848           216.120              Murmansk2         27015.000
       424   11 Jun 2027 09:42:50.444   11 Jun 2027 09:43:16.249            25.805                 Moscow          3225.625
       425   11 Jun 2027 09:50:04.998   11 Jun 2027 09:54:22.827           257.829                Norilsk         32228.625
       426   11 Jun 2027 09:54:50.015   11 Jun 2027 09:56:20.964            90.949              Murmansk1         11368.625
       427   11 Jun 2027 11:22:43.202   11 Jun 2027 11:24:25.584           102.382              Murmansk2         12797.750
       428   11 Jun 2027 11:24:46.860   11 Jun 2027 11:28:17.572           210.712                 Moscow         26339.000
       429   11 Jun 2027 11:28:30.771   11 Jun 2027 11:32:18.733           227.962              Murmansk1         28495.250
       430   11 Jun 2027 11:37:01.808   11 Jun 2027 11:43:57.694           415.886                Anadyr1         51985.750
       431   11 Jun 2027 12:34:29.051   11 Jun 2027 12:41:54.932           445.881               CapeTown         55735.125
       432   11 Jun 2027 12:59:50.093   11 Jun 2027 13:07:59.312           489.219              Murmansk2         61152.375
       433   11 Jun 2027 13:10:53.870   11 Jun 2027 13:22:35.034           701.164                Anadyr1         87645.500
       434   11 Jun 2027 14:09:50.440   11 Jun 2027 14:10:49.892            59.452               CapeTown          7431.500
       435   11 Jun 2027 14:45:56.189   11 Jun 2027 14:47:23.000            86.811                Anadyr1         10851.375
       436   11 Jun 2027 14:49:06.232   11 Jun 2027 14:49:32.559            26.327               Magadan2          3290.875
       437   11 Jun 2027 14:52:31.311   11 Jun 2027 14:55:11.172           159.861               Magadan1         19982.625
       438   11 Jun 2027 15:44:18.733   11 Jun 2027 15:45:01.996            43.263            RioGallegos          5407.875
       439   11 Jun 2027 16:29:21.904   11 Jun 2027 16:36:43.811           441.907                Irkutsk         55238.375
       440   11 Jun 2027 16:45:09.241   11 Jun 2027 16:46:52.625           103.384                Sumatra         12923.000
       441   11 Jun 2027 16:48:31.135   11 Jun 2027 16:50:50.512           139.377                Sumatra         17422.125
       442   11 Jun 2027 18:06:14.223   11 Jun 2027 18:08:11.740           117.517                Novosib         14689.625
       443   11 Jun 2027 21:13:53.613   11 Jun 2027 21:15:26.868            93.255              Murmansk1         11656.875
       444   11 Jun 2027 21:19:55.060   11 Jun 2027 21:21:58.287           123.227                 Moscow         15403.375
       445   11 Jun 2027 21:23:59.976   11 Jun 2027 21:25:01.874            61.898                 Moscow          7737.250
       446   11 Jun 2027 21:44:50.352   11 Jun 2027 21:46:48.807           118.455               CapeTown         14806.875
       447   11 Jun 2027 21:48:46.245   11 Jun 2027 21:50:27.120           100.875               CapeTown          4481.999
       448   12 Jun 2027 03:36:45.493   12 Jun 2027 03:37:07.443            21.950                Norilsk          2743.750
       449   12 Jun 2027 03:37:58.023   12 Jun 2027 03:39:03.707            65.684                Norilsk          8210.500
       450   12 Jun 2027 03:39:20.837   12 Jun 2027 03:44:57.187           336.350              Murmansk2         42043.750
       451   12 Jun 2027 04:50:29.121   12 Jun 2027 04:52:40.599           131.478                Sumatra         16434.750
       452   12 Jun 2027 05:13:57.258   12 Jun 2027 05:15:11.357            74.099                Novosib          9262.375
       453   12 Jun 2027 05:16:29.751   12 Jun 2027 05:21:51.605           321.854              Murmansk2         40231.750
       454   12 Jun 2027 05:56:49.307   12 Jun 2027 06:01:09.129           259.822            RioGallegos         32477.750
       455   12 Jun 2027 06:31:29.931   12 Jun 2027 06:35:58.099           268.168                Sumatra         33521.000
       456   12 Jun 2027 06:38:40.174   12 Jun 2027 06:43:38.835           298.661                Irkutsk         37332.625
       457   12 Jun 2027 06:49:56.229   12 Jun 2027 06:52:00.122           123.893                 Moscow         15486.625
       458   12 Jun 2027 06:52:03.273   12 Jun 2027 06:54:47.566           164.293                Norilsk         20536.625
       459   12 Jun 2027 06:54:50.794   12 Jun 2027 06:56:51.656           120.862              Murmansk1         15107.750
       460   12 Jun 2027 07:31:43.016   12 Jun 2027 07:33:59.921           136.905            RioGallegos         17113.125
       461   12 Jun 2027 08:15:51.490   12 Jun 2027 08:19:59.987           248.497                  Delhi         31062.125
       462   12 Jun 2027 08:20:11.530   12 Jun 2027 08:20:36.214            24.684              Murmansk1          3085.500
       463   12 Jun 2027 08:25:26.817   12 Jun 2027 08:28:45.981           199.164                 Moscow         24895.500
       464   12 Jun 2027 08:28:58.348   12 Jun 2027 08:30:44.025           105.677              Murmansk2         13209.625
       465   12 Jun 2027 08:30:44.025   12 Jun 2027 08:32:28.062           104.037              Murmansk1         13004.625
       466   12 Jun 2027 09:57:00.800   12 Jun 2027 09:57:24.196            23.396                 Moscow          2924.500
       467   12 Jun 2027 10:00:28.976   12 Jun 2027 10:02:23.833           114.857              Murmansk1         14357.125
       468   12 Jun 2027 10:02:28.960   12 Jun 2027 10:04:52.636           143.676                 Moscow         17959.500
       469   12 Jun 2027 10:04:57.502   12 Jun 2027 10:06:16.001            78.499                Norilsk          9812.375
       470   12 Jun 2027 10:06:17.568   12 Jun 2027 10:08:22.565           124.997              Murmansk1         15624.625
       471   12 Jun 2027 11:34:44.431   12 Jun 2027 11:36:22.843            98.412              Murmansk1         12301.500
       472   12 Jun 2027 11:37:09.253   12 Jun 2027 11:40:08.363           179.110                 Moscow         22388.750
       473   12 Jun 2027 11:40:29.095   12 Jun 2027 11:44:19.797           230.702              Murmansk2         28837.750
       474   12 Jun 2027 11:49:52.536   12 Jun 2027 11:56:30.053           397.517                Anadyr2         49689.625
       475   12 Jun 2027 12:49:42.657   12 Jun 2027 12:53:40.131           237.474               CapeTown         29684.250
       476   12 Jun 2027 13:12:30.537   12 Jun 2027 13:19:54.367           443.830              Murmansk2         55478.750
       477   12 Jun 2027 13:25:02.657   12 Jun 2027 13:34:38.327           575.670                Anadyr1         71958.750
       478   12 Jun 2027 15:54:20.204   12 Jun 2027 15:59:33.489           313.285            RioGallegos         39160.625
       479   12 Jun 2027 16:40:56.148   12 Jun 2027 16:44:42.488           226.340                Irkutsk         28292.500
       480   12 Jun 2027 16:47:36.697   12 Jun 2027 16:47:50.191            13.494                Irkutsk          1686.750
       481   12 Jun 2027 16:55:57.392   12 Jun 2027 17:00:27.975           270.583                Sumatra         33822.875
       482   12 Jun 2027 17:02:53.175   12 Jun 2027 17:04:24.324            91.149                Sumatra         11393.625
