uniorb/output/strategy_4/Drop/Drop_KinoSat_110409.txt

KinoSat_110409
-------------------------
    Access    *     Start Time (UTCG)     *     Stop Time (UTCG)  *   Duration (s)        *       Station  *  Data (Mbytes)
         1   01 Jun 2027 03:12:47.740   01 Jun 2027 03:13:05.032            17.292               Magadan2          2161.500
         2   01 Jun 2027 03:13:14.215   01 Jun 2027 03:13:34.003            19.788               Magadan2          2473.500
         3   01 Jun 2027 03:13:49.494   01 Jun 2027 03:14:13.261            23.767               Magadan1          2970.875
         4   01 Jun 2027 03:14:19.730   01 Jun 2027 03:14:58.918            39.188                Anadyr2          4898.500
         5   01 Jun 2027 03:15:05.988   01 Jun 2027 03:15:40.641            34.653                Anadyr2          4331.625
         6   01 Jun 2027 03:15:41.686   01 Jun 2027 03:16:14.608            32.922               Magadan1          4115.250
         7   01 Jun 2027 03:16:26.047   01 Jun 2027 03:16:35.883             9.836               Magadan1          1229.500
         8   01 Jun 2027 03:16:42.579   01 Jun 2027 03:17:09.075            26.496                Anadyr2          3312.000
         9   01 Jun 2027 03:17:09.075   01 Jun 2027 03:17:25.819            16.744                Anadyr1          2093.000
        10   01 Jun 2027 03:17:29.651   01 Jun 2027 03:18:54.211            84.560                Anadyr1         10570.000
        11   01 Jun 2027 03:18:58.277   01 Jun 2027 03:19:50.727            52.450                Anadyr1          6556.250
        12   01 Jun 2027 03:20:14.012   01 Jun 2027 03:20:23.079             9.067                Anadyr1          1133.375
        13   01 Jun 2027 04:51:16.091   01 Jun 2027 04:51:38.627            22.536               Magadan2          2817.000
        14   01 Jun 2027 04:51:48.191   01 Jun 2027 04:53:21.263            93.072                Irkutsk         11634.000
        15   01 Jun 2027 04:53:41.814   01 Jun 2027 04:55:58.760           136.946                Irkutsk         17118.250
        16   01 Jun 2027 05:31:31.065   01 Jun 2027 05:32:19.893            48.828            RioGallegos          6103.500
        17   01 Jun 2027 06:06:16.404   01 Jun 2027 06:08:15.532           119.128                Sumatra         14891.000
        18   01 Jun 2027 06:16:45.316   01 Jun 2027 06:17:32.366            47.050                  Delhi          5881.250
        19   01 Jun 2027 06:28:37.322   01 Jun 2027 06:29:15.673            38.351                Novosib          4793.875
        20   01 Jun 2027 06:29:35.995   01 Jun 2027 06:30:56.655            80.660                Novosib         10082.500
        21   01 Jun 2027 06:31:18.823   01 Jun 2027 06:32:28.157            69.334              Murmansk1          8666.750
        22   01 Jun 2027 06:32:40.537   01 Jun 2027 06:33:12.659            32.122              Murmansk1          4015.250
        23   01 Jun 2027 06:33:17.781   01 Jun 2027 06:33:49.968            32.187                Novosib          4023.375
        24   01 Jun 2027 07:11:16.622   01 Jun 2027 07:11:22.868             6.246            RioGallegos           780.750
        25   01 Jun 2027 07:46:57.305   01 Jun 2027 07:48:10.484            73.179                Sumatra          9147.375
        26   01 Jun 2027 07:50:31.158   01 Jun 2027 07:50:57.625            26.467                  Delhi          3308.375
        27   01 Jun 2027 08:06:26.552   01 Jun 2027 08:06:32.463             5.911                 Moscow           738.875
        28   01 Jun 2027 08:07:05.521   01 Jun 2027 08:07:37.826            32.305                 Moscow          4038.125
        29   01 Jun 2027 08:07:56.037   01 Jun 2027 08:08:14.499            18.462                Norilsk          2307.750
        30   01 Jun 2027 08:08:20.255   01 Jun 2027 08:11:19.930           179.675                Norilsk         22459.375
        31   01 Jun 2027 09:41:29.089   01 Jun 2027 09:44:02.065           152.976              Murmansk2         19122.000
        32   01 Jun 2027 09:44:24.328   01 Jun 2027 09:51:14.757           410.429              Murmansk1         51303.625
        33   01 Jun 2027 10:49:39.989   01 Jun 2027 10:56:58.762           438.773               CapeTown         54846.625
        34   01 Jun 2027 11:29:26.727   01 Jun 2027 11:30:08.043            41.316                Anadyr1          5164.500
        35   01 Jun 2027 11:31:04.283   01 Jun 2027 11:33:46.862           162.579                Anadyr1         20322.375
        36   01 Jun 2027 11:38:24.402   01 Jun 2027 11:38:37.519            13.117                Anadyr1          1639.625
        37   01 Jun 2027 13:08:30.890   01 Jun 2027 13:12:18.693           227.803               Magadan1         28475.375
        38   01 Jun 2027 13:14:56.790   01 Jun 2027 13:15:44.038            47.248               Magadan1          5906.000
        39   01 Jun 2027 14:47:45.229   01 Jun 2027 14:48:28.061            42.832               Magadan2          5354.000
        40   01 Jun 2027 16:24:30.339   01 Jun 2027 16:30:26.712           356.373                Irkutsk         44546.625
        41   01 Jun 2027 16:40:48.173   01 Jun 2027 16:41:57.687            69.514                Sumatra          8689.250
        42   01 Jun 2027 16:43:13.513   01 Jun 2027 16:45:31.641           138.128                Sumatra         17266.000
        43   01 Jun 2027 17:59:36.009   01 Jun 2027 18:03:05.322           209.313                Novosib         26164.125
        44   01 Jun 2027 21:08:51.279   01 Jun 2027 21:09:47.689            56.410              Murmansk2          7051.250
        45   01 Jun 2027 21:12:53.724   01 Jun 2027 21:16:36.980           223.256                 Moscow         14868.375
        46   02 Jun 2027 03:29:57.860   02 Jun 2027 03:30:42.111            44.251               Magadan2          5531.375
        47   02 Jun 2027 03:30:54.771   02 Jun 2027 03:31:47.956            53.185                Anadyr2          6648.125
        48   02 Jun 2027 03:31:51.283   02 Jun 2027 03:32:10.949            19.666               Magadan1          2458.250
        49   02 Jun 2027 03:32:29.836   02 Jun 2027 03:32:48.932            19.096               Magadan2          2387.000
        50   02 Jun 2027 03:32:51.507   02 Jun 2027 03:34:26.280            94.773                Norilsk         11846.625
        51   02 Jun 2027 04:45:56.060   02 Jun 2027 04:47:25.590            89.530                Sumatra         11191.250
        52   02 Jun 2027 05:04:46.465   02 Jun 2027 05:05:50.704            64.239                Irkutsk          8029.875
        53   02 Jun 2027 05:05:59.127   02 Jun 2027 05:07:35.189            96.062                Irkutsk         12007.750
        54   02 Jun 2027 05:08:46.428   02 Jun 2027 05:10:19.593            93.165                Norilsk         11645.625
        55   02 Jun 2027 05:11:26.867   02 Jun 2027 05:13:54.562           147.695              Murmansk1         18461.875
        56   02 Jun 2027 05:13:54.562   02 Jun 2027 05:16:49.659           175.097              Murmansk2         21887.125
        57   02 Jun 2027 05:51:43.720   02 Jun 2027 05:56:05.285           261.565            RioGallegos         32695.625
        58   02 Jun 2027 06:26:19.647   02 Jun 2027 06:30:39.004           259.357                Sumatra         32419.625
        59   02 Jun 2027 06:43:39.574   02 Jun 2027 06:44:37.898            58.324                 Moscow          7290.500
        60   02 Jun 2027 06:44:45.501   02 Jun 2027 06:45:48.429            62.928                 Moscow          7866.000
        61   02 Jun 2027 06:45:49.470   02 Jun 2027 06:49:41.218           231.748                Norilsk         28968.500
        62   02 Jun 2027 06:49:50.276   02 Jun 2027 06:51:47.388           117.112              Murmansk2         14639.000
        63   02 Jun 2027 07:26:44.337   02 Jun 2027 07:29:26.421           162.084            RioGallegos         20260.500
        64   02 Jun 2027 08:09:08.541   02 Jun 2027 08:14:59.097           350.556                  Delhi         43819.500
        65   02 Jun 2027 08:15:15.663   02 Jun 2027 08:15:33.800            18.137                Novosib          2267.125
        66   02 Jun 2027 08:15:43.435   02 Jun 2027 08:16:04.311            20.876                Norilsk          2609.500
        67   02 Jun 2027 08:20:21.066   02 Jun 2027 08:23:38.444           197.378                 Moscow         24672.250
        68   02 Jun 2027 08:23:47.420   02 Jun 2027 08:25:58.514           131.094              Murmansk2         16386.750
        69   02 Jun 2027 08:25:58.514   02 Jun 2027 08:27:22.374            83.860              Murmansk1         10482.500
        70   02 Jun 2027 09:49:42.059   02 Jun 2027 09:50:11.499            29.440                 Moscow          3680.000
        71   02 Jun 2027 09:51:25.703   02 Jun 2027 09:52:10.691            44.988                 Moscow          5623.500
        72   02 Jun 2027 09:55:30.830   02 Jun 2027 09:57:07.306            96.476              Murmansk2         12059.500
        73   02 Jun 2027 09:57:37.026   02 Jun 2027 10:01:13.627           216.601                Norilsk         27075.125
        74   02 Jun 2027 10:01:34.988   02 Jun 2027 10:03:16.325           101.337              Murmansk2         12667.125
        75   02 Jun 2027 11:25:39.122   02 Jun 2027 11:35:06.928           567.806                 Moscow         70975.750
        76   02 Jun 2027 11:35:16.171   02 Jun 2027 11:39:13.817           237.646              Murmansk2         29705.750
        77   02 Jun 2027 11:41:21.240   02 Jun 2027 11:51:11.521           590.281                Anadyr1         73785.125
        78   02 Jun 2027 12:39:17.317   02 Jun 2027 12:39:40.903            23.586               CapeTown          2948.250
        79   02 Jun 2027 13:20:12.653   02 Jun 2027 13:25:15.566           302.913               Magadan2         37864.125
        80   02 Jun 2027 15:49:42.884   02 Jun 2027 15:52:13.458           150.574            RioGallegos         18821.750
        81   02 Jun 2027 16:36:00.164   02 Jun 2027 16:40:59.585           299.421                Irkutsk         37427.625
        82   02 Jun 2027 16:51:17.670   02 Jun 2027 16:53:34.353           136.683                Sumatra         17085.375
        83   02 Jun 2027 16:55:39.518   02 Jun 2027 16:57:45.581           126.063                Sumatra         15757.875
        84   02 Jun 2027 18:17:18.751   02 Jun 2027 18:17:25.089             6.338                Novosib           792.250
        85   02 Jun 2027 18:22:19.855   02 Jun 2027 18:24:05.379           105.524                  Delhi         13190.500
        86   02 Jun 2027 21:21:19.725   02 Jun 2027 21:22:48.300            88.575              Murmansk1         11071.875
        87   02 Jun 2027 21:24:41.087   02 Jun 2027 21:26:55.292           134.205                 Moscow         16775.625
        88   02 Jun 2027 21:51:09.161   02 Jun 2027 21:52:42.620            93.459               CapeTown         11682.375
        89   02 Jun 2027 21:55:37.682   02 Jun 2027 21:57:18.329           100.647               CapeTown          8126.249
        90   03 Jun 2027 03:43:45.337   03 Jun 2027 03:44:24.473            39.136                Irkutsk          4892.000
        91   03 Jun 2027 03:44:51.938   03 Jun 2027 03:50:23.563           331.625              Murmansk1         41453.125
        92   03 Jun 2027 04:56:47.045   03 Jun 2027 04:59:25.503           158.458                Sumatra         19807.250
        93   03 Jun 2027 05:21:33.126   03 Jun 2027 05:22:08.655            35.529                Novosib          4441.125
        94   03 Jun 2027 05:23:20.463   03 Jun 2027 05:25:41.721           141.258              Murmansk1         17657.250
        95   03 Jun 2027 05:25:41.721   03 Jun 2027 05:28:41.147           179.426              Murmansk2         22428.250
        96   03 Jun 2027 06:03:43.528   03 Jun 2027 06:08:00.646           257.118            RioGallegos         32139.750
        97   03 Jun 2027 06:38:29.322   03 Jun 2027 06:42:45.955           256.633                Sumatra         32079.125
        98   03 Jun 2027 06:46:09.331   03 Jun 2027 06:46:43.137            33.806                Irkutsk          4225.750
        99   03 Jun 2027 06:46:56.501   03 Jun 2027 06:50:46.251           229.750                Irkutsk         28718.750
       100   03 Jun 2027 06:55:12.841   03 Jun 2027 06:55:43.440            30.599                Novosib          3824.875
       101   03 Jun 2027 06:56:32.389   03 Jun 2027 06:58:16.179           103.790                Novosib         12973.750
       102   03 Jun 2027 06:58:16.849   03 Jun 2027 07:01:43.108           206.259                Norilsk         25782.375
       103   03 Jun 2027 07:01:53.485   03 Jun 2027 07:03:44.425           110.940              Murmansk2         13867.500
       104   03 Jun 2027 08:22:45.761   03 Jun 2027 08:26:46.455           240.694                  Delhi         30086.750
       105   03 Jun 2027 08:27:02.041   03 Jun 2027 08:27:53.355            51.314                 Moscow          6414.250
       106   03 Jun 2027 08:32:22.126   03 Jun 2027 08:33:34.153            72.027                Novosib          9003.375
       107   03 Jun 2027 08:33:50.852   03 Jun 2027 08:37:40.981           230.129                Norilsk         28766.125
       108   03 Jun 2027 08:37:47.634   03 Jun 2027 08:39:22.751            95.117              Murmansk2         11889.625
       109   03 Jun 2027 10:02:12.420   03 Jun 2027 10:02:46.149            33.729                 Moscow          4216.125
       110   03 Jun 2027 10:03:04.163   03 Jun 2027 10:04:02.075            57.912                 Moscow          7239.000
       111   03 Jun 2027 10:07:16.172   03 Jun 2027 10:11:47.211           271.039                 Moscow         33879.875
       112   03 Jun 2027 10:12:39.168   03 Jun 2027 10:15:17.958           158.790              Murmansk2         19848.750
       113   03 Jun 2027 11:41:39.490   03 Jun 2027 11:43:14.385            94.895              Murmansk2         11861.875
       114   03 Jun 2027 11:44:05.696   03 Jun 2027 11:46:56.083           170.387                 Moscow         21298.375
       115   03 Jun 2027 11:47:04.025   03 Jun 2027 11:51:14.734           250.709              Murmansk2         31338.625
       116   03 Jun 2027 11:57:13.388   03 Jun 2027 12:03:41.711           388.323                Anadyr2         48540.375
       117   03 Jun 2027 12:56:36.255   03 Jun 2027 13:00:23.388           227.133               CapeTown         28391.625
       118   03 Jun 2027 13:19:50.628   03 Jun 2027 13:26:44.866           414.238              Murmansk1         51779.750
       119   03 Jun 2027 13:31:12.995   03 Jun 2027 13:35:11.555           238.560                Anadyr2         29820.000
       120   03 Jun 2027 13:35:52.389   03 Jun 2027 13:39:10.384           197.995               Magadan1         24749.375
       121   03 Jun 2027 13:40:40.155   03 Jun 2027 13:41:15.390            35.235               Magadan1          4404.375
       122   03 Jun 2027 16:00:46.370   03 Jun 2027 16:03:59.502           193.132            RioGallegos         24141.500
       123   03 Jun 2027 16:06:34.333   03 Jun 2027 16:07:13.971            39.638            RioGallegos          4954.750
       124   03 Jun 2027 16:48:31.081   03 Jun 2027 16:51:32.837           181.756                Irkutsk         22719.500
       125   03 Jun 2027 16:53:26.380   03 Jun 2027 16:54:06.039            39.659                Irkutsk          4957.375
       126   03 Jun 2027 17:02:21.720   03 Jun 2027 17:07:06.467           284.747                Sumatra         35593.375
       127   03 Jun 2027 18:26:28.872   03 Jun 2027 18:27:18.722            49.850                Novosib          6231.250
       128   03 Jun 2027 18:32:39.335   03 Jun 2027 18:35:07.498           148.163                  Delhi         18520.375
       129   03 Jun 2027 21:34:33.933   03 Jun 2027 21:36:09.698            95.765              Murmansk1         11970.625
       130   03 Jun 2027 21:40:45.100   03 Jun 2027 21:42:41.084           115.984                 Moscow         14498.000
       131   03 Jun 2027 22:02:19.822   03 Jun 2027 22:04:57.856           158.034               CapeTown          9477.626
       132   04 Jun 2027 03:56:44.456   04 Jun 2027 04:03:03.449           378.993              Murmansk2         47374.125
       133   04 Jun 2027 05:08:00.394   04 Jun 2027 05:11:12.725           192.331                Sumatra         24041.375
       134   04 Jun 2027 05:32:49.468   04 Jun 2027 05:32:54.111             4.643                Norilsk           580.375
       135   04 Jun 2027 05:33:16.123   04 Jun 2027 05:37:46.151           270.028                Norilsk         33753.500
       136   04 Jun 2027 05:37:47.217   04 Jun 2027 05:40:33.385           166.168              Murmansk1         20771.000
       137   04 Jun 2027 06:15:42.252   04 Jun 2027 06:19:54.192           251.940            RioGallegos         31492.500
       138   04 Jun 2027 06:50:33.169   04 Jun 2027 06:54:29.612           236.443                Sumatra         29555.375
       139   04 Jun 2027 06:57:43.967   04 Jun 2027 06:58:34.479            50.512                Irkutsk          6314.000
       140   04 Jun 2027 06:58:34.729   04 Jun 2027 06:58:50.976            16.247                Novosib          2030.875
       141   04 Jun 2027 06:59:47.348   04 Jun 2027 07:03:06.499           199.151                Irkutsk         24893.875
       142   04 Jun 2027 07:07:50.722   04 Jun 2027 07:09:33.267           102.545                 Moscow         12818.125
       143   04 Jun 2027 07:09:41.288   04 Jun 2027 07:13:44.998           243.710                Norilsk         30463.750
       144   04 Jun 2027 07:13:54.461   04 Jun 2027 07:15:42.025           107.564              Murmansk1         13445.500
       145   04 Jun 2027 08:34:42.768   04 Jun 2027 08:38:28.549           225.781                  Delhi         28222.625
       146   04 Jun 2027 08:39:17.558   04 Jun 2027 08:39:44.352            26.794                Novosib          3349.250
       147   04 Jun 2027 08:44:43.422   04 Jun 2027 08:45:22.657            39.235                Novosib          4904.375
       148   04 Jun 2027 08:45:47.228   04 Jun 2027 08:49:41.557           234.329                Norilsk         29291.125
       149   04 Jun 2027 08:49:50.723   04 Jun 2027 08:51:23.395            92.672              Murmansk2         11584.000
       150   04 Jun 2027 10:14:12.675   04 Jun 2027 10:15:39.163            86.488                 Moscow         10811.000
       151   04 Jun 2027 10:17:33.281   04 Jun 2027 10:18:22.502            49.221              Murmansk1          6152.625
       152   04 Jun 2027 10:19:05.784   04 Jun 2027 10:21:18.271           132.487              Murmansk2         16560.875
       153   04 Jun 2027 10:21:24.579   04 Jun 2027 10:23:46.880           142.301                 Moscow         17787.625
       154   04 Jun 2027 10:24:37.748   04 Jun 2027 10:27:19.625           161.877              Murmansk1         20234.625
       155   04 Jun 2027 10:32:20.862   04 Jun 2027 10:34:18.100           117.238                Anadyr2         14654.750
       156   04 Jun 2027 11:32:18.038   04 Jun 2027 11:36:56.249           278.211               CapeTown         34776.375
       157   04 Jun 2027 11:52:15.753   04 Jun 2027 12:02:09.530           593.777              Murmansk1         74222.125
       158   04 Jun 2027 12:06:12.828   04 Jun 2027 12:06:45.209            32.381                Anadyr2          4047.625
       159   04 Jun 2027 13:43:49.686   04 Jun 2027 13:48:04.527           254.841               Magadan1         31855.125
       160   04 Jun 2027 13:51:13.294   04 Jun 2027 13:52:39.831            86.537               Magadan1         10817.125
       161   04 Jun 2027 16:12:13.233   04 Jun 2027 16:15:49.003           215.770            RioGallegos         26971.250
       162   04 Jun 2027 16:18:37.472   04 Jun 2027 16:20:09.333            91.861            RioGallegos         11482.625
       163   04 Jun 2027 17:02:13.282   04 Jun 2027 17:03:27.449            74.167                Irkutsk          9270.875
       164   04 Jun 2027 17:15:47.986   04 Jun 2027 17:20:08.535           260.549                Sumatra         32568.625
       165   04 Jun 2027 18:37:33.641   04 Jun 2027 18:39:10.635            96.994                Novosib         12124.250
       166   04 Jun 2027 18:43:46.556   04 Jun 2027 18:44:50.111            63.555                  Delhi          7944.375
       167   04 Jun 2027 18:46:46.277   04 Jun 2027 18:46:52.485             6.208                  Delhi           776.000
       168   04 Jun 2027 18:49:11.114   04 Jun 2027 18:51:13.588           122.474                  Delhi         15309.250
       169   04 Jun 2027 21:47:31.539   04 Jun 2027 21:49:55.547           144.008              Murmansk1         18001.000
       170   04 Jun 2027 21:52:43.586   04 Jun 2027 21:52:45.120             1.534                 Moscow           191.750
       171   04 Jun 2027 21:53:32.371   04 Jun 2027 21:53:56.291            23.920                 Moscow          2990.000
       172   04 Jun 2027 22:13:40.903   04 Jun 2027 22:14:09.892            28.989               CapeTown          3080.375
       173   05 Jun 2027 04:08:46.098   05 Jun 2027 04:09:43.354            57.256                Novosib          7157.000
       174   05 Jun 2027 04:09:51.990   05 Jun 2027 04:10:58.160            66.170                Norilsk          8271.250
       175   05 Jun 2027 05:20:36.500   05 Jun 2027 05:23:05.938           149.438                Sumatra         18679.750
       176   05 Jun 2027 05:44:51.173   05 Jun 2027 05:49:47.461           296.288                Norilsk         37036.000
       177   05 Jun 2027 05:50:00.878   05 Jun 2027 05:52:26.372           145.494              Murmansk1         18186.750
       178   05 Jun 2027 06:27:39.741   05 Jun 2027 06:31:45.487           245.746            RioGallegos         30718.250
       179   05 Jun 2027 07:02:31.432   05 Jun 2027 07:06:05.907           214.475                Sumatra         26809.375
       180   05 Jun 2027 07:09:48.953   05 Jun 2027 07:10:24.225            35.272                Novosib          4409.000
       181   05 Jun 2027 07:10:26.302   05 Jun 2027 07:15:20.109           293.807                  Delhi         36725.875
       182   05 Jun 2027 07:15:22.278   05 Jun 2027 07:15:54.952            32.674                Irkutsk          4084.250
       183   05 Jun 2027 07:20:30.393   05 Jun 2027 07:22:15.933           105.540                Novosib         13192.500
       184   05 Jun 2027 07:22:20.866   05 Jun 2027 07:25:46.871           206.005                Norilsk         25750.625
       185   05 Jun 2027 07:25:55.155   05 Jun 2027 07:27:40.135           104.980              Murmansk2         13122.500
       186   05 Jun 2027 08:46:36.182   05 Jun 2027 08:50:03.806           207.624                  Delhi         25953.000
       187   05 Jun 2027 08:50:13.608   05 Jun 2027 08:52:47.267           153.659                Novosib         19207.375
       188   05 Jun 2027 08:56:13.901   05 Jun 2027 08:57:07.271            53.370                Novosib          6671.250
       189   05 Jun 2027 08:57:12.426   05 Jun 2027 09:01:41.668           269.242                Norilsk         33655.250
       190   05 Jun 2027 09:01:45.188   05 Jun 2027 09:03:24.257            99.069              Murmansk2         12383.625
       191   05 Jun 2027 10:26:12.182   05 Jun 2027 10:27:44.895            92.713                 Moscow         11589.125
       192   05 Jun 2027 10:29:34.295   05 Jun 2027 10:30:53.041            78.746              Murmansk1          9843.250
       193   05 Jun 2027 10:30:53.041   05 Jun 2027 10:33:16.094           143.053              Murmansk2         17881.625
       194   05 Jun 2027 10:33:18.346   05 Jun 2027 10:35:45.726           147.380                 Moscow         18422.500
       195   05 Jun 2027 10:36:12.566   05 Jun 2027 10:36:22.701            10.135                Norilsk          1266.875
       196   05 Jun 2027 10:36:37.740   05 Jun 2027 10:39:21.291           163.551              Murmansk1         20443.875
       197   05 Jun 2027 10:42:36.069   05 Jun 2027 10:45:05.616           149.547                Anadyr1         18693.375
       198   05 Jun 2027 13:55:42.313   05 Jun 2027 13:59:45.621           243.308               Magadan2         30413.500
       199   05 Jun 2027 13:59:45.621   05 Jun 2027 14:00:02.180            16.559               Magadan1          2069.875
       200   05 Jun 2027 14:02:13.907   05 Jun 2027 14:02:25.906            11.999               Magadan2          1499.875
       201   05 Jun 2027 14:03:13.741   05 Jun 2027 14:04:40.031            86.290               Magadan2         10786.250
       202   05 Jun 2027 16:23:50.406   05 Jun 2027 16:29:34.192           343.786            RioGallegos         42973.250
       203   05 Jun 2027 17:13:41.085   05 Jun 2027 17:15:18.804            97.719                Irkutsk         12214.875
       204   05 Jun 2027 17:15:19.367   05 Jun 2027 17:15:23.658             4.291                Irkutsk           536.375
       205   05 Jun 2027 17:25:13.728   05 Jun 2027 17:26:51.164            97.436                Sumatra         12179.500
       206   05 Jun 2027 17:29:04.671   05 Jun 2027 17:31:45.710           161.039                Sumatra         20129.875
       207   05 Jun 2027 18:46:52.340   05 Jun 2027 18:48:30.103            97.763                Novosib         12220.375
       208   05 Jun 2027 18:55:11.024   05 Jun 2027 18:58:42.196           211.172                  Delhi         26396.500
       209   05 Jun 2027 20:27:39.900   05 Jun 2027 20:28:51.877            71.977                 Moscow          8997.125
       210   05 Jun 2027 22:00:19.002   05 Jun 2027 22:02:20.054           121.052                 Moscow          4388.375
       211   06 Jun 2027 04:20:58.036   06 Jun 2027 04:21:52.107            54.071                Novosib          6758.875
       212   06 Jun 2027 04:21:55.929   06 Jun 2027 04:22:10.336            14.407              Murmansk1          1800.875
       213   06 Jun 2027 05:31:02.659   06 Jun 2027 05:32:53.443           110.784                Sumatra         13848.000
       214   06 Jun 2027 05:44:46.340   06 Jun 2027 05:46:33.219           106.879                  Delhi         13359.875
       215   06 Jun 2027 05:56:52.962   06 Jun 2027 06:01:48.929           295.967                Norilsk         36995.875
       216   06 Jun 2027 06:02:02.870   06 Jun 2027 06:04:20.102           137.232              Murmansk1         17154.000
       217   06 Jun 2027 06:39:35.805   06 Jun 2027 06:43:33.911           238.106            RioGallegos         29763.250
       218   06 Jun 2027 07:14:24.035   06 Jun 2027 07:17:32.981           188.946                Sumatra         23618.250
       219   06 Jun 2027 07:22:15.425   06 Jun 2027 07:22:59.067            43.642                Novosib          5455.250
       220   06 Jun 2027 07:23:44.418   06 Jun 2027 07:27:57.465           253.047                Irkutsk         31630.875
       221   06 Jun 2027 07:32:44.419   06 Jun 2027 07:34:14.594            90.175                Novosib         11271.875
       222   06 Jun 2027 07:34:28.369   06 Jun 2027 07:37:48.695           200.326                Norilsk         25040.750
       223   06 Jun 2027 07:37:54.006   06 Jun 2027 07:39:38.714           104.708              Murmansk1         13088.500
       224   06 Jun 2027 08:58:25.546   06 Jun 2027 09:01:29.317           183.771                  Delhi         22971.375
       225   06 Jun 2027 09:01:42.398   06 Jun 2027 09:03:52.866           130.468                Novosib         16308.500
       226   06 Jun 2027 09:09:13.492   06 Jun 2027 09:13:41.182           267.690                Norilsk         33461.250
       227   06 Jun 2027 09:14:32.386   06 Jun 2027 09:15:25.325            52.939              Murmansk1          6617.375
       228   06 Jun 2027 10:18:43.276   06 Jun 2027 10:20:14.064            90.788               CapeTown         11348.500
       229   06 Jun 2027 10:38:10.848   06 Jun 2027 10:38:54.607            43.759                 Moscow          5469.875
       230   06 Jun 2027 10:41:47.088   06 Jun 2027 10:45:14.419           207.331              Murmansk1         25916.375
       231   06 Jun 2027 10:45:14.846   06 Jun 2027 10:47:43.622           148.776                 Moscow         18597.000
       232   06 Jun 2027 10:48:16.048   06 Jun 2027 10:51:22.929           186.881              Murmansk1         23360.125
       233   06 Jun 2027 10:54:13.765   06 Jun 2027 11:00:40.309           386.544                Anadyr1         48318.000
       234   06 Jun 2027 11:56:09.631   06 Jun 2027 12:00:59.455           289.824               CapeTown         36228.000
       235   06 Jun 2027 14:07:36.777   06 Jun 2027 14:11:56.637           259.860               Magadan2         32482.500
       236   06 Jun 2027 14:15:35.276   06 Jun 2027 14:16:40.684            65.408               Magadan1          8176.000
       237   06 Jun 2027 16:35:33.734   06 Jun 2027 16:41:40.458           366.724            RioGallegos         45840.500
       238   06 Jun 2027 17:23:03.266   06 Jun 2027 17:25:44.254           160.988                Irkutsk         20123.500
       239   06 Jun 2027 17:25:45.411   06 Jun 2027 17:28:13.940           148.529                Novosib         18566.125
       240   06 Jun 2027 17:38:43.436   06 Jun 2027 17:39:13.688            30.252                Sumatra          3781.500
       241   06 Jun 2027 17:40:29.297   06 Jun 2027 17:42:58.741           149.444                Sumatra         18680.500
       242   06 Jun 2027 19:06:45.592   06 Jun 2027 19:08:47.444           121.852                  Delhi         15231.500
       243   06 Jun 2027 19:10:16.939   06 Jun 2027 19:10:35.908            18.969                  Delhi          2371.125
       244   06 Jun 2027 20:37:11.006   06 Jun 2027 20:37:38.112            27.106              Murmansk2          3388.250
       245   06 Jun 2027 20:38:25.001   06 Jun 2027 20:40:50.756           145.755                 Moscow         18219.375
       246   06 Jun 2027 22:09:10.756   06 Jun 2027 22:10:55.342           104.586              Murmansk2          1965.500
       247   07 Jun 2027 04:28:01.888   07 Jun 2027 04:29:05.172            63.284                Irkutsk          7910.500
       248   07 Jun 2027 05:42:45.921   07 Jun 2027 05:43:05.862            19.941                Sumatra          2492.625
       249   07 Jun 2027 05:44:31.491   07 Jun 2027 05:45:22.063            50.572                Sumatra          6321.500
       250   07 Jun 2027 05:54:55.674   07 Jun 2027 05:55:30.880            35.206                  Delhi          4400.750
       251   07 Jun 2027 06:08:54.817   07 Jun 2027 06:13:50.533           295.716                Norilsk         36964.500
       252   07 Jun 2027 06:14:04.697   07 Jun 2027 06:16:14.557           129.860              Murmansk1         16232.500
       253   07 Jun 2027 06:51:30.195   07 Jun 2027 06:55:18.499           228.304            RioGallegos         28538.000
       254   07 Jun 2027 07:26:10.597   07 Jun 2027 07:28:47.269           156.672                Sumatra         19584.000
       255   07 Jun 2027 07:34:14.842   07 Jun 2027 07:39:27.695           312.853                  Delhi         39106.625
       256   07 Jun 2027 07:39:28.628   07 Jun 2027 07:39:54.176            25.548                Novosib          3193.500
       257   07 Jun 2027 07:40:10.712   07 Jun 2027 07:41:06.335            55.623                 Moscow          6952.875
       258   07 Jun 2027 07:44:23.215   07 Jun 2027 07:44:50.259            27.044                 Moscow          3380.500
       259   07 Jun 2027 07:44:50.329   07 Jun 2027 07:46:12.279            81.950                Novosib         10243.750
       260   07 Jun 2027 07:46:17.116   07 Jun 2027 07:49:50.430           213.314                Norilsk         26664.250
       261   07 Jun 2027 07:49:50.554   07 Jun 2027 07:51:37.732           107.178              Murmansk2         13397.250
       262   07 Jun 2027 09:10:10.116   07 Jun 2027 09:12:38.537           148.421                  Delhi         18552.625
       263   07 Jun 2027 09:15:43.555   07 Jun 2027 09:16:04.962            21.407              Murmansk1          2675.875
       264   07 Jun 2027 09:19:58.933   07 Jun 2027 09:20:14.960            16.027                Novosib          2003.375
       265   07 Jun 2027 09:21:43.756   07 Jun 2027 09:25:39.917           236.161                Norilsk         29520.125
       266   07 Jun 2027 09:26:23.421   07 Jun 2027 09:27:26.553            63.132              Murmansk1          7891.500
       267   07 Jun 2027 10:31:19.684   07 Jun 2027 10:34:01.867           162.183               CapeTown         20272.875
       268   07 Jun 2027 10:50:08.538   07 Jun 2027 10:50:33.441            24.903                 Moscow          3112.875
       269   07 Jun 2027 10:53:48.716   07 Jun 2027 10:56:34.368           165.652              Murmansk2         20706.500
       270   07 Jun 2027 10:57:14.138   07 Jun 2027 10:59:40.407           146.269                 Moscow         18283.625
       271   07 Jun 2027 10:59:42.576   07 Jun 2027 11:03:24.502           221.926              Murmansk2         27740.750
       272   07 Jun 2027 11:05:59.084   07 Jun 2027 11:13:30.703           451.619                Anadyr2         56452.375
       273   07 Jun 2027 12:08:21.539   07 Jun 2027 12:13:18.833           297.294               CapeTown         37161.750
       274   07 Jun 2027 12:29:36.322   07 Jun 2027 12:31:00.000            83.677              Murmansk1         10459.625
       275   07 Jun 2027 12:41:22.829   07 Jun 2027 12:42:13.421            50.592                Anadyr1          6324.000
       276   07 Jun 2027 12:44:56.256   07 Jun 2027 12:45:45.493            49.237                Anadyr2          6154.625
       277   07 Jun 2027 12:45:58.576   07 Jun 2027 12:49:34.897           216.321               Magadan2         27040.125
       278   07 Jun 2027 14:21:18.687   07 Jun 2027 14:23:58.591           159.904               Magadan1         19988.000
       279   07 Jun 2027 16:47:21.255   07 Jun 2027 16:49:48.630           147.375            RioGallegos         18421.875
       280   07 Jun 2027 16:51:22.878   07 Jun 2027 16:53:11.713           108.835            RioGallegos         13604.375
       281   07 Jun 2027 17:34:56.739   07 Jun 2027 17:37:01.783           125.044                Irkutsk         15630.500
       282   07 Jun 2027 17:39:19.879   07 Jun 2027 17:42:26.796           186.917                Novosib         23364.625
       283   07 Jun 2027 17:49:21.738   07 Jun 2027 17:50:17.382            55.644                Sumatra          6955.500
       284   07 Jun 2027 17:51:28.754   07 Jun 2027 17:53:13.640           104.886                Sumatra         13110.750
       285   07 Jun 2027 19:18:27.175   07 Jun 2027 19:20:18.423           111.248                  Delhi         13906.000
       286   07 Jun 2027 20:46:41.622   07 Jun 2027 20:46:59.328            17.706              Murmansk1          2213.250
       287   07 Jun 2027 20:49:48.866   07 Jun 2027 20:52:50.463           181.597                 Moscow         22229.875
       288   08 Jun 2027 04:45:31.512   08 Jun 2027 04:46:24.014            52.502                Norilsk          6562.750
       289   08 Jun 2027 04:47:56.504   08 Jun 2027 04:53:23.351           326.847              Murmansk2         40855.875
       290   08 Jun 2027 05:26:45.588   08 Jun 2027 05:32:24.820           339.232            RioGallegos         42404.000
       291   08 Jun 2027 05:54:35.566   08 Jun 2027 06:07:13.495           757.929                Sumatra         94741.125
       292   08 Jun 2027 06:08:22.617   08 Jun 2027 06:12:43.918           261.301                Irkutsk         32662.625
       293   08 Jun 2027 06:20:56.711   08 Jun 2027 06:21:09.168            12.457                Norilsk          1557.125
       294   08 Jun 2027 06:21:15.025   08 Jun 2027 06:22:26.353            71.328                Novosib          8916.000
       295   08 Jun 2027 06:22:58.806   08 Jun 2027 06:23:33.530            34.724              Murmansk2          4340.500
       296   08 Jun 2027 06:23:47.570   08 Jun 2027 06:25:52.237           124.667                Norilsk         15583.375
       297   08 Jun 2027 06:25:53.483   08 Jun 2027 06:28:09.710           136.227              Murmansk1         17028.375
       298   08 Jun 2027 07:03:22.545   08 Jun 2027 07:06:57.578           215.033            RioGallegos         26879.125
       299   08 Jun 2027 07:37:50.325   08 Jun 2027 07:39:40.081           109.756                Sumatra         13719.500
       300   08 Jun 2027 07:46:03.050   08 Jun 2027 07:51:26.553           323.503                  Delhi         40437.875
       301   08 Jun 2027 07:51:37.576   08 Jun 2027 07:52:13.868            36.292              Murmansk2          4536.500
       302   08 Jun 2027 07:52:16.230   08 Jun 2027 07:52:28.281            12.051                Norilsk          1506.375
       303   08 Jun 2027 07:56:24.238   08 Jun 2027 07:58:08.803           104.565                Novosib         13070.625
       304   08 Jun 2027 07:58:09.405   08 Jun 2027 08:01:52.041           222.636                Norilsk         27829.500
       305   08 Jun 2027 08:01:52.350   08 Jun 2027 08:03:37.149           104.799              Murmansk1         13099.875
       306   08 Jun 2027 09:21:48.655   08 Jun 2027 09:23:06.149            77.494                  Delhi          9686.750
       307   08 Jun 2027 09:33:14.555   08 Jun 2027 09:37:37.625           263.070                Norilsk         32883.750
       308   08 Jun 2027 09:38:13.612   08 Jun 2027 09:39:27.930            74.318              Murmansk1          9289.750
       309   08 Jun 2027 11:02:05.068   08 Jun 2027 11:02:58.752            53.684                 Moscow          6710.500
       310   08 Jun 2027 11:05:50.272   08 Jun 2027 11:06:15.389            25.117              Murmansk2          3139.625
       311   08 Jun 2027 11:06:16.428   08 Jun 2027 11:11:35.854           319.426                 Moscow         39928.250
       312   08 Jun 2027 11:11:45.445   08 Jun 2027 11:15:25.980           220.535              Murmansk1         27566.875
       313   08 Jun 2027 11:18:40.439   08 Jun 2027 11:26:14.283           453.844                Anadyr1         56730.500
       314   08 Jun 2027 12:17:30.672   08 Jun 2027 12:25:16.133           465.461               CapeTown         58182.625
       315   08 Jun 2027 12:42:08.589   08 Jun 2027 12:51:12.661           544.072              Murmansk2         68009.000
       316   08 Jun 2027 12:53:10.473   08 Jun 2027 12:55:39.738           149.265                Anadyr2         18658.125
       317   08 Jun 2027 12:57:11.994   08 Jun 2027 13:00:06.585           174.591               Magadan2         21823.875
       318   08 Jun 2027 13:00:22.308   08 Jun 2027 13:02:58.508           156.200               Magadan1         19525.000
       319   08 Jun 2027 14:34:27.276   08 Jun 2027 14:35:59.649            92.373               Magadan1         11546.625
       320   08 Jun 2027 16:13:33.411   08 Jun 2027 16:18:07.531           274.120                Irkutsk         34265.000
       321   08 Jun 2027 17:00:44.594   08 Jun 2027 17:01:51.428            66.834            RioGallegos          8354.250
       322   08 Jun 2027 17:46:52.010   08 Jun 2027 17:48:45.503           113.493                Irkutsk         14186.625
       323   08 Jun 2027 17:48:59.942   08 Jun 2027 17:51:19.744           139.802                Novosib         17475.250
       324   08 Jun 2027 19:30:14.126   08 Jun 2027 19:32:41.467           147.341                  Delhi         18417.625
       325   08 Jun 2027 19:34:33.828   08 Jun 2027 19:34:54.897            21.069                  Delhi          2633.625
       326   08 Jun 2027 20:57:03.926   08 Jun 2027 20:57:18.536            14.610              Murmansk2          1826.250
       327   08 Jun 2027 20:57:36.434   08 Jun 2027 20:58:31.507            55.073              Murmansk1          6884.125
       328   08 Jun 2027 21:01:25.142   08 Jun 2027 21:02:44.773            79.631                 Moscow          9953.875
       329   08 Jun 2027 21:31:57.443   08 Jun 2027 21:33:25.931            88.488               CapeTown         11061.000
       330   09 Jun 2027 03:19:34.017   09 Jun 2027 03:20:10.572            36.555                Norilsk          4569.375
       331   09 Jun 2027 03:20:38.041   09 Jun 2027 03:20:42.578             4.537                Anadyr2           567.125
       332   09 Jun 2027 03:20:52.377   09 Jun 2027 03:21:05.714            13.337               Magadan1          1667.125
       333   09 Jun 2027 03:21:10.625   09 Jun 2027 03:27:59.637           409.012              Murmansk2         51126.500
       334   09 Jun 2027 04:36:37.709   09 Jun 2027 04:37:11.894            34.185                Sumatra          4273.125
       335   09 Jun 2027 04:38:10.277   09 Jun 2027 04:38:15.090             4.813                Sumatra           601.625
       336   09 Jun 2027 04:56:59.866   09 Jun 2027 04:57:03.331             3.465                Norilsk           433.125
       337   09 Jun 2027 04:57:05.504   09 Jun 2027 04:58:12.804            67.300                Novosib          8412.500
       338   09 Jun 2027 04:59:48.612   09 Jun 2027 05:01:46.892           118.280              Murmansk2         14785.000
       339   09 Jun 2027 05:01:46.892   09 Jun 2027 05:05:13.417           206.525              Murmansk1         25815.625
       340   09 Jun 2027 05:39:57.549   09 Jun 2027 05:44:23.000           265.451            RioGallegos         33181.375
       341   09 Jun 2027 06:14:18.363   09 Jun 2027 06:19:14.790           296.427                Sumatra         37053.375
       342   09 Jun 2027 06:23:08.854   09 Jun 2027 06:26:19.990           191.136                Irkutsk         23892.000
       343   09 Jun 2027 06:33:21.163   09 Jun 2027 06:37:54.030           272.867                Norilsk         34108.375
       344   09 Jun 2027 06:38:08.118   09 Jun 2027 06:40:05.529           117.411              Murmansk2         14676.375
       345   09 Jun 2027 07:15:12.331   09 Jun 2027 07:18:27.833           195.502            RioGallegos         24437.750
       346   09 Jun 2027 07:49:21.791   09 Jun 2027 07:49:23.582             1.791                Sumatra           223.875
       347   09 Jun 2027 07:56:30.005   09 Jun 2027 08:03:21.962           411.957                  Delhi         51494.625
       348   09 Jun 2027 08:03:37.935   09 Jun 2027 08:04:18.121            40.186                Irkutsk          5023.250
       349   09 Jun 2027 08:04:20.526   09 Jun 2027 08:04:25.338             4.812                 Moscow           601.500
       350   09 Jun 2027 08:08:37.925   09 Jun 2027 08:11:48.033           190.108                 Moscow         23763.500
       351   09 Jun 2027 08:12:00.035   09 Jun 2027 08:13:39.917            99.882              Murmansk1         12485.250
       352   09 Jun 2027 08:13:39.917   09 Jun 2027 08:15:36.921           117.004              Murmansk2         14625.500
       353   09 Jun 2027 09:38:01.007   09 Jun 2027 09:38:24.645            23.638                 Moscow          2954.750
       354   09 Jun 2027 09:45:04.795   09 Jun 2027 09:48:00.438           175.643                 Moscow         21955.375
       355   09 Jun 2027 09:48:04.335   09 Jun 2027 09:51:29.413           205.078              Murmansk1         25634.750
       356   09 Jun 2027 11:14:00.221   09 Jun 2027 11:14:28.195            27.974                 Moscow          3496.750
       357   09 Jun 2027 11:17:51.725   09 Jun 2027 11:18:03.403            11.678              Murmansk2          1459.750
       358   09 Jun 2027 11:18:42.744   09 Jun 2027 11:23:29.680           286.936                 Moscow         35867.000
       359   09 Jun 2027 11:23:46.821   09 Jun 2027 11:27:27.321           220.500              Murmansk1         27562.500
       360   09 Jun 2027 11:29:41.282   09 Jun 2027 11:38:52.613           551.331                Anadyr2         68916.375
       361   09 Jun 2027 12:27:40.458   09 Jun 2027 12:37:08.496           568.038               CapeTown         71004.750
       362   09 Jun 2027 12:54:43.964   09 Jun 2027 13:03:09.888           505.924              Murmansk2         63240.500
       363   09 Jun 2027 13:05:10.701   09 Jun 2027 13:17:11.835           721.134                Anadyr1         90141.750
       364   09 Jun 2027 14:43:58.451   09 Jun 2027 14:44:45.817            47.366               Magadan1          5920.750
       365   09 Jun 2027 14:47:13.691   09 Jun 2027 14:48:42.629            88.938               Magadan2         11117.250
       366   09 Jun 2027 14:50:52.280   09 Jun 2027 14:51:13.955            21.675               Magadan2          2709.375
       367   09 Jun 2027 16:24:44.513   09 Jun 2027 16:31:27.654           403.141                Irkutsk         50392.625
       368   09 Jun 2027 16:41:01.230   09 Jun 2027 16:43:28.659           147.429                Sumatra         18428.625
       369   09 Jun 2027 17:59:50.408   09 Jun 2027 18:03:43.126           232.718                Novosib         29089.750
       370   09 Jun 2027 21:09:02.901   09 Jun 2027 21:10:16.259            73.358              Murmansk1          9169.750
       371   09 Jun 2027 21:13:08.183   09 Jun 2027 21:16:51.989           223.806                 Moscow         27975.750
       372   09 Jun 2027 21:20:10.860   09 Jun 2027 21:21:39.177            88.317                 Moscow         11039.625
       373   09 Jun 2027 21:40:28.140   09 Jun 2027 21:40:48.203            20.063               CapeTown          2507.875
       374   09 Jun 2027 21:43:56.459   09 Jun 2027 21:45:39.220           102.761               CapeTown         12845.125
       375   10 Jun 2027 03:31:46.067   10 Jun 2027 03:32:15.385            29.318                Norilsk          3664.750
       376   10 Jun 2027 03:33:06.515   10 Jun 2027 03:38:16.917           310.402                Norilsk         38800.250
       377   10 Jun 2027 03:38:24.321   10 Jun 2027 03:42:48.769           264.448              Murmansk1         33056.000
       378   10 Jun 2027 04:08:14.115   10 Jun 2027 04:09:15.977            61.862            RioGallegos          7732.750
       379   10 Jun 2027 04:46:09.608   10 Jun 2027 04:47:40.988            91.380                Sumatra         11422.500
       380   10 Jun 2027 05:09:01.157   10 Jun 2027 05:10:34.532            93.375                Norilsk         11671.875
       381   10 Jun 2027 05:11:41.475   10 Jun 2027 05:14:11.899           150.424              Murmansk1         18803.000
       382   10 Jun 2027 05:14:11.899   10 Jun 2027 05:17:04.185           172.286              Murmansk2         21535.750
       383   10 Jun 2027 05:51:58.341   10 Jun 2027 05:56:19.872           261.531            RioGallegos         32691.375
       384   10 Jun 2027 06:26:34.418   10 Jun 2027 06:31:10.508           276.090                Sumatra         34511.250
       385   10 Jun 2027 06:34:15.180   10 Jun 2027 06:34:38.324            23.144                Irkutsk          2893.000
       386   10 Jun 2027 06:35:18.087   10 Jun 2027 06:38:39.487           201.400                Novosib         25175.000
       387   10 Jun 2027 06:43:57.099   10 Jun 2027 06:44:54.403            57.304                 Moscow          7163.000
       388   10 Jun 2027 06:45:00.040   10 Jun 2027 06:46:04.385            64.345                 Moscow          8043.125
       389   10 Jun 2027 06:46:05.005   10 Jun 2027 06:49:55.882           230.877                Norilsk         28859.625
       390   10 Jun 2027 06:50:04.763   10 Jun 2027 06:52:01.986           117.223              Murmansk1         14652.875
       391   10 Jun 2027 07:26:58.763   10 Jun 2027 07:29:40.266           161.503            RioGallegos         20187.875
       392   10 Jun 2027 08:11:00.049   10 Jun 2027 08:15:13.607           253.558                  Delhi         31694.750
       393   10 Jun 2027 08:15:30.352   10 Jun 2027 08:15:49.177            18.825                Novosib          2353.125
       394   10 Jun 2027 08:15:58.238   10 Jun 2027 08:16:19.210            20.972                Norilsk          2621.500
       395   10 Jun 2027 08:20:35.879   10 Jun 2027 08:23:53.143           197.264                 Moscow         24658.000
       396   10 Jun 2027 08:23:53.364   10 Jun 2027 08:25:54.700           121.336                Norilsk         15167.000
       397   10 Jun 2027 08:26:13.013   10 Jun 2027 08:27:37.016            84.003              Murmansk1         10500.375
       398   10 Jun 2027 09:49:56.806   10 Jun 2027 09:50:26.159            29.353                 Moscow          3669.125
       399   10 Jun 2027 09:55:47.460   10 Jun 2027 09:57:22.788            95.328              Murmansk2         11916.000
       400   10 Jun 2027 09:57:52.631   10 Jun 2027 10:01:28.183           215.552                Norilsk         26944.000
       401   10 Jun 2027 10:01:51.842   10 Jun 2027 10:03:30.985            99.143              Murmansk2         12392.875
       402   10 Jun 2027 11:25:53.669   10 Jun 2027 11:26:42.780            49.111                 Moscow          6138.875
       403   10 Jun 2027 11:29:33.075   10 Jun 2027 11:39:28.471           595.396              Murmansk2         74424.500
       404   10 Jun 2027 11:44:42.161   10 Jun 2027 11:51:26.563           404.402                Anadyr2         50550.250
       405   10 Jun 2027 12:43:29.437   10 Jun 2027 12:48:55.797           326.360               CapeTown         40795.000
       406   10 Jun 2027 13:07:22.844   10 Jun 2027 13:15:05.669           462.825              Murmansk1         57853.125
       407   10 Jun 2027 13:17:11.241   10 Jun 2027 13:22:17.978           306.737                Anadyr1         38342.125
       408   10 Jun 2027 13:24:06.654   10 Jun 2027 13:24:27.128            20.474               Magadan1          2559.250
       409   10 Jun 2027 13:25:30.697   10 Jun 2027 13:26:45.588            74.891               Magadan1          9361.375
       410   10 Jun 2027 13:27:20.038   10 Jun 2027 13:28:48.818            88.780               Magadan2         11097.500
       411   10 Jun 2027 14:56:38.434   10 Jun 2027 14:58:14.179            95.745               Magadan1         11968.125
       412   10 Jun 2027 15:49:56.499   10 Jun 2027 15:52:27.935           151.436            RioGallegos         18929.500
       413   10 Jun 2027 16:36:14.492   10 Jun 2027 16:41:14.717           300.225                Irkutsk         37528.125
       414   10 Jun 2027 16:51:31.462   10 Jun 2027 16:53:48.784           137.322                Sumatra         17165.250
       415   10 Jun 2027 18:13:30.323   10 Jun 2027 18:15:21.543           111.220                Novosib         13902.500
       416   10 Jun 2027 18:22:32.339   10 Jun 2027 18:23:42.780            70.441                  Delhi          8805.125
       417   10 Jun 2027 21:21:02.533   10 Jun 2027 21:22:06.559            64.026              Murmansk2          8003.250
       418   10 Jun 2027 21:24:55.588   10 Jun 2027 21:28:53.669           238.081                 Moscow         29760.125
       419   10 Jun 2027 21:51:23.106   10 Jun 2027 21:53:42.688           139.582               CapeTown         17447.750
       420   11 Jun 2027 03:45:06.435   11 Jun 2027 03:54:36.014           569.579              Murmansk2         71197.375
       421   11 Jun 2027 04:57:00.991   11 Jun 2027 04:59:39.984           158.993                Sumatra         19874.125
       422   11 Jun 2027 05:20:50.096   11 Jun 2027 05:22:23.353            93.257                Novosib         11657.125
       423   11 Jun 2027 05:23:35.081   11 Jun 2027 05:28:55.683           320.602              Murmansk1         40075.250
       424   11 Jun 2027 06:03:58.135   11 Jun 2027 06:08:15.218           257.083            RioGallegos         32135.375
       425   11 Jun 2027 06:38:44.019   11 Jun 2027 06:43:00.431           256.412                Sumatra         32051.500
       426   11 Jun 2027 06:46:23.940   11 Jun 2027 06:46:57.684            33.744                Irkutsk          4218.000
       427   11 Jun 2027 06:47:10.686   11 Jun 2027 06:51:02.913           232.227                Irkutsk         29028.375
       428   11 Jun 2027 06:55:28.080   11 Jun 2027 06:56:00.239            32.159                Novosib          4019.875
       429   11 Jun 2027 06:56:46.632   11 Jun 2027 06:58:30.826           104.194                Novosib         13024.250
       430   11 Jun 2027 06:58:33.364   11 Jun 2027 07:01:57.772           204.408                Norilsk         25551.000
       431   11 Jun 2027 07:02:10.726   11 Jun 2027 07:03:59.030           108.304              Murmansk2         13538.000
       432   11 Jun 2027 08:23:00.362   11 Jun 2027 08:27:00.906           240.544                  Delhi         30068.000
       433   11 Jun 2027 08:27:16.669   11 Jun 2027 08:28:07.948            51.279                 Moscow          6409.875
       434   11 Jun 2027 08:32:36.762   11 Jun 2027 08:33:48.668            71.906                Novosib          8988.250
       435   11 Jun 2027 08:34:06.151   11 Jun 2027 08:37:55.631           229.480                Norilsk         28685.000
       436   11 Jun 2027 08:38:02.140   11 Jun 2027 08:39:37.397            95.257              Murmansk1         11907.125
       437   11 Jun 2027 10:02:27.067   11 Jun 2027 10:03:00.844            33.777                 Moscow          4222.125
       438   11 Jun 2027 10:03:18.529   11 Jun 2027 10:04:16.649            58.120                 Moscow          7265.000
       439   11 Jun 2027 10:07:30.815   11 Jun 2027 10:12:01.856           271.041                 Moscow         33880.125
       440   11 Jun 2027 10:12:04.252   11 Jun 2027 10:13:19.292            75.040                Norilsk          9380.000
       441   11 Jun 2027 10:13:24.900   11 Jun 2027 10:15:32.618           127.718              Murmansk2         15964.750
       442   11 Jun 2027 11:41:54.142   11 Jun 2027 11:43:30.286            96.144              Murmansk1         12018.000
       443   11 Jun 2027 11:44:20.423   11 Jun 2027 11:47:10.567           170.144                 Moscow         21268.000
       444   11 Jun 2027 11:47:20.243   11 Jun 2027 11:51:29.384           249.141              Murmansk2         31142.625
       445   11 Jun 2027 11:57:28.518   11 Jun 2027 12:03:56.707           388.189                Anadyr1         48523.625
       446   11 Jun 2027 12:56:50.833   11 Jun 2027 13:00:37.770           226.937               CapeTown         28367.125
       447   11 Jun 2027 13:20:05.833   11 Jun 2027 13:26:59.413           413.580              Murmansk2         51697.500
       448   11 Jun 2027 13:32:13.978   11 Jun 2027 13:36:07.390           233.412               Magadan2         29176.500
       449   11 Jun 2027 13:37:57.899   11 Jun 2027 13:39:25.455            87.556               Magadan2         10944.500
       450   11 Jun 2027 16:01:00.496   11 Jun 2027 16:04:14.034           193.538            RioGallegos         24192.250
       451   11 Jun 2027 16:48:47.463   11 Jun 2027 16:51:47.452           179.989                Irkutsk         22498.625
       452   11 Jun 2027 16:53:41.436   11 Jun 2027 16:54:20.043            38.607                Irkutsk          4825.875
       453   11 Jun 2027 17:02:35.780   11 Jun 2027 17:06:20.328           224.548                Sumatra         28068.500
       454   11 Jun 2027 17:08:12.286   11 Jun 2027 17:10:06.513           114.227                Sumatra         14278.375
       455   11 Jun 2027 18:32:53.143   11 Jun 2027 18:34:50.931           117.788                  Delhi         14723.500
       456   11 Jun 2027 21:34:49.518   11 Jun 2027 21:36:38.412           108.894              Murmansk2         13611.750
       457   11 Jun 2027 21:41:00.337   11 Jun 2027 21:42:57.672           117.335                 Moscow         14666.875
       458   11 Jun 2027 22:02:33.916   11 Jun 2027 22:05:13.227           159.311               CapeTown         11715.751
       459   12 Jun 2027 03:56:58.937   12 Jun 2027 04:03:18.566           379.629              Murmansk2         47453.625
       460   12 Jun 2027 05:08:14.543   12 Jun 2027 05:11:27.296           192.753                Sumatra         24094.125
       461   12 Jun 2027 05:33:04.201   12 Jun 2027 05:33:09.143             4.942                Norilsk           617.750
       462   12 Jun 2027 05:33:30.745   12 Jun 2027 05:38:00.805           270.060                Norilsk         33757.500
       463   12 Jun 2027 05:38:02.137   12 Jun 2027 05:40:47.931           165.794              Murmansk2         20724.250
       464   12 Jun 2027 06:15:56.845   12 Jun 2027 06:20:08.737           251.892            RioGallegos         31486.500
       465   12 Jun 2027 06:50:47.798   12 Jun 2027 06:54:44.003           236.205                Sumatra         29525.625
       466   12 Jun 2027 06:57:59.835   12 Jun 2027 06:58:48.993            49.158                Irkutsk          6144.750
       467   12 Jun 2027 06:58:49.220   12 Jun 2027 06:59:05.227            16.007                Novosib          2000.875
       468   12 Jun 2027 07:00:01.984   12 Jun 2027 07:03:22.926           200.942                Irkutsk         25117.750
       469   12 Jun 2027 07:08:08.317   12 Jun 2027 07:09:51.307           102.990                 Moscow         12873.750
       470   12 Jun 2027 07:09:56.866   12 Jun 2027 07:13:59.661           242.795                Norilsk         30349.375
       471   12 Jun 2027 07:14:11.680   12 Jun 2027 07:15:56.637           104.957              Murmansk2         13119.625
       472   12 Jun 2027 08:34:57.327   12 Jun 2027 08:38:42.924           225.597                  Delhi         28199.625
       473   12 Jun 2027 08:39:02.173   12 Jun 2027 08:39:59.693            57.520                Novosib          7190.000
       474   12 Jun 2027 08:44:58.213   12 Jun 2027 08:45:37.130            38.917                Novosib          4864.625
       475   12 Jun 2027 08:46:02.564   12 Jun 2027 08:49:56.200           233.636                Norilsk         29204.500
       476   12 Jun 2027 08:50:05.614   12 Jun 2027 08:51:38.044            92.430              Murmansk2         11553.750
       477   12 Jun 2027 10:14:27.312   12 Jun 2027 10:15:54.120            86.808                 Moscow         10851.000
       478   12 Jun 2027 10:17:48.133   12 Jun 2027 10:18:37.159            49.026              Murmansk2          6128.250
       479   12 Jun 2027 10:19:22.375   12 Jun 2027 10:21:33.423           131.048              Murmansk2         16381.000
       480   12 Jun 2027 10:21:39.124   12 Jun 2027 10:24:01.510           142.386                 Moscow         17798.250
       481   12 Jun 2027 10:24:01.777   12 Jun 2027 10:25:04.811            63.034                Norilsk          7879.250
       482   12 Jun 2027 10:25:24.143   12 Jun 2027 10:27:34.285           130.142              Murmansk2         16267.750
