uniorb/output/strategy_4/Drop/Drop_KinoSat_110910.txt

KinoSat_110910
-------------------------
    Access    *     Start Time (UTCG)     *     Stop Time (UTCG)  *   Duration (s)        *       Station  *  Data (Mbytes)
         1   01 Jun 2027 04:20:10.865   01 Jun 2027 04:22:07.181           116.316                Anadyr2          3634.875
         2   01 Jun 2027 04:22:07.181   01 Jun 2027 04:22:16.414             9.233                Anadyr1           288.531
         3   01 Jun 2027 04:22:20.927   01 Jun 2027 04:22:43.954            23.027                Anadyr1           719.594
         4   01 Jun 2027 04:23:08.229   01 Jun 2027 04:24:28.411            80.182               Magadan1          2505.688
         5   01 Jun 2027 04:24:28.411   01 Jun 2027 04:25:09.504            41.093               Magadan2          1284.156
         6   01 Jun 2027 04:25:27.317   01 Jun 2027 04:25:38.608            11.291               Magadan2           352.844
         7   01 Jun 2027 05:54:27.596   01 Jun 2027 05:54:55.793            28.197                Anadyr1           881.156
         8   01 Jun 2027 05:55:15.658   01 Jun 2027 05:56:28.503            72.845                Anadyr1          2276.406
         9   01 Jun 2027 05:56:28.503   01 Jun 2027 05:56:59.516            31.013                Anadyr2           969.156
        10   01 Jun 2027 05:57:38.171   01 Jun 2027 05:59:35.708           117.537               Magadan2          3673.031
        11   01 Jun 2027 05:59:37.124   01 Jun 2027 06:00:30.055            52.931                Novosib          1654.094
        12   01 Jun 2027 06:01:00.087   01 Jun 2027 06:03:05.936           125.849                Norilsk          3932.781
        13   01 Jun 2027 06:03:55.751   01 Jun 2027 06:04:00.113             4.362                Norilsk           136.312
        14   01 Jun 2027 06:04:12.839   01 Jun 2027 06:05:14.808            61.969              Murmansk1          1936.531
        15   01 Jun 2027 06:37:09.118   01 Jun 2027 06:39:14.630           125.512            RioGallegos          3922.250
        16   01 Jun 2027 07:32:21.491   01 Jun 2027 07:33:20.169            58.678                Irkutsk          1833.688
        17   01 Jun 2027 07:33:42.946   01 Jun 2027 07:36:26.853           163.907               Magadan1          5122.094
        18   01 Jun 2027 07:36:44.941   01 Jun 2027 07:39:02.878           137.937              Murmansk2          4310.531
        19   01 Jun 2027 07:39:02.878   01 Jun 2027 07:39:58.051            55.173              Murmansk1          1724.156
        20   01 Jun 2027 07:41:35.720   01 Jun 2027 07:42:03.992            28.272                Norilsk           883.500
        21   01 Jun 2027 07:42:15.051   01 Jun 2027 07:42:29.893            14.842                Norilsk           463.812
        22   01 Jun 2027 07:45:11.503   01 Jun 2027 07:45:49.858            38.355              Murmansk1          1198.594
        23   01 Jun 2027 08:12:13.705   01 Jun 2027 08:13:58.860           105.155            RioGallegos          3286.094
        24   01 Jun 2027 08:15:54.272   01 Jun 2027 08:16:53.116            58.844            RioGallegos          1838.875
        25   01 Jun 2027 08:47:04.541   01 Jun 2027 08:47:59.115            54.574                Sumatra          1705.437
        26   01 Jun 2027 08:49:10.466   01 Jun 2027 08:50:09.771            59.305                Sumatra          1853.281
        27   01 Jun 2027 08:57:53.092   01 Jun 2027 08:58:17.795            24.703                  Delhi           771.969
        28   01 Jun 2027 09:09:25.369   01 Jun 2027 09:09:52.551            27.182                Irkutsk           849.437
        29   01 Jun 2027 09:10:05.038   01 Jun 2027 09:10:39.583            34.545                Novosib          1079.531
        30   01 Jun 2027 09:10:56.335   01 Jun 2027 09:11:11.042            14.707                Novosib           459.594
        31   01 Jun 2027 09:11:17.153   01 Jun 2027 09:13:14.268           117.115                Irkutsk          3659.844
        32   01 Jun 2027 09:13:23.665   01 Jun 2027 09:14:11.987            48.322              Murmansk2          1510.063
        33   01 Jun 2027 09:14:11.987   01 Jun 2027 09:14:47.749            35.762              Murmansk1          1117.562
        34   01 Jun 2027 09:51:35.484   01 Jun 2027 09:51:45.424             9.940            RioGallegos           310.625
        35   01 Jun 2027 10:26:28.670   01 Jun 2027 10:26:43.745            15.075                Sumatra           471.094
        36   01 Jun 2027 10:28:59.129   01 Jun 2027 10:29:59.904            60.775                Sumatra          1899.219
        37   01 Jun 2027 10:31:14.971   01 Jun 2027 10:31:37.671            22.700                  Delhi           709.375
        38   01 Jun 2027 10:33:25.233   01 Jun 2027 10:33:32.918             7.685                  Delhi           240.156
        39   01 Jun 2027 10:34:24.791   01 Jun 2027 10:35:47.066            82.275                  Delhi          2571.094
        40   01 Jun 2027 10:47:17.666   01 Jun 2027 10:48:28.544            70.878              Murmansk2          2214.937
        41   01 Jun 2027 10:48:36.882   01 Jun 2027 10:49:27.451            50.569              Murmansk1          1580.281
        42   01 Jun 2027 10:49:27.451   01 Jun 2027 10:49:33.113             5.662              Murmansk2           176.937
        43   01 Jun 2027 12:15:40.778   01 Jun 2027 12:19:44.724           243.946                 Moscow          7623.313
        44   01 Jun 2027 12:19:54.947   01 Jun 2027 12:20:57.832            62.885              Murmansk1          1965.156
        45   01 Jun 2027 12:20:59.841   01 Jun 2027 12:22:30.807            90.966              Murmansk2          2842.687
        46   01 Jun 2027 12:22:31.989   01 Jun 2027 12:23:33.237            61.248                Norilsk          1914.000
        47   01 Jun 2027 12:24:22.934   01 Jun 2027 12:24:41.785            18.851                Norilsk           589.094
        48   01 Jun 2027 12:26:18.211   01 Jun 2027 12:26:28.219            10.008                Norilsk           312.750
        49   01 Jun 2027 13:30:40.144   01 Jun 2027 13:33:41.606           181.462               CapeTown          5670.687
        50   01 Jun 2027 13:52:39.395   01 Jun 2027 13:53:20.713            41.318                 Moscow          1291.188
        51   01 Jun 2027 13:55:55.678   01 Jun 2027 13:56:52.268            56.590              Murmansk2          1768.437
        52   01 Jun 2027 13:57:01.699   01 Jun 2027 13:58:23.329            81.630              Murmansk1          2550.937
        53   01 Jun 2027 13:58:32.102   01 Jun 2027 13:58:38.769             6.667              Murmansk1           208.344
        54   01 Jun 2027 13:59:29.527   01 Jun 2027 14:00:03.727            34.200              Murmansk2          1068.750
        55   01 Jun 2027 14:10:16.202   01 Jun 2027 14:13:29.648           193.446                Anadyr2          6045.187
        56   01 Jun 2027 14:14:36.843   01 Jun 2027 14:14:42.653             5.810                Anadyr1           181.562
        57   01 Jun 2027 14:15:24.047   01 Jun 2027 14:16:38.280            74.233                Anadyr1          2319.781
        58   01 Jun 2027 15:34:58.827   01 Jun 2027 15:36:50.980           112.153              Murmansk1          3504.781
        59   01 Jun 2027 15:38:01.598   01 Jun 2027 15:38:18.349            16.751              Murmansk2           523.469
        60   01 Jun 2027 15:45:42.550   01 Jun 2027 15:47:33.419           110.869                Anadyr2          3464.656
        61   01 Jun 2027 15:47:57.515   01 Jun 2027 15:48:13.069            15.554                Anadyr1           486.063
        62   01 Jun 2027 15:48:34.745   01 Jun 2027 15:48:38.544             3.799                Anadyr1           118.719
        63   01 Jun 2027 15:49:27.841   01 Jun 2027 15:53:27.228           239.387               Magadan1          7480.844
        64   01 Jun 2027 15:54:55.005   01 Jun 2027 15:56:05.293            70.288               Magadan1          2196.500
        65   01 Jun 2027 17:21:36.271   01 Jun 2027 17:22:58.160            81.889                Anadyr1          2559.031
        66   01 Jun 2027 17:22:58.160   01 Jun 2027 17:23:19.376            21.216                Anadyr2           663.000
        67   01 Jun 2027 17:24:00.534   01 Jun 2027 17:24:28.083            27.549               Magadan1           860.906
        68   01 Jun 2027 17:25:50.876   01 Jun 2027 17:26:11.128            20.252               Magadan1           632.875
        69   01 Jun 2027 17:28:18.520   01 Jun 2027 17:29:18.527            60.007               Magadan2          1875.219
        70   01 Jun 2027 17:34:44.410   01 Jun 2027 17:35:05.921            21.511               Magadan2           672.219
        71   01 Jun 2027 17:35:27.814   01 Jun 2027 17:35:50.037            22.223               Magadan2           694.469
        72   01 Jun 2027 18:57:28.496   01 Jun 2027 19:00:01.252           152.756                Anadyr2          4773.625
        73   01 Jun 2027 19:00:03.258   01 Jun 2027 19:02:22.392           139.134               Magadan2          4347.938
        74   01 Jun 2027 19:02:23.598   01 Jun 2027 19:03:38.242            74.644                Norilsk          2332.625
        75   01 Jun 2027 19:05:35.269   01 Jun 2027 19:08:20.709           165.440                Irkutsk          5170.000
        76   01 Jun 2027 19:09:30.010   01 Jun 2027 19:10:25.694            55.684                Irkutsk          1740.125
        77   01 Jun 2027 19:22:58.412   01 Jun 2027 19:24:53.769           115.357                Sumatra          3604.906
        78   01 Jun 2027 20:36:29.490   01 Jun 2027 20:36:34.295             4.805                Norilsk           150.156
        79   01 Jun 2027 20:37:51.103   01 Jun 2027 20:38:56.173            65.070               Magadan2          2033.438
        80   01 Jun 2027 20:39:22.133   01 Jun 2027 20:41:10.715           108.582                Irkutsk          3393.188
        81   01 Jun 2027 20:41:14.236   01 Jun 2027 20:41:39.112            24.876                Novosib           777.375
        82   01 Jun 2027 20:42:14.473   01 Jun 2027 20:42:44.580            30.107                Novosib           940.844
        83   01 Jun 2027 20:44:29.106   01 Jun 2027 20:45:11.844            42.738                Novosib          1335.563
        84   01 Jun 2027 20:46:18.392   01 Jun 2027 20:46:34.739            16.347                Novosib           510.844
        85   01 Jun 2027 20:46:54.363   01 Jun 2027 20:47:11.245            16.882                Novosib           527.562
        86   01 Jun 2027 20:59:58.525   01 Jun 2027 21:00:58.760            60.235                Sumatra          1882.344
        87   01 Jun 2027 22:08:27.106   01 Jun 2027 22:08:56.095            28.989                Anadyr1           905.906
        88   01 Jun 2027 22:11:55.953   01 Jun 2027 22:13:03.180            67.227               Magadan2          2100.844
        89   01 Jun 2027 22:13:03.180   01 Jun 2027 22:13:25.261            22.081               Magadan1           690.031
        90   01 Jun 2027 22:14:55.483   01 Jun 2027 22:15:55.804            60.321               Magadan1          1885.031
        91   01 Jun 2027 22:16:31.767   01 Jun 2027 22:17:06.026            34.259              Murmansk1          1070.594
        92   01 Jun 2027 22:18:14.863   01 Jun 2027 22:18:23.801             8.938                Novosib           279.313
        93   01 Jun 2027 22:20:19.537   01 Jun 2027 22:20:52.396            32.859                Novosib          1026.844
        94   01 Jun 2027 22:22:41.068   01 Jun 2027 22:24:05.134            84.066                  Delhi          2627.063
        95   01 Jun 2027 22:25:22.977   01 Jun 2027 22:26:02.978            40.001                  Delhi          1250.031
        96   01 Jun 2027 22:27:12.608   01 Jun 2027 22:28:43.738            91.130                  Delhi          2847.813
        97   01 Jun 2027 23:42:51.727   01 Jun 2027 23:43:04.334            12.607                Anadyr1           393.969
        98   01 Jun 2027 23:43:55.382   01 Jun 2027 23:43:55.767             0.385                Anadyr2            12.031
        99   01 Jun 2027 23:46:13.470   01 Jun 2027 23:46:27.353            13.883                Anadyr1           433.844
       100   01 Jun 2027 23:46:55.006   01 Jun 2027 23:47:46.286            51.280               Magadan2          1602.500
       101   01 Jun 2027 23:48:31.298   01 Jun 2027 23:49:19.406            48.108               Magadan2          1503.375
       102   01 Jun 2027 23:49:19.406   01 Jun 2027 23:50:38.062            78.656               Magadan1          2458.000
       103   01 Jun 2027 23:51:08.597   01 Jun 2027 23:52:04.930            56.333                Novosib          1760.406
       104   01 Jun 2027 23:52:26.738   01 Jun 2027 23:53:36.049            69.311              Murmansk2          2165.969
       105   01 Jun 2027 23:53:47.214   01 Jun 2027 23:55:05.174            77.960                 Moscow          2436.250
       106   01 Jun 2027 23:58:41.655   01 Jun 2027 23:59:52.737            71.082                 Moscow          2221.312
       107   02 Jun 2027 00:21:40.516   02 Jun 2027 00:22:52.549            72.033               CapeTown          2251.031
       108   02 Jun 2027 00:24:05.756   02 Jun 2027 00:25:34.075            88.319               CapeTown          2759.969
       109   02 Jun 2027 01:18:51.595   02 Jun 2027 01:19:57.555            65.960               Magadan2          2061.250
       110   02 Jun 2027 01:22:38.975   02 Jun 2027 01:23:01.407            22.432               Magadan2           701.000
       111   02 Jun 2027 01:25:26.169   02 Jun 2027 01:25:33.720             7.551              Murmansk2           235.969
       112   02 Jun 2027 01:26:28.580   02 Jun 2027 01:27:42.855            74.275              Murmansk1          2321.094
       113   02 Jun 2027 01:27:54.983   02 Jun 2027 01:28:19.217            24.234                Novosib           757.313
       114   02 Jun 2027 01:28:42.384   02 Jun 2027 01:30:31.660           109.276                 Moscow          3414.875
       115   02 Jun 2027 01:58:44.096   02 Jun 2027 01:58:46.823             2.727               CapeTown            85.219
       116   02 Jun 2027 01:59:49.474   02 Jun 2027 02:01:05.579            76.105               CapeTown          2378.281
       117   02 Jun 2027 02:49:16.646   02 Jun 2027 02:50:56.517            99.871                Anadyr1          3120.969
       118   02 Jun 2027 02:51:00.987   02 Jun 2027 02:51:34.346            33.359               Magadan1          1042.469
       119   02 Jun 2027 02:52:00.574   02 Jun 2027 02:52:03.854             3.280               Magadan1           102.500
       120   02 Jun 2027 02:52:08.950   02 Jun 2027 02:53:23.714            74.764               Magadan2          2336.375
       121   02 Jun 2027 04:30:36.848   02 Jun 2027 04:30:53.624            16.776               Magadan1           524.250
       122   02 Jun 2027 04:30:58.492   02 Jun 2027 04:32:12.452            73.960                Anadyr1          2311.250
       123   02 Jun 2027 04:32:27.504   02 Jun 2027 04:32:41.176            13.672                Anadyr1           427.250
       124   02 Jun 2027 04:32:45.402   02 Jun 2027 04:34:00.748            75.346                Norilsk          2354.562
       125   02 Jun 2027 04:34:09.894   02 Jun 2027 04:35:15.359            65.465               Magadan1          2045.781
       126   02 Jun 2027 06:07:42.395   02 Jun 2027 06:12:08.412           266.017                Irkutsk          8313.031
       127   02 Jun 2027 06:13:16.918   02 Jun 2027 06:13:31.282            14.364                Novosib           448.875
       128   02 Jun 2027 06:13:42.866   02 Jun 2027 06:14:02.532            19.666              Murmansk1           614.563
       129   02 Jun 2027 07:44:02.183   02 Jun 2027 07:45:09.401            67.218                Irkutsk          2100.563
       130   02 Jun 2027 07:45:46.366   02 Jun 2027 07:47:29.057           102.691               Magadan1          3209.094
       131   02 Jun 2027 07:47:55.029   02 Jun 2027 07:48:03.261             8.232               Magadan1           257.250
       132   02 Jun 2027 07:48:51.074   02 Jun 2027 07:50:45.021           113.947                Novosib          3560.844
       133   02 Jun 2027 08:24:23.730   02 Jun 2027 08:24:52.663            28.933            RioGallegos           904.156
       134   02 Jun 2027 08:59:03.040   02 Jun 2027 08:59:28.890            25.850                Sumatra           807.812
       135   02 Jun 2027 08:59:57.166   02 Jun 2027 09:01:44.641           107.475                Sumatra          3358.594
       136   02 Jun 2027 09:20:45.790   02 Jun 2027 09:21:29.889            44.099                Novosib          1378.094
       137   02 Jun 2027 09:21:38.928   02 Jun 2027 09:22:33.515            54.587                Irkutsk          1705.844
       138   02 Jun 2027 09:22:43.176   02 Jun 2027 09:22:48.523             5.347                Irkutsk           167.094
       139   02 Jun 2027 09:22:50.823   02 Jun 2027 09:22:53.321             2.498                Novosib            78.062
       140   02 Jun 2027 09:22:58.616   02 Jun 2027 09:23:12.680            14.064                Irkutsk           439.500
       141   02 Jun 2027 09:23:19.701   02 Jun 2027 09:23:43.490            23.789                Irkutsk           743.406
       142   02 Jun 2027 09:23:55.303   02 Jun 2027 09:24:12.022            16.719                Novosib           522.469
       143   02 Jun 2027 09:24:38.625   02 Jun 2027 09:25:34.164            55.539                Novosib          1735.594
       144   02 Jun 2027 10:04:41.510   02 Jun 2027 10:05:16.304            34.794            RioGallegos          1087.313
       145   02 Jun 2027 10:43:33.900   02 Jun 2027 10:44:30.362            56.462                  Delhi          1764.438
       146   02 Jun 2027 10:46:21.213   02 Jun 2027 10:47:58.156            96.943                  Delhi          3029.469
       147   02 Jun 2027 10:57:25.890   02 Jun 2027 10:57:29.996             4.106                Novosib           128.313
       148   02 Jun 2027 10:57:39.792   02 Jun 2027 10:58:49.287            69.495                Novosib          2171.719
       149   02 Jun 2027 10:59:09.369   02 Jun 2027 10:59:34.287            24.918                Norilsk           778.688
       150   02 Jun 2027 10:59:49.268   02 Jun 2027 10:59:51.918             2.650                Novosib            82.813
       151   02 Jun 2027 11:00:17.686   02 Jun 2027 11:00:26.329             8.643                Norilsk           270.094
       152   02 Jun 2027 11:00:27.691   02 Jun 2027 11:00:51.706            24.015                Norilsk           750.469
       153   02 Jun 2027 11:00:54.976   02 Jun 2027 11:01:14.783            19.807                Norilsk           618.969
       154   02 Jun 2027 12:28:08.465   02 Jun 2027 12:28:25.017            16.552                 Moscow           517.250
       155   02 Jun 2027 12:29:30.421   02 Jun 2027 12:31:51.377           140.956                 Moscow          4404.875
       156   02 Jun 2027 12:31:59.249   02 Jun 2027 12:32:12.605            13.356              Murmansk1           417.375
       157   02 Jun 2027 12:32:15.103   02 Jun 2027 12:33:40.261            85.158              Murmansk1          2661.187
       158   02 Jun 2027 12:33:40.261   02 Jun 2027 12:34:26.666            46.405              Murmansk2          1450.156
       159   02 Jun 2027 12:36:43.738   02 Jun 2027 12:38:17.222            93.484                Norilsk          2921.375
       160   02 Jun 2027 13:42:12.644   02 Jun 2027 13:43:41.254            88.610               CapeTown          2769.063
       161   02 Jun 2027 13:44:12.397   02 Jun 2027 13:45:18.243            65.846               CapeTown          2057.688
       162   02 Jun 2027 13:46:25.967   02 Jun 2027 13:47:09.645            43.678               CapeTown          1364.937
       163   02 Jun 2027 13:48:02.332   02 Jun 2027 13:48:52.727            50.395               CapeTown          1574.844
       164   02 Jun 2027 14:08:12.422   02 Jun 2027 14:09:00.612            48.190              Murmansk1          1505.938
       165   02 Jun 2027 14:09:46.105   02 Jun 2027 14:10:16.242            30.137              Murmansk2           941.781
       166   02 Jun 2027 14:22:09.978   02 Jun 2027 14:24:52.118           162.140                Anadyr1          5066.875
       167   02 Jun 2027 14:26:00.369   02 Jun 2027 14:26:26.716            26.347                Anadyr2           823.344
       168   02 Jun 2027 15:25:54.763   02 Jun 2027 15:26:50.056            55.293               CapeTown          1727.906
       169   02 Jun 2027 15:47:36.044   02 Jun 2027 15:49:11.034            94.990              Murmansk1          2968.437
       170   02 Jun 2027 15:57:43.027   02 Jun 2027 15:58:27.329            44.302                Anadyr1          1384.438
       171   02 Jun 2027 15:59:29.447   02 Jun 2027 15:59:31.709             2.262                Anadyr1            70.687
       172   02 Jun 2027 15:59:34.104   02 Jun 2027 16:00:33.981            59.877                Anadyr2          1871.156
       173   02 Jun 2027 16:00:55.772   02 Jun 2027 16:02:15.885            80.113                Anadyr1          2503.531
       174   02 Jun 2027 16:02:16.388   02 Jun 2027 16:04:34.584           138.196               Magadan1          4318.625
       175   02 Jun 2027 16:04:49.959   02 Jun 2027 16:05:34.976            45.017               Magadan2          1406.781
       176   02 Jun 2027 16:05:43.524   02 Jun 2027 16:06:57.238            73.714               Magadan2          2303.562
       177   02 Jun 2027 17:33:37.650   02 Jun 2027 17:34:17.831            40.181                Anadyr2          1255.656
       178   02 Jun 2027 17:34:17.831   02 Jun 2027 17:34:31.607            13.776                Anadyr1           430.500
       179   02 Jun 2027 17:35:29.895   02 Jun 2027 17:35:33.969             4.074                Anadyr2           127.313
       180   02 Jun 2027 17:35:40.903   02 Jun 2027 17:35:48.905             8.002                Anadyr2           250.062
       181   02 Jun 2027 17:35:59.029   02 Jun 2027 17:37:53.638           114.609               Magadan2          3581.531
       182   02 Jun 2027 17:38:45.564   02 Jun 2027 17:38:51.438             5.874               Magadan1           183.563
       183   02 Jun 2027 17:43:44.246   02 Jun 2027 17:45:32.837           108.591               Magadan2          3393.469
       184   02 Jun 2027 18:31:20.672   02 Jun 2027 18:32:51.745            91.073            RioGallegos          2846.031
       185   02 Jun 2027 19:10:05.375   02 Jun 2027 19:10:25.790            20.415                Anadyr2           637.969
       186   02 Jun 2027 19:11:02.477   02 Jun 2027 19:11:14.798            12.321                Anadyr1           385.031
       187   02 Jun 2027 19:11:19.159   02 Jun 2027 19:11:27.183             8.024                Anadyr2           250.750
       188   02 Jun 2027 19:11:33.870   02 Jun 2027 19:11:42.302             8.432                Anadyr2           263.500
       189   02 Jun 2027 19:11:43.151   02 Jun 2027 19:15:36.613           233.462                Norilsk          7295.688
       190   02 Jun 2027 19:16:58.725   02 Jun 2027 19:20:06.850           188.125                Irkutsk          5878.906
       191   02 Jun 2027 19:22:31.578   02 Jun 2027 19:23:42.317            70.739                Irkutsk          2210.594
       192   02 Jun 2027 19:32:38.791   02 Jun 2027 19:34:18.680            99.889                Sumatra          3121.531
       193   02 Jun 2027 19:37:32.072   02 Jun 2027 19:38:49.852            77.780                Sumatra          2430.625
       194   02 Jun 2027 20:52:13.136   02 Jun 2027 20:52:25.430            12.294                Novosib           384.188
       195   02 Jun 2027 20:53:45.349   02 Jun 2027 20:54:58.822            73.473                Novosib          2296.031
       196   02 Jun 2027 20:56:33.417   02 Jun 2027 20:57:21.956            48.539                Novosib          1516.844
       197   02 Jun 2027 20:58:22.947   02 Jun 2027 20:59:04.596            41.649                Novosib          1301.531
       198   02 Jun 2027 21:09:41.373   02 Jun 2027 21:10:45.473            64.100                Sumatra          2003.125
       199   02 Jun 2027 22:23:56.522   02 Jun 2027 22:25:32.806            96.284               Magadan1          3008.875
       200   02 Jun 2027 22:26:42.117   02 Jun 2027 22:30:04.912           202.795              Murmansk2          6337.344
       201   02 Jun 2027 22:30:24.105   02 Jun 2027 22:30:36.321            12.216              Murmansk1           381.750
       202   02 Jun 2027 22:35:50.538   02 Jun 2027 22:36:10.066            19.528                  Delhi           610.250
       203   02 Jun 2027 22:42:45.066   02 Jun 2027 22:44:06.479            81.413                  Delhi          2544.156
       204   02 Jun 2027 23:52:27.266   02 Jun 2027 23:52:28.474             1.208                Anadyr1            37.750
       205   02 Jun 2027 23:55:05.663   02 Jun 2027 23:55:06.776             1.113                Anadyr1            34.781
       206   02 Jun 2027 23:57:01.217   02 Jun 2027 23:57:21.782            20.565                Anadyr1           642.656
       207   02 Jun 2027 23:58:34.526   03 Jun 2027 00:00:30.771           116.245               Magadan2          3632.656
       208   03 Jun 2027 00:00:50.162   03 Jun 2027 00:01:10.331            20.169               Magadan2           630.281
       209   03 Jun 2027 00:01:34.531   03 Jun 2027 00:05:27.975           233.444              Murmansk2          7295.125
       210   03 Jun 2027 00:05:50.068   03 Jun 2027 00:06:10.403            20.335                 Moscow           635.469
       211   03 Jun 2027 00:07:08.375   03 Jun 2027 00:09:10.117           121.742                 Moscow          3804.438
       212   03 Jun 2027 00:32:23.274   03 Jun 2027 00:34:16.748           113.474               CapeTown          3546.062
       213   03 Jun 2027 01:30:20.366   03 Jun 2027 01:31:14.319            53.953               Magadan1          1686.031
       214   03 Jun 2027 01:31:39.337   03 Jun 2027 01:31:56.972            17.635               Magadan1           551.094
       215   03 Jun 2027 01:37:06.582   03 Jun 2027 01:37:14.170             7.588                Norilsk           237.125
       216   03 Jun 2027 01:37:27.838   03 Jun 2027 01:37:30.679             2.841              Murmansk1            88.781
       217   03 Jun 2027 01:38:24.489   03 Jun 2027 01:39:08.933            44.444              Murmansk2          1388.875
       218   03 Jun 2027 01:39:30.554   03 Jun 2027 01:40:05.507            34.953              Murmansk2          1092.281
       219   03 Jun 2027 01:40:14.204   03 Jun 2027 01:42:04.439           110.235                Novosib          3444.844
       220   03 Jun 2027 01:48:59.980   03 Jun 2027 01:49:00.964             0.984                 Moscow            30.750
       221   03 Jun 2027 01:50:16.949   03 Jun 2027 01:51:36.322            79.373                 Moscow          2480.406
       222   03 Jun 2027 02:12:40.369   03 Jun 2027 02:13:15.591            35.222               CapeTown          1100.688
       223   03 Jun 2027 03:01:18.210   03 Jun 2027 03:02:12.206            53.996                Anadyr1          1687.375
       224   03 Jun 2027 03:02:12.206   03 Jun 2027 03:02:41.423            29.217                Anadyr2           913.031
       225   03 Jun 2027 03:07:19.616   03 Jun 2027 03:08:04.742            45.126               Magadan1          1410.187
       226   03 Jun 2027 03:08:19.404   03 Jun 2027 03:11:24.130           184.726                Anadyr2          5772.687
       227   03 Jun 2027 03:11:30.454   03 Jun 2027 03:12:34.736            64.282               Magadan2          2008.813
       228   03 Jun 2027 04:46:32.508   03 Jun 2027 04:47:09.277            36.769               Magadan1          1149.031
       229   03 Jun 2027 04:47:09.277   03 Jun 2027 04:47:36.694            27.417               Magadan2           856.781
       230   03 Jun 2027 04:48:01.453   03 Jun 2027 04:48:17.573            16.120                Anadyr1           503.750
       231   03 Jun 2027 04:48:24.871   03 Jun 2027 04:48:56.373            31.502                Anadyr1           984.437
       232   03 Jun 2027 06:19:06.155   03 Jun 2027 06:19:11.549             5.394                Anadyr2           168.562
       233   03 Jun 2027 06:19:18.444   03 Jun 2027 06:19:40.374            21.930               Magadan1           685.313
       234   03 Jun 2027 06:19:50.920   03 Jun 2027 06:19:59.389             8.469               Magadan2           264.656
       235   03 Jun 2027 06:20:05.764   03 Jun 2027 06:20:59.713            53.949                Anadyr1          1685.906
       236   03 Jun 2027 06:21:31.469   03 Jun 2027 06:22:15.241            43.772                Anadyr1          1367.875
       237   03 Jun 2027 06:22:31.694   03 Jun 2027 06:22:37.309             5.615               Magadan1           175.469
       238   03 Jun 2027 06:23:07.055   03 Jun 2027 06:23:09.910             2.855                Anadyr1            89.219
       239   03 Jun 2027 06:23:22.173   03 Jun 2027 06:24:20.573            58.400                Anadyr1          1825.000
       240   03 Jun 2027 06:25:04.644   03 Jun 2027 06:25:32.610            27.966               Magadan1           873.938
       241   03 Jun 2027 06:31:22.343   03 Jun 2027 06:31:52.742            30.399              Murmansk2           949.969
       242   03 Jun 2027 07:54:38.531   03 Jun 2027 07:54:53.949            15.418                Irkutsk           481.813
       243   03 Jun 2027 07:55:03.032   03 Jun 2027 07:55:39.721            36.689               Magadan1          1146.531
       244   03 Jun 2027 07:56:43.274   03 Jun 2027 07:57:49.763            66.489               Magadan2          2077.781
       245   03 Jun 2027 07:58:17.722   03 Jun 2027 07:59:01.199            43.477                Irkutsk          1358.656
       246   03 Jun 2027 07:59:16.760   03 Jun 2027 07:59:24.940             8.180               Magadan2           255.625
       247   03 Jun 2027 08:00:01.235   03 Jun 2027 08:00:06.364             5.129                Irkutsk           160.281
       248   03 Jun 2027 08:00:25.284   03 Jun 2027 08:00:34.028             8.744                Irkutsk           273.250
       249   03 Jun 2027 08:00:45.096   03 Jun 2027 08:01:33.959            48.863                Irkutsk          1526.969
       250   03 Jun 2027 08:36:37.589   03 Jun 2027 08:37:09.211            31.622            RioGallegos           988.188
       251   03 Jun 2027 08:39:48.798   03 Jun 2027 08:40:23.107            34.309            RioGallegos          1072.156
       252   03 Jun 2027 09:14:09.879   03 Jun 2027 09:15:24.737            74.858                Sumatra          2339.312
       253   03 Jun 2027 09:32:53.612   03 Jun 2027 09:33:21.320            27.708                Irkutsk           865.875
       254   03 Jun 2027 09:34:27.974   03 Jun 2027 09:34:33.267             5.293                Novosib           165.406
       255   03 Jun 2027 09:35:01.168   03 Jun 2027 09:35:10.090             8.922                Irkutsk           278.813
       256   03 Jun 2027 09:35:10.677   03 Jun 2027 09:35:36.677            26.000                Novosib           812.500
       257   03 Jun 2027 09:35:39.065   03 Jun 2027 09:36:03.714            24.649                Irkutsk           770.281
       258   03 Jun 2027 09:36:43.575   03 Jun 2027 09:37:31.265            47.690                Novosib          1490.312
       259   03 Jun 2027 10:18:56.720   03 Jun 2027 10:19:38.352            41.632            RioGallegos          1301.000
       260   03 Jun 2027 10:55:37.020   03 Jun 2027 10:55:51.439            14.419                  Delhi           450.594
       261   03 Jun 2027 10:55:52.834   03 Jun 2027 10:57:06.159            73.325                  Delhi          2291.406
       262   03 Jun 2027 11:09:34.385   03 Jun 2027 11:09:59.306            24.921                Novosib           778.781
       263   03 Jun 2027 11:10:47.713   03 Jun 2027 11:11:10.684            22.971                Norilsk           717.844
       264   03 Jun 2027 11:12:18.972   03 Jun 2027 11:12:28.372             9.400                Norilsk           293.750
       265   03 Jun 2027 11:12:36.628   03 Jun 2027 11:12:51.958            15.330                Norilsk           479.063
       266   03 Jun 2027 11:12:53.206   03 Jun 2027 11:13:39.508            46.302                Novosib          1446.938
       267   03 Jun 2027 12:40:39.814   03 Jun 2027 12:41:44.421            64.607                 Moscow          2018.969
       268   03 Jun 2027 12:42:24.829   03 Jun 2027 12:44:01.192            96.363                 Moscow          3011.344
       269   03 Jun 2027 12:44:03.599   03 Jun 2027 12:44:36.204            32.605              Murmansk1          1018.906
       270   03 Jun 2027 12:45:10.246   03 Jun 2027 12:46:25.127            74.881              Murmansk2          2340.031
       271   03 Jun 2027 12:47:00.927   03 Jun 2027 12:47:13.018            12.091              Murmansk1           377.844
       272   03 Jun 2027 12:48:00.633   03 Jun 2027 12:48:28.358            27.725                Norilsk           866.406
       273   03 Jun 2027 13:53:52.666   03 Jun 2027 13:56:20.455           147.789               CapeTown          4618.406
       274   03 Jun 2027 14:17:35.585   03 Jun 2027 14:17:41.841             6.256                 Moscow           195.500
       275   03 Jun 2027 14:18:19.697   03 Jun 2027 14:18:47.373            27.676                 Moscow           864.875
       276   03 Jun 2027 14:20:31.257   03 Jun 2027 14:21:10.743            39.486              Murmansk2          1233.938
       277   03 Jun 2027 14:22:17.725   03 Jun 2027 14:23:52.569            94.844              Murmansk2          2963.875
       278   03 Jun 2027 14:34:05.446   03 Jun 2027 14:36:31.041           145.595                Anadyr1          4549.844
       279   03 Jun 2027 14:42:04.735   03 Jun 2027 14:43:01.016            56.281                Anadyr2          1758.781
       280   03 Jun 2027 15:29:17.373   03 Jun 2027 15:30:52.162            94.789               CapeTown          2962.156
       281   03 Jun 2027 16:00:17.044   03 Jun 2027 16:01:09.724            52.680              Murmansk1          1646.250
       282   03 Jun 2027 16:01:42.117   03 Jun 2027 16:02:02.018            19.901              Murmansk2           621.906
       283   03 Jun 2027 16:03:50.052   03 Jun 2027 16:04:06.857            16.805              Murmansk2           525.156
       284   03 Jun 2027 16:04:11.595   03 Jun 2027 16:04:31.613            20.018              Murmansk2           625.562
       285   03 Jun 2027 16:09:43.772   03 Jun 2027 16:10:16.147            32.375                Anadyr1          1011.719
       286   03 Jun 2027 16:11:25.919   03 Jun 2027 16:11:30.705             4.786                Anadyr2           149.562
       287   03 Jun 2027 16:11:43.803   03 Jun 2027 16:13:23.719            99.916                Anadyr2          3122.375
       288   03 Jun 2027 16:14:13.010   03 Jun 2027 16:17:22.807           189.797               Magadan2          5931.156
       289   03 Jun 2027 16:17:56.758   03 Jun 2027 16:18:59.622            62.864               Magadan2          1964.500
       290   03 Jun 2027 17:45:38.972   03 Jun 2027 17:47:20.733           101.761                Anadyr1          3180.031
       291   03 Jun 2027 17:47:25.090   03 Jun 2027 17:47:50.870            25.780                Anadyr2           805.625
       292   03 Jun 2027 17:47:58.229   03 Jun 2027 17:48:12.738            14.509               Magadan1           453.406
       293   03 Jun 2027 17:48:12.738   03 Jun 2027 17:49:48.573            95.835               Magadan2          2994.844
       294   03 Jun 2027 17:49:53.944   03 Jun 2027 17:49:55.883             1.939               Magadan1            60.594
       295   03 Jun 2027 17:51:15.214   03 Jun 2027 17:51:42.256            27.042               Magadan1           845.063
       296   03 Jun 2027 17:57:44.981   03 Jun 2027 17:59:27.007           102.026               Magadan1          3188.312
       297   03 Jun 2027 18:41:53.520   03 Jun 2027 18:44:31.554           158.034            RioGallegos          4938.562
       298   03 Jun 2027 19:22:26.607   03 Jun 2027 19:22:40.219            13.612                Anadyr2           425.375
       299   03 Jun 2027 19:23:03.649   03 Jun 2027 19:23:09.165             5.516                Anadyr2           172.375
       300   03 Jun 2027 19:23:39.101   03 Jun 2027 19:24:11.817            32.716                Norilsk          1022.375
       301   03 Jun 2027 19:24:21.268   03 Jun 2027 19:24:33.107            11.839               Magadan1           369.969
       302   03 Jun 2027 19:25:31.519   03 Jun 2027 19:27:35.856           124.337                Norilsk          3885.531
       303   03 Jun 2027 19:28:34.279   03 Jun 2027 19:29:44.205            69.926                Irkutsk          2185.187
       304   03 Jun 2027 19:30:11.079   03 Jun 2027 19:31:56.429           105.350                Irkutsk          3292.188
       305   03 Jun 2027 19:33:06.759   03 Jun 2027 19:34:38.359            91.600                Irkutsk          2862.500
       306   03 Jun 2027 19:43:31.211   03 Jun 2027 19:45:53.401           142.190                Sumatra          4443.438
       307   03 Jun 2027 19:48:55.162   03 Jun 2027 19:49:26.591            31.429                Sumatra           982.156
       308   03 Jun 2027 19:50:20.456   03 Jun 2027 19:52:08.719           108.263                Sumatra          3383.219
       309   03 Jun 2027 21:05:52.300   03 Jun 2027 21:07:38.246           105.946                Novosib          3310.812
       310   03 Jun 2027 21:14:00.449   03 Jun 2027 21:15:48.632           108.183                  Delhi          3380.719
       311   03 Jun 2027 22:35:56.202   03 Jun 2027 22:36:05.032             8.830               Magadan1           275.938
       312   03 Jun 2027 22:38:22.205   03 Jun 2027 22:43:38.517           316.312              Murmansk1          9884.750
       313   04 Jun 2027 00:04:08.956   04 Jun 2027 00:04:19.626            10.670                Anadyr2           333.438
       314   04 Jun 2027 00:05:03.421   04 Jun 2027 00:06:36.111            92.690                Anadyr2          2896.563
       315   04 Jun 2027 00:10:10.111   04 Jun 2027 00:10:53.785            43.674               Magadan1          1364.812
       316   04 Jun 2027 00:11:22.269   04 Jun 2027 00:11:37.743            15.474               Magadan1           483.563
       317   04 Jun 2027 00:12:27.494   04 Jun 2027 00:12:41.532            14.038                Norilsk           438.688
       318   04 Jun 2027 00:12:47.194   04 Jun 2027 00:13:02.397            15.203                Norilsk           475.094
       319   04 Jun 2027 00:13:34.526   04 Jun 2027 00:18:05.350           270.824              Murmansk2          8463.250
       320   04 Jun 2027 00:18:25.023   04 Jun 2027 00:18:59.907            34.884                 Moscow          1090.125
       321   04 Jun 2027 00:19:44.745   04 Jun 2027 00:20:40.131            55.386                 Moscow          1730.812
       322   04 Jun 2027 00:44:40.201   04 Jun 2027 00:45:48.353            68.152               CapeTown          2129.750
       323   04 Jun 2027 00:46:51.144   04 Jun 2027 00:47:25.144            34.000               CapeTown          1062.500
       324   04 Jun 2027 00:50:54.870   04 Jun 2027 00:51:09.225            14.355               CapeTown           448.594
       325   04 Jun 2027 01:41:49.981   04 Jun 2027 01:43:17.002            87.021               Magadan1          2719.406
       326   04 Jun 2027 01:48:03.700   04 Jun 2027 01:48:27.228            23.528               Magadan1           735.250
       327   04 Jun 2027 01:49:29.560   04 Jun 2027 01:51:04.334            94.774              Murmansk1          2961.687
       328   04 Jun 2027 01:51:04.334   04 Jun 2027 01:51:32.882            28.548              Murmansk2           892.125
       329   04 Jun 2027 01:51:41.729   04 Jun 2027 01:51:55.530            13.801              Murmansk2           431.281
       330   04 Jun 2027 01:54:34.552   04 Jun 2027 01:55:28.398            53.846                 Moscow          1682.688
       331   04 Jun 2027 02:05:12.252   04 Jun 2027 02:05:30.302            18.050                 Moscow           564.063
       332   04 Jun 2027 02:19:49.115   04 Jun 2027 02:21:03.478            74.363               CapeTown          2323.844
       333   04 Jun 2027 03:15:00.640   04 Jun 2027 03:15:58.504            57.864               Magadan2          1808.250
       334   04 Jun 2027 03:19:19.755   04 Jun 2027 03:22:54.978           215.223               Magadan2          6725.719
       335   04 Jun 2027 05:01:36.194   04 Jun 2027 05:01:53.129            16.935               Magadan2           529.219
       336   04 Jun 2027 06:31:11.721   04 Jun 2027 06:31:17.113             5.392               Magadan1           168.500
       337   04 Jun 2027 06:31:34.632   04 Jun 2027 06:31:45.165            10.533               Magadan1           329.156
       338   04 Jun 2027 06:31:52.866   04 Jun 2027 06:32:02.667             9.801               Magadan2           306.281
       339   04 Jun 2027 06:32:15.824   04 Jun 2027 06:33:02.717            46.893                Anadyr2          1465.406
       340   04 Jun 2027 06:33:21.725   04 Jun 2027 06:35:04.430           102.705                Anadyr1          3209.531
       341   04 Jun 2027 06:35:14.952   04 Jun 2027 06:35:54.798            39.846               Magadan1          1245.187
       342   04 Jun 2027 06:36:05.296   04 Jun 2027 06:36:30.098            24.802               Magadan1           775.062
       343   04 Jun 2027 06:37:18.488   04 Jun 2027 06:37:30.685            12.197               Magadan2           381.156
       344   04 Jun 2027 06:42:29.026   04 Jun 2027 06:42:53.918            24.892              Murmansk1           777.875
       345   04 Jun 2027 07:56:01.816   04 Jun 2027 07:56:11.801             9.985                Sumatra           312.031
       346   04 Jun 2027 08:08:02.740   04 Jun 2027 08:08:19.595            16.855                Irkutsk           526.719
       347   04 Jun 2027 08:08:30.467   04 Jun 2027 08:09:32.711            62.244                Novosib          1945.125
       348   04 Jun 2027 08:09:39.799   04 Jun 2027 08:09:44.339             4.540                Irkutsk           141.875
       349   04 Jun 2027 08:09:45.828   04 Jun 2027 08:10:01.643            15.815                Novosib           494.219
       350   04 Jun 2027 08:11:11.580   04 Jun 2027 08:12:02.702            51.122                Irkutsk          1597.563
       351   04 Jun 2027 08:12:10.805   04 Jun 2027 08:12:21.778            10.973                Novosib           342.906
       352   04 Jun 2027 08:12:30.997   04 Jun 2027 08:12:39.401             8.404                Irkutsk           262.625
       353   04 Jun 2027 08:13:20.121   04 Jun 2027 08:13:26.258             6.137                Irkutsk           191.781
       354   04 Jun 2027 08:13:59.160   04 Jun 2027 08:14:07.754             8.594              Murmansk2           268.563
       355   04 Jun 2027 08:18:13.224   04 Jun 2027 08:19:02.801            49.577              Murmansk1          1549.281
       356   04 Jun 2027 08:48:55.589   04 Jun 2027 08:48:55.928             0.339            RioGallegos            10.594
       357   04 Jun 2027 08:56:50.300   04 Jun 2027 08:57:41.660            51.360            RioGallegos          1605.000
       358   04 Jun 2027 09:23:17.101   04 Jun 2027 09:25:04.899           107.798                Sumatra          3368.688
       359   04 Jun 2027 09:44:06.210   04 Jun 2027 09:44:13.927             7.717                Irkutsk           241.156
       360   04 Jun 2027 09:45:30.448   04 Jun 2027 09:46:21.392            50.944                Irkutsk          1592.000
       361   04 Jun 2027 09:47:04.470   04 Jun 2027 09:47:04.608             0.138                Novosib             4.313
       362   04 Jun 2027 09:47:16.886   04 Jun 2027 09:47:31.950            15.064                Novosib           470.750
       363   04 Jun 2027 09:47:48.391   04 Jun 2027 09:48:01.582            13.191                Novosib           412.219
       364   04 Jun 2027 09:48:11.038   04 Jun 2027 09:48:14.379             3.341                Irkutsk           104.406
       365   04 Jun 2027 09:48:15.285   04 Jun 2027 09:48:52.525            37.240                Irkutsk          1163.750
       366   04 Jun 2027 09:49:27.103   04 Jun 2027 09:49:39.809            12.706                Novosib           397.063
       367   04 Jun 2027 11:07:57.653   04 Jun 2027 11:10:02.549           124.896                  Delhi          3903.000
       368   04 Jun 2027 11:12:00.887   04 Jun 2027 11:12:59.275            58.388                  Delhi          1824.625
       369   04 Jun 2027 11:21:41.843   04 Jun 2027 11:22:14.142            32.299                Novosib          1009.344
       370   04 Jun 2027 11:22:20.580   04 Jun 2027 11:22:41.603            21.023                Novosib           656.969
       371   04 Jun 2027 11:23:17.755   04 Jun 2027 11:23:38.403            20.648                Novosib           645.250
       372   04 Jun 2027 11:24:30.472   04 Jun 2027 11:24:52.540            22.068                Norilsk           689.625
       373   04 Jun 2027 12:51:57.794   04 Jun 2027 12:52:44.263            46.469                 Moscow          1452.156
       374   04 Jun 2027 12:53:23.374   04 Jun 2027 12:53:36.101            12.727                 Moscow           397.719
       375   04 Jun 2027 12:54:02.875   04 Jun 2027 12:54:31.683            28.808                 Moscow           900.250
       376   04 Jun 2027 12:54:59.583   04 Jun 2027 12:55:36.700            37.117                 Moscow          1159.906
       377   04 Jun 2027 12:55:41.207   04 Jun 2027 12:55:45.755             4.548              Murmansk1           142.125
       378   04 Jun 2027 12:55:55.355   04 Jun 2027 12:56:15.631            20.276              Murmansk1           633.625
       379   04 Jun 2027 12:57:07.929   04 Jun 2027 12:58:11.850            63.921              Murmansk1          1997.531
       380   04 Jun 2027 12:59:15.790   04 Jun 2027 12:59:42.343            26.553              Murmansk1           829.781
       381   04 Jun 2027 13:00:37.783   04 Jun 2027 13:00:44.345             6.562              Murmansk2           205.062
       382   04 Jun 2027 13:00:53.244   04 Jun 2027 13:02:11.985            78.741                Norilsk          2460.656
       383   04 Jun 2027 14:05:38.178   04 Jun 2027 14:07:43.887           125.709               CapeTown          3928.406
       384   04 Jun 2027 14:30:17.866   04 Jun 2027 14:30:29.185            11.319                 Moscow           353.719
       385   04 Jun 2027 14:30:49.969   04 Jun 2027 14:31:18.118            28.149                 Moscow           879.656
       386   04 Jun 2027 14:32:52.281   04 Jun 2027 14:33:22.715            30.434              Murmansk2           951.062
       387   04 Jun 2027 14:34:19.360   04 Jun 2027 14:34:45.665            26.305              Murmansk2           822.031
       388   04 Jun 2027 14:36:09.116   04 Jun 2027 14:37:00.195            51.079              Murmansk2          1596.219
       389   04 Jun 2027 14:37:29.853   04 Jun 2027 14:37:53.248            23.395              Murmansk1           731.094
       390   04 Jun 2027 14:46:02.210   04 Jun 2027 14:48:17.083           134.873                Anadyr2          4214.781
       391   04 Jun 2027 15:41:28.316   04 Jun 2027 15:42:27.634            59.318               CapeTown          1853.688
       392   04 Jun 2027 16:13:02.615   04 Jun 2027 16:15:47.607           164.992              Murmansk2          5156.000
       393   04 Jun 2027 16:21:44.741   04 Jun 2027 16:24:42.251           177.510                Anadyr2          5547.188
       394   04 Jun 2027 16:25:06.879   04 Jun 2027 16:28:11.365           184.486               Magadan1          5765.187
       395   04 Jun 2027 17:57:40.198   04 Jun 2027 18:00:41.171           180.973                Anadyr2          5655.406
       396   04 Jun 2027 18:01:10.729   04 Jun 2027 18:01:20.236             9.507                Anadyr2           297.094
       397   04 Jun 2027 18:01:34.054   04 Jun 2027 18:01:43.765             9.711                Anadyr2           303.469
       398   04 Jun 2027 18:01:51.869   04 Jun 2027 18:04:21.400           149.531               Magadan2          4672.844
       399   04 Jun 2027 18:53:12.936   04 Jun 2027 18:56:16.642           183.706            RioGallegos          5740.812
       400   04 Jun 2027 18:58:41.557   04 Jun 2027 18:59:58.151            76.594            RioGallegos          2393.562
       401   04 Jun 2027 19:34:47.199   04 Jun 2027 19:34:51.791             4.592                Anadyr2           143.500
       402   04 Jun 2027 19:35:05.293   04 Jun 2027 19:35:36.383            31.090                Anadyr2           971.562
       403   04 Jun 2027 19:35:36.589   04 Jun 2027 19:39:35.771           239.182                Norilsk          7474.438
       404   04 Jun 2027 19:40:16.665   04 Jun 2027 19:40:51.581            34.916                Irkutsk          1091.125
       405   04 Jun 2027 19:41:18.694   04 Jun 2027 19:41:48.762            30.068                Irkutsk           939.625
       406   04 Jun 2027 19:42:20.146   04 Jun 2027 19:42:56.423            36.277                Irkutsk          1133.656
       407   04 Jun 2027 19:54:45.332   04 Jun 2027 19:57:35.777           170.445                Sumatra          5326.406
       408   04 Jun 2027 20:00:08.065   04 Jun 2027 20:01:26.712            78.647                Sumatra          2457.719
       409   04 Jun 2027 21:15:18.094   04 Jun 2027 21:16:28.388            70.294                Irkutsk          2196.687
       410   04 Jun 2027 21:16:34.286   04 Jun 2027 21:16:56.838            22.552                Novosib           704.750
       411   04 Jun 2027 21:17:22.687   04 Jun 2027 21:18:00.107            37.420                Novosib          1169.375
       412   04 Jun 2027 21:24:54.100   04 Jun 2027 21:27:26.073           151.973                  Delhi          4749.156
       413   04 Jun 2027 21:32:31.358   04 Jun 2027 21:32:49.419            18.061                  Delhi           564.406
       414   04 Jun 2027 22:47:25.451   04 Jun 2027 22:48:37.002            71.551                Norilsk          2235.969
       415   04 Jun 2027 22:49:05.530   04 Jun 2027 22:49:27.937            22.407               Magadan1           700.219
       416   04 Jun 2027 22:50:10.231   04 Jun 2027 22:53:55.377           225.146              Murmansk2          7035.813
       417   04 Jun 2027 22:54:50.912   04 Jun 2027 22:56:30.721            99.809              Murmansk1          3119.031
       418   05 Jun 2027 00:15:51.211   05 Jun 2027 00:16:01.649            10.438                Anadyr2           326.188
       419   05 Jun 2027 00:18:22.512   05 Jun 2027 00:18:46.619            24.107                Anadyr2           753.344
       420   05 Jun 2027 00:20:44.408   05 Jun 2027 00:20:59.534            15.126                Anadyr1           472.687
       421   05 Jun 2027 00:21:32.929   05 Jun 2027 00:21:37.789             4.860                Anadyr2           151.875
       422   05 Jun 2027 00:21:42.565   05 Jun 2027 00:23:29.277           106.712               Magadan1          3334.750
       423   05 Jun 2027 00:23:42.064   05 Jun 2027 00:24:16.341            34.277               Magadan2          1071.156
       424   05 Jun 2027 00:24:58.819   05 Jun 2027 00:25:24.137            25.318               Magadan2           791.187
       425   05 Jun 2027 00:25:34.974   05 Jun 2027 00:27:36.300           121.326              Murmansk1          3791.438
       426   05 Jun 2027 00:27:36.300   05 Jun 2027 00:28:33.544            57.244              Murmansk2          1788.875
       427   05 Jun 2027 00:29:14.060   05 Jun 2027 00:29:42.059            27.999                 Moscow           874.969
       428   05 Jun 2027 00:30:27.540   05 Jun 2027 00:31:16.197            48.657                 Moscow          1520.531
       429   05 Jun 2027 00:31:45.869   05 Jun 2027 00:32:05.718            19.849                 Moscow           620.281
       430   05 Jun 2027 00:54:44.379   05 Jun 2027 00:56:32.360           107.981               CapeTown          3374.406
       431   05 Jun 2027 00:59:39.608   05 Jun 2027 01:00:59.670            80.062               CapeTown          2501.938
       432   05 Jun 2027 01:53:20.671   05 Jun 2027 01:54:28.083            67.412               Magadan1          2106.625
       433   05 Jun 2027 02:01:02.043   05 Jun 2027 02:01:16.540            14.497               Magadan2           453.031
       434   05 Jun 2027 02:01:31.289   05 Jun 2027 02:02:59.512            88.223              Murmansk1          2756.969
       435   05 Jun 2027 02:03:33.706   05 Jun 2027 02:03:40.571             6.865              Murmansk2           214.531
       436   05 Jun 2027 02:04:13.551   05 Jun 2027 02:04:33.683            20.132                Novosib           629.125
       437   05 Jun 2027 02:04:43.721   05 Jun 2027 02:05:38.601            54.880                 Moscow          1715.000
       438   05 Jun 2027 02:12:40.508   05 Jun 2027 02:13:35.303            54.795                 Moscow          1712.344
       439   05 Jun 2027 02:31:03.447   05 Jun 2027 02:31:48.004            44.557               CapeTown          1392.406
       440   05 Jun 2027 03:28:41.262   05 Jun 2027 03:29:22.854            41.592                Anadyr2          1299.750
       441   05 Jun 2027 03:31:20.953   05 Jun 2027 03:35:44.313           263.360               Magadan1          8230.000
       442   05 Jun 2027 03:35:51.076   05 Jun 2027 03:36:15.490            24.414               Magadan1           762.937
       443   05 Jun 2027 03:36:36.239   05 Jun 2027 03:36:51.863            15.624                Anadyr1           488.250
       444   05 Jun 2027 03:36:54.965   05 Jun 2027 03:37:28.035            33.070               Magadan2          1033.438
       445   05 Jun 2027 03:38:12.141   05 Jun 2027 03:38:16.644             4.503                Anadyr1           140.719
       446   05 Jun 2027 05:08:09.698   05 Jun 2027 05:10:18.899           129.201                Irkutsk          4037.531
       447   05 Jun 2027 05:11:04.965   05 Jun 2027 05:11:33.275            28.310                Irkutsk           884.687
       448   05 Jun 2027 06:45:56.015   05 Jun 2027 06:45:58.054             2.039               Magadan1            63.719
       449   05 Jun 2027 06:46:28.008   05 Jun 2027 06:46:34.942             6.934               Magadan2           216.687
       450   05 Jun 2027 06:46:51.208   05 Jun 2027 06:47:40.894            49.686               Magadan1          1552.688
       451   05 Jun 2027 06:47:57.996   05 Jun 2027 06:48:33.985            35.989               Magadan2          1124.656
       452   05 Jun 2027 06:48:43.170   05 Jun 2027 06:49:06.466            23.296               Magadan1           728.000
       453   05 Jun 2027 06:49:19.917   05 Jun 2027 06:49:25.653             5.736               Magadan1           179.250
       454   05 Jun 2027 06:52:25.440   05 Jun 2027 06:52:28.180             2.740                Norilsk            85.625
       455   05 Jun 2027 06:54:24.081   05 Jun 2027 06:54:45.435            21.354                Norilsk           667.312
       456   05 Jun 2027 08:07:13.691   05 Jun 2027 08:07:28.875            15.184                Sumatra           474.500
       457   05 Jun 2027 08:20:38.644   05 Jun 2027 08:21:06.007            27.363                Irkutsk           855.094
       458   05 Jun 2027 08:21:23.692   05 Jun 2027 08:21:36.020            12.328                Novosib           385.250
       459   05 Jun 2027 08:22:20.160   05 Jun 2027 08:22:28.578             8.418                Irkutsk           263.063
       460   05 Jun 2027 08:22:31.443   05 Jun 2027 08:22:53.807            22.364                Novosib           698.875
       461   05 Jun 2027 08:23:15.182   05 Jun 2027 08:23:57.464            42.282                Irkutsk          1321.312
       462   05 Jun 2027 08:24:19.962   05 Jun 2027 08:24:47.855            27.893                Irkutsk           871.656
       463   05 Jun 2027 08:24:51.192   05 Jun 2027 08:25:36.382            45.190                Irkutsk          1412.188
       464   05 Jun 2027 09:01:18.144   05 Jun 2027 09:01:52.891            34.747            RioGallegos          1085.844
       465   05 Jun 2027 09:10:49.222   05 Jun 2027 09:10:57.657             8.435            RioGallegos           263.594
       466   05 Jun 2027 09:35:33.566   05 Jun 2027 09:36:55.090            81.524                Sumatra          2547.625
       467   05 Jun 2027 09:59:26.703   05 Jun 2027 09:59:37.249            10.546                Norilsk           329.562
       468   05 Jun 2027 09:59:38.355   05 Jun 2027 09:59:55.869            17.514                Norilsk           547.312
       469   05 Jun 2027 09:59:57.574   05 Jun 2027 10:00:17.001            19.427                Novosib           607.094
       470   05 Jun 2027 10:00:30.684   05 Jun 2027 10:00:34.281             3.597                Irkutsk           112.406
       471   05 Jun 2027 10:00:51.986   05 Jun 2027 10:01:18.822            26.836                Novosib           838.625
       472   05 Jun 2027 11:20:26.161   05 Jun 2027 11:23:38.020           191.859                  Delhi          5995.594
       473   05 Jun 2027 11:35:09.227   05 Jun 2027 11:35:29.955            20.728                Novosib           647.750
       474   05 Jun 2027 11:36:01.911   05 Jun 2027 11:36:32.608            30.697                Norilsk           959.281
       475   05 Jun 2027 11:36:53.428   05 Jun 2027 11:36:54.312             0.884                Norilsk            27.625
       476   05 Jun 2027 11:37:04.566   05 Jun 2027 11:38:02.071            57.505                Novosib          1797.031
       477   05 Jun 2027 13:03:51.849   05 Jun 2027 13:03:53.670             1.821                 Moscow            56.906
       478   05 Jun 2027 13:05:01.606   05 Jun 2027 13:05:15.194            13.588                 Moscow           424.625
       479   05 Jun 2027 13:05:17.673   05 Jun 2027 13:05:30.500            12.827                 Moscow           400.844
       480   05 Jun 2027 13:06:37.872   05 Jun 2027 13:07:41.879            64.007                 Moscow          2000.219
       481   05 Jun 2027 13:07:47.881   05 Jun 2027 13:08:50.998            63.117              Murmansk2          1972.406
       482   05 Jun 2027 13:10:20.578   05 Jun 2027 13:11:01.836            41.258              Murmansk2          1289.313
