uniorb/output/strategy_4/Drop/Drop_KinoSat_111401.txt

KinoSat_111401
-------------------------
    Access    *     Start Time (UTCG)     *     Stop Time (UTCG)  *   Duration (s)        *       Station  *  Data (Mbytes)
         1   01 Jun 2027 04:04:57.183   01 Jun 2027 04:05:45.563            48.380                Novosib          1511.875
         2   01 Jun 2027 04:05:59.554   01 Jun 2027 04:08:24.765           145.211              Murmansk1          4537.844
         3   01 Jun 2027 04:08:37.026   01 Jun 2027 04:09:11.214            34.188                 Moscow          1068.375
         4   01 Jun 2027 04:09:45.160   01 Jun 2027 04:10:02.988            17.828                 Moscow           557.125
         5   01 Jun 2027 05:27:22.158   01 Jun 2027 05:27:48.740            26.582               Magadan2           830.688
         6   01 Jun 2027 05:28:24.151   01 Jun 2027 05:31:29.999           185.848                Anadyr1          5807.750
         7   01 Jun 2027 05:31:32.511   01 Jun 2027 05:32:44.561            72.050               Magadan2          2251.563
         8   01 Jun 2027 07:04:19.687   01 Jun 2027 07:06:34.804           135.117                Anadyr1          4222.406
         9   01 Jun 2027 07:06:34.804   01 Jun 2027 07:08:30.301           115.497                Anadyr2          3609.281
        10   01 Jun 2027 07:12:33.829   01 Jun 2027 07:12:41.298             7.469                 Moscow           233.406
        11   01 Jun 2027 08:38:13.958   01 Jun 2027 08:38:28.021            14.063               Magadan2           439.469
        12   01 Jun 2027 08:38:41.218   01 Jun 2027 08:43:31.105           289.887                Anadyr1          9058.969
        13   01 Jun 2027 08:43:34.247   01 Jun 2027 08:44:53.295            79.048                Novosib          2470.250
        14   01 Jun 2027 10:15:06.322   01 Jun 2027 10:15:36.553            30.231               Magadan2           944.719
        15   01 Jun 2027 10:15:59.590   01 Jun 2027 10:16:41.082            41.492                Irkutsk          1296.625
        16   01 Jun 2027 10:16:55.650   01 Jun 2027 10:18:09.132            73.482                Novosib          2296.312
        17   01 Jun 2027 10:18:21.160   01 Jun 2027 10:18:33.207            12.047                Irkutsk           376.469
        18   01 Jun 2027 10:18:52.428   01 Jun 2027 10:21:25.940           153.512              Murmansk1          4797.250
        19   01 Jun 2027 10:55:43.665   01 Jun 2027 10:57:12.884            89.219            RioGallegos          2788.094
        20   01 Jun 2027 11:30:08.135   01 Jun 2027 11:32:20.435           132.300                Sumatra          4134.375
        21   01 Jun 2027 11:39:14.169   01 Jun 2027 11:40:13.694            59.525                  Delhi          1860.156
        22   01 Jun 2027 11:51:47.216   01 Jun 2027 11:52:10.559            23.343                 Moscow           729.469
        23   01 Jun 2027 11:52:27.163   01 Jun 2027 11:53:36.328            69.165                Irkutsk          2161.406
        24   01 Jun 2027 11:53:52.707   01 Jun 2027 11:55:08.602            75.895              Murmansk2          2371.719
        25   01 Jun 2027 11:55:08.602   01 Jun 2027 11:55:23.657            15.055              Murmansk1           470.469
        26   01 Jun 2027 11:55:28.969   01 Jun 2027 11:55:55.694            26.725              Murmansk1           835.156
        27   01 Jun 2027 11:56:04.542   01 Jun 2027 11:57:29.808            85.266              Murmansk1          2664.562
        28   01 Jun 2027 12:03:13.979   01 Jun 2027 12:03:25.065            11.086              Murmansk2           346.437
        29   01 Jun 2027 13:14:44.713   01 Jun 2027 13:16:50.530           125.817                  Delhi          3931.781
        30   01 Jun 2027 13:19:31.144   01 Jun 2027 13:19:42.506            11.362                  Delhi           355.062
        31   01 Jun 2027 13:19:59.710   01 Jun 2027 13:21:00.391            60.681                  Delhi          1896.281
        32   01 Jun 2027 13:22:02.415   01 Jun 2027 13:23:09.022            66.607                  Delhi          2081.469
        33   01 Jun 2027 13:23:36.097   01 Jun 2027 13:28:04.114           268.017                Novosib          8375.531
        34   01 Jun 2027 13:28:52.176   01 Jun 2027 13:29:22.763            30.587                Norilsk           955.844
        35   01 Jun 2027 13:29:44.292   01 Jun 2027 13:30:11.171            26.879                Novosib           839.969
        36   01 Jun 2027 13:30:54.357   01 Jun 2027 13:32:12.368            78.011                Novosib          2437.844
        37   01 Jun 2027 13:32:53.449   01 Jun 2027 13:33:40.041            46.592                Norilsk          1456.000
        38   01 Jun 2027 13:36:24.106   01 Jun 2027 13:36:25.820             1.714              Murmansk1            53.563
        39   01 Jun 2027 13:36:45.083   01 Jun 2027 13:37:24.437            39.354                Norilsk          1229.812
        40   01 Jun 2027 13:37:33.597   01 Jun 2027 13:37:51.916            18.319              Murmansk2           572.469
        41   01 Jun 2027 13:38:03.467   01 Jun 2027 13:38:32.659            29.192              Murmansk2           912.250
        42   01 Jun 2027 14:58:37.860   01 Jun 2027 15:02:39.685           241.825                 Moscow          7557.031
        43   01 Jun 2027 15:03:23.557   01 Jun 2027 15:03:44.472            20.915              Murmansk2           653.594
        44   01 Jun 2027 15:03:51.853   01 Jun 2027 15:04:09.273            17.420              Murmansk1           544.375
        45   01 Jun 2027 15:04:59.032   01 Jun 2027 15:05:44.286            45.254              Murmansk2          1414.187
        46   01 Jun 2027 15:06:33.835   01 Jun 2027 15:07:27.520            53.685              Murmansk2          1677.656
        47   01 Jun 2027 15:07:35.831   01 Jun 2027 15:11:32.279           236.448                Norilsk          7389.000
        48   01 Jun 2027 15:11:40.067   01 Jun 2027 15:12:48.507            68.440                Norilsk          2138.750
        49   01 Jun 2027 16:18:18.451   01 Jun 2027 16:20:06.191           107.740               CapeTown          3366.875
        50   01 Jun 2027 16:22:33.720   01 Jun 2027 16:24:23.746           110.026               CapeTown          3438.312
        51   01 Jun 2027 16:42:47.809   01 Jun 2027 16:43:17.781            29.972                 Moscow           936.625
        52   01 Jun 2027 16:43:44.582   01 Jun 2027 16:44:24.233            39.651                 Moscow          1239.094
        53   01 Jun 2027 16:45:28.468   01 Jun 2027 16:46:17.487            49.019              Murmansk2          1531.844
        54   01 Jun 2027 16:47:51.345   01 Jun 2027 16:48:49.449            58.104              Murmansk1          1815.750
        55   01 Jun 2027 16:49:31.484   01 Jun 2027 16:50:17.616            46.132              Murmansk1          1441.625
        56   01 Jun 2027 16:55:30.878   01 Jun 2027 16:56:07.522            36.644                Anadyr2          1145.125
        57   01 Jun 2027 16:56:35.320   01 Jun 2027 16:56:54.428            19.108                Anadyr1           597.125
        58   01 Jun 2027 16:58:14.370   01 Jun 2027 16:58:55.919            41.549                Anadyr2          1298.406
        59   01 Jun 2027 16:59:19.192   01 Jun 2027 17:00:00.780            41.588                Anadyr1          1299.625
        60   01 Jun 2027 17:00:35.299   01 Jun 2027 17:01:05.222            29.923                Anadyr2           935.094
        61   01 Jun 2027 17:01:39.911   01 Jun 2027 17:01:58.034            18.123                Anadyr1           566.344
        62   01 Jun 2027 17:02:48.314   01 Jun 2027 17:03:04.671            16.357                Anadyr1           511.156
        63   01 Jun 2027 17:56:03.561   01 Jun 2027 17:56:34.758            31.197               CapeTown           974.906
        64   01 Jun 2027 17:58:04.592   01 Jun 2027 17:58:53.830            49.238               CapeTown          1538.688
        65   01 Jun 2027 18:19:39.379   01 Jun 2027 18:24:58.153           318.774              Murmansk1          9961.687
        66   01 Jun 2027 18:38:14.636   01 Jun 2027 18:38:19.120             4.484                Anadyr2           140.125
        67   01 Jun 2027 18:38:34.338   01 Jun 2027 18:38:52.935            18.597               Magadan1           581.156
        68   01 Jun 2027 18:39:49.316   01 Jun 2027 18:40:49.060            59.744               Magadan1          1867.000
        69   01 Jun 2027 20:04:35.193   01 Jun 2027 20:08:10.791           215.598                Anadyr2          6737.438
        70   01 Jun 2027 20:08:26.632   01 Jun 2027 20:10:10.677           104.045               Magadan2          3251.406
        71   01 Jun 2027 20:11:05.451   01 Jun 2027 20:11:36.403            30.952               Magadan2           967.250
        72   01 Jun 2027 20:12:22.687   01 Jun 2027 20:13:26.197            63.510               Magadan1          1984.687
        73   01 Jun 2027 20:16:17.576   01 Jun 2027 20:16:27.508             9.932               Magadan2           310.375
        74   01 Jun 2027 20:16:39.657   01 Jun 2027 20:17:12.977            33.320               Magadan1          1041.250
        75   01 Jun 2027 20:18:54.260   01 Jun 2027 20:19:13.651            19.391               Magadan1           605.969
        76   01 Jun 2027 21:00:17.831   01 Jun 2027 21:02:33.688           135.857            RioGallegos          4245.531
        77   01 Jun 2027 21:03:07.357   01 Jun 2027 21:04:06.346            58.989            RioGallegos          1843.406
        78   01 Jun 2027 21:06:46.401   01 Jun 2027 21:07:11.561            25.160            RioGallegos           786.250
        79   01 Jun 2027 21:40:47.519   01 Jun 2027 21:42:33.762           106.243                Anadyr2          3320.094
        80   01 Jun 2027 21:42:49.517   01 Jun 2027 21:42:53.926             4.409               Magadan1           137.781
        81   01 Jun 2027 21:43:08.743   01 Jun 2027 21:43:40.519            31.776               Magadan2           993.000
        82   01 Jun 2027 21:45:32.283   01 Jun 2027 21:45:38.110             5.827                Norilsk           182.094
        83   01 Jun 2027 21:45:41.687   01 Jun 2027 21:46:56.033            74.346               Magadan2          2323.313
        84   01 Jun 2027 21:50:33.611   01 Jun 2027 21:50:44.477            10.866                Norilsk           339.563
        85   01 Jun 2027 21:51:05.946   01 Jun 2027 21:51:07.726             1.780                Irkutsk            55.625
        86   01 Jun 2027 21:51:20.605   01 Jun 2027 21:51:49.490            28.885                Irkutsk           902.656
        87   01 Jun 2027 21:52:39.917   01 Jun 2027 21:53:16.576            36.659                Irkutsk          1145.594
        88   01 Jun 2027 21:54:55.645   01 Jun 2027 21:55:08.139            12.494               Magadan1           390.437
        89   01 Jun 2027 21:55:16.652   01 Jun 2027 21:55:59.690            43.038                Irkutsk          1344.938
        90   01 Jun 2027 22:04:25.611   01 Jun 2027 22:05:13.687            48.076                Sumatra          1502.375
        91   01 Jun 2027 22:06:17.999   01 Jun 2027 22:07:41.437            83.438                Sumatra          2607.437
        92   01 Jun 2027 22:45:22.750   01 Jun 2027 22:45:46.463            23.713            RioGallegos           741.031
        93   01 Jun 2027 23:15:35.105   01 Jun 2027 23:16:25.856            50.751                Anadyr1          1585.969
        94   01 Jun 2027 23:18:06.553   01 Jun 2027 23:18:10.029             3.476                Anadyr1           108.625
        95   01 Jun 2027 23:18:19.257   01 Jun 2027 23:18:31.869            12.612                Norilsk           394.125
        96   01 Jun 2027 23:18:56.593   01 Jun 2027 23:21:48.856           172.263               Magadan1          5383.219
        97   01 Jun 2027 23:22:13.056   01 Jun 2027 23:23:16.975            63.919                Irkutsk          1997.469
        98   01 Jun 2027 23:25:54.666   01 Jun 2027 23:26:07.856            13.190                Novosib           412.188
        99   01 Jun 2027 23:28:08.855   01 Jun 2027 23:28:52.072            43.217                Novosib          1350.531
       100   01 Jun 2027 23:31:12.056   01 Jun 2027 23:32:14.545            62.489                Novosib          1952.781
       101   01 Jun 2027 23:34:26.236   01 Jun 2027 23:34:54.526            28.290                  Delhi           884.063
       102   01 Jun 2027 23:38:22.453   01 Jun 2027 23:39:21.801            59.348                  Delhi          1854.625
       103   02 Jun 2027 00:15:56.309   02 Jun 2027 00:16:43.738            47.429            RioGallegos          1482.156
       104   02 Jun 2027 00:20:17.467   02 Jun 2027 00:20:58.852            41.385            RioGallegos          1293.281
       105   02 Jun 2027 00:49:52.774   02 Jun 2027 00:49:54.800             2.026                Anadyr2            63.313
       106   02 Jun 2027 00:50:13.109   02 Jun 2027 00:51:52.421            99.312                Anadyr2          3103.500
       107   02 Jun 2027 00:54:19.829   02 Jun 2027 00:54:30.069            10.240                Norilsk           320.000
       108   02 Jun 2027 00:54:53.427   02 Jun 2027 00:55:37.171            43.744               Magadan1          1367.000
       109   02 Jun 2027 00:55:37.171   02 Jun 2027 00:56:34.047            56.876               Magadan2          1777.375
       110   02 Jun 2027 00:56:52.581   02 Jun 2027 00:56:58.425             5.844               Magadan2           182.625
       111   02 Jun 2027 00:57:06.150   02 Jun 2027 00:58:49.923           103.773              Murmansk1          3242.906
       112   02 Jun 2027 00:58:58.837   02 Jun 2027 00:59:39.466            40.629              Murmansk1          1269.656
       113   02 Jun 2027 01:03:26.846   02 Jun 2027 01:03:34.468             7.622                Novosib           238.188
       114   02 Jun 2027 01:04:20.193   02 Jun 2027 01:04:25.144             4.951                Irkutsk           154.719
       115   02 Jun 2027 01:05:07.331   02 Jun 2027 01:05:36.188            28.857                Novosib           901.781
       116   02 Jun 2027 01:07:41.995   02 Jun 2027 01:08:03.932            21.937                Irkutsk           685.531
       117   02 Jun 2027 01:10:19.258   02 Jun 2027 01:10:57.306            38.048                Novosib          1189.000
       118   02 Jun 2027 01:15:03.160   02 Jun 2027 01:15:06.929             3.769                  Delhi           117.781
       119   02 Jun 2027 01:15:08.256   02 Jun 2027 01:15:24.543            16.287                  Delhi           508.969
       120   02 Jun 2027 01:17:17.762   02 Jun 2027 01:18:12.798            55.036                  Delhi          1719.875
       121   02 Jun 2027 01:48:49.575   02 Jun 2027 01:49:10.986            21.411            RioGallegos           669.094
       122   02 Jun 2027 01:49:33.962   02 Jun 2027 01:49:59.819            25.857            RioGallegos           808.031
       123   02 Jun 2027 01:51:53.661   02 Jun 2027 01:52:51.005            57.344            RioGallegos          1792.000
       124   02 Jun 2027 02:22:53.176   02 Jun 2027 02:22:57.693             4.517                Anadyr2           141.156
       125   02 Jun 2027 02:23:15.306   02 Jun 2027 02:23:50.482            35.176                Anadyr1          1099.250
       126   02 Jun 2027 02:25:55.572   02 Jun 2027 02:26:17.284            21.712                Anadyr2           678.500
       127   02 Jun 2027 02:27:55.491   02 Jun 2027 02:28:54.663            59.172                Anadyr2          1849.125
       128   02 Jun 2027 02:30:14.386   02 Jun 2027 02:30:30.433            16.047                Norilsk           501.469
       129   02 Jun 2027 02:30:36.999   02 Jun 2027 02:30:42.354             5.355               Magadan1           167.344
       130   02 Jun 2027 02:31:20.436   02 Jun 2027 02:31:27.891             7.455                Norilsk           232.969
       131   02 Jun 2027 02:31:30.021   02 Jun 2027 02:31:58.091            28.070                Norilsk           877.188
       132   02 Jun 2027 02:32:29.003   02 Jun 2027 02:33:37.527            68.524              Murmansk1          2141.375
       133   02 Jun 2027 02:34:57.574   02 Jun 2027 02:35:40.509            42.935                Novosib          1341.719
       134   02 Jun 2027 02:36:29.730   02 Jun 2027 02:36:57.882            28.152                Irkutsk           879.750
       135   02 Jun 2027 02:42:14.225   02 Jun 2027 02:42:27.613            13.388                 Moscow           418.375
       136   02 Jun 2027 02:43:23.210   02 Jun 2027 02:43:31.160             7.950              Murmansk1           248.437
       137   02 Jun 2027 02:43:49.667   02 Jun 2027 02:44:38.138            48.471                  Delhi          1514.719
       138   02 Jun 2027 02:47:50.509   02 Jun 2027 02:48:22.164            31.655                  Delhi           989.219
       139   02 Jun 2027 03:08:25.877   02 Jun 2027 03:09:05.075            39.198               CapeTown          1224.938
       140   02 Jun 2027 04:16:28.567   02 Jun 2027 04:20:12.677           224.110              Murmansk2          7003.438
       141   02 Jun 2027 04:20:12.677   02 Jun 2027 04:20:34.056            21.379              Murmansk1           668.094
       142   02 Jun 2027 04:22:06.906   02 Jun 2027 04:22:59.603            52.697                 Moscow          1646.781
       143   02 Jun 2027 05:39:21.012   02 Jun 2027 05:41:05.000           103.988                Anadyr1          3249.625
       144   02 Jun 2027 05:41:27.249   02 Jun 2027 05:42:54.456            87.207                Anadyr2          2725.219
       145   02 Jun 2027 08:51:54.959   02 Jun 2027 08:55:50.865           235.906               Magadan1          7372.063
       146   02 Jun 2027 08:55:50.865   02 Jun 2027 08:56:23.683            32.818               Magadan2          1025.562
       147   02 Jun 2027 10:27:47.399   02 Jun 2027 10:27:51.150             3.751                Irkutsk           117.219
       148   02 Jun 2027 10:28:09.542   02 Jun 2027 10:28:14.309             4.767                Novosib           148.969
       149   02 Jun 2027 10:28:17.228   02 Jun 2027 10:28:26.154             8.926                Norilsk           278.938
       150   02 Jun 2027 10:28:28.070   02 Jun 2027 10:29:25.547            57.477                Norilsk          1796.156
       151   02 Jun 2027 10:29:42.820   02 Jun 2027 10:30:01.457            18.637                Norilsk           582.406
       152   02 Jun 2027 10:30:18.198   02 Jun 2027 10:30:39.754            21.556                Irkutsk           673.625
       153   02 Jun 2027 10:30:43.076   02 Jun 2027 10:31:58.752            75.676                Irkutsk          2364.875
       154   02 Jun 2027 10:32:08.719   02 Jun 2027 10:32:31.513            22.794                Irkutsk           712.313
       155   02 Jun 2027 11:08:04.760   02 Jun 2027 11:08:45.571            40.811            RioGallegos          1275.344
       156   02 Jun 2027 11:10:06.669   02 Jun 2027 11:10:32.046            25.377            RioGallegos           793.031
       157   02 Jun 2027 11:42:22.543   02 Jun 2027 11:42:55.515            32.972                Sumatra          1030.375
       158   02 Jun 2027 11:44:47.946   02 Jun 2027 11:46:06.867            78.921                Sumatra          2466.281
       159   02 Jun 2027 12:07:58.674   02 Jun 2027 12:08:15.992            17.318                Novosib           541.188
       160   02 Jun 2027 12:10:25.724   02 Jun 2027 12:10:42.777            17.053                Norilsk           532.906
       161   02 Jun 2027 13:27:10.555   02 Jun 2027 13:28:39.836            89.281                  Delhi          2790.031
       162   02 Jun 2027 13:28:48.191   02 Jun 2027 13:29:34.286            46.095                  Delhi          1440.469
       163   02 Jun 2027 13:32:11.883   02 Jun 2027 13:32:35.975            24.092                  Delhi           752.875
       164   02 Jun 2027 13:35:01.619   02 Jun 2027 13:35:12.966            11.347                  Delhi           354.594
       165   02 Jun 2027 13:35:30.376   02 Jun 2027 13:35:53.666            23.290                Novosib           727.813
       166   02 Jun 2027 13:36:36.751   02 Jun 2027 13:37:12.489            35.738                Novosib          1116.813
       167   02 Jun 2027 13:39:09.819   02 Jun 2027 13:40:27.903            78.084                Novosib          2440.125
       168   02 Jun 2027 13:40:42.412   02 Jun 2027 13:41:07.847            25.435                Novosib           794.844
       169   02 Jun 2027 13:42:14.811   02 Jun 2027 13:44:11.580           116.769                Novosib          3649.031
       170   02 Jun 2027 15:10:44.165   02 Jun 2027 15:12:48.466           124.301                 Moscow          3884.406
       171   02 Jun 2027 15:14:15.686   02 Jun 2027 15:15:25.296            69.610              Murmansk1          2175.313
       172   02 Jun 2027 15:19:15.800   02 Jun 2027 15:19:31.712            15.912              Murmansk2           497.250
       173   02 Jun 2027 15:20:24.104   02 Jun 2027 15:23:28.892           184.788                Norilsk          5774.625
       174   02 Jun 2027 16:25:18.188   02 Jun 2027 16:25:47.875            29.687               CapeTown           927.719
       175   02 Jun 2027 16:30:07.085   02 Jun 2027 16:30:36.176            29.091               CapeTown           909.094
       176   02 Jun 2027 16:31:39.630   02 Jun 2027 16:31:43.313             3.683               CapeTown           115.094
       177   02 Jun 2027 16:32:08.340   02 Jun 2027 16:33:43.749            95.409               CapeTown          2981.531
       178   02 Jun 2027 16:52:01.958   02 Jun 2027 16:52:54.024            52.066              Murmansk2          1627.063
       179   02 Jun 2027 16:55:30.666   02 Jun 2027 16:55:56.411            25.745              Murmansk2           804.531
       180   02 Jun 2027 16:59:15.488   02 Jun 2027 16:59:55.873            40.385              Murmansk2          1262.031
       181   02 Jun 2027 17:01:19.870   02 Jun 2027 17:01:56.037            36.167              Murmansk1          1130.219
       182   02 Jun 2027 17:04:54.961   02 Jun 2027 17:05:17.184            22.223                Anadyr1           694.469
       183   02 Jun 2027 17:07:22.303   02 Jun 2027 17:07:46.698            24.395                Anadyr2           762.344
       184   02 Jun 2027 17:09:36.044   02 Jun 2027 17:10:01.257            25.213                Anadyr1           787.906
       185   02 Jun 2027 17:12:06.154   02 Jun 2027 17:12:19.216            13.062                Anadyr2           408.187
       186   02 Jun 2027 17:15:03.509   02 Jun 2027 17:15:26.075            22.566                Anadyr1           705.187
       187   02 Jun 2027 18:01:32.408   02 Jun 2027 18:02:02.454            30.046               CapeTown           938.937
       188   02 Jun 2027 18:05:06.304   02 Jun 2027 18:05:22.472            16.168               CapeTown           505.250
       189   02 Jun 2027 18:06:59.768   02 Jun 2027 18:07:47.933            48.165               CapeTown          1505.156
       190   02 Jun 2027 18:32:28.512   02 Jun 2027 18:37:08.577           280.065              Murmansk1          8752.031
       191   02 Jun 2027 18:43:28.743   02 Jun 2027 18:44:04.641            35.898               Magadan2          1121.812
       192   02 Jun 2027 18:46:22.013   02 Jun 2027 18:46:36.802            14.789               Magadan2           462.156
       193   02 Jun 2027 18:50:13.991   02 Jun 2027 18:50:15.501             1.510               Magadan1            47.187
       194   02 Jun 2027 18:50:21.369   02 Jun 2027 18:50:36.976            15.607               Magadan1           487.719
       195   02 Jun 2027 18:53:21.162   02 Jun 2027 18:53:37.642            16.480               Magadan1           515.000
       196   02 Jun 2027 20:16:36.565   02 Jun 2027 20:20:20.861           224.296                Anadyr2          7009.250
       197   02 Jun 2027 20:20:27.071   02 Jun 2027 20:23:04.805           157.734               Magadan2          4929.188
       198   02 Jun 2027 20:23:48.467   02 Jun 2027 20:24:01.097            12.630               Magadan2           394.688
       199   02 Jun 2027 20:25:57.628   02 Jun 2027 20:26:29.092            31.464               Magadan1           983.250
       200   02 Jun 2027 21:11:48.048   02 Jun 2027 21:14:37.876           169.828            RioGallegos          5307.125
       201   02 Jun 2027 21:17:11.095   02 Jun 2027 21:17:32.232            21.137            RioGallegos           660.531
       202   02 Jun 2027 21:18:20.539   02 Jun 2027 21:18:32.571            12.032            RioGallegos           376.000
       203   02 Jun 2027 21:52:21.670   02 Jun 2027 21:52:49.386            27.716                Anadyr1           866.125
       204   02 Jun 2027 21:54:29.284   02 Jun 2027 21:57:23.782           174.498                Norilsk          5453.063
       205   02 Jun 2027 21:57:34.571   02 Jun 2027 21:57:59.747            25.176                Norilsk           786.750
       206   02 Jun 2027 21:59:01.846   02 Jun 2027 22:00:07.573            65.727                Irkutsk          2053.969
       207   02 Jun 2027 22:01:32.209   02 Jun 2027 22:01:45.062            12.853                Irkutsk           401.656
       208   02 Jun 2027 22:07:17.695   02 Jun 2027 22:07:21.295             3.600                Irkutsk           112.500
       209   02 Jun 2027 22:08:11.923   02 Jun 2027 22:08:19.662             7.739                Irkutsk           241.844
       210   02 Jun 2027 22:08:46.535   02 Jun 2027 22:09:24.589            38.054                Irkutsk          1189.187
       211   02 Jun 2027 22:13:17.439   02 Jun 2027 22:14:29.386            71.947                Sumatra          2248.344
       212   02 Jun 2027 22:18:47.256   02 Jun 2027 22:19:39.731            52.475                Sumatra          1639.844
       213   02 Jun 2027 23:27:26.567   02 Jun 2027 23:28:40.635            74.068                Anadyr2          2314.625
       214   02 Jun 2027 23:29:50.582   02 Jun 2027 23:30:10.546            19.964                Anadyr1           623.875
       215   02 Jun 2027 23:30:21.244   02 Jun 2027 23:32:13.189           111.945                Norilsk          3498.281
       216   02 Jun 2027 23:32:28.225   02 Jun 2027 23:33:20.072            51.847               Magadan2          1620.219
       217   02 Jun 2027 23:34:13.676   02 Jun 2027 23:34:46.627            32.951                Irkutsk          1029.719
       218   02 Jun 2027 23:34:48.369   02 Jun 2027 23:35:16.568            28.199                Novosib           881.219
       219   02 Jun 2027 23:37:23.772   02 Jun 2027 23:38:16.476            52.704                Novosib          1647.000
       220   02 Jun 2027 23:43:19.053   02 Jun 2027 23:44:10.983            51.930                  Delhi          1622.813
       221   02 Jun 2027 23:45:06.306   02 Jun 2027 23:45:58.428            52.122                  Delhi          1628.813
       222   02 Jun 2027 23:51:51.782   02 Jun 2027 23:52:06.169            14.387                  Delhi           449.594
       223   03 Jun 2027 00:23:52.201   03 Jun 2027 00:24:21.878            29.677            RioGallegos           927.406
       224   03 Jun 2027 00:30:55.263   03 Jun 2027 00:32:07.562            72.299            RioGallegos          2259.344
       225   03 Jun 2027 01:01:18.600   03 Jun 2027 01:01:22.588             3.988                Anadyr2           124.625
       226   03 Jun 2027 01:01:52.185   03 Jun 2027 01:02:14.022            21.837                Anadyr1           682.406
       227   03 Jun 2027 01:02:54.122   03 Jun 2027 01:03:38.499            44.377                Anadyr2          1386.781
       228   03 Jun 2027 01:06:21.792   03 Jun 2027 01:06:31.939            10.147                Norilsk           317.094
       229   03 Jun 2027 01:06:51.374   03 Jun 2027 01:06:57.544             6.170               Magadan2           192.813
       230   03 Jun 2027 01:07:05.845   03 Jun 2027 01:08:25.900            80.055                Norilsk          2501.719
       231   03 Jun 2027 01:08:41.419   03 Jun 2027 01:08:57.977            16.558               Magadan1           517.438
       232   03 Jun 2027 01:08:57.977   03 Jun 2027 01:10:42.444           104.467               Magadan2          3264.594
       233   03 Jun 2027 01:10:46.272   03 Jun 2027 01:12:19.130            92.858                Novosib          2901.813
       234   03 Jun 2027 01:20:37.612   03 Jun 2027 01:21:13.596            35.984                  Delhi          1124.500
       235   03 Jun 2027 01:25:00.611   03 Jun 2027 01:26:00.848            60.237                  Delhi          1882.406
       236   03 Jun 2027 02:00:01.984   03 Jun 2027 02:00:54.529            52.545            RioGallegos          1642.031
       237   03 Jun 2027 02:00:57.838   03 Jun 2027 02:01:00.932             3.094            RioGallegos            96.687
       238   03 Jun 2027 02:03:01.637   03 Jun 2027 02:03:13.775            12.138            RioGallegos           379.313
       239   03 Jun 2027 02:34:35.910   03 Jun 2027 02:34:47.696            11.786                Anadyr2           368.313
       240   03 Jun 2027 02:35:00.919   03 Jun 2027 02:35:02.990             2.071                Anadyr1            64.719
       241   03 Jun 2027 02:35:49.243   03 Jun 2027 02:37:22.670            93.427                Anadyr2          2919.594
       242   03 Jun 2027 02:40:21.765   03 Jun 2027 02:41:28.277            66.512               Magadan1          2078.500
       243   03 Jun 2027 02:44:29.963   03 Jun 2027 02:45:59.169            89.206              Murmansk2          2787.687
       244   03 Jun 2027 02:46:21.069   03 Jun 2027 02:46:21.928             0.859                Novosib            26.844
       245   03 Jun 2027 02:46:34.147   03 Jun 2027 02:46:46.933            12.786              Murmansk2           399.562
       246   03 Jun 2027 02:47:18.273   03 Jun 2027 02:47:51.510            33.237                Novosib          1038.656
       247   03 Jun 2027 02:48:13.926   03 Jun 2027 02:48:15.380             1.454                Novosib            45.437
       248   03 Jun 2027 02:48:55.337   03 Jun 2027 02:49:11.456            16.119                Irkutsk           503.719
       249   03 Jun 2027 02:49:32.666   03 Jun 2027 02:50:11.930            39.264                Novosib          1227.000
       250   03 Jun 2027 02:57:35.530   03 Jun 2027 02:59:35.198           119.668                  Delhi          3739.625
       251   03 Jun 2027 04:30:03.453   03 Jun 2027 04:32:01.058           117.605              Murmansk2          3675.156
       252   03 Jun 2027 04:32:29.279   03 Jun 2027 04:32:46.981            17.702              Murmansk2           553.187
       253   03 Jun 2027 05:51:09.242   03 Jun 2027 05:51:18.431             9.189               Magadan1           287.156
       254   03 Jun 2027 05:51:18.431   03 Jun 2027 05:52:16.312            57.881               Magadan2          1808.781
       255   03 Jun 2027 05:52:51.652   03 Jun 2027 05:56:40.813           229.161                Anadyr2          7161.281
       256   03 Jun 2027 07:28:06.469   03 Jun 2027 07:28:09.426             2.957               Magadan2            92.406
       257   03 Jun 2027 07:28:12.962   03 Jun 2027 07:28:15.301             2.339               Magadan1            73.094
       258   03 Jun 2027 07:28:25.725   03 Jun 2027 07:28:59.056            33.331               Magadan2          1041.594
       259   03 Jun 2027 07:29:06.243   03 Jun 2027 07:30:40.256            94.013               Magadan2          2937.906
       260   03 Jun 2027 09:01:58.711   03 Jun 2027 09:02:11.797            13.086               Magadan1           408.938
       261   03 Jun 2027 09:02:57.747   03 Jun 2027 09:03:01.794             4.047               Magadan1           126.469
       262   03 Jun 2027 09:03:18.927   03 Jun 2027 09:04:05.025            46.098               Magadan2          1440.562
       263   03 Jun 2027 09:04:22.847   03 Jun 2027 09:04:42.194            19.347                Irkutsk           604.594
       264   03 Jun 2027 09:04:48.232   03 Jun 2027 09:05:06.300            18.068               Magadan1           564.625
       265   03 Jun 2027 09:05:16.251   03 Jun 2027 09:05:43.667            27.416               Magadan2           856.750
       266   03 Jun 2027 09:06:32.671   03 Jun 2027 09:07:06.654            33.983                Irkutsk          1061.969
       267   03 Jun 2027 09:07:50.058   03 Jun 2027 09:08:17.873            27.815               Magadan1           869.219
       268   03 Jun 2027 09:43:15.915   03 Jun 2027 09:45:26.541           130.626            RioGallegos          4082.063
       269   03 Jun 2027 10:19:03.078   03 Jun 2027 10:20:08.221            65.143                Sumatra          2035.719
       270   03 Jun 2027 10:39:57.976   03 Jun 2027 10:40:06.666             8.690                Irkutsk           271.563
       271   03 Jun 2027 10:40:08.128   03 Jun 2027 10:40:11.511             3.383                Novosib           105.719
       272   03 Jun 2027 10:40:13.004   03 Jun 2027 10:40:14.049             1.045                Novosib            32.656
       273   03 Jun 2027 10:40:20.630   03 Jun 2027 10:40:24.370             3.740                Norilsk           116.875
       274   03 Jun 2027 10:40:37.562   03 Jun 2027 10:40:48.563            11.001                Irkutsk           343.781
       275   03 Jun 2027 10:40:59.024   03 Jun 2027 10:41:19.147            20.123                Irkutsk           628.844
       276   03 Jun 2027 10:41:56.976   03 Jun 2027 10:42:13.756            16.780                Irkutsk           524.375
       277   03 Jun 2027 10:42:26.762   03 Jun 2027 10:42:55.129            28.367                Norilsk           886.469
       278   03 Jun 2027 10:43:07.208   03 Jun 2027 10:43:11.148             3.940                Norilsk           123.125
       279   03 Jun 2027 10:43:20.051   03 Jun 2027 10:43:41.882            21.831                Novosib           682.219
       280   03 Jun 2027 10:43:50.896   03 Jun 2027 10:43:53.528             2.632                Novosib            82.250
       281   03 Jun 2027 10:43:56.172   03 Jun 2027 10:44:03.125             6.953                Novosib           217.281
       282   03 Jun 2027 10:44:09.193   03 Jun 2027 10:44:10.239             1.046                Norilsk            32.687
       283   03 Jun 2027 10:44:18.888   03 Jun 2027 10:44:31.963            13.075                Irkutsk           408.594
       284   03 Jun 2027 11:20:30.801   03 Jun 2027 11:21:17.306            46.505            RioGallegos          1453.281
       285   03 Jun 2027 11:25:13.842   03 Jun 2027 11:25:38.498            24.656            RioGallegos           770.500
       286   03 Jun 2027 11:54:44.280   03 Jun 2027 11:56:09.934            85.654                Sumatra          2676.687
       287   03 Jun 2027 12:09:15.246   03 Jun 2027 12:10:07.581            52.335                Novosib          1635.469
       288   03 Jun 2027 12:12:47.642   03 Jun 2027 12:12:58.014            10.372                Irkutsk           324.125
       289   03 Jun 2027 12:16:45.861   03 Jun 2027 12:17:28.469            42.608                Irkutsk          1331.500
       290   03 Jun 2027 13:39:45.605   03 Jun 2027 13:42:39.471           173.866                  Delhi          5433.313
       291   03 Jun 2027 13:43:29.619   03 Jun 2027 13:44:49.293            79.674                  Delhi          2489.813
       292   03 Jun 2027 13:48:12.935   03 Jun 2027 13:48:15.185             2.250                Novosib            70.313
       293   03 Jun 2027 13:49:19.992   03 Jun 2027 13:50:12.301            52.309                Novosib          1634.656
       294   03 Jun 2027 13:51:45.543   03 Jun 2027 13:52:00.055            14.512                Norilsk           453.500
       295   03 Jun 2027 13:52:28.322   03 Jun 2027 13:53:04.041            35.719                Novosib          1116.219
       296   03 Jun 2027 13:57:43.351   03 Jun 2027 13:57:48.631             5.280                Norilsk           165.000
       297   03 Jun 2027 13:59:48.123   03 Jun 2027 14:00:02.161            14.038                Norilsk           438.687
       298   03 Jun 2027 15:22:53.638   03 Jun 2027 15:24:46.432           112.794                 Moscow          3524.813
       299   03 Jun 2027 15:26:24.384   03 Jun 2027 15:29:28.325           183.941              Murmansk2          5748.156
       300   03 Jun 2027 15:33:38.371   03 Jun 2027 15:35:26.839           108.468                Norilsk          3389.625
       301   03 Jun 2027 15:42:08.943   03 Jun 2027 15:42:49.564            40.621                Anadyr2          1269.406
       302   03 Jun 2027 15:43:40.329   03 Jun 2027 15:43:51.351            11.022                Anadyr2           344.438
       303   03 Jun 2027 15:47:13.322   03 Jun 2027 15:47:21.679             8.357                Anadyr1           261.156
       304   03 Jun 2027 16:36:18.429   03 Jun 2027 16:37:11.529            53.100               CapeTown          1659.375
       305   03 Jun 2027 16:43:06.001   03 Jun 2027 16:43:49.648            43.647               CapeTown          1363.969
       306   03 Jun 2027 17:02:23.528   03 Jun 2027 17:02:58.725            35.197                 Moscow          1099.906
       307   03 Jun 2027 17:04:27.009   03 Jun 2027 17:05:40.335            73.326              Murmansk1          2291.437
       308   03 Jun 2027 17:07:32.510   03 Jun 2027 17:07:58.489            25.979              Murmansk1           811.844
       309   03 Jun 2027 17:12:45.121   03 Jun 2027 17:13:21.922            36.801              Murmansk1          1150.031
       310   03 Jun 2027 17:16:53.544   03 Jun 2027 17:17:49.558            56.014                Anadyr1          1750.438
       311   03 Jun 2027 17:18:18.399   03 Jun 2027 17:18:27.213             8.814                Anadyr2           275.437
       312   03 Jun 2027 17:18:41.822   03 Jun 2027 17:18:51.521             9.699                Anadyr1           303.094
       313   03 Jun 2027 17:19:46.870   03 Jun 2027 17:20:11.404            24.534                Anadyr1           766.687
       314   03 Jun 2027 17:22:06.787   03 Jun 2027 17:22:28.436            21.649                Anadyr2           676.531
       315   03 Jun 2027 17:27:44.985   03 Jun 2027 17:27:53.834             8.849                Anadyr1           276.531
       316   03 Jun 2027 18:13:47.264   03 Jun 2027 18:13:55.519             8.255               CapeTown           257.969
       317   03 Jun 2027 18:14:37.020   03 Jun 2027 18:16:04.642            87.622               CapeTown          2738.188
       318   03 Jun 2027 18:45:25.244   03 Jun 2027 18:49:39.164           253.920              Murmansk1          7935.000
       319   03 Jun 2027 18:55:22.188   03 Jun 2027 18:55:36.660            14.472               Magadan2           452.250
       320   03 Jun 2027 18:55:36.660   03 Jun 2027 18:55:48.506            11.846               Magadan1           370.188
       321   03 Jun 2027 18:56:13.158   03 Jun 2027 18:56:25.834            12.676               Magadan2           396.125
       322   03 Jun 2027 18:57:15.448   03 Jun 2027 18:57:38.051            22.603               Magadan1           706.344
       323   03 Jun 2027 18:58:10.614   03 Jun 2027 18:58:20.901            10.287               Magadan2           321.469
       324   03 Jun 2027 18:59:35.451   03 Jun 2027 18:59:37.747             2.296               Magadan1            71.750
       325   03 Jun 2027 18:59:54.674   03 Jun 2027 19:00:56.788            62.114               Magadan1          1941.062
       326   03 Jun 2027 20:28:37.784   03 Jun 2027 20:32:36.107           238.323                Anadyr1          7447.594
       327   03 Jun 2027 20:32:37.845   03 Jun 2027 20:34:11.321            93.476               Magadan2          2921.125
       328   03 Jun 2027 20:35:12.249   03 Jun 2027 20:35:24.260            12.011               Magadan2           375.344
       329   03 Jun 2027 20:37:17.147   03 Jun 2027 20:37:57.964            40.817               Magadan2          1275.531
       330   03 Jun 2027 20:41:56.446   03 Jun 2027 20:42:22.970            26.524               Magadan2           828.875
       331   03 Jun 2027 21:23:27.249   03 Jun 2027 21:25:43.554           136.305            RioGallegos          4259.531
       332   03 Jun 2027 21:27:57.449   03 Jun 2027 21:29:15.815            78.366            RioGallegos          2448.937
       333   03 Jun 2027 22:04:19.810   03 Jun 2027 22:04:51.854            32.044                Anadyr2          1001.375
       334   03 Jun 2027 22:06:28.782   03 Jun 2027 22:08:14.830           106.048                Norilsk          3314.000
       335   03 Jun 2027 22:08:29.945   03 Jun 2027 22:08:51.332            21.387               Magadan1           668.344
       336   03 Jun 2027 22:10:51.287   03 Jun 2027 22:12:07.518            76.231                Irkutsk          2382.219
       337   03 Jun 2027 22:13:10.428   03 Jun 2027 22:14:09.229            58.801                Irkutsk          1837.531
       338   03 Jun 2027 22:19:45.824   03 Jun 2027 22:20:58.799            72.975                Irkutsk          2280.469
       339   03 Jun 2027 22:26:16.052   03 Jun 2027 22:27:58.341           102.289                Sumatra          3196.531
       340   03 Jun 2027 23:39:18.808   03 Jun 2027 23:39:21.459             2.651                Anadyr2            82.844
       341   03 Jun 2027 23:39:38.683   03 Jun 2027 23:40:20.107            41.424                Anadyr2          1294.500
       342   03 Jun 2027 23:41:35.708   03 Jun 2027 23:41:51.591            15.883                Anadyr1           496.344
       343   03 Jun 2027 23:42:16.427   03 Jun 2027 23:42:36.503            20.076                Anadyr2           627.375
       344   03 Jun 2027 23:43:02.169   03 Jun 2027 23:43:49.354            47.185               Magadan1          1474.531
       345   03 Jun 2027 23:43:49.354   03 Jun 2027 23:44:40.030            50.676               Magadan2          1583.625
       346   03 Jun 2027 23:46:15.174   03 Jun 2027 23:47:36.540            81.366                Irkutsk          2542.687
       347   03 Jun 2027 23:48:12.684   03 Jun 2027 23:49:55.382           102.698                Novosib          3209.312
       348   03 Jun 2027 23:53:27.947   03 Jun 2027 23:54:51.537            83.590                Novosib          2612.187
       349   03 Jun 2027 23:58:33.467   03 Jun 2027 23:59:15.821            42.354                  Delhi          1323.562
       350   04 Jun 2027 00:39:27.102   04 Jun 2027 00:39:52.006            24.904            RioGallegos           778.250
       351   04 Jun 2027 00:42:41.783   04 Jun 2027 00:42:52.573            10.790            RioGallegos           337.188
       352   04 Jun 2027 01:13:00.281   04 Jun 2027 01:13:48.095            47.814                Anadyr1          1494.188
       353   04 Jun 2027 01:13:50.245   04 Jun 2027 01:14:14.712            24.467                Anadyr1           764.594
       354   04 Jun 2027 01:14:55.466   04 Jun 2027 01:15:25.853            30.387                Anadyr1           949.594
       355   04 Jun 2027 01:18:08.517   04 Jun 2027 01:18:30.292            21.775                Anadyr1           680.469
       356   04 Jun 2027 01:18:30.292   04 Jun 2027 01:18:42.827            12.535                Anadyr2           391.719
       357   04 Jun 2027 01:18:47.318   04 Jun 2027 01:20:32.391           105.073               Magadan1          3283.531
       358   04 Jun 2027 01:20:52.205   04 Jun 2027 01:22:24.195            91.990              Murmansk1          2874.688
       359   04 Jun 2027 01:22:41.098   04 Jun 2027 01:23:14.008            32.910              Murmansk2          1028.437
       360   04 Jun 2027 01:23:19.186   04 Jun 2027 01:23:42.786            23.600              Murmansk2           737.500
       361   04 Jun 2027 01:26:51.953   04 Jun 2027 01:27:23.041            31.088                 Moscow           971.500
       362   04 Jun 2027 01:30:34.104   04 Jun 2027 01:31:42.451            68.347                  Delhi          2135.844
       363   04 Jun 2027 02:12:47.401   04 Jun 2027 02:13:14.432            27.031            RioGallegos           844.719
       364   04 Jun 2027 02:13:44.464   04 Jun 2027 02:14:27.895            43.431            RioGallegos          1357.219
       365   04 Jun 2027 02:15:26.291   04 Jun 2027 02:15:36.938            10.647            RioGallegos           332.719
       366   04 Jun 2027 02:46:19.462   04 Jun 2027 02:47:20.974            61.512                Anadyr2          1922.250
       367   04 Jun 2027 02:47:53.268   04 Jun 2027 02:48:41.385            48.117                Anadyr2          1503.656
       368   04 Jun 2027 02:51:50.634   04 Jun 2027 02:52:57.988            67.354               Magadan1          2104.812
       369   04 Jun 2027 02:54:25.207   04 Jun 2027 02:54:35.179             9.972                Norilsk           311.625
       370   04 Jun 2027 02:55:13.174   04 Jun 2027 02:55:43.682            30.508               Magadan2           953.375
       371   04 Jun 2027 02:56:31.221   04 Jun 2027 02:57:19.060            47.839              Murmansk2          1494.969
       372   04 Jun 2027 02:58:21.628   04 Jun 2027 02:58:30.583             8.955              Murmansk2           279.844
       373   04 Jun 2027 02:58:34.768   04 Jun 2027 02:58:40.103             5.335              Murmansk2           166.719
       374   04 Jun 2027 02:59:14.525   04 Jun 2027 03:00:02.282            47.757                Novosib          1492.406
       375   04 Jun 2027 03:00:44.340   04 Jun 2027 03:00:53.601             9.261              Murmansk1           289.406
       376   04 Jun 2027 03:01:05.816   04 Jun 2027 03:01:39.334            33.518                Novosib          1047.438
       377   04 Jun 2027 03:01:49.270   04 Jun 2027 03:02:37.183            47.913                Norilsk          1497.281
       378   04 Jun 2027 03:02:46.071   04 Jun 2027 03:03:12.566            26.495              Murmansk1           827.969
       379   04 Jun 2027 03:03:38.637   04 Jun 2027 03:06:49.701           191.064              Murmansk1          5970.750
       380   04 Jun 2027 04:41:56.894   04 Jun 2027 04:42:19.663            22.769                 Moscow           711.531
       381   04 Jun 2027 04:43:25.762   04 Jun 2027 04:43:41.628            15.866                 Moscow           495.812
       382   04 Jun 2027 04:59:55.254   04 Jun 2027 05:01:32.689            97.435               CapeTown          3044.844
       383   04 Jun 2027 05:56:36.558   04 Jun 2027 05:57:31.797            55.239                Anadyr2          1726.219
       384   04 Jun 2027 06:03:04.636   04 Jun 2027 06:03:35.150            30.514               Magadan1           953.562
       385   04 Jun 2027 06:03:35.150   04 Jun 2027 06:03:50.353            15.203               Magadan2           475.094
       386   04 Jun 2027 06:04:15.924   04 Jun 2027 06:07:35.239           199.315                Anadyr1          6228.594
       387   04 Jun 2027 07:38:58.017   04 Jun 2027 07:39:20.340            22.323               Magadan1           697.594
       388   04 Jun 2027 07:39:43.053   04 Jun 2027 07:40:12.021            28.968                Anadyr1           905.250
       389   04 Jun 2027 07:40:16.979   04 Jun 2027 07:40:58.424            41.445                Anadyr1          1295.156
       390   04 Jun 2027 07:41:02.480   04 Jun 2027 07:41:07.815             5.335               Magadan2           166.719
       391   04 Jun 2027 07:41:15.777   04 Jun 2027 07:41:32.145            16.368                Anadyr1           511.500
       392   04 Jun 2027 07:41:43.764   04 Jun 2027 07:42:38.132            54.368               Magadan2          1699.000
       393   04 Jun 2027 07:43:29.355   04 Jun 2027 07:44:49.210            79.855                Anadyr2          2495.469
       394   04 Jun 2027 09:13:59.223   04 Jun 2027 09:15:20.040            80.817               Magadan1          2525.531
       395   04 Jun 2027 09:15:27.901   04 Jun 2027 09:15:45.142            17.241               Magadan2           538.781
       396   04 Jun 2027 09:16:17.993   04 Jun 2027 09:16:44.477            26.484               Magadan2           827.625
       397   04 Jun 2027 09:16:44.477   04 Jun 2027 09:16:45.184             0.707               Magadan1            22.094
       398   04 Jun 2027 09:17:08.848   04 Jun 2027 09:17:45.646            36.798               Magadan2          1149.937
       399   04 Jun 2027 09:18:00.080   04 Jun 2027 09:18:00.281             0.201                Irkutsk             6.281
       400   04 Jun 2027 09:18:35.520   04 Jun 2027 09:19:10.181            34.661                Irkutsk          1083.156
       401   04 Jun 2027 09:19:14.335   04 Jun 2027 09:20:00.783            46.448                Irkutsk          1451.500
       402   04 Jun 2027 09:20:27.830   04 Jun 2027 09:20:28.037             0.207                Irkutsk             6.469
       403   04 Jun 2027 09:55:14.639   04 Jun 2027 09:56:34.312            79.673            RioGallegos          2489.781
       404   04 Jun 2027 10:30:40.759   04 Jun 2027 10:31:55.367            74.608                Sumatra          2331.500
       405   04 Jun 2027 10:37:02.713   04 Jun 2027 10:37:11.674             8.961                Sumatra           280.031
       406   04 Jun 2027 10:50:19.334   04 Jun 2027 10:51:24.217            64.883                Novosib          2027.594
       407   04 Jun 2027 10:51:44.634   04 Jun 2027 10:51:56.879            12.245                Novosib           382.656
       408   04 Jun 2027 10:52:15.964   04 Jun 2027 10:52:45.804            29.840                Novosib           932.500
       409   04 Jun 2027 10:52:47.864   04 Jun 2027 10:52:55.278             7.414                Novosib           231.687
       410   04 Jun 2027 10:53:16.550   04 Jun 2027 10:53:46.886            30.336                Norilsk           948.000
       411   04 Jun 2027 10:54:03.061   04 Jun 2027 10:54:26.204            23.143                Norilsk           723.219
       412   04 Jun 2027 10:54:50.302   04 Jun 2027 10:55:06.570            16.268                Irkutsk           508.375
       413   04 Jun 2027 10:55:09.491   04 Jun 2027 10:55:19.674            10.183                Novosib           318.219
       414   04 Jun 2027 10:55:25.561   04 Jun 2027 10:56:27.710            62.149                Irkutsk          1942.156
       415   04 Jun 2027 11:33:02.531   04 Jun 2027 11:33:41.498            38.967            RioGallegos          1217.719
       416   04 Jun 2027 12:07:15.313   04 Jun 2027 12:07:25.813            10.500                Sumatra           328.125
       417   04 Jun 2027 12:07:49.126   04 Jun 2027 12:08:01.813            12.687                Sumatra           396.469
       418   04 Jun 2027 12:11:18.282   04 Jun 2027 12:12:25.310            67.028                Sumatra          2094.625
       419   04 Jun 2027 12:21:25.401   04 Jun 2027 12:21:30.013             4.612                Novosib           144.125
       420   04 Jun 2027 12:22:33.894   04 Jun 2027 12:24:23.933           110.039                Novosib          3438.719
       421   04 Jun 2027 13:52:33.263   04 Jun 2027 13:55:23.526           170.263                  Delhi          5320.719
       422   04 Jun 2027 13:59:57.381   04 Jun 2027 14:00:42.403            45.022                 Moscow          1406.938
       423   04 Jun 2027 14:01:04.695   04 Jun 2027 14:01:30.509            25.814                Novosib           806.688
       424   04 Jun 2027 14:02:07.063   04 Jun 2027 14:03:02.797            55.734                Novosib          1741.688
       425   04 Jun 2027 14:03:30.171   04 Jun 2027 14:03:59.005            28.834              Murmansk2           901.062
       426   04 Jun 2027 14:04:17.257   04 Jun 2027 14:04:44.874            27.617                Norilsk           863.031
       427   04 Jun 2027 14:04:56.831   04 Jun 2027 14:05:31.168            34.337                Norilsk          1073.031
       428   04 Jun 2027 14:07:10.640   04 Jun 2027 14:08:00.969            50.329                Norilsk          1572.781
       429   04 Jun 2027 15:15:58.367   04 Jun 2027 15:17:30.789            92.422               CapeTown          2888.187
       430   04 Jun 2027 15:17:57.760   04 Jun 2027 15:18:49.592            51.832               CapeTown          1619.750
       431   04 Jun 2027 15:35:06.451   04 Jun 2027 15:35:55.064            48.613                 Moscow          1519.156
       432   04 Jun 2027 15:36:18.998   04 Jun 2027 15:36:47.265            28.267                 Moscow           883.344
       433   04 Jun 2027 15:38:34.879   04 Jun 2027 15:39:16.909            42.030              Murmansk1          1313.437
       434   04 Jun 2027 15:41:26.367   04 Jun 2027 15:41:30.518             4.151              Murmansk1           129.719
       435   04 Jun 2027 15:41:46.127   04 Jun 2027 15:42:48.827            62.700              Murmansk2          1959.375
       436   04 Jun 2027 15:53:49.743   04 Jun 2027 15:54:58.352            68.609                Anadyr1          2144.031
       437   04 Jun 2027 15:55:33.277   04 Jun 2027 15:55:55.732            22.455                Anadyr1           701.719
       438   04 Jun 2027 15:55:56.712   04 Jun 2027 15:56:07.607            10.895                Anadyr1           340.469
       439   04 Jun 2027 15:59:11.104   04 Jun 2027 15:59:15.851             4.747                Anadyr2           148.344
       440   04 Jun 2027 15:59:46.931   04 Jun 2027 16:00:15.223            28.292                Anadyr2           884.125
       441   04 Jun 2027 16:51:20.992   04 Jun 2027 16:51:53.249            32.257               CapeTown          1008.031
       442   04 Jun 2027 16:57:02.005   04 Jun 2027 16:57:30.306            28.301               CapeTown           884.406
       443   04 Jun 2027 17:15:25.812   04 Jun 2027 17:16:33.673            67.861                 Moscow          2120.656
       444   04 Jun 2027 17:16:54.568   04 Jun 2027 17:17:03.709             9.141              Murmansk1           285.656
       445   04 Jun 2027 17:17:24.963   04 Jun 2027 17:17:33.931             8.968              Murmansk2           280.250
       446   04 Jun 2027 17:17:57.540   04 Jun 2027 17:19:43.643           106.103                 Moscow          3315.719
       447   04 Jun 2027 17:28:52.808   04 Jun 2027 17:29:38.863            46.055                Anadyr2          1439.219
       448   04 Jun 2027 17:30:08.311   04 Jun 2027 17:30:32.050            23.739                Anadyr2           741.844
       449   04 Jun 2027 17:31:09.788   04 Jun 2027 17:31:11.832             2.044                Anadyr1            63.875
       450   04 Jun 2027 17:31:17.933   04 Jun 2027 17:31:46.689            28.756                Anadyr2           898.625
       451   04 Jun 2027 18:25:14.753   04 Jun 2027 18:26:23.404            68.651               CapeTown          2145.344
       452   04 Jun 2027 18:58:36.537   04 Jun 2027 19:01:36.813           180.276              Murmansk2          5633.625
       453   04 Jun 2027 19:04:43.580   04 Jun 2027 19:06:31.020           107.440                Anadyr1          3357.500
       454   04 Jun 2027 19:07:17.355   04 Jun 2027 19:07:51.443            34.088               Magadan2          1065.250
       455   04 Jun 2027 19:08:00.954   04 Jun 2027 19:08:34.264            33.310               Magadan1          1040.938
       456   04 Jun 2027 19:11:17.425   04 Jun 2027 19:12:02.327            44.902               Magadan1          1403.188
       457   04 Jun 2027 19:17:06.709   04 Jun 2027 19:17:22.636            15.927               Magadan1           497.719
       458   04 Jun 2027 20:40:38.793   04 Jun 2027 20:42:46.426           127.633                Anadyr2          3988.531
       459   04 Jun 2027 20:42:55.377   04 Jun 2027 20:47:12.803           257.426               Magadan2          8044.563
       460   04 Jun 2027 20:52:30.754   04 Jun 2027 20:52:34.412             3.658               Magadan2           114.312
       461   04 Jun 2027 20:53:47.076   04 Jun 2027 20:54:23.706            36.630               Magadan2          1144.688
       462   04 Jun 2027 21:35:12.025   04 Jun 2027 21:37:38.026           146.001            RioGallegos          4562.531
       463   04 Jun 2027 21:38:47.858   04 Jun 2027 21:39:07.733            19.875            RioGallegos           621.094
       464   04 Jun 2027 21:44:11.272   04 Jun 2027 21:44:19.894             8.622            RioGallegos           269.438
       465   04 Jun 2027 22:16:17.251   04 Jun 2027 22:16:52.861            35.610                Anadyr1          1112.812
       466   04 Jun 2027 22:18:28.956   04 Jun 2027 22:18:37.524             8.568                Norilsk           267.750
       467   04 Jun 2027 22:18:57.952   04 Jun 2027 22:20:59.882           121.930               Magadan1          3810.313
       468   04 Jun 2027 22:21:36.427   04 Jun 2027 22:21:58.058            21.631                Norilsk           675.969
       469   04 Jun 2027 22:22:43.414   04 Jun 2027 22:23:26.417            43.003                Irkutsk          1343.844
       470   04 Jun 2027 22:23:28.153   04 Jun 2027 22:23:50.564            22.411               Magadan2           700.344
       471   04 Jun 2027 22:24:07.840   04 Jun 2027 22:24:31.431            23.591                Irkutsk           737.219
       472   04 Jun 2027 22:25:05.033   04 Jun 2027 22:25:16.742            11.709                Novosib           365.906
       473   04 Jun 2027 22:25:29.676   04 Jun 2027 22:25:58.178            28.502                Novosib           890.688
       474   04 Jun 2027 22:26:30.413   04 Jun 2027 22:27:45.312            74.899                Novosib          2340.594
       475   04 Jun 2027 22:37:11.469   04 Jun 2027 22:38:42.888            91.419                Sumatra          2856.844
       476   04 Jun 2027 23:51:05.634   04 Jun 2027 23:51:42.710            37.076                Anadyr1          1158.625
       477   04 Jun 2027 23:52:18.244   04 Jun 2027 23:53:02.137            43.893                Anadyr1          1371.656
       478   04 Jun 2027 23:53:32.815   04 Jun 2027 23:53:51.835            19.020                Anadyr1           594.375
       479   04 Jun 2027 23:54:54.473   04 Jun 2027 23:56:06.580            72.107                Norilsk          2253.344
       480   04 Jun 2027 23:56:16.092   04 Jun 2027 23:56:16.811             0.719                Norilsk            22.469
       481   04 Jun 2027 23:56:19.145   04 Jun 2027 23:56:30.105            10.960               Magadan2           342.500
       482   04 Jun 2027 23:56:30.105   04 Jun 2027 23:56:47.305            17.200               Magadan1           537.500
