uniorb/output/strategy_4/Drop/Drop_KinoSat_111305.txt

KinoSat_111305
-------------------------
    Access    *     Start Time (UTCG)     *     Stop Time (UTCG)  *   Duration (s)        *       Station  *  Data (Mbytes)
         1   01 Jun 2027 03:29:41.953   01 Jun 2027 03:30:47.189            65.236              Murmansk1          2038.625
         2   01 Jun 2027 03:31:00.066   01 Jun 2027 03:33:57.976           177.910              Murmansk1          5559.688
         3   01 Jun 2027 03:33:57.976   01 Jun 2027 03:34:21.627            23.651              Murmansk2           739.094
         4   01 Jun 2027 04:52:21.077   01 Jun 2027 04:52:29.845             8.768               Magadan1           274.000
         5   01 Jun 2027 04:52:45.246   01 Jun 2027 04:56:44.653           239.407                Anadyr1          7481.469
         6   01 Jun 2027 04:57:18.073   01 Jun 2027 04:58:06.697            48.624               Magadan2          1519.500
         7   01 Jun 2027 06:26:58.713   01 Jun 2027 06:27:04.081             5.368                Anadyr2           167.750
         8   01 Jun 2027 06:27:07.214   01 Jun 2027 06:27:44.772            37.558               Magadan1          1173.688
         9   01 Jun 2027 06:27:50.718   01 Jun 2027 06:29:23.636            92.918                Anadyr2          2903.688
        10   01 Jun 2027 06:29:37.673   01 Jun 2027 06:32:07.888           150.215                Anadyr2          4694.219
        11   01 Jun 2027 06:32:07.888   01 Jun 2027 06:32:37.375            29.487                Anadyr1           921.469
        12   01 Jun 2027 08:02:33.635   01 Jun 2027 08:03:30.888            57.253               Magadan2          1789.156
        13   01 Jun 2027 08:03:30.888   01 Jun 2027 08:03:40.565             9.677               Magadan1           302.406
        14   01 Jun 2027 08:03:54.391   01 Jun 2027 08:04:41.093            46.702               Magadan2          1459.437
        15   01 Jun 2027 08:04:55.360   01 Jun 2027 08:08:16.587           201.227                Anadyr1          6288.344
        16   01 Jun 2027 08:08:27.446   01 Jun 2027 08:09:54.802            87.356               Magadan1          2729.875
        17   01 Jun 2027 08:10:22.465   01 Jun 2027 08:10:35.075            12.610              Murmansk1           394.062
        18   01 Jun 2027 08:45:01.435   01 Jun 2027 08:46:37.100            95.665            RioGallegos          2989.531
        19   01 Jun 2027 09:22:32.888   01 Jun 2027 09:23:50.166            77.278                Sumatra          2414.938
        20   01 Jun 2027 09:40:28.386   01 Jun 2027 09:43:35.876           187.490               Magadan1          5859.063
        21   01 Jun 2027 09:43:35.876   01 Jun 2027 09:43:55.723            19.847               Magadan2           620.219
        22   01 Jun 2027 09:44:08.198   01 Jun 2027 09:45:03.162            54.964                Irkutsk          1717.625
        23   01 Jun 2027 09:45:25.317   01 Jun 2027 09:45:28.780             3.463                Novosib           108.219
        24   01 Jun 2027 09:45:56.217   01 Jun 2027 09:46:36.446            40.229                Norilsk          1257.156
        25   01 Jun 2027 09:46:43.100   01 Jun 2027 09:47:48.894            65.794              Murmansk2          2056.062
        26   01 Jun 2027 09:47:54.746   01 Jun 2027 09:48:34.931            40.185              Murmansk2          1255.781
        27   01 Jun 2027 09:51:14.757   01 Jun 2027 09:51:55.303            40.546              Murmansk1          1267.063
        28   01 Jun 2027 10:20:54.024   01 Jun 2027 10:21:57.898            63.874            RioGallegos          1996.062
        29   01 Jun 2027 10:22:34.380   01 Jun 2027 10:23:38.906            64.526            RioGallegos          2016.437
        30   01 Jun 2027 10:25:05.422   01 Jun 2027 10:25:27.368            21.946            RioGallegos           685.813
        31   01 Jun 2027 10:55:25.408   01 Jun 2027 10:56:38.521            73.113                Sumatra          2284.781
        32   01 Jun 2027 10:57:56.075   01 Jun 2027 10:58:30.222            34.147                Sumatra          1067.094
        33   01 Jun 2027 10:59:34.814   01 Jun 2027 10:59:42.082             7.268                Sumatra           227.125
        34   01 Jun 2027 11:15:35.128   01 Jun 2027 11:15:53.509            18.381                  Delhi           574.406
        35   01 Jun 2027 11:17:46.556   01 Jun 2027 11:18:45.104            58.548                 Moscow          1829.625
        36   01 Jun 2027 11:19:09.813   01 Jun 2027 11:23:17.691           247.878                Novosib          7746.188
        37   01 Jun 2027 12:04:08.887   01 Jun 2027 12:05:35.174            86.287            RioGallegos          2696.469
        38   01 Jun 2027 12:47:54.057   01 Jun 2027 12:49:18.430            84.373                Novosib          2636.656
        39   01 Jun 2027 12:51:39.537   01 Jun 2027 12:53:02.252            82.715                Novosib          2584.844
        40   01 Jun 2027 12:53:03.963   01 Jun 2027 12:54:11.893            67.930                Norilsk          2122.813
        41   01 Jun 2027 12:55:51.318   01 Jun 2027 12:56:58.534            67.216                Norilsk          2100.500
        42   01 Jun 2027 14:23:59.375   01 Jun 2027 14:26:23.297           143.922                 Moscow          4497.562
        43   01 Jun 2027 14:27:13.951   01 Jun 2027 14:27:57.498            43.547                 Moscow          1360.844
        44   01 Jun 2027 14:28:51.414   01 Jun 2027 14:30:31.771           100.357              Murmansk2          3136.156
        45   01 Jun 2027 14:32:09.470   01 Jun 2027 14:33:44.312            94.842                Norilsk          2963.812
        46   01 Jun 2027 14:34:49.181   01 Jun 2027 14:35:13.815            24.634                Norilsk           769.812
        47   01 Jun 2027 14:35:44.707   01 Jun 2027 14:36:52.414            67.707                Norilsk          2115.844
        48   01 Jun 2027 15:38:14.692   01 Jun 2027 15:39:27.573            72.881               CapeTown          2277.531
        49   01 Jun 2027 16:01:48.654   01 Jun 2027 16:02:29.527            40.873                 Moscow          1277.281
        50   01 Jun 2027 16:03:35.128   01 Jun 2027 16:04:05.801            30.673                 Moscow           958.531
        51   01 Jun 2027 16:04:46.731   01 Jun 2027 16:05:46.455            59.724              Murmansk1          1866.375
        52   01 Jun 2027 16:07:05.054   01 Jun 2027 16:07:35.485            30.431              Murmansk2           950.969
        53   01 Jun 2027 16:08:54.606   01 Jun 2027 16:09:24.478            29.872              Murmansk1           933.500
        54   01 Jun 2027 16:18:24.644   01 Jun 2027 16:20:29.678           125.034                Anadyr1          3907.312
        55   01 Jun 2027 16:24:21.841   01 Jun 2027 16:24:24.493             2.652                Anadyr2            82.875
        56   01 Jun 2027 16:25:46.319   01 Jun 2027 16:25:48.063             1.744                Anadyr2            54.500
        57   01 Jun 2027 16:27:00.602   01 Jun 2027 16:27:14.004            13.402                Anadyr1           418.812
        58   01 Jun 2027 16:27:27.678   01 Jun 2027 16:28:03.198            35.520                Anadyr1          1110.000
        59   01 Jun 2027 17:13:35.409   01 Jun 2027 17:15:32.634           117.225               CapeTown          3663.281
        60   01 Jun 2027 17:44:27.496   01 Jun 2027 17:48:41.255           253.759              Murmansk2          7929.969
        61   01 Jun 2027 17:48:47.792   01 Jun 2027 17:50:16.195            88.403              Murmansk1          2762.594
        62   01 Jun 2027 17:57:11.989   01 Jun 2027 17:58:33.736            81.747               Magadan1          2554.594
        63   01 Jun 2027 19:29:58.336   01 Jun 2027 19:31:50.856           112.520                Anadyr1          3516.250
        64   01 Jun 2027 19:32:03.530   01 Jun 2027 19:33:17.327            73.797                Anadyr2          2306.156
        65   01 Jun 2027 19:33:30.896   01 Jun 2027 19:33:48.700            17.804                Anadyr2           556.375
        66   01 Jun 2027 19:34:05.032   01 Jun 2027 19:34:35.786            30.754               Magadan2           961.062
        67   01 Jun 2027 19:34:56.254   01 Jun 2027 19:36:02.417            66.163               Magadan1          2067.594
        68   01 Jun 2027 19:37:00.060   01 Jun 2027 19:37:58.886            58.826               Magadan2          1838.312
        69   01 Jun 2027 19:38:16.494   01 Jun 2027 19:39:17.149            60.655               Magadan2          1895.469
        70   01 Jun 2027 20:26:20.659   01 Jun 2027 20:28:44.351           143.692            RioGallegos          4490.375
        71   01 Jun 2027 20:31:30.851   01 Jun 2027 20:31:32.206             1.355            RioGallegos            42.344
        72   01 Jun 2027 21:05:47.807   01 Jun 2027 21:08:04.675           136.868                Anadyr1          4277.125
        73   01 Jun 2027 21:08:11.758   01 Jun 2027 21:10:51.962           160.204               Magadan2          5006.375
        74   01 Jun 2027 21:10:56.513   01 Jun 2027 21:11:12.960            16.447               Magadan2           513.969
        75   01 Jun 2027 21:12:56.320   01 Jun 2027 21:16:04.190           187.870                Irkutsk          5870.937
        76   01 Jun 2027 21:28:00.461   01 Jun 2027 21:30:09.724           129.263                Sumatra          4039.469
        77   01 Jun 2027 22:41:05.384   01 Jun 2027 22:41:37.674            32.290                Anadyr1          1009.062
        78   01 Jun 2027 22:42:54.476   01 Jun 2027 22:43:36.379            41.903                Anadyr2          1309.469
        79   01 Jun 2027 22:43:42.331   01 Jun 2027 22:45:23.784           101.453                Norilsk          3170.406
        80   01 Jun 2027 22:46:17.662   01 Jun 2027 22:46:59.910            42.248               Magadan2          1320.250
        81   01 Jun 2027 22:48:20.303   01 Jun 2027 22:49:04.336            44.033                Novosib          1376.031
        82   01 Jun 2027 22:51:14.245   01 Jun 2027 22:51:43.297            29.052                Novosib           907.875
        83   01 Jun 2027 22:54:59.072   01 Jun 2027 22:56:38.843            99.771                Novosib          3117.844
        84   01 Jun 2027 22:58:35.564   01 Jun 2027 22:59:43.644            68.080                  Delhi          2127.500
        85   01 Jun 2027 23:46:46.017   01 Jun 2027 23:46:56.496            10.479            RioGallegos           327.469
        86   02 Jun 2027 00:15:14.518   02 Jun 2027 00:16:55.078           100.560                Anadyr2          3142.500
        87   02 Jun 2027 00:16:55.078   02 Jun 2027 00:17:29.304            34.226                Anadyr1          1069.562
        88   02 Jun 2027 00:19:42.609   02 Jun 2027 00:19:59.336            16.727                Norilsk           522.719
        89   02 Jun 2027 00:20:17.796   02 Jun 2027 00:21:08.193            50.397               Magadan1          1574.906
        90   02 Jun 2027 00:21:27.061   02 Jun 2027 00:21:45.478            18.417                Norilsk           575.531
        91   02 Jun 2027 00:21:53.142   02 Jun 2027 00:22:29.944            36.802               Magadan2          1150.063
        92   02 Jun 2027 00:22:41.847   02 Jun 2027 00:25:01.175           139.328              Murmansk1          4354.000
        93   02 Jun 2027 00:25:41.757   02 Jun 2027 00:26:33.225            51.468              Murmansk1          1608.375
        94   02 Jun 2027 00:27:13.447   02 Jun 2027 00:27:50.075            36.628              Murmansk2          1144.625
        95   02 Jun 2027 00:30:51.303   02 Jun 2027 00:30:52.447             1.144                  Delhi            35.750
        96   02 Jun 2027 00:35:04.990   02 Jun 2027 00:35:57.961            52.971                  Delhi          1655.344
        97   02 Jun 2027 01:12:41.987   02 Jun 2027 01:13:46.148            64.161            RioGallegos          2005.031
        98   02 Jun 2027 01:15:13.379   02 Jun 2027 01:15:49.081            35.702            RioGallegos          1115.687
        99   02 Jun 2027 01:48:32.269   02 Jun 2027 01:48:55.966            23.697                Anadyr1           740.531
       100   02 Jun 2027 01:49:22.562   02 Jun 2027 01:49:33.085            10.523                Anadyr2           328.844
       101   02 Jun 2027 01:50:00.040   02 Jun 2027 01:51:05.993            65.953                Anadyr1          2061.031
       102   02 Jun 2027 01:53:44.235   02 Jun 2027 01:54:16.980            32.745                Anadyr2          1023.281
       103   02 Jun 2027 01:54:37.232   02 Jun 2027 01:55:22.112            44.880               Magadan1          1402.500
       104   02 Jun 2027 01:55:38.292   02 Jun 2027 01:55:59.013            20.721                Norilsk           647.531
       105   02 Jun 2027 01:56:12.113   02 Jun 2027 01:56:45.903            33.790               Magadan1          1055.937
       106   02 Jun 2027 01:57:33.936   02 Jun 2027 01:57:45.290            11.354                Norilsk           354.813
       107   02 Jun 2027 01:57:53.160   02 Jun 2027 01:58:19.623            26.463              Murmansk1           826.969
       108   02 Jun 2027 01:58:39.980   02 Jun 2027 02:00:08.280            88.300              Murmansk1          2759.375
       109   02 Jun 2027 02:01:00.306   02 Jun 2027 02:01:15.791            15.485                Irkutsk           483.906
       110   02 Jun 2027 02:03:04.448   02 Jun 2027 02:04:41.365            96.917                 Moscow          3028.656
       111   02 Jun 2027 02:14:46.612   02 Jun 2027 02:15:01.210            14.598                  Delhi           456.188
       112   02 Jun 2027 02:30:30.056   02 Jun 2027 02:30:59.673            29.617               CapeTown           925.531
       113   02 Jun 2027 03:27:00.357   02 Jun 2027 03:27:12.815            12.458                Anadyr2           389.312
       114   02 Jun 2027 03:28:21.565   02 Jun 2027 03:28:30.062             8.497                Anadyr1           265.531
       115   02 Jun 2027 03:42:34.293   02 Jun 2027 03:44:35.976           121.683              Murmansk2          3802.594
       116   02 Jun 2027 03:44:49.663   02 Jun 2027 03:45:09.975            20.312              Murmansk2           634.750
       117   02 Jun 2027 03:45:09.975   02 Jun 2027 03:45:20.126            10.151              Murmansk1           317.219
       118   02 Jun 2027 03:46:01.895   02 Jun 2027 03:46:37.166            35.271                 Moscow          1102.219
       119   02 Jun 2027 03:47:10.484   02 Jun 2027 03:47:14.133             3.649                 Moscow           114.031
       120   02 Jun 2027 03:47:23.277   02 Jun 2027 03:47:28.434             5.157                 Moscow           161.156
       121   02 Jun 2027 04:00:54.735   02 Jun 2027 04:03:38.994           164.259               CapeTown          5133.094
       122   02 Jun 2027 05:04:17.342   02 Jun 2027 05:06:17.787           120.445               Magadan2          3763.906
       123   02 Jun 2027 05:06:43.762   02 Jun 2027 05:07:27.787            44.025                Anadyr2          1375.781
       124   02 Jun 2027 06:44:51.434   02 Jun 2027 06:45:38.087            46.653                Anadyr2          1457.906
       125   02 Jun 2027 08:16:18.754   02 Jun 2027 08:18:56.985           158.231                Anadyr2          4944.719
       126   02 Jun 2027 08:19:16.046   02 Jun 2027 08:21:16.985           120.939               Magadan2          3779.344
       127   02 Jun 2027 08:21:46.891   02 Jun 2027 08:21:51.539             4.648               Magadan2           145.250
       128   02 Jun 2027 09:52:25.123   02 Jun 2027 09:52:34.373             9.250                Novosib           289.063
       129   02 Jun 2027 09:53:02.738   02 Jun 2027 09:54:33.374            90.636               Magadan1          2832.375
       130   02 Jun 2027 09:55:32.919   02 Jun 2027 09:55:46.894            13.975                Novosib           436.719
       131   02 Jun 2027 09:55:49.554   02 Jun 2027 09:55:59.502             9.948                Irkutsk           310.875
       132   02 Jun 2027 09:56:06.525   02 Jun 2027 09:57:02.435            55.910                Novosib          1747.187
       133   02 Jun 2027 09:57:07.902   02 Jun 2027 09:57:10.651             2.749                Novosib            85.906
       134   02 Jun 2027 09:57:28.323   02 Jun 2027 09:57:54.332            26.009                Novosib           812.781
       135   02 Jun 2027 10:33:11.382   02 Jun 2027 10:33:12.709             1.327            RioGallegos            41.469
       136   02 Jun 2027 10:34:08.441   02 Jun 2027 10:34:37.266            28.825            RioGallegos           900.781
       137   02 Jun 2027 10:37:53.511   02 Jun 2027 10:37:56.441             2.930            RioGallegos            91.563
       138   02 Jun 2027 10:41:32.569   02 Jun 2027 10:42:13.907            41.338            RioGallegos          1291.812
       139   02 Jun 2027 11:07:34.488   02 Jun 2027 11:08:00.590            26.102                Sumatra           815.688
       140   02 Jun 2027 11:16:34.471   02 Jun 2027 11:16:56.216            21.745                  Delhi           679.531
       141   02 Jun 2027 11:28:25.390   02 Jun 2027 11:28:56.988            31.598                Irkutsk           987.437
       142   02 Jun 2027 11:29:35.608   02 Jun 2027 11:29:38.479             2.871                Norilsk            89.719
       143   02 Jun 2027 11:29:46.411   02 Jun 2027 11:29:49.888             3.477                Irkutsk           108.656
       144   02 Jun 2027 11:30:11.982   02 Jun 2027 11:31:04.516            52.534                Irkutsk          1641.688
       145   02 Jun 2027 11:31:14.136   02 Jun 2027 11:31:18.015             3.879                Norilsk           121.219
       146   02 Jun 2027 11:31:30.760   02 Jun 2027 11:31:52.419            21.659                Norilsk           676.844
       147   02 Jun 2027 11:32:06.889   02 Jun 2027 11:33:14.575            67.686                Novosib          2115.188
       148   02 Jun 2027 11:33:22.549   02 Jun 2027 11:33:38.602            16.053                Norilsk           501.656
       149   02 Jun 2027 12:52:12.942   02 Jun 2027 12:53:24.633            71.691                  Delhi          2240.344
       150   02 Jun 2027 12:56:36.363   02 Jun 2027 12:57:18.985            42.622                  Delhi          1331.937
       151   02 Jun 2027 13:00:24.890   02 Jun 2027 13:02:05.172           100.282                Novosib          3133.812
       152   02 Jun 2027 13:03:41.762   02 Jun 2027 13:04:48.223            66.461                Novosib          2076.906
       153   02 Jun 2027 13:05:05.515   02 Jun 2027 13:05:13.504             7.989                Norilsk           249.656
       154   02 Jun 2027 13:05:31.645   02 Jun 2027 13:05:59.796            28.151                Norilsk           879.719
       155   02 Jun 2027 13:07:54.710   02 Jun 2027 13:08:58.895            64.185                Norilsk          2005.781
       156   02 Jun 2027 14:36:03.130   02 Jun 2027 14:38:16.098           132.968                 Moscow          4155.250
       157   02 Jun 2027 14:39:19.149   02 Jun 2027 14:39:42.034            22.885                 Moscow           715.156
       158   02 Jun 2027 14:40:53.157   02 Jun 2027 14:41:33.017            39.860              Murmansk2          1245.625
       159   02 Jun 2027 14:41:40.740   02 Jun 2027 14:42:49.332            68.592              Murmansk1          2143.500
       160   02 Jun 2027 14:43:12.538   02 Jun 2027 14:43:38.423            25.885              Murmansk1           808.906
       161   02 Jun 2027 14:44:47.889   02 Jun 2027 14:44:53.980             6.091              Murmansk2           190.344
       162   02 Jun 2027 14:45:00.588   02 Jun 2027 14:46:46.027           105.439                Norilsk          3294.969
       163   02 Jun 2027 14:48:24.515   02 Jun 2027 14:49:04.751            40.236                Norilsk          1257.375
       164   02 Jun 2027 15:49:59.515   02 Jun 2027 15:51:35.522            96.007               CapeTown          3000.219
       165   02 Jun 2027 16:00:21.622   02 Jun 2027 16:01:17.228            55.606               CapeTown          1737.687
       166   02 Jun 2027 16:17:07.491   02 Jun 2027 16:17:54.432            46.941              Murmansk2          1466.906
       167   02 Jun 2027 16:19:06.969   02 Jun 2027 16:19:41.448            34.479              Murmansk1          1077.469
       168   02 Jun 2027 16:20:29.750   02 Jun 2027 16:20:52.608            22.858              Murmansk1           714.313
       169   02 Jun 2027 16:26:17.976   02 Jun 2027 16:26:35.856            17.880              Murmansk1           558.750
       170   02 Jun 2027 16:30:21.428   02 Jun 2027 16:32:05.652           104.224                Anadyr1          3257.000
       171   02 Jun 2027 16:32:20.640   02 Jun 2027 16:33:08.961            48.321                Anadyr2          1510.031
       172   02 Jun 2027 16:39:01.581   02 Jun 2027 16:39:20.575            18.994                Anadyr2           593.563
       173   02 Jun 2027 17:25:46.026   02 Jun 2027 17:26:47.509            61.483               CapeTown          1921.344
       174   02 Jun 2027 17:35:28.712   02 Jun 2027 17:35:31.407             2.695               CapeTown            84.219
       175   02 Jun 2027 17:36:17.826   02 Jun 2027 17:36:31.285            13.459               CapeTown           420.594
       176   02 Jun 2027 17:57:12.147   02 Jun 2027 18:02:34.071           321.924              Murmansk1         10060.125
       177   02 Jun 2027 18:09:00.597   02 Jun 2027 18:10:23.779            83.182               Magadan2          2599.438
       178   02 Jun 2027 18:11:45.165   02 Jun 2027 18:12:10.307            25.142               Magadan2           785.687
       179   02 Jun 2027 19:41:59.763   02 Jun 2027 19:45:33.714           213.951                Anadyr1          6685.969
       180   02 Jun 2027 19:45:36.768   02 Jun 2027 19:48:32.388           175.620               Magadan2          5488.125
       181   02 Jun 2027 19:48:46.016   02 Jun 2027 19:49:02.751            16.735               Magadan2           522.969
       182   02 Jun 2027 19:51:19.633   02 Jun 2027 19:51:21.931             2.298               Magadan1            71.812
       183   02 Jun 2027 19:51:21.931   02 Jun 2027 19:51:48.619            26.688               Magadan2           834.000
       184   02 Jun 2027 20:37:36.791   02 Jun 2027 20:40:25.247           168.456            RioGallegos          5264.250
       185   02 Jun 2027 20:43:23.437   02 Jun 2027 20:43:47.386            23.949            RioGallegos           748.406
       186   02 Jun 2027 21:17:46.948   02 Jun 2027 21:18:18.253            31.305                Anadyr2           978.281
       187   02 Jun 2027 21:19:22.924   02 Jun 2027 21:19:59.460            36.536                Anadyr2          1141.750
       188   02 Jun 2027 21:20:14.266   02 Jun 2027 21:21:32.261            77.995               Magadan1          2437.344
       189   02 Jun 2027 21:21:43.709   02 Jun 2027 21:23:37.601           113.892                Norilsk          3559.125
       190   02 Jun 2027 21:24:37.996   02 Jun 2027 21:24:52.972            14.976                Irkutsk           468.000
       191   02 Jun 2027 21:25:41.169   02 Jun 2027 21:27:17.475            96.306                Irkutsk          3009.562
       192   02 Jun 2027 21:39:11.642   02 Jun 2027 21:39:50.356            38.714                Sumatra          1209.812
       193   02 Jun 2027 21:42:32.211   02 Jun 2027 21:42:56.339            24.128                Sumatra           754.000
       194   02 Jun 2027 21:44:00.039   02 Jun 2027 21:45:09.561            69.522                Sumatra          2172.562
       195   02 Jun 2027 22:52:57.823   02 Jun 2027 22:53:30.094            32.271                Anadyr1          1008.469
       196   02 Jun 2027 22:53:59.615   02 Jun 2027 22:54:10.623            11.008                Anadyr1           344.000
       197   02 Jun 2027 22:56:14.955   02 Jun 2027 22:57:45.039            90.084                Norilsk          2815.125
       198   02 Jun 2027 22:57:48.878   02 Jun 2027 22:58:29.815            40.937               Magadan2          1279.281
       199   02 Jun 2027 22:59:37.523   02 Jun 2027 23:01:25.585           108.062                Irkutsk          3376.937
       200   02 Jun 2027 23:03:09.367   02 Jun 2027 23:03:27.292            17.925                Novosib           560.156
       201   02 Jun 2027 23:09:21.973   02 Jun 2027 23:11:40.696           138.723                  Delhi          4335.094
       202   02 Jun 2027 23:58:51.269   02 Jun 2027 23:59:19.676            28.407            RioGallegos           887.719
       203   03 Jun 2027 00:26:57.454   03 Jun 2027 00:27:14.008            16.554                Anadyr1           517.312
       204   03 Jun 2027 00:27:26.900   03 Jun 2027 00:27:40.628            13.728                Anadyr2           429.000
       205   03 Jun 2027 00:28:17.193   03 Jun 2027 00:29:14.339            57.146                Anadyr2          1785.812
       206   03 Jun 2027 00:31:44.597   03 Jun 2027 00:32:00.977            16.380                Norilsk           511.875
       207   03 Jun 2027 00:32:16.877   03 Jun 2027 00:34:03.955           107.078               Magadan2          3346.187
       208   03 Jun 2027 00:34:29.494   03 Jun 2027 00:35:56.647            87.153              Murmansk1          2723.531
       209   03 Jun 2027 00:35:57.018   03 Jun 2027 00:37:43.217           106.199              Murmansk2          3318.719
       210   03 Jun 2027 00:42:51.395   03 Jun 2027 00:45:22.386           150.991                  Delhi          4718.469
       211   03 Jun 2027 01:26:47.108   03 Jun 2027 01:27:54.685            67.577            RioGallegos          2111.781
       212   03 Jun 2027 02:00:14.427   03 Jun 2027 02:00:44.429            30.002                Anadyr1           937.562
       213   03 Jun 2027 02:01:34.412   03 Jun 2027 02:02:14.004            39.592                Anadyr1          1237.250
       214   03 Jun 2027 02:05:02.089   03 Jun 2027 02:05:45.556            43.467                Anadyr1          1358.344
       215   03 Jun 2027 02:06:09.935   03 Jun 2027 02:07:03.954            54.019               Magadan1          1688.094
       216   03 Jun 2027 02:08:12.146   03 Jun 2027 02:08:14.302             2.156               Magadan2            67.375
       217   03 Jun 2027 02:08:44.137   03 Jun 2027 02:09:05.560            21.423               Magadan1           669.469
       218   03 Jun 2027 02:09:49.811   03 Jun 2027 02:09:56.067             6.256               Magadan1           195.500
       219   03 Jun 2027 02:10:21.182   03 Jun 2027 02:12:00.329            99.147              Murmansk2          3098.344
       220   03 Jun 2027 02:13:05.196   03 Jun 2027 02:13:32.259            27.063                Novosib           845.719
       221   03 Jun 2027 02:14:35.916   03 Jun 2027 02:14:44.628             8.712                 Moscow           272.250
       222   03 Jun 2027 02:17:13.063   03 Jun 2027 02:17:32.295            19.232                Irkutsk           601.000
       223   03 Jun 2027 02:19:11.773   03 Jun 2027 02:19:27.369            15.596                 Moscow           487.375
       224   03 Jun 2027 02:22:58.002   03 Jun 2027 02:23:13.347            15.345                  Delhi           479.531
       225   03 Jun 2027 02:26:01.992   03 Jun 2027 02:26:09.981             7.989                  Delhi           249.656
       226   03 Jun 2027 02:26:55.530   03 Jun 2027 02:26:57.247             1.717                  Delhi            53.656
       227   03 Jun 2027 02:39:11.154   03 Jun 2027 02:40:07.306            56.152               CapeTown          1754.750
       228   03 Jun 2027 02:47:47.212   03 Jun 2027 02:48:16.396            29.184               CapeTown           912.000
       229   03 Jun 2027 03:37:04.938   03 Jun 2027 03:37:17.369            12.431                Anadyr1           388.469
       230   03 Jun 2027 03:41:25.697   03 Jun 2027 03:41:58.715            33.018               Magadan1          1031.813
       231   03 Jun 2027 03:53:34.288   03 Jun 2027 03:54:15.372            41.084                Norilsk          1283.875
       232   03 Jun 2027 03:55:26.286   03 Jun 2027 03:55:47.852            21.566              Murmansk2           673.937
       233   03 Jun 2027 03:55:50.339   03 Jun 2027 03:56:24.088            33.749              Murmansk2          1054.656
       234   03 Jun 2027 03:56:32.481   03 Jun 2027 03:56:47.320            14.839                 Moscow           463.719
       235   03 Jun 2027 03:56:50.962   03 Jun 2027 03:57:10.727            19.765              Murmansk2           617.656
       236   03 Jun 2027 03:57:30.114   03 Jun 2027 03:58:33.278            63.164              Murmansk2          1973.875
       237   03 Jun 2027 05:16:26.507   03 Jun 2027 05:22:12.521           346.014               Magadan2         10812.938
       238   03 Jun 2027 05:22:26.871   03 Jun 2027 05:22:36.246             9.375                Anadyr1           292.969
       239   03 Jun 2027 06:53:07.461   03 Jun 2027 06:53:57.260            49.799                Anadyr2          1556.219
       240   03 Jun 2027 06:54:00.739   03 Jun 2027 06:54:41.230            40.491                Anadyr2          1265.344
       241   03 Jun 2027 06:54:55.687   03 Jun 2027 06:56:10.323            74.636               Magadan1          2332.375
       242   03 Jun 2027 08:26:40.173   03 Jun 2027 08:27:36.434            56.261               Magadan1          1758.156
       243   03 Jun 2027 08:27:45.307   03 Jun 2027 08:27:52.183             6.876               Magadan1           214.875
       244   03 Jun 2027 08:28:44.850   03 Jun 2027 08:29:21.439            36.589               Magadan1          1143.406
       245   03 Jun 2027 08:30:13.878   03 Jun 2027 08:30:18.024             4.146               Magadan1           129.563
       246   03 Jun 2027 08:30:38.826   03 Jun 2027 08:31:00.179            21.353               Magadan2           667.281
       247   03 Jun 2027 08:31:13.922   03 Jun 2027 08:32:29.378            75.456               Magadan1          2358.000
       248   03 Jun 2027 08:32:47.793   03 Jun 2027 08:33:14.233            26.440               Magadan2           826.250
       249   03 Jun 2027 08:33:22.800   03 Jun 2027 08:33:50.852            28.052                Norilsk           876.625
       250   03 Jun 2027 09:08:43.809   03 Jun 2027 09:08:47.453             3.644            RioGallegos           113.875
       251   03 Jun 2027 09:09:43.478   03 Jun 2027 09:10:53.959            70.481            RioGallegos          2202.531
       252   03 Jun 2027 09:44:52.797   03 Jun 2027 09:45:33.783            40.986                Sumatra          1280.812
       253   03 Jun 2027 09:50:09.327   03 Jun 2027 09:50:21.532            12.205                Sumatra           381.406
       254   03 Jun 2027 10:04:07.206   03 Jun 2027 10:05:03.839            56.633                Irkutsk          1769.781
       255   03 Jun 2027 10:05:17.385   03 Jun 2027 10:05:21.169             3.784                Irkutsk           118.250
       256   03 Jun 2027 10:05:45.618   03 Jun 2027 10:06:10.016            24.398                Irkutsk           762.437
       257   03 Jun 2027 10:06:16.151   03 Jun 2027 10:07:25.643            69.492                Novosib          2171.625
       258   03 Jun 2027 10:07:46.511   03 Jun 2027 10:08:55.180            68.669                Novosib          2145.906
       259   03 Jun 2027 10:09:05.265   03 Jun 2027 10:09:36.836            31.571                Norilsk           986.594
       260   03 Jun 2027 10:09:40.431   03 Jun 2027 10:09:42.938             2.507                Norilsk            78.344
       261   03 Jun 2027 10:45:33.230   03 Jun 2027 10:46:02.717            29.487            RioGallegos           921.469
       262   03 Jun 2027 10:46:10.826   03 Jun 2027 10:46:43.611            32.785            RioGallegos          1024.531
       263   03 Jun 2027 10:48:45.985   03 Jun 2027 10:48:49.128             3.143            RioGallegos            98.219
       264   03 Jun 2027 10:49:53.592   03 Jun 2027 10:50:31.806            38.214            RioGallegos          1194.188
       265   03 Jun 2027 11:19:49.971   03 Jun 2027 11:20:26.985            37.014                Sumatra          1156.687
       266   03 Jun 2027 11:28:14.097   03 Jun 2027 11:28:38.008            23.911                  Delhi           747.219
       267   03 Jun 2027 11:28:56.349   03 Jun 2027 11:30:08.895            72.546                  Delhi          2267.062
       268   03 Jun 2027 11:41:37.293   03 Jun 2027 11:42:03.402            26.109                Norilsk           815.906
       269   03 Jun 2027 11:42:17.231   03 Jun 2027 11:42:59.937            42.706                Irkutsk          1334.562
       270   03 Jun 2027 11:43:20.037   03 Jun 2027 11:43:30.388            10.351                Norilsk           323.469
       271   03 Jun 2027 11:43:39.518   03 Jun 2027 11:44:02.564            23.046                Novosib           720.188
       272   03 Jun 2027 11:44:10.176   03 Jun 2027 11:45:02.881            52.705                Irkutsk          1647.031
       273   03 Jun 2027 13:04:40.128   03 Jun 2027 13:08:17.213           217.085                  Delhi          6783.906
       274   03 Jun 2027 13:13:01.552   03 Jun 2027 13:14:07.622            66.070                Novosib          2064.688
       275   03 Jun 2027 13:14:40.997   03 Jun 2027 13:15:39.093            58.096                Novosib          1815.500
       276   03 Jun 2027 13:17:29.241   03 Jun 2027 13:17:55.092            25.851                Novosib           807.844
       277   03 Jun 2027 14:48:09.928   03 Jun 2027 14:49:37.891            87.963                 Moscow          2748.844
       278   03 Jun 2027 14:51:26.923   03 Jun 2027 14:52:15.410            48.487                 Moscow          1515.219
       279   03 Jun 2027 14:52:54.822   03 Jun 2027 14:54:51.227           116.405              Murmansk2          3637.656
       280   03 Jun 2027 14:58:00.322   03 Jun 2027 14:58:40.933            40.611                Norilsk          1269.094
       281   03 Jun 2027 14:59:18.436   03 Jun 2027 15:01:00.993           102.557                Norilsk          3204.906
       282   03 Jun 2027 15:09:56.670   03 Jun 2027 15:10:50.595            53.925                Anadyr2          1685.156
       283   03 Jun 2027 16:02:01.913   03 Jun 2027 16:02:46.570            44.657               CapeTown          1395.531
       284   03 Jun 2027 16:11:17.453   03 Jun 2027 16:12:13.125            55.672               CapeTown          1739.750
       285   03 Jun 2027 16:27:06.219   03 Jun 2027 16:27:08.038             1.819                 Moscow            56.844
       286   03 Jun 2027 16:27:39.695   03 Jun 2027 16:28:17.753            38.058                 Moscow          1189.312
       287   03 Jun 2027 16:29:30.522   03 Jun 2027 16:30:48.096            77.574              Murmansk2          2424.188
       288   03 Jun 2027 16:32:57.264   03 Jun 2027 16:33:31.157            33.893              Murmansk1          1059.156
       289   03 Jun 2027 16:38:45.011   03 Jun 2027 16:39:24.944            39.933              Murmansk1          1247.906
       290   03 Jun 2027 16:42:19.251   03 Jun 2027 16:43:24.816            65.565                Anadyr2          2048.906
       291   03 Jun 2027 16:43:30.285   03 Jun 2027 16:44:06.558            36.273                Anadyr2          1133.531
       292   03 Jun 2027 16:45:54.725   03 Jun 2027 16:46:01.078             6.353                Anadyr1           198.531
       293   03 Jun 2027 17:38:00.231   03 Jun 2027 17:38:58.863            58.632               CapeTown          1832.250
       294   03 Jun 2027 17:41:53.182   03 Jun 2027 17:42:07.853            14.671               CapeTown           458.469
       295   03 Jun 2027 17:42:38.981   03 Jun 2027 17:42:45.717             6.736               CapeTown           210.500
       296   03 Jun 2027 17:43:23.981   03 Jun 2027 17:43:32.289             8.308               CapeTown           259.625
       297   03 Jun 2027 17:44:30.964   03 Jun 2027 17:45:08.286            37.322               CapeTown          1166.313
       298   03 Jun 2027 18:10:02.391   03 Jun 2027 18:13:31.184           208.793              Murmansk1          6524.781
       299   03 Jun 2027 18:14:38.418   03 Jun 2027 18:14:54.095            15.677              Murmansk1           489.906
       300   03 Jun 2027 18:18:05.197   03 Jun 2027 18:18:27.886            22.689                Anadyr2           709.031
       301   03 Jun 2027 18:19:50.359   03 Jun 2027 18:20:02.013            11.654                Anadyr1           364.188
       302   03 Jun 2027 18:20:52.130   03 Jun 2027 18:22:29.489            97.359               Magadan1          3042.469
       303   03 Jun 2027 18:25:38.245   03 Jun 2027 18:26:00.089            21.844               Magadan2           682.625
       304   03 Jun 2027 18:28:37.830   03 Jun 2027 18:28:47.462             9.632               Magadan2           301.000
       305   03 Jun 2027 18:29:20.642   03 Jun 2027 18:29:36.029            15.387               Magadan2           480.844
       306   03 Jun 2027 19:54:01.057   03 Jun 2027 19:56:06.913           125.856                Anadyr1          3933.000
       307   03 Jun 2027 19:56:17.355   03 Jun 2027 19:57:48.519            91.164                Anadyr2          2848.875
       308   03 Jun 2027 19:57:56.099   03 Jun 2027 20:00:33.845           157.746               Magadan2          4929.562
       309   03 Jun 2027 20:00:52.859   03 Jun 2027 20:01:05.398            12.539               Magadan2           391.844
       310   03 Jun 2027 20:01:23.309   03 Jun 2027 20:01:32.386             9.077               Magadan2           283.656
       311   03 Jun 2027 20:05:26.290   03 Jun 2027 20:05:46.251            19.961               Magadan1           623.781
       312   03 Jun 2027 20:49:08.783   03 Jun 2027 20:52:12.306           183.523            RioGallegos          5735.094
       313   03 Jun 2027 20:55:41.089   03 Jun 2027 20:55:50.069             8.980            RioGallegos           280.625
       314   03 Jun 2027 21:29:45.544   03 Jun 2027 21:32:08.256           142.712                Anadyr1          4459.750
       315   03 Jun 2027 21:32:16.927   03 Jun 2027 21:33:22.895            65.968               Magadan2          2061.500
       316   03 Jun 2027 21:33:39.278   03 Jun 2027 21:33:46.838             7.560                Norilsk           236.250
       317   03 Jun 2027 21:34:22.425   03 Jun 2027 21:34:36.718            14.293               Magadan2           446.656
       318   03 Jun 2027 21:34:40.390   03 Jun 2027 21:34:43.063             2.673               Magadan2            83.531
       319   03 Jun 2027 21:34:54.018   03 Jun 2027 21:35:17.901            23.883               Magadan2           746.344
       320   03 Jun 2027 21:36:24.454   03 Jun 2027 21:37:40.448            75.994                Irkutsk          2374.812
       321   03 Jun 2027 21:39:09.447   03 Jun 2027 21:39:48.365            38.918                Irkutsk          1216.188
       322   03 Jun 2027 21:50:36.783   03 Jun 2027 21:53:33.147           176.364                Sumatra          5511.375
       323   03 Jun 2027 23:06:02.786   03 Jun 2027 23:06:09.731             6.945                Anadyr1           217.031
       324   03 Jun 2027 23:06:36.247   03 Jun 2027 23:07:13.849            37.602                Anadyr1          1175.063
       325   03 Jun 2027 23:07:46.095   03 Jun 2027 23:08:17.760            31.665                Norilsk           989.531
       326   03 Jun 2027 23:08:44.436   03 Jun 2027 23:09:03.621            19.185               Magadan2           599.531
       327   03 Jun 2027 23:09:45.166   03 Jun 2027 23:10:24.570            39.404               Magadan2          1231.375
       328   03 Jun 2027 23:10:40.273   03 Jun 2027 23:11:00.869            20.596               Magadan1           643.625
       329   03 Jun 2027 23:11:38.236   03 Jun 2027 23:12:02.527            24.291                Irkutsk           759.094
       330   03 Jun 2027 23:12:23.801   03 Jun 2027 23:12:47.629            23.828                Novosib           744.625
       331   03 Jun 2027 23:12:53.957   03 Jun 2027 23:13:52.424            58.467                Irkutsk          1827.094
       332   03 Jun 2027 23:16:42.335   03 Jun 2027 23:16:51.124             8.789                Novosib           274.656
       333   03 Jun 2027 23:18:00.640   03 Jun 2027 23:18:30.772            30.132                Novosib           941.625
       334   03 Jun 2027 23:20:37.328   03 Jun 2027 23:21:35.311            57.983                  Delhi          1811.969
       335   03 Jun 2027 23:25:02.762   03 Jun 2027 23:25:33.425            30.663                  Delhi           958.219
       336   03 Jun 2027 23:34:15.987   03 Jun 2027 23:35:55.951            99.964                Sumatra          3123.875
       337   04 Jun 2027 00:39:24.512   04 Jun 2027 00:40:12.722            48.210                Anadyr2          1506.562
       338   04 Jun 2027 00:40:57.734   04 Jun 2027 00:41:30.139            32.405                Anadyr1          1012.656
       339   04 Jun 2027 00:43:32.948   04 Jun 2027 00:44:10.767            37.819                Anadyr2          1181.844
       340   04 Jun 2027 00:44:14.413   04 Jun 2027 00:45:37.146            82.733               Magadan2          2585.406
       341   04 Jun 2027 00:46:21.523   04 Jun 2027 00:47:56.928            95.405              Murmansk1          2981.406
       342   04 Jun 2027 00:48:10.998   04 Jun 2027 00:49:42.722            91.724                Novosib          2866.375
       343   04 Jun 2027 00:49:44.563   04 Jun 2027 00:50:36.530            51.967              Murmansk2          1623.969
       344   04 Jun 2027 00:59:00.942   04 Jun 2027 00:59:06.357             5.415                  Delhi           169.219
       345   04 Jun 2027 01:00:35.957   04 Jun 2027 01:00:43.395             7.438                  Delhi           232.437
       346   04 Jun 2027 01:01:16.164   04 Jun 2027 01:03:23.066           126.902                  Delhi          3965.687
       347   04 Jun 2027 01:41:31.011   04 Jun 2027 01:41:43.245            12.234            RioGallegos           382.312
       348   04 Jun 2027 02:11:57.284   04 Jun 2027 02:12:31.569            34.285                Anadyr2          1071.406
       349   04 Jun 2027 02:13:19.114   04 Jun 2027 02:13:35.785            16.671                Anadyr1           520.969
       350   04 Jun 2027 02:14:15.627   04 Jun 2027 02:14:29.237            13.610                Anadyr1           425.312
       351   04 Jun 2027 02:14:49.791   04 Jun 2027 02:15:03.605            13.814                Anadyr2           431.688
       352   04 Jun 2027 02:17:40.217   04 Jun 2027 02:19:42.153           121.936               Magadan2          3810.500
       353   04 Jun 2027 02:21:54.699   04 Jun 2027 02:22:22.638            27.939              Murmansk1           873.094
       354   04 Jun 2027 02:23:29.514   04 Jun 2027 02:23:51.632            22.118              Murmansk2           691.188
       355   04 Jun 2027 02:24:26.985   04 Jun 2027 02:26:29.243           122.258                Novosib          3820.563
       356   04 Jun 2027 02:36:41.055   04 Jun 2027 02:37:05.500            24.445                 Moscow           763.906
       357   04 Jun 2027 02:50:35.325   04 Jun 2027 02:50:49.579            14.254               CapeTown           445.438
       358   04 Jun 2027 02:51:24.300   04 Jun 2027 02:51:50.651            26.351               CapeTown           823.469
       359   04 Jun 2027 02:55:47.089   04 Jun 2027 02:56:19.385            32.296               CapeTown          1009.250
       360   04 Jun 2027 03:54:40.850   04 Jun 2027 03:54:52.325            11.475               Magadan1           358.594
       361   04 Jun 2027 03:55:30.958   04 Jun 2027 03:55:39.285             8.327               Magadan1           260.219
       362   04 Jun 2027 03:55:55.361   04 Jun 2027 03:56:16.638            21.277               Magadan1           664.906
       363   04 Jun 2027 03:57:38.311   04 Jun 2027 03:58:18.894            40.583                Anadyr2          1268.219
       364   04 Jun 2027 04:08:08.354   04 Jun 2027 04:10:45.552           157.198              Murmansk1          4912.438
       365   04 Jun 2027 04:11:52.198   04 Jun 2027 04:12:47.058            54.860                 Moscow          1714.375
       366   04 Jun 2027 05:28:11.429   04 Jun 2027 05:34:37.414           385.985                Anadyr2         12062.031
       367   04 Jun 2027 07:05:13.154   04 Jun 2027 07:06:10.522            57.368                Anadyr2          1792.750
       368   04 Jun 2027 07:06:29.968   04 Jun 2027 07:06:34.664             4.696               Magadan1           146.750
       369   04 Jun 2027 07:06:40.333   04 Jun 2027 07:07:39.401            59.068                Anadyr1          1845.875
       370   04 Jun 2027 08:38:35.323   04 Jun 2027 08:39:30.831            55.508               Magadan2          1734.625
       371   04 Jun 2027 08:40:33.772   04 Jun 2027 08:40:46.219            12.447               Magadan2           388.969
       372   04 Jun 2027 08:41:31.965   04 Jun 2027 08:42:11.064            39.099               Magadan1          1221.844
       373   04 Jun 2027 08:42:37.417   04 Jun 2027 08:42:41.457             4.040               Magadan2           126.250
       374   04 Jun 2027 08:43:14.140   04 Jun 2027 08:44:29.632            75.492               Magadan2          2359.125
       375   04 Jun 2027 08:44:40.728   04 Jun 2027 08:45:11.184            30.456                Irkutsk           951.750
       376   04 Jun 2027 08:45:20.385   04 Jun 2027 08:45:25.575             5.190               Magadan2           162.187
       377   04 Jun 2027 08:46:55.266   04 Jun 2027 08:47:50.072            54.806              Murmansk1          1712.687
       378   04 Jun 2027 09:20:39.797   04 Jun 2027 09:21:52.659            72.862            RioGallegos          2276.937
       379   04 Jun 2027 09:56:23.181   04 Jun 2027 09:56:44.067            20.886                Sumatra           652.687
       380   04 Jun 2027 10:16:06.595   04 Jun 2027 10:16:11.783             5.188                Irkutsk           162.125
       381   04 Jun 2027 10:18:14.413   04 Jun 2027 10:18:48.523            34.110                Novosib          1065.938
       382   04 Jun 2027 10:19:32.336   04 Jun 2027 10:19:45.292            12.956                Novosib           404.875
       383   04 Jun 2027 10:20:11.288   04 Jun 2027 10:20:52.419            41.131                Irkutsk          1285.344
       384   04 Jun 2027 10:20:56.629   04 Jun 2027 10:21:07.048            10.419                Norilsk           325.594
       385   04 Jun 2027 10:21:15.871   04 Jun 2027 10:21:16.997             1.126                Novosib            35.187
       386   04 Jun 2027 10:21:20.044   04 Jun 2027 10:21:32.789            12.745                Novosib           398.281
       387   04 Jun 2027 10:21:36.226   04 Jun 2027 10:21:50.450            14.224                Norilsk           444.500
       388   04 Jun 2027 10:58:00.124   04 Jun 2027 10:58:53.589            53.465            RioGallegos          1670.781
       389   04 Jun 2027 11:01:52.566   04 Jun 2027 11:02:36.170            43.604            RioGallegos          1362.625
       390   04 Jun 2027 11:32:13.015   04 Jun 2027 11:32:39.082            26.067                Sumatra           814.594
       391   04 Jun 2027 11:42:07.803   04 Jun 2027 11:42:33.347            25.544                  Delhi           798.250
       392   04 Jun 2027 11:53:36.278   04 Jun 2027 11:54:21.686            45.408                Irkutsk          1419.000
       393   04 Jun 2027 11:54:40.613   04 Jun 2027 11:55:34.072            53.459                Novosib          1670.594
       394   04 Jun 2027 11:55:38.385   04 Jun 2027 11:55:40.746             2.361                Novosib            73.781
       395   04 Jun 2027 11:55:41.152   04 Jun 2027 11:56:11.064            29.912                Norilsk           934.750
       396   04 Jun 2027 11:56:23.699   04 Jun 2027 11:57:00.930            37.231                Novosib          1163.469
       397   04 Jun 2027 11:57:05.212   04 Jun 2027 11:57:36.581            31.369                Novosib           980.281
       398   04 Jun 2027 12:03:15.337   04 Jun 2027 12:03:33.847            18.510              Murmansk1           578.438
       399   04 Jun 2027 12:03:55.542   04 Jun 2027 12:04:06.358            10.816              Murmansk1           338.000
       400   04 Jun 2027 13:17:16.930   04 Jun 2027 13:18:40.266            83.336                  Delhi          2604.250
       401   04 Jun 2027 13:19:56.869   04 Jun 2027 13:22:16.548           139.679                  Delhi          4364.969
       402   04 Jun 2027 13:26:49.188   04 Jun 2027 13:27:33.892            44.704                Novosib          1397.000
       403   04 Jun 2027 13:27:53.701   04 Jun 2027 13:28:37.789            44.088                Novosib          1377.750
       404   04 Jun 2027 13:29:55.282   04 Jun 2027 13:30:32.841            37.559                Novosib          1173.719
       405   04 Jun 2027 13:35:06.739   04 Jun 2027 13:35:45.014            38.275                Norilsk          1196.094
       406   04 Jun 2027 15:00:19.910   04 Jun 2027 15:02:10.006           110.096                 Moscow          3440.500
       407   04 Jun 2027 15:03:18.870   04 Jun 2027 15:04:28.072            69.202                 Moscow          2162.563
       408   04 Jun 2027 15:04:56.365   04 Jun 2027 15:06:53.143           116.778              Murmansk2          3649.313
       409   04 Jun 2027 15:11:21.365   04 Jun 2027 15:13:03.942           102.577                Norilsk          3205.531
       410   04 Jun 2027 15:19:51.033   04 Jun 2027 15:20:23.205            32.172                Anadyr1          1005.375
       411   04 Jun 2027 15:21:13.091   04 Jun 2027 15:21:23.936            10.845                Anadyr2           338.906
       412   04 Jun 2027 15:21:29.961   04 Jun 2027 15:21:48.121            18.160                Anadyr2           567.500
       413   04 Jun 2027 16:14:26.577   04 Jun 2027 16:14:40.648            14.071               CapeTown           439.719
       414   04 Jun 2027 16:15:57.681   04 Jun 2027 16:16:36.716            39.035               CapeTown          1219.844
       415   04 Jun 2027 16:21:22.879   04 Jun 2027 16:21:34.849            11.970               CapeTown           374.063
       416   04 Jun 2027 16:23:13.106   04 Jun 2027 16:23:23.598            10.492               CapeTown           327.875
       417   04 Jun 2027 16:25:45.210   04 Jun 2027 16:26:01.723            16.513               CapeTown           516.031
       418   04 Jun 2027 16:39:57.516   04 Jun 2027 16:40:26.232            28.716                 Moscow           897.375
       419   04 Jun 2027 16:41:01.500   04 Jun 2027 16:41:27.176            25.676                 Moscow           802.375
       420   04 Jun 2027 16:41:55.946   04 Jun 2027 16:42:41.617            45.671              Murmansk2          1427.219
       421   04 Jun 2027 16:44:18.597   04 Jun 2027 16:44:56.256            37.659              Murmansk2          1176.844
       422   04 Jun 2027 16:48:54.749   04 Jun 2027 16:49:34.411            39.662              Murmansk2          1239.438
       423   04 Jun 2027 16:51:13.405   04 Jun 2027 16:52:11.071            57.666              Murmansk1          1802.062
       424   04 Jun 2027 16:54:17.895   04 Jun 2027 16:55:04.711            46.816                Anadyr1          1463.000
       425   04 Jun 2027 16:57:48.796   04 Jun 2027 16:58:46.900            58.104                Anadyr2          1815.750
       426   04 Jun 2027 17:50:18.863   04 Jun 2027 17:51:04.796            45.933               CapeTown          1435.406
       427   04 Jun 2027 17:56:40.654   04 Jun 2027 17:56:45.552             4.898               CapeTown           153.063
       428   04 Jun 2027 17:57:04.132   04 Jun 2027 17:57:26.947            22.815               CapeTown           712.969
       429   04 Jun 2027 18:23:00.969   04 Jun 2027 18:27:24.175           263.206              Murmansk1          8225.187
       430   04 Jun 2027 18:31:18.487   04 Jun 2027 18:31:37.313            18.826                Anadyr1           588.312
       431   04 Jun 2027 18:32:45.825   04 Jun 2027 18:33:42.497            56.672               Magadan1          1771.000
       432   04 Jun 2027 18:35:31.869   04 Jun 2027 18:35:36.044             4.175               Magadan1           130.469
       433   04 Jun 2027 18:37:16.498   04 Jun 2027 18:37:30.834            14.336               Magadan1           448.000
       434   04 Jun 2027 18:38:48.721   04 Jun 2027 18:39:30.869            42.148               Magadan1          1317.125
       435   04 Jun 2027 20:06:02.191   04 Jun 2027 20:08:08.587           126.396                Anadyr1          3949.875
       436   04 Jun 2027 20:08:17.328   04 Jun 2027 20:10:13.269           115.941                Anadyr2          3623.156
       437   04 Jun 2027 20:11:10.954   04 Jun 2027 20:12:02.503            51.549               Magadan1          1610.906
       438   04 Jun 2027 20:12:02.503   04 Jun 2027 20:13:49.982           107.479               Magadan2          3358.719
       439   04 Jun 2027 20:17:28.156   04 Jun 2027 20:18:29.794            61.638               Magadan2          1926.187
       440   04 Jun 2027 21:00:48.997   04 Jun 2027 21:03:23.506           154.509            RioGallegos          4828.406
       441   04 Jun 2027 21:05:44.431   04 Jun 2027 21:05:53.170             8.739            RioGallegos           273.094
       442   04 Jun 2027 21:10:08.814   04 Jun 2027 21:10:11.474             2.660            RioGallegos            83.125
       443   04 Jun 2027 21:41:43.521   04 Jun 2027 21:42:21.767            38.246                Anadyr2          1195.187
       444   04 Jun 2027 21:43:53.416   04 Jun 2027 21:44:15.971            22.555                Norilsk           704.844
       445   04 Jun 2027 21:44:19.701   04 Jun 2027 21:46:25.046           125.345               Magadan2          3917.031
       446   04 Jun 2027 21:47:35.057   04 Jun 2027 21:48:25.229            50.172               Magadan1          1567.875
       447   04 Jun 2027 21:48:36.062   04 Jun 2027 21:50:30.047           113.985                Irkutsk          3562.031
       448   04 Jun 2027 21:57:18.663   04 Jun 2027 21:58:27.649            68.986                Irkutsk          2155.812
       449   04 Jun 2027 22:04:07.274   04 Jun 2027 22:05:24.650            77.376                Sumatra          2418.000
       450   04 Jun 2027 22:13:49.298   04 Jun 2027 22:13:58.047             8.749                Sumatra           273.406
       451   04 Jun 2027 23:16:47.380   04 Jun 2027 23:16:54.254             6.874                Anadyr2           214.813
       452   04 Jun 2027 23:18:07.711   04 Jun 2027 23:18:29.442            21.731                Anadyr2           679.094
       453   04 Jun 2027 23:19:12.746   04 Jun 2027 23:19:23.145            10.399                Anadyr2           324.969
       454   04 Jun 2027 23:19:48.136   04 Jun 2027 23:20:15.502            27.366                Norilsk           855.188
       455   04 Jun 2027 23:20:26.564   04 Jun 2027 23:21:33.132            66.568               Magadan1          2080.250
       456   04 Jun 2027 23:21:33.132   04 Jun 2027 23:21:43.212            10.080               Magadan2           315.000
       457   04 Jun 2027 23:22:10.112   04 Jun 2027 23:22:21.952            11.840               Magadan1           370.000
       458   04 Jun 2027 23:22:21.952   04 Jun 2027 23:22:27.679             5.727               Magadan2           178.969
       459   04 Jun 2027 23:22:42.793   04 Jun 2027 23:22:52.491             9.698               Magadan2           303.062
       460   04 Jun 2027 23:23:16.131   04 Jun 2027 23:23:37.137            21.006                Norilsk           656.438
       461   04 Jun 2027 23:23:39.812   04 Jun 2027 23:24:23.863            44.051                Irkutsk          1376.594
       462   04 Jun 2027 23:24:49.807   04 Jun 2027 23:25:43.269            53.462                Novosib          1670.688
       463   04 Jun 2027 23:28:13.850   04 Jun 2027 23:28:16.499             2.649               Magadan2            82.781
       464   04 Jun 2027 23:28:45.323   04 Jun 2027 23:30:08.363            83.040                Novosib          2595.000
       465   04 Jun 2027 23:32:56.024   04 Jun 2027 23:34:46.585           110.561                  Delhi          3455.031
       466   05 Jun 2027 00:17:42.184   05 Jun 2027 00:18:01.273            19.089            RioGallegos           596.531
       467   05 Jun 2027 00:20:20.564   05 Jun 2027 00:20:26.178             5.614            RioGallegos           175.438
       468   05 Jun 2027 00:20:34.060   05 Jun 2027 00:21:08.975            34.915            RioGallegos          1091.094
       469   05 Jun 2027 00:50:21.216   05 Jun 2027 00:50:55.619            34.403                Anadyr1          1075.094
       470   05 Jun 2027 00:52:08.745   05 Jun 2027 00:52:30.881            22.136                Anadyr2           691.750
       471   05 Jun 2027 00:52:30.881   05 Jun 2027 00:52:48.099            17.218                Anadyr1           538.062
       472   05 Jun 2027 00:53:18.058   05 Jun 2027 00:53:19.544             1.486                Anadyr1            46.438
       473   05 Jun 2027 00:54:53.160   05 Jun 2027 00:55:16.330            23.170                Anadyr1           724.062
       474   05 Jun 2027 00:55:48.243   05 Jun 2027 00:56:15.033            26.790                Norilsk           837.188
       475   05 Jun 2027 00:56:54.449   05 Jun 2027 00:58:21.620            87.171               Magadan1          2724.094
       476   05 Jun 2027 00:58:26.124   05 Jun 2027 00:59:57.609            91.485              Murmansk2          2858.906
       477   05 Jun 2027 01:00:14.549   05 Jun 2027 01:00:37.803            23.254                Novosib           726.688
       478   05 Jun 2027 01:00:40.777   05 Jun 2027 01:01:20.927            40.150              Murmansk1          1254.687
       479   05 Jun 2027 01:01:45.764   05 Jun 2027 01:02:37.106            51.342              Murmansk1          1604.437
       480   05 Jun 2027 01:07:25.064   05 Jun 2027 01:08:00.738            35.674                 Moscow          1114.813
       481   05 Jun 2027 01:16:12.930   05 Jun 2027 01:16:43.903            30.973                  Delhi           967.906
       482   05 Jun 2027 01:50:22.728   05 Jun 2027 01:50:39.877            17.149            RioGallegos           535.906
