uniorb/output/strategy_4/Drop/Drop_KinoSat_110309.txt

KinoSat_110309
-------------------------
    Access    *     Start Time (UTCG)     *     Stop Time (UTCG)  *   Duration (s)        *       Station  *  Data (Mbytes)
         1   01 Jun 2027 03:19:49.921   01 Jun 2027 03:21:38.156           108.235               Magadan1         13529.375
         2   01 Jun 2027 03:22:01.289   01 Jun 2027 03:22:51.670            50.381               Magadan2          6297.625
         3   01 Jun 2027 03:23:07.097   01 Jun 2027 03:24:06.441            59.344               Magadan1          7418.000
         4   01 Jun 2027 03:24:22.641   01 Jun 2027 03:25:11.966            49.325               Magadan1          6165.625
         5   01 Jun 2027 04:36:12.610   01 Jun 2027 04:39:47.203           214.593                Sumatra         26824.125
         6   01 Jun 2027 04:56:57.512   01 Jun 2027 04:56:57.964             0.452                Irkutsk            56.500
         7   01 Jun 2027 04:57:23.975   01 Jun 2027 04:57:54.390            30.415                Novosib          3801.875
         8   01 Jun 2027 04:58:07.239   01 Jun 2027 05:00:02.049           114.810                Irkutsk         14351.250
         9   01 Jun 2027 05:00:20.519   01 Jun 2027 05:00:41.838            21.319                Irkutsk          2664.875
        10   01 Jun 2027 05:00:53.947   01 Jun 2027 05:01:04.088            10.141              Murmansk2          1267.625
        11   01 Jun 2027 05:01:31.169   01 Jun 2027 05:01:52.438            21.269              Murmansk2          2658.625
        12   01 Jun 2027 05:02:05.187   01 Jun 2027 05:02:32.928            27.741                Norilsk          3467.625
        13   01 Jun 2027 05:06:06.774   01 Jun 2027 05:06:20.684            13.910                Norilsk          1738.750
        14   01 Jun 2027 05:37:06.418   01 Jun 2027 05:38:12.273            65.855            RioGallegos          8231.875
        15   01 Jun 2027 06:13:32.568   01 Jun 2027 06:14:03.508            30.940                Sumatra          3867.500
        16   01 Jun 2027 06:17:58.630   01 Jun 2027 06:18:13.015            14.385                Sumatra          1798.125
        17   01 Jun 2027 06:19:37.418   01 Jun 2027 06:19:49.393            11.975                  Delhi          1496.875
        18   01 Jun 2027 06:22:08.206   01 Jun 2027 06:23:55.999           107.793                  Delhi         13474.125
        19   01 Jun 2027 06:34:58.022   01 Jun 2027 06:35:24.553            26.531                Norilsk          3316.375
        20   01 Jun 2027 06:35:30.831   01 Jun 2027 06:35:58.493            27.662                Norilsk          3457.750
        21   01 Jun 2027 06:36:18.342   01 Jun 2027 06:38:06.601           108.259                Novosib         13532.375
        22   01 Jun 2027 07:56:14.820   01 Jun 2027 07:57:31.770            76.950                  Delhi          9618.750
        23   01 Jun 2027 07:58:02.068   01 Jun 2027 07:58:41.776            39.708                  Delhi          4963.500
        24   01 Jun 2027 08:11:33.323   01 Jun 2027 08:15:37.090           243.767                 Moscow         30470.875
        25   01 Jun 2027 11:33:46.862   01 Jun 2027 11:38:24.402           277.540                Anadyr1         34692.500
        26   01 Jun 2027 11:38:37.519   01 Jun 2027 11:38:56.747            19.228                Anadyr1          2403.500
        27   01 Jun 2027 11:40:59.468   01 Jun 2027 11:41:51.283            51.815                Anadyr2          6476.875
        28   01 Jun 2027 13:12:18.693   01 Jun 2027 13:14:56.790           158.097               Magadan1         19762.125
        29   01 Jun 2027 13:14:56.790   01 Jun 2027 13:17:50.381           173.591               Magadan2         21698.875
        30   01 Jun 2027 15:40:32.239   01 Jun 2027 15:44:22.933           230.694            RioGallegos         28836.750
        31   01 Jun 2027 16:30:26.712   01 Jun 2027 16:31:12.178            45.466                Irkutsk          5683.250
        32   01 Jun 2027 16:41:57.687   01 Jun 2027 16:43:13.513            75.826                Sumatra          9478.250
        33   01 Jun 2027 16:45:31.641   01 Jun 2027 16:45:45.267            13.626                Sumatra          1703.250
        34   01 Jun 2027 16:48:53.169   01 Jun 2027 16:49:06.520            13.351                Sumatra          1668.875
        35   01 Jun 2027 18:03:28.520   01 Jun 2027 18:06:11.687           163.167                Novosib         20395.875
        36   01 Jun 2027 18:11:57.347   01 Jun 2027 18:15:24.428           207.081                  Delhi         25885.125
        37   01 Jun 2027 18:20:02.397   01 Jun 2027 18:20:43.377            40.980                  Delhi          5122.500
        38   01 Jun 2027 21:15:51.263   01 Jun 2027 21:16:21.966            30.703              Murmansk1          3837.875
        39   01 Jun 2027 21:16:54.661   01 Jun 2027 21:18:44.626           109.965                 Moscow           268.874
        40   02 Jun 2027 03:37:32.487   02 Jun 2027 03:38:22.475            49.988                Novosib          6248.500
        41   02 Jun 2027 03:38:42.152   02 Jun 2027 03:39:07.362            25.210              Murmansk1          3151.250
        42   02 Jun 2027 04:47:45.019   02 Jun 2027 04:49:27.666           102.647                Sumatra         12830.875
        43   02 Jun 2027 05:10:15.823   02 Jun 2027 05:11:00.354            44.531                Irkutsk          5566.375
        44   02 Jun 2027 05:11:34.950   02 Jun 2027 05:13:22.958           108.008                Irkutsk         13501.000
        45   02 Jun 2027 05:13:32.710   02 Jun 2027 05:18:22.108           289.398                Norilsk         36174.750
        46   02 Jun 2027 05:18:40.770   02 Jun 2027 05:20:56.223           135.453              Murmansk2         16931.625
        47   02 Jun 2027 06:33:47.615   02 Jun 2027 06:34:21.075            33.460                Sumatra          4182.500
        48   02 Jun 2027 06:38:10.320   02 Jun 2027 06:39:42.485            92.165                Novosib         11520.625
        49   02 Jun 2027 06:40:06.282   02 Jun 2027 06:42:02.068           115.786                Irkutsk         14473.250
        50   02 Jun 2027 06:49:22.297   02 Jun 2027 06:49:54.231            31.934                 Moscow          3991.750
        51   02 Jun 2027 06:49:56.460   02 Jun 2027 06:50:49.023            52.563                Novosib          6570.375
        52   02 Jun 2027 06:51:16.368   02 Jun 2027 06:53:05.446           109.078              Murmansk1         13634.750
        53   02 Jun 2027 06:53:05.446   02 Jun 2027 06:56:12.969           187.523              Murmansk2         23440.375
        54   02 Jun 2027 08:14:59.097   02 Jun 2027 08:15:44.355            45.258                  Delhi          5657.250
        55   02 Jun 2027 08:17:31.735   02 Jun 2027 08:20:48.009           196.274                Novosib         24534.250
        56   02 Jun 2027 08:25:26.996   02 Jun 2027 08:28:26.530           179.534                 Moscow         22441.750
        57   02 Jun 2027 08:28:31.853   02 Jun 2027 08:31:58.649           206.796              Murmansk1         25849.500
        58   02 Jun 2027 09:54:45.276   02 Jun 2027 09:55:51.879            66.603                 Moscow          8325.375
        59   02 Jun 2027 09:58:20.223   02 Jun 2027 10:01:34.988           194.765              Murmansk1         24345.625
        60   02 Jun 2027 10:01:35.144   02 Jun 2027 10:04:18.373           163.229                 Moscow         20403.625
        61   02 Jun 2027 10:04:55.264   02 Jun 2027 10:07:56.080           180.816              Murmansk2         22602.000
        62   02 Jun 2027 10:10:55.006   02 Jun 2027 10:16:51.760           356.754                Anadyr2         44594.250
        63   02 Jun 2027 11:12:51.866   02 Jun 2027 11:16:26.138           214.272               CapeTown         26784.000
        64   02 Jun 2027 13:24:12.502   02 Jun 2027 13:26:31.556           139.054               Magadan1         17381.750
        65   02 Jun 2027 13:27:04.912   02 Jun 2027 13:29:36.356           151.444               Magadan2         18930.500
        66   02 Jun 2027 15:52:13.458   02 Jun 2027 15:58:29.593           376.135            RioGallegos         47016.875
        67   02 Jun 2027 16:40:59.585   02 Jun 2027 16:42:30.218            90.633                Irkutsk         11329.125
        68   02 Jun 2027 16:43:47.280   02 Jun 2027 16:44:12.752            25.472                Novosib          3184.000
        69   02 Jun 2027 16:53:34.353   02 Jun 2027 16:55:31.674           117.321                Sumatra         14665.125
        70   02 Jun 2027 16:58:55.405   02 Jun 2027 17:00:05.909            70.504                Sumatra          8813.000
        71   02 Jun 2027 18:15:22.852   02 Jun 2027 18:17:18.751           115.899                Novosib         14487.375
        72   02 Jun 2027 18:24:05.379   02 Jun 2027 18:25:29.506            84.127                  Delhi         10515.875
        73   02 Jun 2027 18:30:15.820   02 Jun 2027 18:30:28.065            12.245                  Delhi          1530.625
        74   02 Jun 2027 18:32:08.591   02 Jun 2027 18:32:45.718            37.127                  Delhi          4640.875
        75   02 Jun 2027 19:55:59.082   02 Jun 2027 19:57:54.595           115.513                 Moscow         14439.125
        76   02 Jun 2027 21:38:14.869   02 Jun 2027 21:38:22.191             7.322                 Moscow           915.250
        77   02 Jun 2027 21:39:34.298   02 Jun 2027 21:40:55.880            81.582                 Moscow         10197.750
        78   02 Jun 2027 21:55:14.707   02 Jun 2027 21:55:37.682            22.975               CapeTown          2871.875
        79   02 Jun 2027 21:57:18.329   02 Jun 2027 21:59:09.730           111.401               CapeTown          5922.251
        80   03 Jun 2027 03:49:31.492   03 Jun 2027 03:50:30.576            59.084                Novosib          7385.500
        81   03 Jun 2027 03:50:38.742   03 Jun 2027 03:52:57.988           139.246              Murmansk1         17405.750
        82   03 Jun 2027 04:59:25.503   03 Jun 2027 05:01:20.131           114.628                Sumatra         14328.500
        83   03 Jun 2027 05:13:23.206   03 Jun 2027 05:14:25.820            62.614                  Delhi          7826.750
        84   03 Jun 2027 05:25:16.523   03 Jun 2027 05:26:56.390            99.867                Novosib         12483.375
        85   03 Jun 2027 05:27:03.672   03 Jun 2027 05:30:23.666           199.994                Norilsk         24999.250
        86   03 Jun 2027 05:30:28.630   03 Jun 2027 05:32:50.398           141.768              Murmansk2         17721.000
        87   03 Jun 2027 06:50:21.579   03 Jun 2027 06:52:49.505           147.926                Novosib         18490.750
        88   03 Jun 2027 06:53:14.191   03 Jun 2027 06:55:12.841           118.650                Novosib         14831.250
        89   03 Jun 2027 06:55:21.539   03 Jun 2027 06:56:01.017            39.478                  Delhi          4934.750
        90   03 Jun 2027 06:56:01.929   03 Jun 2027 06:57:21.946            80.017                Irkutsk         10002.125
        91   03 Jun 2027 07:01:09.036   03 Jun 2027 07:01:25.857            16.821              Murmansk2          2102.625
        92   03 Jun 2027 07:01:26.846   03 Jun 2027 07:04:07.114           160.268                 Moscow         20033.500
        93   03 Jun 2027 07:04:19.394   03 Jun 2027 07:06:23.571           124.177                Norilsk         15522.125
        94   03 Jun 2027 07:06:57.308   03 Jun 2027 07:08:11.826            74.518              Murmansk1          9314.750
        95   03 Jun 2027 08:30:20.995   03 Jun 2027 08:32:22.126           121.131                Novosib         15141.375
        96   03 Jun 2027 08:36:29.657   03 Jun 2027 08:36:51.369            21.712                Novosib          2714.000
        97   03 Jun 2027 08:37:48.581   03 Jun 2027 08:39:04.889            76.308                Norilsk          9538.500
        98   03 Jun 2027 08:39:09.778   03 Jun 2027 08:43:59.831           290.053              Murmansk1         36256.625
        99   03 Jun 2027 09:47:52.027   03 Jun 2027 09:50:01.750           129.723               CapeTown         16215.375
       100   03 Jun 2027 10:06:43.386   03 Jun 2027 10:07:16.172            32.786                 Moscow          4098.250
       101   03 Jun 2027 10:10:45.563   03 Jun 2027 10:12:39.168           113.605              Murmansk2         14200.625
       102   03 Jun 2027 10:13:12.447   03 Jun 2027 10:14:23.499            71.052                 Moscow          8881.500
       103   03 Jun 2027 10:15:07.564   03 Jun 2027 10:18:53.256           225.692              Murmansk1         28211.500
       104   03 Jun 2027 10:18:53.256   03 Jun 2027 10:19:57.698            64.442              Murmansk2          8055.250
       105   03 Jun 2027 10:22:37.915   03 Jun 2027 10:29:45.578           427.663                Anadyr2         53457.875
       106   03 Jun 2027 11:24:41.406   03 Jun 2027 11:29:52.312           310.906               CapeTown         38863.250
       107   03 Jun 2027 11:46:56.083   03 Jun 2027 11:47:09.912            13.829                 Moscow          1728.625
       108   03 Jun 2027 11:50:47.439   03 Jun 2027 11:55:09.239           261.800              Murmansk1         32725.000
       109   03 Jun 2027 12:03:08.101   03 Jun 2027 12:03:55.107            47.006               Magadan2          5875.750
       110   03 Jun 2027 13:36:07.888   03 Jun 2027 13:39:10.384           182.496               Magadan2         22812.000
       111   03 Jun 2027 13:39:10.384   03 Jun 2027 13:40:40.155            89.771               Magadan1         11221.375
       112   03 Jun 2027 13:44:13.825   03 Jun 2027 13:45:27.745            73.920               Magadan1          9240.000
       113   03 Jun 2027 16:03:59.502   03 Jun 2027 16:06:34.333           154.831            RioGallegos         19353.875
       114   03 Jun 2027 16:07:13.971   03 Jun 2027 16:09:53.407           159.436            RioGallegos         19929.500
       115   03 Jun 2027 16:51:32.837   03 Jun 2027 16:53:26.380           113.543                Irkutsk         14192.875
       116   03 Jun 2027 16:56:32.504   03 Jun 2027 16:58:35.662           123.158                Novosib         15394.750
       117   03 Jun 2027 17:07:06.467   03 Jun 2027 17:07:57.375            50.908                Sumatra          6363.500
       118   03 Jun 2027 17:09:51.535   03 Jun 2027 17:11:23.759            92.224                Sumatra         11528.000
       119   03 Jun 2027 18:35:07.498   03 Jun 2027 18:39:13.722           246.224                  Delhi         30778.000
       120   03 Jun 2027 20:06:56.938   03 Jun 2027 20:10:05.677           188.739                 Moscow         23284.625
       121   04 Jun 2027 04:01:37.101   04 Jun 2027 04:02:37.757            60.656                Novosib          7582.000
       122   04 Jun 2027 04:02:38.418   04 Jun 2027 04:06:45.779           247.361              Murmansk1         30920.125
       123   04 Jun 2027 05:11:12.725   04 Jun 2027 05:12:22.962            70.237                Sumatra          8779.625
       124   04 Jun 2027 05:14:03.729   04 Jun 2027 05:15:56.725           112.996                Sumatra         14124.500
       125   04 Jun 2027 05:37:21.579   04 Jun 2027 05:38:44.969            83.390                 Moscow         10423.750
       126   04 Jun 2027 05:38:46.984   04 Jun 2027 05:42:25.348           218.364                Norilsk         27295.500
       127   04 Jun 2027 05:42:35.679   04 Jun 2027 05:44:45.291           129.612              Murmansk1         16201.500
       128   04 Jun 2027 07:02:46.553   04 Jun 2027 07:08:01.196           314.643                  Delhi         39330.375
       129   04 Jun 2027 07:08:20.300   04 Jun 2027 07:09:21.239            60.939                Irkutsk          7617.375
       130   04 Jun 2027 07:13:00.492   04 Jun 2027 07:13:54.461            53.969              Murmansk1          6746.125
       131   04 Jun 2027 07:14:43.410   04 Jun 2027 07:14:44.151             0.741                Novosib            92.625
       132   04 Jun 2027 07:15:16.647   04 Jun 2027 07:20:11.103           294.456              Murmansk2         36807.000
       133   04 Jun 2027 08:40:08.399   04 Jun 2027 08:40:26.468            18.069                 Moscow          2258.625
       134   04 Jun 2027 08:50:21.715   04 Jun 2027 08:52:31.803           130.088                 Moscow         16261.000
       135   04 Jun 2027 08:52:39.617   04 Jun 2027 08:56:01.159           201.542              Murmansk1         25192.750
       136   04 Jun 2027 10:00:21.417   04 Jun 2027 10:03:17.181           175.764               CapeTown         21970.500
       137   04 Jun 2027 10:22:47.000   04 Jun 2027 10:24:37.748           110.748              Murmansk2         13843.500
       138   04 Jun 2027 10:25:18.301   04 Jun 2027 10:28:11.658           173.357                 Moscow         21669.625
       139   04 Jun 2027 10:28:29.933   04 Jun 2027 10:30:50.972           141.039              Murmansk1         17629.875
       140   04 Jun 2027 10:30:50.972   04 Jun 2027 10:31:59.230            68.258              Murmansk2          8532.250
       141   04 Jun 2027 10:34:26.133   04 Jun 2027 10:42:31.616           485.483                Anadyr2         60685.375
       142   04 Jun 2027 11:36:56.249   04 Jun 2027 11:41:51.582           295.333               CapeTown         36916.625
       143   04 Jun 2027 11:58:44.992   04 Jun 2027 12:04:45.750           360.758              Murmansk2         45094.750
       144   04 Jun 2027 12:04:45.750   04 Jun 2027 12:07:47.325           181.575              Murmansk1         22696.875
       145   04 Jun 2027 12:09:44.249   04 Jun 2027 12:19:17.364           573.115                Anadyr2         71639.375
       146   04 Jun 2027 12:19:57.500   04 Jun 2027 12:21:54.427           116.927                Anadyr1         14615.875
       147   04 Jun 2027 13:48:04.527   04 Jun 2027 13:51:13.294           188.767               Magadan1         23595.875
       148   04 Jun 2027 13:55:44.186   04 Jun 2027 13:56:15.945            31.759               Magadan2          3969.875
       149   04 Jun 2027 15:30:39.618   04 Jun 2027 15:33:01.214           141.596                Irkutsk         17699.500
       150   04 Jun 2027 16:15:49.003   04 Jun 2027 16:18:37.472           168.469            RioGallegos         21058.625
       151   04 Jun 2027 16:20:09.333   04 Jun 2027 16:21:28.958            79.625            RioGallegos          9953.125
       152   04 Jun 2027 17:03:27.449   04 Jun 2027 17:05:25.696           118.247                Irkutsk         14780.875
       153   04 Jun 2027 17:05:44.275   04 Jun 2027 17:08:32.943           168.668                Novosib         21083.500
       154   04 Jun 2027 17:20:08.535   04 Jun 2027 17:21:16.727            68.192                Sumatra          8524.000
       155   04 Jun 2027 18:43:53.653   04 Jun 2027 18:44:28.087            34.434                Novosib          4304.250
       156   04 Jun 2027 18:46:52.485   04 Jun 2027 18:49:07.051           134.566                  Delhi         16820.750
       157   04 Jun 2027 18:52:28.452   04 Jun 2027 18:52:51.758            23.306                  Delhi          2913.250
       158   04 Jun 2027 18:58:29.969   04 Jun 2027 18:58:57.059            27.090                  Delhi          3386.250
       159   04 Jun 2027 20:18:07.207   04 Jun 2027 20:21:57.145           229.938                 Moscow         25372.125
       160   05 Jun 2027 04:13:39.790   05 Jun 2027 04:17:35.695           235.905                Norilsk         29488.125
       161   05 Jun 2027 05:23:05.938   05 Jun 2027 05:25:11.803           125.865                Sumatra         15733.125
       162   05 Jun 2027 05:33:51.191   05 Jun 2027 05:36:36.116           164.925                  Delhi         20615.625
       163   05 Jun 2027 05:49:28.112   05 Jun 2027 05:50:01.018            32.906                 Moscow          4113.250
       164   05 Jun 2027 05:50:05.646   05 Jun 2027 05:51:01.454            55.808                Novosib          6976.000
       165   05 Jun 2027 05:51:14.238   05 Jun 2027 05:54:27.124           192.886                Norilsk         24110.750
       166   05 Jun 2027 05:54:48.748   05 Jun 2027 05:56:40.862           112.114              Murmansk1         14014.250
       167   05 Jun 2027 07:15:20.109   05 Jun 2027 07:19:58.014           277.905                  Delhi         34738.125
       168   05 Jun 2027 07:20:45.051   05 Jun 2027 07:21:19.457            34.406                Irkutsk          4300.750
       169   05 Jun 2027 07:25:22.051   05 Jun 2027 07:25:55.155            33.104              Murmansk2          4138.000
       170   05 Jun 2027 07:26:01.942   05 Jun 2027 07:30:26.779           264.837                Norilsk         33104.625
       171   05 Jun 2027 07:30:37.855   05 Jun 2027 07:32:10.749            92.894              Murmansk1         11611.750
       172   05 Jun 2027 09:01:41.668   05 Jun 2027 09:02:48.412            66.744                Norilsk          8343.000
       173   05 Jun 2027 09:03:13.109   05 Jun 2027 09:08:02.621           289.512              Murmansk1         36189.000
       174   05 Jun 2027 10:14:58.329   05 Jun 2027 10:16:09.132            70.803               CapeTown          8850.375
       175   05 Jun 2027 10:34:48.529   05 Jun 2027 10:36:37.740           109.211              Murmansk1         13651.375
       176   05 Jun 2027 10:36:53.770   05 Jun 2027 10:40:06.184           192.414                 Moscow         24051.750
       177   05 Jun 2027 10:40:17.195   05 Jun 2027 10:44:00.647           223.452              Murmansk1         27931.500
       178   05 Jun 2027 10:46:17.674   05 Jun 2027 10:55:11.893           534.219                Anadyr2         66777.375
       179   05 Jun 2027 11:44:16.305   05 Jun 2027 11:53:45.907           569.602               CapeTown         71200.250
       180   05 Jun 2027 12:11:03.325   05 Jun 2027 12:16:44.720           341.395              Murmansk1         42674.375
       181   05 Jun 2027 12:16:44.720   05 Jun 2027 12:19:45.023           180.303              Murmansk2         22537.875
       182   05 Jun 2027 12:21:44.343   05 Jun 2027 12:24:37.259           172.916                Anadyr1         21614.500
       183   05 Jun 2027 12:25:28.139   05 Jun 2027 12:29:15.175           227.036               Magadan2         28379.500
       184   05 Jun 2027 14:00:02.180   05 Jun 2027 14:01:14.986            72.806               Magadan1          9100.750
       185   05 Jun 2027 14:02:25.906   05 Jun 2027 14:03:13.741            47.835               Magadan2          5979.375
       186   05 Jun 2027 14:04:40.031   05 Jun 2027 14:05:12.301            32.270               Magadan2          4033.750
       187   05 Jun 2027 15:41:34.165   05 Jun 2027 15:44:47.394           193.229                Irkutsk         24153.625
       188   05 Jun 2027 15:58:40.436   05 Jun 2027 16:01:19.081           158.645                Sumatra         19830.625
       189   05 Jun 2027 16:29:34.192   05 Jun 2027 16:30:25.660            51.468            RioGallegos          6433.500
       190   05 Jun 2027 17:15:23.658   05 Jun 2027 17:16:59.360            95.702                Irkutsk         11962.750
       191   05 Jun 2027 17:18:02.008   05 Jun 2027 17:20:24.895           142.887                Novosib         17860.875
       192   05 Jun 2027 17:31:45.710   05 Jun 2027 17:32:02.739            17.029                Sumatra          2128.625
       193   05 Jun 2027 17:38:21.796   05 Jun 2027 17:38:40.060            18.264                Sumatra          2283.000
       194   05 Jun 2027 17:40:23.104   05 Jun 2027 17:40:56.757            33.653                Sumatra          4206.625
       195   05 Jun 2027 18:55:10.560   05 Jun 2027 18:55:54.765            44.205                Novosib          5525.625
       196   05 Jun 2027 18:58:42.196   05 Jun 2027 19:02:40.191           237.995                  Delhi         29749.375
       197   05 Jun 2027 20:29:47.986   05 Jun 2027 20:33:50.733           242.747                 Moscow         17831.750
       198   06 Jun 2027 04:25:38.296   06 Jun 2027 04:26:49.985            71.689                Novosib          8961.125
       199   06 Jun 2027 04:26:54.316   06 Jun 2027 04:30:10.323           196.007                Norilsk         24500.875
       200   06 Jun 2027 05:35:04.790   06 Jun 2027 05:37:36.048           151.258                Sumatra         18907.250
       201   06 Jun 2027 05:46:33.219   06 Jun 2027 05:48:21.683           108.464                  Delhi         13558.000
       202   06 Jun 2027 06:01:35.380   06 Jun 2027 06:03:10.552            95.172                 Moscow         11896.500
       203   06 Jun 2027 06:03:21.890   06 Jun 2027 06:06:28.968           187.078                Norilsk         23384.750
       204   06 Jun 2027 06:06:43.466   06 Jun 2027 06:08:37.080           113.614              Murmansk2         14201.750
       205   06 Jun 2027 07:26:09.465   06 Jun 2027 07:31:51.216           341.751                  Delhi         42718.875
       206   06 Jun 2027 07:37:05.317   06 Jun 2027 07:38:51.776           106.459                 Moscow         13307.375
       207   06 Jun 2027 07:39:18.019   06 Jun 2027 07:40:41.954            83.935              Murmansk2         10491.875
       208   06 Jun 2027 07:40:41.954   06 Jun 2027 07:44:10.732           208.778              Murmansk1         26097.250
       209   06 Jun 2027 09:13:16.237   06 Jun 2027 09:16:34.948           198.711                 Moscow         24838.875
       210   06 Jun 2027 09:17:19.602   06 Jun 2027 09:20:04.172           164.570              Murmansk1         20571.250
       211   06 Jun 2027 10:20:23.430   06 Jun 2027 10:28:47.683           504.253               CapeTown         63031.625
       212   06 Jun 2027 10:46:26.384   06 Jun 2027 10:56:01.891           575.507              Murmansk2         71938.375
       213   06 Jun 2027 10:58:11.503   06 Jun 2027 11:07:47.496           575.993                Anadyr2         71999.125
       214   06 Jun 2027 12:00:59.455   06 Jun 2027 12:05:35.234           275.779               CapeTown         34472.375
       215   06 Jun 2027 12:23:40.764   06 Jun 2027 12:30:34.810           414.046              Murmansk2         51755.750
       216   06 Jun 2027 12:37:07.240   06 Jun 2027 12:38:30.492            83.252               Magadan2         10406.500
       217   06 Jun 2027 12:41:21.258   06 Jun 2027 12:43:48.662           147.404               Magadan1         18425.500
       218   06 Jun 2027 14:12:30.570   06 Jun 2027 14:13:03.146            32.576               Magadan2          4072.000
       219   06 Jun 2027 14:16:40.684   06 Jun 2027 14:18:48.379           127.695               Magadan1         15961.875
       220   06 Jun 2027 15:07:12.000   06 Jun 2027 15:09:12.035           120.035            RioGallegos         15004.375
       221   06 Jun 2027 15:52:58.670   06 Jun 2027 15:54:10.676            72.006                Irkutsk          9000.750
       222   06 Jun 2027 15:56:37.003   06 Jun 2027 15:57:47.777            70.774                Irkutsk          8846.750
       223   06 Jun 2027 16:08:34.547   06 Jun 2027 16:10:33.855           119.308                Sumatra         14913.500
       224   06 Jun 2027 16:12:29.353   06 Jun 2027 16:14:46.388           137.035                Sumatra         17129.375
       225   06 Jun 2027 17:28:13.940   06 Jun 2027 17:28:58.559            44.619                Novosib          5577.375
       226   06 Jun 2027 17:30:16.099   06 Jun 2027 17:32:18.862           122.763                Novosib         15345.375
       227   06 Jun 2027 17:42:58.741   06 Jun 2027 17:43:13.662            14.921                Sumatra          1865.125
       228   06 Jun 2027 19:10:35.908   06 Jun 2027 19:13:25.246           169.338                  Delhi         21167.250
       229   06 Jun 2027 19:18:14.969   06 Jun 2027 19:20:07.998           113.029                  Delhi         14128.625
       230   06 Jun 2027 20:41:33.876   06 Jun 2027 20:43:48.293           134.417                 Moscow         14977.125
       231   07 Jun 2027 04:13:58.311   07 Jun 2027 04:16:24.212           145.901                Sumatra         18237.625
       232   07 Jun 2027 04:37:42.500   07 Jun 2027 04:42:33.096           290.596                Norilsk         36324.500
       233   07 Jun 2027 04:42:51.747   07 Jun 2027 04:45:25.220           153.473              Murmansk2         19184.125
       234   07 Jun 2027 05:47:09.244   07 Jun 2027 05:48:49.979           100.735                Sumatra         12591.875
       235   07 Jun 2027 05:57:51.007   07 Jun 2027 05:58:29.802            38.795                  Delhi          4849.375
       236   07 Jun 2027 06:01:14.068   07 Jun 2027 06:03:17.847           123.779                  Delhi         15472.375
       237   07 Jun 2027 06:12:08.652   07 Jun 2027 06:13:00.824            52.172                Irkutsk          6521.500
       238   07 Jun 2027 06:13:30.277   07 Jun 2027 06:14:04.697            34.420              Murmansk1          4302.500
       239   07 Jun 2027 06:14:23.703   07 Jun 2027 06:15:04.364            40.661                Novosib          5082.625
       240   07 Jun 2027 06:15:26.376   07 Jun 2027 06:18:30.857           184.481                Norilsk         23060.125
       241   07 Jun 2027 06:18:39.430   07 Jun 2027 06:20:33.908           114.478              Murmansk1         14309.750
       242   07 Jun 2027 07:39:27.695   07 Jun 2027 07:43:40.331           252.636                  Delhi         31579.500
       243   07 Jun 2027 07:43:42.905   07 Jun 2027 07:44:50.329            67.424                Novosib          8428.000
       244   07 Jun 2027 07:49:05.151   07 Jun 2027 07:49:09.252             4.101                Novosib           512.625
       245   07 Jun 2027 07:49:13.046   07 Jun 2027 07:49:50.554            37.508              Murmansk2          4688.500
       246   07 Jun 2027 07:50:03.903   07 Jun 2027 07:51:27.452            83.549                Norilsk         10443.625
       247   07 Jun 2027 07:51:37.732   07 Jun 2027 07:53:03.847            86.115              Murmansk2         10764.375
       248   07 Jun 2027 07:53:03.847   07 Jun 2027 07:56:11.014           187.167              Murmansk1         23395.875
       249   07 Jun 2027 09:19:00.605   07 Jun 2027 09:19:18.248            17.643                 Moscow          2205.375
       250   07 Jun 2027 09:24:20.348   07 Jun 2027 09:26:23.421           123.073              Murmansk2         15384.125
       251   07 Jun 2027 09:26:31.950   07 Jun 2027 09:28:35.611           123.661                 Moscow         15457.625
       252   07 Jun 2027 09:29:28.807   07 Jun 2027 09:32:05.797           156.990              Murmansk1         19623.750
       253   07 Jun 2027 10:34:01.867   07 Jun 2027 10:41:16.723           434.856               CapeTown         54357.000
       254   07 Jun 2027 10:58:51.782   07 Jun 2027 10:59:42.576            50.794              Murmansk2          6349.250
       255   07 Jun 2027 11:00:33.038   07 Jun 2027 11:03:49.116           196.078                 Moscow         24509.750
       256   07 Jun 2027 11:03:52.168   07 Jun 2027 11:08:02.922           250.754              Murmansk2         31344.250
       257   07 Jun 2027 11:10:19.640   07 Jun 2027 11:15:58.629           338.989                Anadyr1         42373.625
       258   07 Jun 2027 11:16:38.799   07 Jun 2027 11:18:16.812            98.013                Anadyr2         12251.625
       259   07 Jun 2027 12:48:52.413   07 Jun 2027 12:51:50.269           177.856               Magadan1         22232.000
       260   07 Jun 2027 12:54:32.050   07 Jun 2027 12:57:48.725           196.675               Magadan1         24584.375
       261   07 Jun 2027 15:17:52.021   07 Jun 2027 15:20:57.167           185.146            RioGallegos         23143.250
       262   07 Jun 2027 16:04:34.729   07 Jun 2027 16:06:24.713           109.984                Irkutsk         13748.000
       263   07 Jun 2027 16:19:29.092   07 Jun 2027 16:22:16.305           167.213                Sumatra         20901.625
       264   07 Jun 2027 17:44:14.437   07 Jun 2027 17:45:52.470            98.033                Novosib         12254.125
       265   07 Jun 2027 17:49:56.281   07 Jun 2027 17:52:06.540           130.259                  Delhi         16282.375
       266   07 Jun 2027 19:22:33.201   07 Jun 2027 19:23:47.304            74.103                  Delhi          9262.875
       267   07 Jun 2027 20:49:59.305   07 Jun 2027 20:50:24.785            25.480              Murmansk1          3185.000
       268   07 Jun 2027 20:52:28.571   07 Jun 2027 20:54:03.849            95.278              Murmansk2         11909.750
       269   07 Jun 2027 20:56:03.731   07 Jun 2027 20:57:42.641            98.910                 Moscow         12363.750
       270   07 Jun 2027 22:52:37.297   07 Jun 2027 22:52:55.901            18.604               CapeTown          2325.500
       271   08 Jun 2027 03:13:37.430   08 Jun 2027 03:23:02.182           564.752              Murmansk2         70594.000
       272   08 Jun 2027 03:48:30.860   08 Jun 2027 03:54:06.799           335.939            RioGallegos         41992.375
       273   08 Jun 2027 04:25:04.808   08 Jun 2027 04:26:18.471            73.663                Sumatra          9207.875
       274   08 Jun 2027 04:30:56.021   08 Jun 2027 04:32:56.895           120.874                Sumatra         15109.250
       275   08 Jun 2027 04:49:27.502   08 Jun 2027 04:49:37.240             9.738                Irkutsk          1217.250
       276   08 Jun 2027 04:49:44.077   08 Jun 2027 04:54:34.157           290.080                Norilsk         36260.000
       277   08 Jun 2027 04:54:39.524   08 Jun 2027 04:57:24.671           165.147              Murmansk2         20643.375
       278   08 Jun 2027 06:07:13.495   08 Jun 2027 06:11:25.133           251.638                Sumatra         31454.750
       279   08 Jun 2027 06:14:12.111   08 Jun 2027 06:15:48.326            96.215                Novosib         12026.875
       280   08 Jun 2027 06:17:29.994   08 Jun 2027 06:21:15.025           225.031                Novosib         28128.875
       281   08 Jun 2027 06:25:32.393   08 Jun 2027 06:26:41.293            68.900                 Moscow          8612.500
       282   08 Jun 2027 06:27:32.246   08 Jun 2027 06:29:27.306           115.060              Murmansk2         14382.500
       283   08 Jun 2027 06:29:27.306   08 Jun 2027 06:32:31.307           184.001              Murmansk1         23000.125
       284   08 Jun 2027 07:53:49.147   08 Jun 2027 07:55:47.312           118.165                Novosib         14770.625
       285   08 Jun 2027 07:55:51.530   08 Jun 2027 07:56:10.033            18.503                 Moscow          2312.875
       286   08 Jun 2027 08:01:06.764   08 Jun 2027 08:01:52.350            45.586              Murmansk1          5698.250
       287   08 Jun 2027 08:03:20.236   08 Jun 2027 08:04:51.311            91.075              Murmansk2         11384.375
       288   08 Jun 2027 08:04:51.311   08 Jun 2027 08:08:11.575           200.264              Murmansk1         25033.000
       289   08 Jun 2027 09:31:01.134   08 Jun 2027 09:31:22.158            21.024                 Moscow          2628.000
       290   08 Jun 2027 09:35:43.053   08 Jun 2027 09:38:13.612           150.559              Murmansk2         18819.875
       291   08 Jun 2027 09:39:18.145   08 Jun 2027 09:44:07.468           289.323              Murmansk2         36165.375
       292   08 Jun 2027 09:49:05.013   08 Jun 2027 09:50:17.450            72.437                Anadyr2          9054.625
       293   08 Jun 2027 10:47:34.580   08 Jun 2027 10:53:38.237           363.657               CapeTown         45457.125
       294   08 Jun 2027 11:10:53.449   08 Jun 2027 11:11:45.445            51.996              Murmansk1          6499.500
       295   08 Jun 2027 11:11:59.116   08 Jun 2027 11:15:36.207           217.091                 Moscow         27136.375
       296   08 Jun 2027 11:15:40.099   08 Jun 2027 11:20:03.669           263.570              Murmansk1         32946.250
       297   08 Jun 2027 11:22:03.783   08 Jun 2027 11:28:57.988           414.205                Anadyr2         51775.625
       298   08 Jun 2027 13:00:41.490   08 Jun 2027 13:06:56.239           374.749               Magadan2         46843.625
       299   08 Jun 2027 15:29:12.666   08 Jun 2027 15:32:46.002           213.336            RioGallegos         26667.000
       300   08 Jun 2027 16:18:35.019   08 Jun 2027 16:20:23.425           108.406                Irkutsk         13550.750
       301   08 Jun 2027 16:32:15.107   08 Jun 2027 16:34:05.245           110.138                Sumatra         13767.250
       302   08 Jun 2027 17:51:50.669   08 Jun 2027 17:54:34.275           163.606                Novosib         20450.750
       303   08 Jun 2027 17:55:37.773   08 Jun 2027 17:56:11.330            33.557                Novosib          4194.625
       304   08 Jun 2027 18:00:52.412   08 Jun 2027 18:03:50.346           177.934                  Delhi         22241.750
       305   08 Jun 2027 21:06:33.284   08 Jun 2027 21:08:08.781            95.497                 Moscow         11937.125
       306   08 Jun 2027 21:33:25.931   08 Jun 2027 21:33:50.370            24.439               CapeTown          3054.875
       307   08 Jun 2027 21:36:31.184   08 Jun 2027 21:36:54.458            23.274               CapeTown          2909.250
       308   09 Jun 2027 03:25:49.108   09 Jun 2027 03:26:28.031            38.923                Novosib          4865.375
       309   09 Jun 2027 03:26:34.157   09 Jun 2027 03:29:58.937           204.780              Murmansk1         25597.500
       310   09 Jun 2027 04:36:26.859   09 Jun 2027 04:36:37.709            10.850                Sumatra          1356.250
       311   09 Jun 2027 04:37:11.894   09 Jun 2027 04:38:10.277            58.383                Sumatra          7297.875
       312   09 Jun 2027 04:43:05.517   09 Jun 2027 04:44:02.719            57.202                Sumatra          7150.250
       313   09 Jun 2027 05:01:45.775   09 Jun 2027 05:06:35.412           289.637                Norilsk         36204.625
       314   09 Jun 2027 05:07:07.751   09 Jun 2027 05:09:17.381           129.630              Murmansk1         16203.750
       315   09 Jun 2027 06:19:14.790   09 Jun 2027 06:23:04.408           229.618                Sumatra         28702.250
       316   09 Jun 2027 06:26:17.094   09 Jun 2027 06:27:12.353            55.259                Novosib          6907.375
       317   09 Jun 2027 06:27:21.695   09 Jun 2027 06:32:05.583           283.888                  Delhi         35486.000
       318   09 Jun 2027 06:32:16.116   09 Jun 2027 06:32:39.771            23.655                Irkutsk          2956.875
       319   09 Jun 2027 06:36:56.128   09 Jun 2027 06:37:21.872            25.744                 Moscow          3218.000
       320   09 Jun 2027 06:37:26.679   09 Jun 2027 06:38:08.118            41.439              Murmansk2          5179.875
       321   09 Jun 2027 06:38:24.329   09 Jun 2027 06:39:04.703            40.374                Novosib          5046.750
       322   09 Jun 2027 06:39:31.525   09 Jun 2027 06:44:29.237           297.712              Murmansk1         37214.000
       323   09 Jun 2027 08:03:21.962   09 Jun 2027 08:03:46.619            24.657                  Delhi          3082.125
       324   09 Jun 2027 08:04:54.101   09 Jun 2027 08:09:14.000           259.899                Novosib         32487.375
       325   09 Jun 2027 08:12:59.402   09 Jun 2027 08:13:39.917            40.515              Murmansk2          5064.375
       326   09 Jun 2027 08:13:53.482   09 Jun 2027 08:18:30.233           276.751                Norilsk         34593.875
       327   09 Jun 2027 08:18:34.419   09 Jun 2027 08:20:12.369            97.950              Murmansk2         12243.750
       328   09 Jun 2027 09:43:25.533   09 Jun 2027 09:44:00.971            35.438                 Moscow          4429.750
       329   09 Jun 2027 09:46:57.732   09 Jun 2027 09:48:04.335            66.603              Murmansk1          8325.375
       330   09 Jun 2027 09:48:30.538   09 Jun 2027 09:52:34.765           244.227                 Moscow         30528.375
       331   09 Jun 2027 09:52:37.272   09 Jun 2027 09:56:09.150           211.878              Murmansk1         26484.750
       332   09 Jun 2027 10:01:51.201   09 Jun 2027 10:04:01.071           129.870                Anadyr1         16233.750
       333   09 Jun 2027 11:01:12.108   09 Jun 2027 11:05:53.374           281.266               CapeTown         35158.250
       334   09 Jun 2027 11:23:29.680   09 Jun 2027 11:24:14.461            44.781                 Moscow          5597.625
       335   09 Jun 2027 11:27:07.959   09 Jun 2027 11:29:07.654           119.695              Murmansk2         14961.875
       336   09 Jun 2027 11:29:07.654   09 Jun 2027 11:31:13.916           126.262              Murmansk1         15782.750
       337   09 Jun 2027 13:12:33.294   09 Jun 2027 13:19:16.782           403.488               Magadan2         50436.000
       338   09 Jun 2027 15:40:46.631   09 Jun 2027 15:44:37.621           230.990            RioGallegos         28873.750
       339   09 Jun 2027 16:31:27.654   09 Jun 2027 16:32:19.331            51.677                Irkutsk          6459.625
       340   09 Jun 2027 16:43:28.659   09 Jun 2027 16:46:00.050           151.391                Sumatra         18923.875
       341   09 Jun 2027 16:49:08.056   09 Jun 2027 16:49:20.229            12.173                Sumatra          1521.625
       342   09 Jun 2027 18:03:43.126   09 Jun 2027 18:06:25.546           162.420                Novosib         20302.500
       343   09 Jun 2027 18:12:11.568   09 Jun 2027 18:13:52.604           101.036                  Delhi         12629.500
       344   09 Jun 2027 18:18:17.137   09 Jun 2027 18:20:17.476           120.339                  Delhi         15042.375
       345   09 Jun 2027 21:17:09.292   09 Jun 2027 21:18:59.679           110.387                 Moscow         13798.375
       346   09 Jun 2027 21:42:09.422   09 Jun 2027 21:43:11.928            62.506               CapeTown          7813.250
       347   09 Jun 2027 21:48:38.824   09 Jun 2027 21:49:09.177            30.353               CapeTown          3794.125
       348   10 Jun 2027 03:37:52.758   10 Jun 2027 03:38:24.321            31.563              Murmansk1          3945.375
       349   10 Jun 2027 03:38:24.321   10 Jun 2027 03:39:10.941            46.620              Murmansk2          5827.500
       350   10 Jun 2027 03:39:20.477   10 Jun 2027 03:40:21.178            60.701                Norilsk          7587.625
       351   10 Jun 2027 04:47:59.396   10 Jun 2027 04:49:42.741           103.345                Sumatra         12918.125
       352   10 Jun 2027 05:13:47.569   10 Jun 2027 05:18:36.839           289.270                Norilsk         36158.750
       353   10 Jun 2027 05:18:55.265   10 Jun 2027 05:21:10.839           135.574              Murmansk2         16946.750
       354   10 Jun 2027 06:38:39.487   10 Jun 2027 06:39:54.909            75.422                Novosib          9427.750
       355   10 Jun 2027 06:41:06.822   10 Jun 2027 06:44:12.346           185.524                  Delhi         23190.500
       356   10 Jun 2027 06:44:33.686   10 Jun 2027 06:44:52.974            19.288                Irkutsk          2411.000
       357   10 Jun 2027 06:49:40.075   10 Jun 2027 06:50:08.348            28.273                 Moscow          3534.125
       358   10 Jun 2027 06:50:11.149   10 Jun 2027 06:51:03.715            52.566                Novosib          6570.750
       359   10 Jun 2027 06:51:31.185   10 Jun 2027 06:56:27.655           296.470              Murmansk2         37058.750
       360   10 Jun 2027 08:15:13.607   10 Jun 2027 08:15:59.135            45.528                  Delhi          5691.000
       361   10 Jun 2027 08:17:46.325   10 Jun 2027 08:21:02.551           196.226                Novosib         24528.250
       362   10 Jun 2027 08:25:42.210   10 Jun 2027 08:26:15.911            33.701                 Moscow          4212.625
       363   10 Jun 2027 08:26:32.292   10 Jun 2027 08:27:21.798            49.506                Norilsk          6188.250
       364   10 Jun 2027 08:27:23.062   10 Jun 2027 08:32:13.373           290.311              Murmansk2         36288.875
       365   10 Jun 2027 09:54:59.968   10 Jun 2027 09:56:06.686            66.718                 Moscow          8339.750
       366   10 Jun 2027 09:58:34.959   10 Jun 2027 10:01:51.842           196.883              Murmansk1         24610.375
       367   10 Jun 2027 10:01:51.955   10 Jun 2027 10:04:33.054           161.099                 Moscow         20137.375
       368   10 Jun 2027 10:05:11.874   10 Jun 2027 10:08:10.815           178.941              Murmansk2         22367.625
       369   10 Jun 2027 10:11:09.400   10 Jun 2027 10:17:07.323           357.923                Anadyr1         44740.375
       370   10 Jun 2027 11:13:06.558   10 Jun 2027 11:18:02.833           296.275               CapeTown         37034.375
       371   10 Jun 2027 11:39:05.713   10 Jun 2027 11:44:04.006           298.293              Murmansk1         37286.625
       372   10 Jun 2027 11:47:12.826   10 Jun 2027 11:51:26.563           253.737                Anadyr1         31717.125
       373   10 Jun 2027 13:24:27.128   10 Jun 2027 13:25:30.697            63.569               Magadan1          7946.125
       374   10 Jun 2027 13:25:30.697   10 Jun 2027 13:27:20.038           109.341               Magadan2         13667.625
       375   10 Jun 2027 13:28:55.894   10 Jun 2027 13:31:16.251           140.357               Magadan2         17544.625
       376   10 Jun 2027 15:52:27.935   10 Jun 2027 15:58:43.661           375.726            RioGallegos         46965.750
       377   10 Jun 2027 16:41:14.717   10 Jun 2027 16:42:45.239            90.522                Irkutsk         11315.250
       378   10 Jun 2027 16:43:33.113   10 Jun 2027 16:44:33.708            60.595                Novosib          7574.375
       379   10 Jun 2027 16:55:46.221   10 Jun 2027 16:58:00.461           134.240                Sumatra         16780.000
       380   10 Jun 2027 18:17:33.793   10 Jun 2027 18:17:39.300             5.507                Novosib           688.375
       381   10 Jun 2027 18:23:42.780   10 Jun 2027 18:27:31.981           229.201                  Delhi         28650.125
       382   10 Jun 2027 19:56:10.409   10 Jun 2027 19:58:01.871           111.462              Murmansk1         13932.750
       383   10 Jun 2027 19:58:10.157   10 Jun 2027 19:58:31.577            21.420                 Moscow          2677.500
       384   10 Jun 2027 21:29:04.892   10 Jun 2027 21:31:21.646           136.754                 Moscow         17094.250
       385   10 Jun 2027 21:57:33.091   10 Jun 2027 21:59:24.807           111.716               CapeTown          3497.875
       386   11 Jun 2027 03:49:46.611   11 Jun 2027 03:50:45.385            58.774                Novosib          7346.750
       387   11 Jun 2027 03:50:53.208   11 Jun 2027 03:53:13.853           140.645              Murmansk1         17580.625
       388   11 Jun 2027 04:59:39.984   11 Jun 2027 05:01:34.591           114.607                Sumatra         14325.875
       389   11 Jun 2027 05:13:34.993   11 Jun 2027 05:14:41.025            66.032                  Delhi          8254.000
       390   11 Jun 2027 05:25:49.434   11 Jun 2027 05:30:38.400           288.966                Norilsk         36120.750
       391   11 Jun 2027 05:30:39.722   11 Jun 2027 05:33:05.024           145.302              Murmansk1         18162.750
       392   11 Jun 2027 06:50:36.471   11 Jun 2027 06:53:03.918           147.447                Novosib         18430.875
       393   11 Jun 2027 06:53:28.879   11 Jun 2027 06:55:28.080           119.201                Novosib         14900.125
       394   11 Jun 2027 06:55:33.125   11 Jun 2027 06:56:15.752            42.627                  Delhi          5328.375
       395   11 Jun 2027 06:56:16.230   11 Jun 2027 06:57:36.585            80.355                Irkutsk         10044.375
       396   11 Jun 2027 07:01:23.636   11 Jun 2027 07:01:43.251            19.615              Murmansk2          2451.875
       397   11 Jun 2027 07:01:44.660   11 Jun 2027 07:04:21.914           157.254                 Moscow         19656.750
       398   11 Jun 2027 07:04:34.088   11 Jun 2027 07:06:38.306           124.218                Norilsk         15527.250
       399   11 Jun 2027 07:07:11.979   11 Jun 2027 07:08:26.520            74.541              Murmansk1          9317.625
       400   11 Jun 2027 08:30:36.599   11 Jun 2027 08:32:36.762           120.163                Novosib         15020.375
       401   11 Jun 2027 08:36:41.776   11 Jun 2027 08:37:01.782            20.006              Murmansk1          2500.750
       402   11 Jun 2027 08:38:05.220   11 Jun 2027 08:39:20.848            75.628                Norilsk          9453.500
       403   11 Jun 2027 08:39:24.632   11 Jun 2027 08:44:14.558           289.926              Murmansk2         36240.750
       404   11 Jun 2027 09:48:07.428   11 Jun 2027 09:50:17.817           130.389               CapeTown         16298.625
       405   11 Jun 2027 10:06:58.064   11 Jun 2027 10:07:30.815            32.751                 Moscow          4093.875
       406   11 Jun 2027 10:11:00.197   11 Jun 2027 10:13:24.900           144.703              Murmansk1         18087.875
       407   11 Jun 2027 10:13:27.408   11 Jun 2027 10:16:30.303           182.895                 Moscow         22861.875
       408   11 Jun 2027 10:16:59.258   11 Jun 2027 10:20:12.433           193.175              Murmansk1         24146.875
       409   11 Jun 2027 10:22:52.413   11 Jun 2027 10:30:01.001           428.588                Anadyr2         53573.500
       410   11 Jun 2027 11:24:56.007   11 Jun 2027 11:30:07.046           311.039               CapeTown         38879.875
       411   11 Jun 2027 11:47:10.567   11 Jun 2027 11:47:25.070            14.503                 Moscow          1812.875
       412   11 Jun 2027 11:51:02.213   11 Jun 2027 11:55:06.823           244.610              Murmansk1         30576.250
       413   11 Jun 2027 12:03:20.954   11 Jun 2027 12:04:19.326            58.372               Magadan1          7296.500
       414   11 Jun 2027 13:36:22.539   11 Jun 2027 13:39:25.455           182.916               Magadan1         22864.500
       415   11 Jun 2027 13:39:25.455   11 Jun 2027 13:40:54.965            89.510               Magadan2         11188.750
       416   11 Jun 2027 16:04:14.034   11 Jun 2027 16:10:07.681           353.647            RioGallegos         44205.875
       417   11 Jun 2027 16:51:47.452   11 Jun 2027 16:53:41.436           113.984                Irkutsk         14248.000
       418   11 Jun 2027 16:54:32.341   11 Jun 2027 16:56:48.038           135.697                Novosib         16962.125
       419   11 Jun 2027 17:06:20.328   11 Jun 2027 17:07:20.838            60.510                Sumatra          7563.750
       420   11 Jun 2027 17:16:25.989   11 Jun 2027 17:17:56.152            90.163                Sumatra         11270.375
       421   11 Jun 2027 18:35:21.952   11 Jun 2027 18:36:56.020            94.068                  Delhi         11758.500
       422   11 Jun 2027 18:37:40.158   11 Jun 2027 18:39:28.516           108.358                  Delhi         13544.750
       423   11 Jun 2027 20:10:20.324   11 Jun 2027 20:13:21.531           181.207                 Moscow         22650.875
       424   11 Jun 2027 22:05:22.069   11 Jun 2027 22:07:43.082           141.013               CapeTown          5555.000
       425   12 Jun 2027 04:01:55.276   12 Jun 2027 04:02:52.557            57.281                Novosib          7160.125
       426   12 Jun 2027 04:02:55.816   12 Jun 2027 04:07:00.644           244.828              Murmansk1         30603.500
       427   12 Jun 2027 05:11:27.296   12 Jun 2027 05:12:38.792            71.496                Sumatra          8937.000
       428   12 Jun 2027 05:14:18.596   12 Jun 2027 05:16:11.758           113.162                Sumatra         14145.250
       429   12 Jun 2027 05:37:37.817   12 Jun 2027 05:39:00.192            82.375                 Moscow         10296.875
       430   12 Jun 2027 05:39:03.479   12 Jun 2027 05:42:40.083           216.604                Norilsk         27075.500
       431   12 Jun 2027 05:42:54.583   12 Jun 2027 05:44:59.929           125.346              Murmansk2         15668.250
       432   12 Jun 2027 07:03:01.162   12 Jun 2027 07:08:15.884           314.722                  Delhi         39340.250
       433   12 Jun 2027 07:08:37.704   12 Jun 2027 07:09:35.864            58.160                Irkutsk          7270.000
       434   12 Jun 2027 07:13:15.103   12 Jun 2027 07:14:11.680            56.577              Murmansk2          7072.125
       435   12 Jun 2027 07:14:57.592   12 Jun 2027 07:14:58.812             1.220                Novosib           152.500
       436   12 Jun 2027 07:15:31.477   12 Jun 2027 07:17:00.425            88.948              Murmansk1         11118.500
       437   12 Jun 2027 07:17:00.425   12 Jun 2027 07:20:25.798           205.373              Murmansk2         25671.625
       438   12 Jun 2027 08:40:23.700   12 Jun 2027 08:40:33.576             9.876                 Moscow          1234.500
       439   12 Jun 2027 08:50:40.272   12 Jun 2027 08:52:46.542           126.270                 Moscow         15783.750
       440   12 Jun 2027 08:52:54.345   12 Jun 2027 08:56:15.888           201.543              Murmansk2         25192.875
       441   12 Jun 2027 10:00:36.675   12 Jun 2027 10:03:32.758           176.083               CapeTown         22010.375
       442   12 Jun 2027 10:23:01.634   12 Jun 2027 10:25:24.143           142.509              Murmansk1         17813.625
       443   12 Jun 2027 10:25:33.248   12 Jun 2027 10:28:26.304           173.056                 Moscow         21632.000
       444   12 Jun 2027 10:28:46.521   12 Jun 2027 10:31:06.133           139.612              Murmansk2         17451.500
       445   12 Jun 2027 10:31:06.133   12 Jun 2027 10:32:13.964            67.831              Murmansk1          8478.875
       446   12 Jun 2027 10:34:40.692   12 Jun 2027 10:42:46.943           486.251                Anadyr2         60781.375
       447   12 Jun 2027 11:37:11.085   12 Jun 2027 11:42:06.245           295.160               CapeTown         36895.000
       448   12 Jun 2027 11:58:59.621   12 Jun 2027 12:08:02.016           542.395              Murmansk2         67799.375
       449   12 Jun 2027 12:09:58.954   12 Jun 2027 12:19:32.377           573.423                Anadyr1         71677.875
       450   12 Jun 2027 13:48:19.193   12 Jun 2027 13:54:06.205           347.012               Magadan2         43376.500
       451   12 Jun 2027 15:30:52.838   12 Jun 2027 15:33:15.755           142.917                Irkutsk         17864.625
       452   12 Jun 2027 16:16:03.579   12 Jun 2027 16:17:22.163            78.584            RioGallegos          9823.000
       453   12 Jun 2027 16:18:52.485   12 Jun 2027 16:20:24.116            91.631            RioGallegos         11453.875
       454   12 Jun 2027 16:20:30.345   12 Jun 2027 16:21:43.339            72.994            RioGallegos          9124.250
       455   12 Jun 2027 17:05:11.606   12 Jun 2027 17:08:47.601           215.995                Novosib         26999.375
       456   12 Jun 2027 17:20:23.359   12 Jun 2027 17:21:30.207            66.848                Sumatra          8356.000
       457   12 Jun 2027 17:29:21.883   12 Jun 2027 17:30:02.443            40.560                Sumatra          5070.000
       458   12 Jun 2027 18:44:08.491   12 Jun 2027 18:44:42.649            34.158                Novosib          4269.750
       459   12 Jun 2027 18:46:14.298   12 Jun 2027 18:47:12.312            58.014                Novosib          7251.750
       460   12 Jun 2027 18:49:22.075   12 Jun 2027 18:51:28.439           126.364                  Delhi         15795.500
       461   12 Jun 2027 18:52:43.756   12 Jun 2027 18:53:06.000            22.244                  Delhi          2780.500
       462   12 Jun 2027 20:18:21.587   12 Jun 2027 20:22:11.839           230.252                 Moscow         25428.251
       463   13 Jun 2027 04:13:54.635   13 Jun 2027 04:17:53.154           238.519                Norilsk         29814.875
       464   13 Jun 2027 05:23:20.592   13 Jun 2027 05:25:28.051           127.459                Sumatra         15932.375
       465   13 Jun 2027 05:34:05.223   13 Jun 2027 05:36:50.647           165.424                  Delhi         20678.000
       466   13 Jun 2027 05:49:44.126   13 Jun 2027 05:51:16.191            92.065                Novosib         11508.125
       467   13 Jun 2027 05:51:29.044   13 Jun 2027 05:54:41.860           192.816                Norilsk         24102.000
       468   13 Jun 2027 05:55:06.235   13 Jun 2027 05:56:55.510           109.275              Murmansk1         13659.375
       469   13 Jun 2027 07:15:34.837   13 Jun 2027 07:20:12.654           277.817                  Delhi         34727.125
       470   13 Jun 2027 07:21:02.035   13 Jun 2027 07:21:34.065            32.030                Irkutsk          4003.750
       471   13 Jun 2027 07:25:39.223   13 Jun 2027 07:26:12.349            33.126              Murmansk1          4140.750
       472   13 Jun 2027 07:26:18.683   13 Jun 2027 07:27:45.082            86.399                Norilsk         10799.875
       473   13 Jun 2027 07:27:54.753   13 Jun 2027 07:29:01.091            66.338              Murmansk2          8292.250
       474   13 Jun 2027 07:29:01.091   13 Jun 2027 07:32:25.454           204.363              Murmansk1         25545.375
       475   13 Jun 2027 09:01:56.304   13 Jun 2027 09:03:04.407            68.103                Norilsk          8512.875
       476   13 Jun 2027 09:03:27.966   13 Jun 2027 09:08:17.353           289.387              Murmansk1         36173.375
       477   13 Jun 2027 10:35:03.163   13 Jun 2027 10:36:52.392           109.229              Murmansk2         13653.625
       478   13 Jun 2027 10:37:07.871   13 Jun 2027 10:40:20.806           192.935                 Moscow         24116.875
       479   13 Jun 2027 10:40:33.788   13 Jun 2027 10:43:04.370           150.582              Murmansk1         18822.750
       480   13 Jun 2027 10:43:04.370   13 Jun 2027 10:44:15.378            71.008              Murmansk2          8876.000
       481   13 Jun 2027 10:46:32.275   13 Jun 2027 10:55:27.145           534.870                Anadyr1         66858.750
       482   13 Jun 2027 11:46:22.503   13 Jun 2027 11:54:00.500           457.997               CapeTown         57249.625
