uniorb/output/strategy_4/Drop/Drop_KinoSat_111810.txt

KinoSat_111810
-------------------------
    Access    *     Start Time (UTCG)     *     Stop Time (UTCG)  *   Duration (s)        *       Station  *  Data (Mbytes)
         1   01 Jun 2027 03:57:17.941   01 Jun 2027 04:00:20.508           182.567                Irkutsk          5705.219
         2   01 Jun 2027 04:00:30.734   01 Jun 2027 04:01:46.449            75.715                Novosib          2366.094
         3   01 Jun 2027 04:02:30.890   01 Jun 2027 04:04:38.050           127.160                  Delhi          3973.750
         4   01 Jun 2027 04:06:11.237   01 Jun 2027 04:07:41.517            90.280                  Delhi          2821.250
         5   01 Jun 2027 05:34:34.471   01 Jun 2027 05:35:00.801            26.330                Norilsk           822.812
         6   01 Jun 2027 05:35:07.545   01 Jun 2027 05:35:38.367            30.822              Murmansk2           963.188
         7   01 Jun 2027 05:35:57.083   01 Jun 2027 05:36:08.742            11.659                Norilsk           364.344
         8   01 Jun 2027 05:36:26.877   01 Jun 2027 05:39:28.094           181.217              Murmansk2          5663.031
         9   01 Jun 2027 05:39:35.402   01 Jun 2027 05:42:31.989           176.587                 Moscow          5518.344
        10   01 Jun 2027 05:53:59.923   01 Jun 2027 05:56:54.600           174.677               CapeTown          5458.656
        11   01 Jun 2027 06:02:48.009   01 Jun 2027 06:03:33.597            45.588               CapeTown          1424.625
        12   01 Jun 2027 06:06:10.251   01 Jun 2027 06:06:47.397            37.146               CapeTown          1160.813
        13   01 Jun 2027 06:58:22.224   01 Jun 2027 07:02:57.300           275.076               Magadan1          8596.125
        14   01 Jun 2027 07:03:01.790   01 Jun 2027 07:03:38.348            36.558                Anadyr1          1142.437
        15   01 Jun 2027 07:04:11.886   01 Jun 2027 07:04:19.346             7.460              Murmansk2           233.125
        16   01 Jun 2027 07:11:33.943   01 Jun 2027 07:11:43.686             9.743                 Moscow           304.469
        17   01 Jun 2027 07:11:50.883   01 Jun 2027 07:12:33.829            42.946                 Moscow          1342.062
        18   01 Jun 2027 08:34:08.038   01 Jun 2027 08:34:56.043            48.005               Magadan1          1500.156
        19   01 Jun 2027 08:35:22.525   01 Jun 2027 08:36:24.606            62.081               Magadan2          1940.031
        20   01 Jun 2027 08:36:50.229   01 Jun 2027 08:37:12.476            22.247               Magadan2           695.219
        21   01 Jun 2027 08:37:38.887   01 Jun 2027 08:39:28.050           109.163                Anadyr2          3411.344
        22   01 Jun 2027 10:07:55.267   01 Jun 2027 10:08:19.964            24.697               Magadan2           771.781
        23   01 Jun 2027 10:08:24.538   01 Jun 2027 10:14:19.654           355.116                Anadyr1         11097.375
        24   01 Jun 2027 11:44:19.651   01 Jun 2027 11:48:56.811           277.160               Magadan1          8661.250
        25   01 Jun 2027 11:50:01.306   01 Jun 2027 11:50:10.816             9.510                Irkutsk           297.187
        26   01 Jun 2027 13:15:05.973   01 Jun 2027 13:15:26.987            21.014                Irkutsk           656.687
        27   01 Jun 2027 13:16:28.471   01 Jun 2027 13:19:05.786           157.315                Irkutsk          4916.094
        28   01 Jun 2027 13:23:20.521   01 Jun 2027 13:24:54.765            94.244                Irkutsk          2945.125
        29   01 Jun 2027 14:07:37.992   01 Jun 2027 14:11:03.219           205.227            RioGallegos          6413.344
        30   01 Jun 2027 14:53:02.751   01 Jun 2027 14:53:43.161            40.410                Novosib          1262.812
        31   01 Jun 2027 14:54:50.934   01 Jun 2027 14:55:45.280            54.346                  Delhi          1698.312
        32   01 Jun 2027 14:56:32.327   01 Jun 2027 14:57:44.478            72.151                Novosib          2254.719
        33   01 Jun 2027 14:58:07.285   01 Jun 2027 14:58:13.892             6.607                Novosib           206.469
        34   01 Jun 2027 15:00:09.826   01 Jun 2027 15:01:56.528           106.702                Norilsk          3334.437
        35   01 Jun 2027 15:03:18.275   01 Jun 2027 15:03:51.469            33.194                Novosib          1037.312
        36   01 Jun 2027 16:29:04.351   01 Jun 2027 16:32:07.981           183.630                 Moscow          5738.438
        37   01 Jun 2027 16:32:33.976   01 Jun 2027 16:33:25.848            51.872              Murmansk2          1621.000
        38   01 Jun 2027 16:33:52.797   01 Jun 2027 16:34:23.253            30.456              Murmansk2           951.750
        39   01 Jun 2027 16:37:19.255   01 Jun 2027 16:43:25.518           366.263                Norilsk         11445.719
        40   01 Jun 2027 17:48:00.797   01 Jun 2027 17:48:19.689            18.892               CapeTown           590.375
        41   01 Jun 2027 17:49:39.538   01 Jun 2027 17:50:08.962            29.424               CapeTown           919.500
        42   01 Jun 2027 17:53:22.542   01 Jun 2027 17:53:58.838            36.296               CapeTown          1134.250
        43   01 Jun 2027 18:06:57.965   01 Jun 2027 18:08:08.523            70.558                 Moscow          2204.938
        44   01 Jun 2027 18:09:54.000   01 Jun 2027 18:11:10.435            76.435              Murmansk1          2388.594
        45   01 Jun 2027 18:11:56.154   01 Jun 2027 18:12:22.290            26.136                 Moscow           816.750
        46   01 Jun 2027 18:13:26.112   01 Jun 2027 18:14:22.462            56.350              Murmansk2          1760.937
        47   01 Jun 2027 18:17:00.630   01 Jun 2027 18:17:14.836            14.206                 Moscow           443.938
        48   01 Jun 2027 18:18:32.694   01 Jun 2027 18:19:21.267            48.573              Murmansk2          1517.906
        49   01 Jun 2027 18:21:01.688   01 Jun 2027 18:21:26.947            25.259              Murmansk2           789.344
        50   01 Jun 2027 18:28:34.768   01 Jun 2027 18:28:44.152             9.384                Anadyr1           293.250
        51   01 Jun 2027 18:32:02.855   01 Jun 2027 18:32:24.498            21.643                Anadyr2           676.344
        52   01 Jun 2027 18:33:40.485   01 Jun 2027 18:33:40.655             0.170                Anadyr1             5.313
        53   01 Jun 2027 19:18:41.945   01 Jun 2027 19:20:21.990           100.045               CapeTown          3126.406
        54   01 Jun 2027 19:21:21.372   01 Jun 2027 19:23:00.151            98.779               CapeTown          3086.844
        55   01 Jun 2027 19:29:55.359   01 Jun 2027 19:30:43.080            47.721               CapeTown          1491.281
        56   01 Jun 2027 19:49:37.156   01 Jun 2027 19:51:22.247           105.091              Murmansk2          3284.094
        57   01 Jun 2027 19:51:51.138   01 Jun 2027 19:54:17.289           146.151              Murmansk1          4567.219
        58   01 Jun 2027 19:55:13.171   01 Jun 2027 19:55:20.816             7.645              Murmansk2           238.906
        59   01 Jun 2027 19:56:50.825   01 Jun 2027 19:57:03.611            12.786              Murmansk1           399.563
        60   01 Jun 2027 20:10:10.677   01 Jun 2027 20:11:05.451            54.774               Magadan1          1711.688
        61   01 Jun 2027 21:35:03.477   01 Jun 2027 21:36:43.021            99.544                Anadyr1          3110.750
        62   01 Jun 2027 21:36:51.587   01 Jun 2027 21:40:47.519           235.932                Anadyr2          7372.875
        63   01 Jun 2027 21:40:51.649   01 Jun 2027 21:42:27.271            95.622               Magadan1          2988.188
        64   01 Jun 2027 21:42:40.839   01 Jun 2027 21:42:49.517             8.678               Magadan1           271.187
        65   01 Jun 2027 21:43:08.743   01 Jun 2027 21:43:40.519            31.776               Magadan1           993.000
        66   01 Jun 2027 21:45:34.253   01 Jun 2027 21:45:41.687             7.434               Magadan2           232.312
        67   01 Jun 2027 21:47:06.400   01 Jun 2027 21:47:13.598             7.198               Magadan1           224.937
        68   01 Jun 2027 21:47:33.878   01 Jun 2027 21:48:12.122            38.244               Magadan1          1195.125
        69   01 Jun 2027 21:49:48.035   01 Jun 2027 21:50:00.879            12.844               Magadan1           401.375
        70   01 Jun 2027 22:31:13.114   01 Jun 2027 22:32:46.300            93.186            RioGallegos          2912.063
        71   01 Jun 2027 22:32:51.065   01 Jun 2027 22:33:02.678            11.613            RioGallegos           362.906
        72   01 Jun 2027 22:34:22.712   01 Jun 2027 22:34:47.155            24.443            RioGallegos           763.844
        73   01 Jun 2027 22:35:31.495   01 Jun 2027 22:36:07.936            36.441            RioGallegos          1138.781
        74   01 Jun 2027 23:10:53.249   01 Jun 2027 23:14:05.628           192.379                Anadyr1          6011.844
        75   01 Jun 2027 23:14:27.815   01 Jun 2027 23:16:16.126           108.311               Magadan2          3384.719
        76   01 Jun 2027 23:17:42.249   01 Jun 2027 23:18:22.148            39.899               Magadan1          1246.844
        77   01 Jun 2027 23:19:40.199   01 Jun 2027 23:20:11.722            31.523                Irkutsk           985.094
        78   01 Jun 2027 23:21:21.923   01 Jun 2027 23:22:02.308            40.385                Irkutsk          1262.031
        79   01 Jun 2027 23:26:39.100   01 Jun 2027 23:26:47.908             8.808                Irkutsk           275.250
        80   01 Jun 2027 23:32:55.334   01 Jun 2027 23:34:53.843           118.509                Sumatra          3703.406
        81   01 Jun 2027 23:36:45.220   01 Jun 2027 23:38:15.619            90.399                Sumatra          2824.969
        82   02 Jun 2027 00:12:59.653   02 Jun 2027 00:13:32.556            32.903            RioGallegos          1028.219
        83   02 Jun 2027 00:46:10.393   02 Jun 2027 00:47:03.214            52.821                Anadyr1          1650.656
        84   02 Jun 2027 00:47:38.589   02 Jun 2027 00:48:00.022            21.433                Anadyr1           669.781
        85   02 Jun 2027 00:48:25.964   02 Jun 2027 00:48:47.132            21.168                Anadyr1           661.500
        86   02 Jun 2027 00:48:54.119   02 Jun 2027 00:49:00.919             6.800                Anadyr1           212.500
        87   02 Jun 2027 00:49:05.640   02 Jun 2027 00:49:32.188            26.548                Norilsk           829.625
        88   02 Jun 2027 00:49:43.207   02 Jun 2027 00:50:57.174            73.967               Magadan1          2311.469
        89   02 Jun 2027 00:50:57.174   02 Jun 2027 00:51:06.916             9.742               Magadan2           304.437
        90   02 Jun 2027 00:51:31.899   02 Jun 2027 00:52:36.322            64.423               Magadan1          2013.219
        91   02 Jun 2027 00:52:42.037   02 Jun 2027 00:53:13.122            31.085                Irkutsk           971.406
        92   02 Jun 2027 00:53:51.188   02 Jun 2027 00:54:50.369            59.181                Irkutsk          1849.406
        93   02 Jun 2027 00:57:50.885   02 Jun 2027 00:57:57.294             6.409                Novosib           200.281
        94   02 Jun 2027 00:58:25.691   02 Jun 2027 00:58:37.954            12.263                Novosib           383.219
        95   02 Jun 2027 00:59:09.099   02 Jun 2027 00:59:13.467             4.368                Novosib           136.500
        96   02 Jun 2027 01:00:15.394   02 Jun 2027 01:00:16.954             1.560                Irkutsk            48.750
        97   02 Jun 2027 01:01:24.551   02 Jun 2027 01:01:50.798            26.247                Novosib           820.219
        98   02 Jun 2027 01:02:29.808   02 Jun 2027 01:02:43.702            13.894                Novosib           434.187
        99   02 Jun 2027 01:02:58.004   02 Jun 2027 01:03:26.846            28.842                Novosib           901.312
       100   02 Jun 2027 01:05:51.619   02 Jun 2027 01:08:00.506           128.887                  Delhi          4027.719
       101   02 Jun 2027 01:46:39.955   02 Jun 2027 01:47:34.827            54.872            RioGallegos          1714.750
       102   02 Jun 2027 01:50:26.346   02 Jun 2027 01:51:15.120            48.774            RioGallegos          1524.187
       103   02 Jun 2027 02:21:45.105   02 Jun 2027 02:22:19.658            34.553                Anadyr2          1079.781
       104   02 Jun 2027 02:22:51.920   02 Jun 2027 02:22:53.176             1.256                Anadyr2            39.250
       105   02 Jun 2027 02:23:50.482   02 Jun 2027 02:23:56.212             5.730                Anadyr1           179.062
       106   02 Jun 2027 02:24:29.662   02 Jun 2027 02:25:10.111            40.449                Anadyr1          1264.031
       107   02 Jun 2027 02:25:25.556   02 Jun 2027 02:25:50.683            25.127               Magadan2           785.219
       108   02 Jun 2027 02:26:07.416   02 Jun 2027 02:26:33.002            25.586                Norilsk           799.563
       109   02 Jun 2027 02:27:40.333   02 Jun 2027 02:28:21.206            40.873              Murmansk2          1277.281
       110   02 Jun 2027 02:28:35.247   02 Jun 2027 02:29:38.809            63.562                Novosib          1986.312
       111   02 Jun 2027 02:29:41.095   02 Jun 2027 02:30:13.246            32.151                Irkutsk          1004.719
       112   02 Jun 2027 02:33:29.390   02 Jun 2027 02:33:38.765             9.375                Irkutsk           292.969
       113   02 Jun 2027 02:35:55.649   02 Jun 2027 02:36:34.325            38.676                  Delhi          1208.625
       114   02 Jun 2027 02:37:35.811   02 Jun 2027 02:38:29.205            53.394                Irkutsk          1668.562
       115   02 Jun 2027 02:42:46.366   02 Jun 2027 02:43:49.667            63.301                  Delhi          1978.156
       116   02 Jun 2027 03:18:52.235   02 Jun 2027 03:20:06.479            74.244            RioGallegos          2320.125
       117   02 Jun 2027 03:21:07.598   02 Jun 2027 03:22:48.894           101.296            RioGallegos          3165.500
       118   02 Jun 2027 04:09:14.213   02 Jun 2027 04:11:26.626           132.413              Murmansk1          4137.906
       119   02 Jun 2027 04:12:08.413   02 Jun 2027 04:13:44.915            96.502              Murmansk1          3015.687
       120   02 Jun 2027 04:14:14.428   02 Jun 2027 04:15:57.628           103.200                Novosib          3225.000
       121   02 Jun 2027 04:18:49.744   02 Jun 2027 04:21:05.666           135.922                  Delhi          4247.562
       122   02 Jun 2027 05:46:56.375   02 Jun 2027 05:47:58.852            62.477                Novosib          1952.406
       123   02 Jun 2027 05:50:42.968   02 Jun 2027 05:51:37.698            54.730              Murmansk2          1710.313
       124   02 Jun 2027 07:10:06.055   02 Jun 2027 07:13:36.747           210.692                Anadyr1          6584.125
       125   02 Jun 2027 07:13:36.747   02 Jun 2027 07:14:58.383            81.636                Anadyr2          2551.125
       126   02 Jun 2027 08:47:25.081   02 Jun 2027 08:47:57.630            32.549               Magadan1          1017.156
       127   02 Jun 2027 08:49:04.039   02 Jun 2027 08:51:27.051           143.012                Anadyr2          4469.125
       128   02 Jun 2027 10:19:24.982   02 Jun 2027 10:19:33.502             8.520               Magadan2           266.250
       129   02 Jun 2027 10:19:33.502   02 Jun 2027 10:20:26.920            53.418               Magadan1          1669.313
       130   02 Jun 2027 10:20:46.237   02 Jun 2027 10:20:58.235            11.998               Magadan2           374.937
       131   02 Jun 2027 10:21:21.075   02 Jun 2027 10:24:18.029           176.954               Magadan2          5529.812
       132   02 Jun 2027 10:24:19.541   02 Jun 2027 10:24:23.425             3.884                Anadyr1           121.375
       133   02 Jun 2027 10:25:28.269   02 Jun 2027 10:25:45.480            17.211               Magadan1           537.844
       134   02 Jun 2027 10:25:46.636   02 Jun 2027 10:25:51.058             4.422                Norilsk           138.188
       135   02 Jun 2027 10:26:02.670   02 Jun 2027 10:26:56.550            53.880               Magadan1          1683.750
       136   02 Jun 2027 11:01:54.493   02 Jun 2027 11:02:55.224            60.731            RioGallegos          1897.844
       137   02 Jun 2027 11:38:30.330   02 Jun 2027 11:40:25.321           114.991                Sumatra          3593.469
       138   02 Jun 2027 11:57:26.331   02 Jun 2027 11:58:05.812            39.481                Irkutsk          1233.781
       139   02 Jun 2027 11:58:50.540   02 Jun 2027 11:59:06.193            15.653               Magadan1           489.156
       140   02 Jun 2027 11:59:14.509   02 Jun 2027 11:59:21.456             6.947                Novosib           217.094
       141   02 Jun 2027 11:59:41.583   02 Jun 2027 12:00:50.847            69.264                Irkutsk          2164.500
       142   02 Jun 2027 12:02:00.174   02 Jun 2027 12:02:34.051            33.877                Irkutsk          1058.656
       143   02 Jun 2027 12:05:56.075   02 Jun 2027 12:06:36.007            39.932                Norilsk          1247.875
       144   02 Jun 2027 12:09:44.893   02 Jun 2027 12:09:53.405             8.512              Murmansk2           266.000
       145   02 Jun 2027 12:10:20.823   02 Jun 2027 12:10:39.128            18.305              Murmansk2           572.031
       146   02 Jun 2027 12:43:06.961   02 Jun 2027 12:43:37.948            30.987            RioGallegos           968.344
       147   02 Jun 2027 12:47:15.304   02 Jun 2027 12:48:11.113            55.809            RioGallegos          1744.031
       148   02 Jun 2027 12:48:29.000   02 Jun 2027 12:49:03.375            34.375            RioGallegos          1074.219
       149   02 Jun 2027 13:15:26.052   02 Jun 2027 13:17:16.159           110.107                Sumatra          3440.844
       150   02 Jun 2027 13:24:00.449   02 Jun 2027 13:24:49.535            49.086                Sumatra          1533.937
       151   02 Jun 2027 13:27:33.669   02 Jun 2027 13:28:03.872            30.203                Irkutsk           943.844
       152   02 Jun 2027 13:31:05.350   02 Jun 2027 13:32:07.179            61.829                Irkutsk          1932.156
       153   02 Jun 2027 13:43:32.820   02 Jun 2027 13:43:44.871            12.051                Norilsk           376.594
       154   02 Jun 2027 14:57:21.654   02 Jun 2027 14:58:30.641            68.987                  Delhi          2155.844
       155   02 Jun 2027 15:01:43.259   02 Jun 2027 15:02:32.879            49.620                  Delhi          1550.625
       156   02 Jun 2027 15:04:07.205   02 Jun 2027 15:05:30.803            83.598                  Delhi          2612.437
       157   02 Jun 2027 15:05:34.664   02 Jun 2027 15:08:31.236           176.572                Novosib          5517.875
       158   02 Jun 2027 15:09:26.850   02 Jun 2027 15:09:55.955            29.105                Norilsk           909.531
       159   02 Jun 2027 15:14:21.630   02 Jun 2027 15:14:39.914            18.284                Norilsk           571.375
       160   02 Jun 2027 15:17:46.347   02 Jun 2027 15:19:15.249            88.902                Norilsk          2778.188
       161   02 Jun 2027 16:41:08.754   02 Jun 2027 16:41:32.055            23.301                 Moscow           728.156
       162   02 Jun 2027 16:42:12.297   02 Jun 2027 16:44:24.191           131.894                 Moscow          4121.688
       163   02 Jun 2027 16:48:59.982   02 Jun 2027 16:49:33.977            33.995                 Moscow          1062.344
       164   02 Jun 2027 16:50:11.128   02 Jun 2027 16:54:34.097           262.969                Norilsk          8217.781
       165   02 Jun 2027 18:04:50.477   02 Jun 2027 18:05:06.304            15.827               CapeTown           494.594
       166   02 Jun 2027 18:06:07.386   02 Jun 2027 18:06:12.801             5.415               CapeTown           169.219
       167   02 Jun 2027 18:06:19.311   02 Jun 2027 18:06:59.768            40.457               CapeTown          1264.281
       168   02 Jun 2027 18:19:34.517   02 Jun 2027 18:21:53.134           138.617                 Moscow          4331.781
       169   02 Jun 2027 18:22:40.787   02 Jun 2027 18:22:55.421            14.634              Murmansk1           457.312
       170   02 Jun 2027 18:23:05.375   02 Jun 2027 18:23:26.177            20.802              Murmansk1           650.063
       171   02 Jun 2027 18:31:15.177   02 Jun 2027 18:32:28.512            73.335              Murmansk1          2291.719
       172   02 Jun 2027 18:40:27.388   02 Jun 2027 18:40:40.551            13.163                Anadyr1           411.344
       173   02 Jun 2027 19:30:53.523   02 Jun 2027 19:32:21.229            87.706               CapeTown          2740.812
       174   02 Jun 2027 19:33:04.944   02 Jun 2027 19:33:46.875            41.931               CapeTown          1310.344
       175   02 Jun 2027 19:38:42.374   02 Jun 2027 19:39:16.482            34.108               CapeTown          1065.875
       176   02 Jun 2027 20:02:22.576   02 Jun 2027 20:06:55.745           273.169              Murmansk2          8536.531
       177   02 Jun 2027 20:07:51.184   02 Jun 2027 20:08:39.866            48.682              Murmansk1          1521.312
       178   02 Jun 2027 20:22:12.395   02 Jun 2027 20:23:04.805            52.410               Magadan1          1637.813
       179   02 Jun 2027 21:47:05.153   02 Jun 2027 21:50:58.633           233.480                Anadyr1          7296.250
       180   02 Jun 2027 21:51:09.485   02 Jun 2027 21:53:28.187           138.702               Magadan1          4334.437
       181   02 Jun 2027 21:53:42.506   02 Jun 2027 21:54:10.766            28.260               Magadan2           883.125
       182   02 Jun 2027 21:54:32.956   02 Jun 2027 21:55:10.600            37.644               Magadan1          1176.375
       183   02 Jun 2027 22:42:33.845   02 Jun 2027 22:45:13.851           160.006            RioGallegos          5000.188
       184   02 Jun 2027 22:47:29.116   02 Jun 2027 22:48:12.974            43.858            RioGallegos          1370.563
       185   02 Jun 2027 23:22:52.573   02 Jun 2027 23:24:32.667           100.094                Anadyr1          3127.937
       186   02 Jun 2027 23:24:48.566   02 Jun 2027 23:24:56.256             7.690                Anadyr1           240.312
       187   02 Jun 2027 23:24:57.733   02 Jun 2027 23:26:32.274            94.541                Norilsk          2954.406
       188   02 Jun 2027 23:27:05.331   02 Jun 2027 23:27:14.703             9.372               Magadan1           292.875
       189   02 Jun 2027 23:27:58.668   02 Jun 2027 23:28:12.176            13.508               Magadan1           422.125
       190   02 Jun 2027 23:28:16.368   02 Jun 2027 23:28:21.229             4.861                Norilsk           151.906
       191   02 Jun 2027 23:29:10.179   02 Jun 2027 23:29:15.124             4.945               Magadan1           154.531
       192   02 Jun 2027 23:29:38.827   02 Jun 2027 23:30:32.690            53.863                Irkutsk          1683.219
       193   02 Jun 2027 23:31:39.656   02 Jun 2027 23:32:04.493            24.837                Irkutsk           776.156
       194   02 Jun 2027 23:33:34.746   02 Jun 2027 23:34:13.676            38.930                Irkutsk          1216.563
       195   02 Jun 2027 23:44:09.328   02 Jun 2027 23:45:50.095           100.767                Sumatra          3148.969
       196   02 Jun 2027 23:48:32.401   02 Jun 2027 23:49:08.795            36.394                Sumatra          1137.313
       197   02 Jun 2027 23:49:49.760   02 Jun 2027 23:50:10.404            20.644                Sumatra           645.125
       198   03 Jun 2027 00:18:34.291   03 Jun 2027 00:19:07.520            33.229            RioGallegos          1038.406
       199   03 Jun 2027 00:26:02.963   03 Jun 2027 00:26:24.407            21.444            RioGallegos           670.125
       200   03 Jun 2027 00:58:02.833   03 Jun 2027 00:58:36.626            33.793                Anadyr2          1056.031
       201   03 Jun 2027 00:58:36.626   03 Jun 2027 00:59:12.238            35.612                Anadyr1          1112.875
       202   03 Jun 2027 00:59:35.928   03 Jun 2027 00:59:59.772            23.844                Anadyr2           745.125
       203   03 Jun 2027 01:00:30.614   03 Jun 2027 01:00:45.138            14.524                Anadyr2           453.875
       204   03 Jun 2027 01:00:48.508   03 Jun 2027 01:02:36.054           107.546                Norilsk          3360.812
       205   03 Jun 2027 01:04:42.266   03 Jun 2027 01:06:45.019           122.753                Irkutsk          3836.031
       206   03 Jun 2027 01:07:00.669   03 Jun 2027 01:07:32.644            31.975                Novosib           999.219
       207   03 Jun 2027 01:10:41.190   03 Jun 2027 01:10:46.272             5.082                Novosib           158.813
       208   03 Jun 2027 01:11:58.925   03 Jun 2027 01:13:31.672            92.747                Irkutsk          2898.344
       209   03 Jun 2027 01:21:19.730   03 Jun 2027 01:23:22.407           122.677                Sumatra          3833.656
       210   03 Jun 2027 01:58:18.969   03 Jun 2027 01:58:31.512            12.543            RioGallegos           391.969
       211   03 Jun 2027 02:03:13.775   03 Jun 2027 02:03:21.167             7.392            RioGallegos           231.000
       212   03 Jun 2027 02:04:07.025   03 Jun 2027 02:04:41.002            33.977            RioGallegos          1061.781
       213   03 Jun 2027 02:33:32.708   03 Jun 2027 02:33:45.355            12.647                Anadyr1           395.219
       214   03 Jun 2027 02:34:04.527   03 Jun 2027 02:34:30.303            25.776                Anadyr2           805.500
       215   03 Jun 2027 02:36:49.612   03 Jun 2027 02:37:54.871            65.259                Norilsk          2039.344
       216   03 Jun 2027 02:38:04.196   03 Jun 2027 02:38:35.502            31.306                Norilsk           978.313
       217   03 Jun 2027 02:39:29.768   03 Jun 2027 02:40:21.805            52.037              Murmansk1          1626.156
       218   03 Jun 2027 02:40:21.805   03 Jun 2027 02:40:38.654            16.849              Murmansk2           526.531
       219   03 Jun 2027 02:40:56.447   03 Jun 2027 02:42:17.692            81.245                Irkutsk          2538.906
       220   03 Jun 2027 02:47:56.617   03 Jun 2027 02:50:13.341           136.724                  Delhi          4272.625
       221   03 Jun 2027 03:30:14.472   03 Jun 2027 03:31:19.394            64.922            RioGallegos          2028.813
       222   03 Jun 2027 03:31:40.916   03 Jun 2027 03:33:01.060            80.144            RioGallegos          2504.500
       223   03 Jun 2027 03:34:08.360   03 Jun 2027 03:35:27.097            78.737            RioGallegos          2460.531
       224   03 Jun 2027 04:20:55.117   03 Jun 2027 04:22:19.876            84.759                Irkutsk          2648.719
       225   03 Jun 2027 04:23:11.695   03 Jun 2027 04:23:40.185            28.490                 Moscow           890.313
       226   03 Jun 2027 04:23:51.980   03 Jun 2027 04:25:17.010            85.030                Norilsk          2657.188
       227   03 Jun 2027 04:26:10.463   03 Jun 2027 04:27:51.826           101.363                Novosib          3167.594
       228   03 Jun 2027 04:28:06.638   03 Jun 2027 04:30:36.727           150.089                  Delhi          4690.281
       229   03 Jun 2027 04:31:17.234   03 Jun 2027 04:31:43.680            26.446                  Delhi           826.437
       230   03 Jun 2027 05:57:10.021   03 Jun 2027 05:58:37.136            87.115                Novosib          2722.344
       231   03 Jun 2027 06:01:22.876   03 Jun 2027 06:01:52.075            29.199              Murmansk2           912.469
       232   03 Jun 2027 06:02:23.929   03 Jun 2027 06:03:44.164            80.235                 Moscow          2507.344
       233   03 Jun 2027 07:20:50.792   03 Jun 2027 07:21:53.561            62.769                Anadyr1          1961.531
       234   03 Jun 2027 07:22:10.491   03 Jun 2027 07:22:27.800            17.309               Magadan2           540.906
       235   03 Jun 2027 07:22:33.786   03 Jun 2027 07:23:20.983            47.197                Anadyr2          1474.906
       236   03 Jun 2027 07:24:31.913   03 Jun 2027 07:25:37.207            65.294                Anadyr2          2040.437
       237   03 Jun 2027 08:57:29.712   03 Jun 2027 08:57:49.342            19.630                Anadyr2           613.438
       238   03 Jun 2027 08:58:21.734   03 Jun 2027 08:58:28.113             6.379               Magadan2           199.344
       239   03 Jun 2027 08:58:34.262   03 Jun 2027 08:59:27.396            53.134               Magadan2          1660.438
       240   03 Jun 2027 08:59:41.245   03 Jun 2027 09:00:55.812            74.567                Anadyr1          2330.219
       241   03 Jun 2027 09:02:40.733   03 Jun 2027 09:02:57.518            16.785                Anadyr1           524.531
       242   03 Jun 2027 10:31:25.266   03 Jun 2027 10:32:50.752            85.486               Magadan2          2671.438
       243   03 Jun 2027 10:33:03.668   03 Jun 2027 10:33:05.810             2.142               Magadan2            66.937
       244   03 Jun 2027 10:34:44.546   03 Jun 2027 10:36:02.356            77.810               Magadan1          2431.563
       245   03 Jun 2027 10:37:04.821   03 Jun 2027 10:37:07.215             2.394                Irkutsk            74.812
       246   03 Jun 2027 10:37:31.328   03 Jun 2027 10:38:38.087            66.759                Irkutsk          2086.219
       247   03 Jun 2027 10:38:44.226   03 Jun 2027 10:38:47.004             2.778                Norilsk            86.812
       248   03 Jun 2027 10:38:51.937   03 Jun 2027 10:39:54.461            62.524                Norilsk          1953.875
       249   03 Jun 2027 11:13:47.913   03 Jun 2027 11:14:55.623            67.710            RioGallegos          2115.938
       250   03 Jun 2027 11:53:21.917   03 Jun 2027 11:54:44.280            82.363                Sumatra          2573.844
       251   03 Jun 2027 12:10:52.839   03 Jun 2027 12:12:24.438            91.599                Novosib          2862.469
       252   03 Jun 2027 12:50:42.022   03 Jun 2027 12:51:06.170            24.148            RioGallegos           754.625
       253   03 Jun 2027 12:52:34.454   03 Jun 2027 12:54:42.612           128.158            RioGallegos          4004.938
       254   03 Jun 2027 13:27:11.747   03 Jun 2027 13:29:27.096           135.349                Sumatra          4229.656
       255   03 Jun 2027 13:40:42.277   03 Jun 2027 13:42:00.256            77.979                Irkutsk          2436.844
       256   03 Jun 2027 13:45:01.375   03 Jun 2027 13:45:44.816            43.441                Irkutsk          1357.531
       257   03 Jun 2027 15:09:50.579   03 Jun 2027 15:13:44.634           234.055                  Delhi          7314.219
       258   03 Jun 2027 15:14:53.764   03 Jun 2027 15:15:34.746            40.982                  Delhi          1280.687
       259   03 Jun 2027 15:18:12.590   03 Jun 2027 15:20:29.080           136.490                Novosib          4265.312
       260   03 Jun 2027 15:31:52.446   03 Jun 2027 15:31:55.922             3.476                Norilsk           108.625
       261   03 Jun 2027 16:53:16.245   03 Jun 2027 16:54:08.602            52.357                 Moscow          1636.156
       262   03 Jun 2027 16:55:01.213   03 Jun 2027 16:56:24.612            83.399                 Moscow          2606.219
       263   03 Jun 2027 17:01:41.438   03 Jun 2027 17:02:22.792            41.354              Murmansk1          1292.313
       264   03 Jun 2027 17:03:11.869   03 Jun 2027 17:06:31.686           199.817                Norilsk          6244.281
       265   03 Jun 2027 18:12:51.238   03 Jun 2027 18:12:57.550             6.312               CapeTown           197.250
       266   03 Jun 2027 18:13:39.297   03 Jun 2027 18:13:47.264             7.967               CapeTown           248.969
       267   03 Jun 2027 18:13:55.519   03 Jun 2027 18:14:15.746            20.227               CapeTown           632.094
       268   03 Jun 2027 18:17:41.928   03 Jun 2027 18:18:19.194            37.266               CapeTown          1164.562
       269   03 Jun 2027 18:32:18.193   03 Jun 2027 18:36:56.089           277.896                 Moscow          8684.250
       270   03 Jun 2027 18:52:09.699   03 Jun 2027 18:52:42.014            32.315                Anadyr1          1009.844
       271   03 Jun 2027 19:43:08.861   03 Jun 2027 19:44:23.303            74.442               CapeTown          2326.313
       272   03 Jun 2027 19:47:35.077   03 Jun 2027 19:47:52.043            16.966               CapeTown           530.188
       273   03 Jun 2027 19:51:37.444   03 Jun 2027 19:52:58.536            81.092               CapeTown          2534.125
       274   03 Jun 2027 20:15:13.719   03 Jun 2027 20:20:46.904           333.185              Murmansk1         10412.031
       275   03 Jun 2027 21:59:06.694   03 Jun 2027 22:02:53.557           226.863                Anadyr1          7089.469
       276   03 Jun 2027 22:03:03.560   03 Jun 2027 22:05:24.317           140.757               Magadan1          4398.656
       277   03 Jun 2027 22:05:38.007   03 Jun 2027 22:05:51.637            13.630               Magadan2           425.937
       278   03 Jun 2027 22:06:02.367   03 Jun 2027 22:06:28.512            26.145               Magadan1           817.031
       279   03 Jun 2027 22:12:48.083   03 Jun 2027 22:12:52.364             4.281               Magadan1           133.781
       280   03 Jun 2027 22:14:07.354   03 Jun 2027 22:14:15.761             8.407               Magadan2           262.719
       281   03 Jun 2027 22:54:08.134   03 Jun 2027 22:56:19.861           131.727            RioGallegos          4116.469
       282   03 Jun 2027 22:56:23.418   03 Jun 2027 22:57:16.399            52.981            RioGallegos          1655.656
       283   03 Jun 2027 22:59:23.510   03 Jun 2027 22:59:31.195             7.685            RioGallegos           240.156
       284   03 Jun 2027 23:00:41.332   03 Jun 2027 23:00:44.830             3.498            RioGallegos           109.313
       285   03 Jun 2027 23:34:51.325   03 Jun 2027 23:35:56.953            65.628                Anadyr1          2050.875
       286   03 Jun 2027 23:36:09.916   03 Jun 2027 23:36:43.004            33.088                Anadyr2          1034.000
       287   03 Jun 2027 23:36:56.999   03 Jun 2027 23:38:34.420            97.421                Norilsk          3044.406
       288   03 Jun 2027 23:38:44.085   03 Jun 2027 23:39:59.743            75.658               Magadan1          2364.313
       289   03 Jun 2027 23:40:55.629   03 Jun 2027 23:40:59.980             4.351               Magadan1           135.969
       290   03 Jun 2027 23:41:26.320   03 Jun 2027 23:42:04.453            38.133                Irkutsk          1191.656
       291   03 Jun 2027 23:43:35.964   03 Jun 2027 23:45:01.716            85.752                Irkutsk          2679.750
       292   03 Jun 2027 23:55:36.461   03 Jun 2027 23:56:49.117            72.656                Sumatra          2270.500
       293   04 Jun 2027 00:01:21.636   04 Jun 2027 00:02:10.877            49.241                Sumatra          1538.781
       294   04 Jun 2027 00:30:39.148   04 Jun 2027 00:30:59.523            20.375            RioGallegos           636.719
       295   04 Jun 2027 00:35:53.943   04 Jun 2027 00:36:21.520            27.577            RioGallegos           861.781
       296   04 Jun 2027 00:38:24.282   04 Jun 2027 00:38:37.426            13.144            RioGallegos           410.750
       297   04 Jun 2027 00:40:17.985   04 Jun 2027 00:40:29.011            11.026            RioGallegos           344.563
       298   04 Jun 2027 01:09:54.020   04 Jun 2027 01:11:35.063           101.043                Anadyr1          3157.594
       299   04 Jun 2027 01:11:59.882   04 Jun 2027 01:12:15.125            15.243                Anadyr1           476.344
       300   04 Jun 2027 01:12:37.400   04 Jun 2027 01:12:38.725             1.325                Anadyr1            41.406
       301   04 Jun 2027 01:12:50.765   04 Jun 2027 01:14:38.194           107.429                Norilsk          3357.156
       302   04 Jun 2027 01:15:38.838   04 Jun 2027 01:15:46.860             8.022               Magadan1           250.687
       303   04 Jun 2027 01:16:43.438   04 Jun 2027 01:19:17.390           153.952                Irkutsk          4811.000
       304   04 Jun 2027 01:23:31.793   04 Jun 2027 01:24:36.608            64.815                Novosib          2025.469
       305   04 Jun 2027 01:32:43.408   04 Jun 2027 01:33:47.211            63.803                  Delhi          1993.844
       306   04 Jun 2027 01:35:26.908   04 Jun 2027 01:35:30.284             3.376                Sumatra           105.500
       307   04 Jun 2027 02:04:59.947   04 Jun 2027 02:05:47.772            47.825            RioGallegos          1494.531
       308   04 Jun 2027 02:09:54.470   04 Jun 2027 02:10:14.718            20.248            RioGallegos           632.750
       309   04 Jun 2027 02:12:24.204   04 Jun 2027 02:12:41.281            17.077            RioGallegos           533.656
       310   04 Jun 2027 02:15:36.938   04 Jun 2027 02:16:11.457            34.519            RioGallegos          1078.719
       311   04 Jun 2027 02:45:31.511   04 Jun 2027 02:45:45.917            14.406                Anadyr2           450.188
       312   04 Jun 2027 02:46:32.909   04 Jun 2027 02:46:39.184             6.275                Anadyr1           196.094
       313   04 Jun 2027 02:47:53.268   04 Jun 2027 02:49:12.102            78.834                Anadyr1          2463.562
       314   04 Jun 2027 02:49:24.424   04 Jun 2027 02:49:47.049            22.625                Norilsk           707.031
       315   04 Jun 2027 02:51:22.979   04 Jun 2027 02:52:11.429            48.450              Murmansk1          1514.062
       316   04 Jun 2027 02:52:11.429   04 Jun 2027 02:52:44.154            32.725              Murmansk2          1022.656
       317   04 Jun 2027 02:52:57.582   04 Jun 2027 02:53:26.949            29.367                Novosib           917.719
       318   04 Jun 2027 02:53:47.519   04 Jun 2027 02:56:10.172           142.653                Irkutsk          4457.906
       319   04 Jun 2027 03:01:49.473   04 Jun 2027 03:02:02.129            12.656                  Delhi           395.500
       320   04 Jun 2027 03:42:46.976   04 Jun 2027 03:43:13.738            26.762            RioGallegos           836.313
       321   04 Jun 2027 03:46:08.771   04 Jun 2027 03:46:58.255            49.484            RioGallegos          1546.375
       322   04 Jun 2027 04:33:36.015   04 Jun 2027 04:33:43.365             7.350                Novosib           229.687
       323   04 Jun 2027 04:34:18.668   04 Jun 2027 04:35:16.143            57.475                Norilsk          1796.094
       324   04 Jun 2027 04:35:25.625   04 Jun 2027 04:39:29.416           243.791                Novosib          7618.469
       325   04 Jun 2027 06:13:19.343   04 Jun 2027 06:13:39.949            20.606              Murmansk2           643.937
       326   04 Jun 2027 06:14:50.758   04 Jun 2027 06:15:12.944            22.186                 Moscow           693.313
       327   04 Jun 2027 06:30:14.880   04 Jun 2027 06:32:03.230           108.350               CapeTown          3385.938
       328   04 Jun 2027 07:33:29.940   04 Jun 2027 07:33:34.855             4.915               Magadan1           153.594
       329   04 Jun 2027 07:33:54.528   04 Jun 2027 07:35:05.018            70.490                Anadyr1          2202.813
       330   04 Jun 2027 07:35:15.958   04 Jun 2027 07:35:25.305             9.347               Magadan1           292.094
       331   04 Jun 2027 07:35:28.976   04 Jun 2027 07:36:09.113            40.137               Magadan2          1254.281
       332   04 Jun 2027 07:37:37.242   04 Jun 2027 07:38:11.265            34.023                Anadyr1          1063.219
       333   04 Jun 2027 09:07:50.209   04 Jun 2027 09:08:10.218            20.009                Anadyr2           625.281
       334   04 Jun 2027 09:09:24.559   04 Jun 2027 09:10:13.041            48.482                Anadyr1          1515.062
       335   04 Jun 2027 09:10:22.258   04 Jun 2027 09:11:40.620            78.362                Anadyr1          2448.812
       336   04 Jun 2027 09:12:07.580   04 Jun 2027 09:13:10.606            63.026               Magadan2          1969.563
       337   04 Jun 2027 09:53:21.653   04 Jun 2027 09:53:34.553            12.900            RioGallegos           403.125
       338   04 Jun 2027 10:40:29.568   04 Jun 2027 10:40:35.028             5.460               Magadan1           170.625
       339   04 Jun 2027 10:44:40.619   04 Jun 2027 10:45:46.579            65.960               Magadan2          2061.250
       340   04 Jun 2027 10:46:46.605   04 Jun 2027 10:46:57.566            10.961                Irkutsk           342.531
       341   04 Jun 2027 10:47:11.165   04 Jun 2027 10:47:39.700            28.535               Magadan1           891.719
       342   04 Jun 2027 10:47:39.700   04 Jun 2027 10:50:30.847           171.147               Magadan2          5348.344
       343   04 Jun 2027 10:50:44.168   04 Jun 2027 10:50:48.510             4.342                Norilsk           135.688
       344   04 Jun 2027 10:50:58.544   04 Jun 2027 10:51:10.558            12.014                Norilsk           375.437
       345   04 Jun 2027 11:25:44.582   04 Jun 2027 11:26:54.579            69.997            RioGallegos          2187.406
       346   04 Jun 2027 12:01:23.695   04 Jun 2027 12:02:36.276            72.581                Sumatra          2268.156
       347   04 Jun 2027 12:14:11.433   04 Jun 2027 12:16:13.825           122.392                Irkutsk          3824.750
       348   04 Jun 2027 12:26:13.314   04 Jun 2027 12:26:16.044             2.730                Norilsk            85.312
       349   04 Jun 2027 12:29:48.823   04 Jun 2027 12:30:00.460            11.637                Norilsk           363.656
       350   04 Jun 2027 13:03:10.063   04 Jun 2027 13:04:11.899            61.836            RioGallegos          1932.375
       351   04 Jun 2027 13:06:42.093   04 Jun 2027 13:08:13.117            91.024            RioGallegos          2844.500
       352   04 Jun 2027 13:37:23.515   04 Jun 2027 13:41:00.498           216.983                Sumatra          6780.719
       353   04 Jun 2027 13:52:47.715   04 Jun 2027 13:55:00.867           133.152                Irkutsk          4161.000
       354   04 Jun 2027 15:22:29.661   04 Jun 2027 15:27:17.195           287.534                  Delhi          8985.437
       355   04 Jun 2027 15:30:58.042   04 Jun 2027 15:32:25.677            87.635                Novosib          2738.594
       356   04 Jun 2027 15:34:32.111   04 Jun 2027 15:35:59.857            87.746                Novosib          2742.063
       357   04 Jun 2027 17:06:59.099   04 Jun 2027 17:08:24.231            85.132                 Moscow          2660.375
       358   04 Jun 2027 17:11:31.591   04 Jun 2027 17:11:59.013            27.422              Murmansk1           856.938
       359   04 Jun 2027 17:15:09.965   04 Jun 2027 17:15:48.053            38.088              Murmansk2          1190.250
       360   04 Jun 2027 17:16:35.689   04 Jun 2027 17:18:22.621           106.932                Norilsk          3341.625
       361   04 Jun 2027 18:18:45.876   04 Jun 2027 18:19:41.391            55.515               CapeTown          1734.844
       362   04 Jun 2027 18:21:47.404   04 Jun 2027 18:22:27.913            40.509               CapeTown          1265.906
       363   04 Jun 2027 18:45:11.453   04 Jun 2027 18:49:34.793           263.340                 Moscow          8229.375
       364   04 Jun 2027 18:56:28.679   04 Jun 2027 18:57:13.432            44.753              Murmansk2          1398.531
       365   04 Jun 2027 19:55:28.905   04 Jun 2027 19:56:28.164            59.259               CapeTown          1851.844
       366   04 Jun 2027 19:58:14.107   04 Jun 2027 19:59:30.370            76.263               CapeTown          2383.219
       367   04 Jun 2027 20:04:12.934   04 Jun 2027 20:05:20.203            67.269               CapeTown          2102.156
       368   04 Jun 2027 20:28:13.515   04 Jun 2027 20:32:25.162           251.647              Murmansk2          7863.969
       369   04 Jun 2027 20:40:57.488   04 Jun 2027 20:41:11.773            14.285               Magadan1           446.406
       370   04 Jun 2027 20:44:17.740   04 Jun 2027 20:44:42.248            24.508               Magadan1           765.875
       371   04 Jun 2027 20:47:19.613   04 Jun 2027 20:47:19.896             0.283               Magadan2             8.844
       372   04 Jun 2027 22:11:08.064   04 Jun 2027 22:14:54.274           226.210                Anadyr2          7069.063
       373   04 Jun 2027 22:15:02.033   04 Jun 2027 22:16:48.435           106.402                Norilsk          3325.062
       374   04 Jun 2027 22:17:04.591   04 Jun 2027 22:18:38.458            93.867               Magadan2          2933.344
       375   04 Jun 2027 22:18:38.458   04 Jun 2027 22:18:57.909            19.451               Magadan1           607.844
       376   04 Jun 2027 22:20:01.539   04 Jun 2027 22:20:25.814            24.275               Magadan2           758.594
       377   04 Jun 2027 22:24:00.942   04 Jun 2027 22:24:46.804            45.862               Magadan1          1433.188
       378   04 Jun 2027 23:05:49.852   04 Jun 2027 23:07:46.531           116.679            RioGallegos          3646.219
       379   04 Jun 2027 23:10:41.594   04 Jun 2027 23:11:14.721            33.127            RioGallegos          1035.219
       380   04 Jun 2027 23:46:49.442   04 Jun 2027 23:47:48.862            59.420                Anadyr1          1856.875
       381   04 Jun 2027 23:47:51.090   04 Jun 2027 23:48:49.743            58.653                Anadyr2          1832.906
       382   04 Jun 2027 23:48:57.053   04 Jun 2027 23:50:35.889            98.836                Norilsk          3088.625
       383   04 Jun 2027 23:51:10.550   04 Jun 2027 23:52:38.027            87.477               Magadan2          2733.656
       384   04 Jun 2027 23:53:50.111   04 Jun 2027 23:54:32.446            42.335                Irkutsk          1322.969
       385   04 Jun 2027 23:55:12.115   04 Jun 2027 23:55:29.176            17.061                Irkutsk           533.156
       386   04 Jun 2027 23:57:20.083   04 Jun 2027 23:58:02.122            42.039                Novosib          1313.719
       387   05 Jun 2027 00:07:12.995   05 Jun 2027 00:07:44.925            31.930                Sumatra           997.812
       388   05 Jun 2027 00:08:44.982   05 Jun 2027 00:09:16.330            31.348                Sumatra           979.625
       389   05 Jun 2027 00:13:35.456   05 Jun 2027 00:13:44.518             9.062                Sumatra           283.188
       390   05 Jun 2027 00:18:06.614   05 Jun 2027 00:18:37.114            30.500                Sumatra           953.125
       391   05 Jun 2027 00:41:26.315   05 Jun 2027 00:41:46.337            20.022            RioGallegos           625.688
       392   05 Jun 2027 00:45:08.359   05 Jun 2027 00:45:21.560            13.201            RioGallegos           412.531
       393   05 Jun 2027 00:46:37.615   05 Jun 2027 00:46:42.808             5.193            RioGallegos           162.281
       394   05 Jun 2027 00:48:29.938   05 Jun 2027 00:49:40.524            70.586            RioGallegos          2205.813
       395   05 Jun 2027 01:21:43.888   05 Jun 2027 01:22:06.227            22.339                Anadyr1           698.094
       396   05 Jun 2027 01:22:39.057   05 Jun 2027 01:23:20.689            41.632                Anadyr2          1301.000
       397   05 Jun 2027 01:23:36.068   05 Jun 2027 01:24:00.310            24.242                Anadyr1           757.563
       398   05 Jun 2027 01:24:53.107   05 Jun 2027 01:26:23.872            90.765                Norilsk          2836.406
       399   05 Jun 2027 01:26:29.652   05 Jun 2027 01:27:08.293            38.641               Magadan1          1207.531
       400   05 Jun 2027 01:28:45.470   05 Jun 2027 01:30:33.281           107.811                Irkutsk          3369.094
       401   05 Jun 2027 01:33:33.883   05 Jun 2027 01:33:38.646             4.763                Irkutsk           148.844
       402   05 Jun 2027 01:35:26.170   05 Jun 2027 01:35:53.909            27.739                Novosib           866.844
       403   05 Jun 2027 01:36:17.309   05 Jun 2027 01:37:06.127            48.818                Novosib          1525.562
       404   05 Jun 2027 01:43:39.244   05 Jun 2027 01:43:48.075             8.831                  Delhi           275.969
       405   05 Jun 2027 01:44:17.705   05 Jun 2027 01:46:07.815           110.110                  Delhi          3440.937
       406   05 Jun 2027 01:51:01.909   05 Jun 2027 01:53:43.288           161.379                Sumatra          5043.094
       407   05 Jun 2027 03:04:51.783   05 Jun 2027 03:05:00.694             8.911               Magadan1           278.469
       408   05 Jun 2027 03:05:13.322   05 Jun 2027 03:05:20.199             6.877               Magadan1           214.906
       409   05 Jun 2027 03:05:55.117   05 Jun 2027 03:06:38.609            43.492                Irkutsk          1359.125
       410   05 Jun 2027 03:06:50.872   05 Jun 2027 03:06:53.124             2.252                Novosib            70.375
       411   05 Jun 2027 03:06:58.269   05 Jun 2027 03:08:41.423           103.154              Murmansk2          3223.562
       412   05 Jun 2027 03:08:51.777   05 Jun 2027 03:10:23.971            92.194                Novosib          2881.062
       413   05 Jun 2027 03:10:26.383   05 Jun 2027 03:11:26.381            59.998              Murmansk2          1874.938
       414   05 Jun 2027 03:11:43.607   05 Jun 2027 03:13:49.656           126.049                Irkutsk          3939.031
       415   05 Jun 2027 04:46:36.466   05 Jun 2027 04:46:48.595            12.129                Novosib           379.031
       416   05 Jun 2027 04:47:37.870   05 Jun 2027 04:50:48.604           190.734                 Moscow          5960.437
       417   05 Jun 2027 04:51:03.302   05 Jun 2027 04:51:04.242             0.940                Novosib            29.375
       418   05 Jun 2027 05:07:08.000   05 Jun 2027 05:08:09.820            61.820               CapeTown          1931.875
       419   05 Jun 2027 05:08:21.363   05 Jun 2027 05:08:51.104            29.741               CapeTown           929.406
       420   05 Jun 2027 06:03:03.249   05 Jun 2027 06:04:43.869           100.620                Anadyr2          3144.375
       421   05 Jun 2027 06:05:52.637   05 Jun 2027 06:06:00.557             7.920               Magadan1           247.500
       422   05 Jun 2027 06:21:31.140   05 Jun 2027 06:21:41.109             9.969                 Moscow           311.531
       423   05 Jun 2027 06:22:05.798   05 Jun 2027 06:22:40.123            34.325                 Moscow          1072.656
       424   05 Jun 2027 06:25:46.688   05 Jun 2027 06:25:58.717            12.029                 Moscow           375.906
       425   05 Jun 2027 06:26:41.506   05 Jun 2027 06:27:14.211            32.705                 Moscow          1022.031
       426   05 Jun 2027 06:42:30.946   05 Jun 2027 06:43:56.819            85.873               CapeTown          2683.531
       427   05 Jun 2027 07:45:37.473   05 Jun 2027 07:45:50.541            13.068               Magadan2           408.375
       428   05 Jun 2027 07:45:55.175   05 Jun 2027 07:47:13.852            78.677                Anadyr2          2458.656
       429   05 Jun 2027 07:47:28.570   05 Jun 2027 07:47:59.164            30.594               Magadan2           956.062
       430   05 Jun 2027 07:49:24.708   05 Jun 2027 07:49:47.053            22.345               Magadan2           698.281
       431   05 Jun 2027 07:58:03.257   05 Jun 2027 07:58:24.466            21.209                 Moscow           662.781
       432   05 Jun 2027 08:02:01.662   05 Jun 2027 08:02:49.532            47.870                 Moscow          1495.937
       433   05 Jun 2027 09:19:50.483   05 Jun 2027 09:20:22.451            31.968                Anadyr2           999.000
       434   05 Jun 2027 09:21:17.316   05 Jun 2027 09:22:39.850            82.534                Anadyr2          2579.188
       435   05 Jun 2027 09:23:00.960   05 Jun 2027 09:23:13.204            12.244               Magadan2           382.625
       436   05 Jun 2027 09:23:31.169   05 Jun 2027 09:24:16.574            45.405               Magadan1          1418.906
       437   05 Jun 2027 09:24:26.951   05 Jun 2027 09:25:34.066            67.115                Anadyr2          2097.344
       438   05 Jun 2027 10:08:41.400   05 Jun 2027 10:09:39.329            57.929            RioGallegos          1810.281
       439   05 Jun 2027 10:56:26.734   05 Jun 2027 10:57:55.958            89.224               Magadan1          2788.250
       440   05 Jun 2027 10:57:55.958   05 Jun 2027 10:58:37.518            41.560               Magadan2          1298.750
       441   05 Jun 2027 10:59:03.110   05 Jun 2027 11:02:37.540           214.430               Magadan2          6700.938
       442   05 Jun 2027 11:03:44.658   05 Jun 2027 11:03:57.935            13.277                Norilsk           414.906
       443   05 Jun 2027 11:37:44.550   05 Jun 2027 11:38:52.271            67.721            RioGallegos          2116.281
       444   05 Jun 2027 12:13:04.160   05 Jun 2027 12:13:42.998            38.838                Sumatra          1213.688
       445   05 Jun 2027 12:14:01.051   05 Jun 2027 12:14:55.575            54.524                Sumatra          1703.875
       446   05 Jun 2027 12:26:18.582   05 Jun 2027 12:28:07.231           108.649                Irkutsk          3395.281
       447   05 Jun 2027 12:33:01.476   05 Jun 2027 12:33:25.939            24.463                Norilsk           764.469
       448   05 Jun 2027 12:37:11.380   05 Jun 2027 12:37:41.847            30.467                Norilsk           952.094
       449   05 Jun 2027 13:15:44.162   05 Jun 2027 13:17:51.938           127.776            RioGallegos          3993.000
       450   05 Jun 2027 13:49:58.932   05 Jun 2027 13:53:31.251           212.319                Sumatra          6634.969
       451   05 Jun 2027 14:05:37.488   05 Jun 2027 14:06:33.702            56.214                Irkutsk          1756.687
       452   05 Jun 2027 14:09:45.465   05 Jun 2027 14:10:06.531            21.066                Irkutsk           658.312
       453   05 Jun 2027 14:13:04.313   05 Jun 2027 14:13:27.983            23.670                Irkutsk           739.688
       454   05 Jun 2027 14:16:33.111   05 Jun 2027 14:16:51.732            18.621                Norilsk           581.906
       455   05 Jun 2027 15:35:23.361   05 Jun 2027 15:39:49.164           265.803                  Delhi          8306.344
       456   05 Jun 2027 15:43:53.866   05 Jun 2027 15:47:47.780           233.914                Novosib          7309.812
       457   05 Jun 2027 17:17:41.138   05 Jun 2027 17:18:06.595            25.457                 Moscow           795.531
       458   05 Jun 2027 17:20:22.929   05 Jun 2027 17:21:09.197            46.268                 Moscow          1445.875
       459   05 Jun 2027 17:22:00.202   05 Jun 2027 17:23:30.225            90.023              Murmansk1          2813.219
       460   05 Jun 2027 17:33:02.825   05 Jun 2027 17:33:37.116            34.291              Murmansk1          1071.594
       461   05 Jun 2027 17:36:12.317   05 Jun 2027 17:37:00.237            47.920                Anadyr1          1497.500
       462   05 Jun 2027 17:37:25.027   05 Jun 2027 17:37:42.500            17.473                Anadyr1           546.031
       463   05 Jun 2027 17:38:19.583   05 Jun 2027 17:38:38.574            18.991                Anadyr1           593.469
       464   05 Jun 2027 17:39:30.662   05 Jun 2027 17:39:35.722             5.060                Anadyr1           158.125
       465   05 Jun 2027 18:30:43.016   05 Jun 2027 18:31:30.162            47.146               CapeTown          1473.313
       466   05 Jun 2027 18:33:53.120   05 Jun 2027 18:34:23.762            30.642               CapeTown           957.563
       467   05 Jun 2027 18:37:46.531   05 Jun 2027 18:38:34.197            47.666               CapeTown          1489.563
       468   05 Jun 2027 18:58:19.873   05 Jun 2027 19:02:04.552           224.679                 Moscow          7021.219
       469   05 Jun 2027 19:03:53.103   05 Jun 2027 19:04:02.284             9.181              Murmansk1           286.906
       470   05 Jun 2027 19:08:52.041   05 Jun 2027 19:09:29.895            37.854              Murmansk1          1182.938
       471   05 Jun 2027 19:16:35.532   05 Jun 2027 19:17:07.867            32.335               Magadan1          1010.469
       472   05 Jun 2027 19:18:26.332   05 Jun 2027 19:19:04.253            37.921               Magadan2          1185.031
       473   05 Jun 2027 20:07:55.376   05 Jun 2027 20:08:35.922            40.546               CapeTown          1267.063
       474   05 Jun 2027 20:11:20.562   05 Jun 2027 20:13:02.102           101.540               CapeTown          3173.125
       475   05 Jun 2027 20:41:32.579   05 Jun 2027 20:43:56.245           143.666              Murmansk1          4489.562
       476   05 Jun 2027 20:49:44.908   05 Jun 2027 20:51:13.447            88.539               Magadan1          2766.844
       477   05 Jun 2027 20:52:53.787   05 Jun 2027 20:53:27.635            33.848               Magadan1          1057.750
       478   05 Jun 2027 20:56:45.868   05 Jun 2027 20:57:30.822            44.954               Magadan1          1404.813
       479   05 Jun 2027 20:59:07.047   05 Jun 2027 20:59:16.839             9.792               Magadan1           306.000
       480   05 Jun 2027 22:23:09.207   05 Jun 2027 22:26:54.656           225.449                Anadyr2          7045.281
       481   05 Jun 2027 22:26:54.881   05 Jun 2027 22:28:26.963            92.082                Norilsk          2877.563
       482   05 Jun 2027 22:28:45.389   05 Jun 2027 22:29:20.407            35.018               Magadan2          1094.312
