uniorb/output/strategy_4/Drop/Drop_KinoSat_111304.txt

KinoSat_111304
-------------------------
    Access    *     Start Time (UTCG)     *     Stop Time (UTCG)  *   Duration (s)        *       Station  *  Data (Mbytes)
         1   01 Jun 2027 03:39:36.291   01 Jun 2027 03:39:58.252            21.961                Norilsk           686.281
         2   01 Jun 2027 03:40:01.272   01 Jun 2027 03:40:32.438            31.166                Norilsk           973.938
         3   01 Jun 2027 03:40:34.239   01 Jun 2027 03:40:58.388            24.149              Murmansk2           754.656
         4   01 Jun 2027 03:41:00.033   01 Jun 2027 03:41:21.888            21.855              Murmansk2           682.969
         5   01 Jun 2027 03:41:23.210   01 Jun 2027 03:42:12.838            49.628              Murmansk2          1550.875
         6   01 Jun 2027 03:42:56.816   01 Jun 2027 03:43:02.225             5.409              Murmansk1           169.031
         7   01 Jun 2027 03:43:26.955   01 Jun 2027 03:44:00.331            33.376              Murmansk2          1043.000
         8   01 Jun 2027 05:02:05.779   01 Jun 2027 05:03:54.219           108.440               Magadan1          3388.750
         9   01 Jun 2027 05:04:18.701   01 Jun 2027 05:04:52.072            33.371                Anadyr2          1042.844
        10   01 Jun 2027 05:05:24.301   01 Jun 2027 05:06:09.064            44.763                Anadyr1          1398.844
        11   01 Jun 2027 06:39:18.686   01 Jun 2027 06:42:25.476           186.790                Anadyr2          5837.187
        12   01 Jun 2027 06:42:47.786   01 Jun 2027 06:42:50.744             2.958               Magadan2            92.437
        13   01 Jun 2027 07:21:56.469   01 Jun 2027 07:23:04.852            68.383            RioGallegos          2136.969
        14   01 Jun 2027 08:13:17.708   01 Jun 2027 08:18:02.725           285.017               Magadan2          8906.781
        15   01 Jun 2027 08:18:05.116   01 Jun 2027 08:18:30.170            25.054                Anadyr2           782.937
        16   01 Jun 2027 08:18:48.736   01 Jun 2027 08:19:26.705            37.969               Magadan2          1186.531
        17   01 Jun 2027 08:21:21.362   01 Jun 2027 08:21:45.354            23.992              Murmansk1           749.750
        18   01 Jun 2027 08:22:10.366   01 Jun 2027 08:22:35.530            25.164              Murmansk2           786.375
        19   01 Jun 2027 08:54:27.298   01 Jun 2027 08:55:56.055            88.757            RioGallegos          2773.656
        20   01 Jun 2027 09:31:57.951   01 Jun 2027 09:33:36.856            98.905                Sumatra          3090.781
        21   01 Jun 2027 09:50:01.406   01 Jun 2027 09:52:07.507           126.101               Magadan2          3940.656
        22   01 Jun 2027 09:53:07.610   01 Jun 2027 09:54:20.872            73.262              Murmansk1          2289.438
        23   01 Jun 2027 09:54:34.637   01 Jun 2027 09:55:31.496            56.859                Novosib          1776.844
        24   01 Jun 2027 09:55:54.414   01 Jun 2027 09:57:15.720            81.306              Murmansk1          2540.813
        25   01 Jun 2027 10:30:41.882   01 Jun 2027 10:32:10.731            88.849            RioGallegos          2776.531
        26   01 Jun 2027 10:33:21.809   01 Jun 2027 10:33:30.907             9.098            RioGallegos           284.312
        27   01 Jun 2027 10:39:07.588   01 Jun 2027 10:39:52.365            44.777            RioGallegos          1399.281
        28   01 Jun 2027 11:05:06.538   01 Jun 2027 11:07:19.203           132.665                Sumatra          4145.781
        29   01 Jun 2027 11:14:13.838   01 Jun 2027 11:15:10.345            56.507                  Delhi          1765.844
        30   01 Jun 2027 11:27:28.737   01 Jun 2027 11:30:51.051           202.314                Irkutsk          6322.313
        31   01 Jun 2027 12:49:42.770   01 Jun 2027 12:50:40.380            57.610                  Delhi          1800.312
        32   01 Jun 2027 12:54:29.068   01 Jun 2027 12:54:43.885            14.817                  Delhi           463.031
        33   01 Jun 2027 12:57:52.543   01 Jun 2027 12:58:33.321            40.778                Novosib          1274.313
        34   01 Jun 2027 12:59:04.057   01 Jun 2027 12:59:38.849            34.792                Novosib          1087.250
        35   01 Jun 2027 13:01:16.517   01 Jun 2027 13:03:00.661           104.144                Novosib          3254.500
        36   01 Jun 2027 13:03:01.280   01 Jun 2027 13:03:47.293            46.013              Murmansk1          1437.906
        37   01 Jun 2027 13:04:29.106   01 Jun 2027 13:05:28.106            59.000                Norilsk          1843.750
        38   01 Jun 2027 13:06:33.296   01 Jun 2027 13:06:55.138            21.842                Norilsk           682.563
        39   01 Jun 2027 14:33:36.516   01 Jun 2027 14:35:51.699           135.183                 Moscow          4224.469
        40   01 Jun 2027 14:36:53.413   01 Jun 2027 14:37:40.624            47.211                 Moscow          1475.344
        41   01 Jun 2027 14:37:59.921   01 Jun 2027 14:40:14.618           134.697              Murmansk2          4209.281
        42   01 Jun 2027 14:40:23.352   01 Jun 2027 14:41:10.741            47.389              Murmansk1          1480.906
        43   01 Jun 2027 14:42:22.099   01 Jun 2027 14:42:28.001             5.902              Murmansk2           184.437
        44   01 Jun 2027 14:42:32.715   01 Jun 2027 14:42:38.717             6.002              Murmansk2           187.562
        45   01 Jun 2027 14:42:47.781   01 Jun 2027 14:44:11.787            84.006              Murmansk2          2625.187
        46   01 Jun 2027 14:46:38.992   01 Jun 2027 14:47:00.726            21.734                Norilsk           679.187
        47   01 Jun 2027 15:47:36.624   01 Jun 2027 15:50:59.332           202.708               CapeTown          6334.625
        48   01 Jun 2027 16:11:50.668   01 Jun 2027 16:12:17.290            26.622                 Moscow           831.938
        49   01 Jun 2027 16:14:37.463   01 Jun 2027 16:15:35.479            58.016              Murmansk1          1813.000
        50   01 Jun 2027 16:18:04.932   01 Jun 2027 16:18:26.557            21.625              Murmansk2           675.781
        51   01 Jun 2027 16:23:52.716   01 Jun 2027 16:24:16.849            24.133              Murmansk1           754.156
        52   01 Jun 2027 16:27:56.396   01 Jun 2027 16:29:39.975           103.579                Anadyr2          3236.844
        53   01 Jun 2027 16:29:57.067   01 Jun 2027 16:30:44.025            46.958                Anadyr1          1467.438
        54   01 Jun 2027 16:33:30.141   01 Jun 2027 16:33:47.091            16.950                Anadyr2           529.687
        55   01 Jun 2027 17:23:17.982   01 Jun 2027 17:25:07.007           109.025               CapeTown          3407.031
        56   01 Jun 2027 17:27:39.656   01 Jun 2027 17:27:41.277             1.621               CapeTown            50.656
        57   01 Jun 2027 17:54:37.008   01 Jun 2027 17:59:22.963           285.955              Murmansk2          8936.094
        58   01 Jun 2027 18:00:04.431   01 Jun 2027 18:00:59.970            55.539              Murmansk1          1735.594
        59   01 Jun 2027 18:06:37.053   01 Jun 2027 18:08:00.486            83.433               Magadan1          2607.281
        60   01 Jun 2027 18:08:00.486   01 Jun 2027 18:08:38.373            37.887               Magadan2          1183.969
        61   01 Jun 2027 19:39:33.884   01 Jun 2027 19:41:52.387           138.503                Anadyr1          4328.219
        62   01 Jun 2027 19:42:37.454   01 Jun 2027 19:43:11.311            33.857                Anadyr2          1058.031
        63   01 Jun 2027 19:43:11.311   01 Jun 2027 19:43:20.632             9.321                Anadyr1           291.281
        64   01 Jun 2027 19:43:23.828   01 Jun 2027 19:45:37.226           133.398               Magadan2          4168.687
        65   01 Jun 2027 19:46:22.606   01 Jun 2027 19:46:27.881             5.275                Anadyr2           164.844
        66   01 Jun 2027 19:46:36.741   01 Jun 2027 19:47:29.312            52.571               Magadan1          1642.844
        67   01 Jun 2027 19:48:55.596   01 Jun 2027 19:49:28.836            33.240               Magadan1          1038.750
        68   01 Jun 2027 19:50:58.213   01 Jun 2027 19:51:15.752            17.539               Magadan1           548.094
        69   01 Jun 2027 19:54:36.137   01 Jun 2027 19:54:36.226             0.089               Magadan2             2.781
        70   01 Jun 2027 20:35:18.439   01 Jun 2027 20:38:04.403           165.964            RioGallegos          5186.375
        71   01 Jun 2027 20:40:52.585   01 Jun 2027 20:41:23.373            30.788            RioGallegos           962.125
        72   01 Jun 2027 20:41:49.309   01 Jun 2027 20:42:07.679            18.370            RioGallegos           574.063
        73   01 Jun 2027 21:15:21.569   01 Jun 2027 21:17:40.247           138.678                Anadyr1          4333.688
        74   01 Jun 2027 21:17:48.142   01 Jun 2027 21:19:09.124            80.982               Magadan1          2530.688
        75   01 Jun 2027 21:19:09.124   01 Jun 2027 21:19:39.267            30.143               Magadan2           941.969
        76   01 Jun 2027 21:20:05.305   01 Jun 2027 21:20:49.527            44.222                Norilsk          1381.938
        77   01 Jun 2027 21:21:11.131   01 Jun 2027 21:21:12.023             0.892                Norilsk            27.875
        78   01 Jun 2027 21:22:15.690   01 Jun 2027 21:23:15.919            60.229                Irkutsk          1882.156
        79   01 Jun 2027 21:24:52.997   01 Jun 2027 21:25:25.516            32.519                Irkutsk          1016.219
        80   01 Jun 2027 21:30:29.465   01 Jun 2027 21:31:06.014            36.549                Irkutsk          1142.156
        81   01 Jun 2027 21:37:14.397   01 Jun 2027 21:39:26.132           131.735                Sumatra          4116.719
        82   01 Jun 2027 22:50:33.874   01 Jun 2027 22:50:59.603            25.729                Anadyr1           804.031
        83   01 Jun 2027 22:51:08.347   01 Jun 2027 22:51:33.734            25.387                Anadyr1           793.344
        84   01 Jun 2027 22:51:33.734   01 Jun 2027 22:51:44.834            11.100                Anadyr2           346.875
        85   01 Jun 2027 22:51:47.581   01 Jun 2027 22:53:08.029            80.448                Anadyr1          2514.000
        86   01 Jun 2027 22:53:18.158   01 Jun 2027 22:55:11.219           113.061                Norilsk          3533.156
        87   01 Jun 2027 22:55:24.421   01 Jun 2027 22:55:52.647            28.226               Magadan1           882.062
        88   01 Jun 2027 22:57:11.894   01 Jun 2027 22:58:20.680            68.786                Irkutsk          2149.562
        89   01 Jun 2027 23:03:03.915   01 Jun 2027 23:03:56.399            52.484                Novosib          1640.125
        90   01 Jun 2027 23:07:08.130   01 Jun 2027 23:09:19.958           131.828                  Delhi          4119.625
        91   01 Jun 2027 23:51:05.329   01 Jun 2027 23:51:50.423            45.094            RioGallegos          1409.187
        92   02 Jun 2027 00:24:35.414   02 Jun 2027 00:25:01.947            26.533                Anadyr1           829.156
        93   02 Jun 2027 00:25:01.947   02 Jun 2027 00:25:09.097             7.150                Anadyr2           223.438
        94   02 Jun 2027 00:25:52.270   02 Jun 2027 00:26:30.663            38.393                Anadyr2          1199.781
        95   02 Jun 2027 00:26:51.666   02 Jun 2027 00:27:18.114            26.448                Anadyr2           826.500
        96   02 Jun 2027 00:29:18.598   02 Jun 2027 00:29:34.867            16.269                Norilsk           508.406
        97   02 Jun 2027 00:29:51.585   02 Jun 2027 00:31:43.936           112.351               Magadan1          3510.969
        98   02 Jun 2027 00:32:05.973   02 Jun 2027 00:33:31.125            85.152              Murmansk1          2661.000
        99   02 Jun 2027 00:33:31.918   02 Jun 2027 00:34:33.713            61.795              Murmansk2          1931.094
       100   02 Jun 2027 00:34:49.434   02 Jun 2027 00:35:17.470            28.036              Murmansk2           876.125
       101   02 Jun 2027 00:36:38.673   02 Jun 2027 00:37:51.273            72.600              Murmansk1          2268.750
       102   02 Jun 2027 00:49:20.444   02 Jun 2027 00:49:22.500             2.056                  Delhi            64.250
       103   02 Jun 2027 00:50:08.291   02 Jun 2027 00:52:19.902           131.611                  Delhi          4112.844
       104   02 Jun 2027 01:57:52.428   02 Jun 2027 01:58:19.070            26.642                Anadyr2           832.562
       105   02 Jun 2027 01:58:44.202   02 Jun 2027 01:59:45.541            61.339                Anadyr2          1916.844
       106   02 Jun 2027 02:00:38.138   02 Jun 2027 02:01:16.191            38.053                Anadyr2          1189.156
       107   02 Jun 2027 02:03:50.159   02 Jun 2027 02:04:45.406            55.247               Magadan1          1726.469
       108   02 Jun 2027 02:04:45.683   02 Jun 2027 02:05:46.511            60.828               Magadan2          1900.875
       109   02 Jun 2027 02:07:27.991   02 Jun 2027 02:08:35.249            67.258              Murmansk2          2101.812
       110   02 Jun 2027 02:08:49.050   02 Jun 2027 02:09:36.496            47.446              Murmansk2          1482.688
       111   02 Jun 2027 02:10:57.693   02 Jun 2027 02:11:13.529            15.836                Irkutsk           494.875
       112   02 Jun 2027 02:13:43.034   02 Jun 2027 02:14:31.828            48.794                Irkutsk          1524.813
       113   02 Jun 2027 02:18:45.793   02 Jun 2027 02:18:54.244             8.451                  Delhi           264.094
       114   02 Jun 2027 02:19:27.940   02 Jun 2027 02:19:43.902            15.962                  Delhi           498.812
       115   02 Jun 2027 02:20:52.336   02 Jun 2027 02:22:56.260           123.924                  Delhi          3872.625
       116   02 Jun 2027 03:51:49.071   02 Jun 2027 03:52:09.001            19.930                 Moscow           622.812
       117   02 Jun 2027 03:52:25.034   02 Jun 2027 03:55:42.323           197.289                 Moscow          6165.281
       118   02 Jun 2027 03:55:48.822   02 Jun 2027 03:56:12.226            23.404              Murmansk2           731.375
       119   02 Jun 2027 04:14:44.390   02 Jun 2027 04:15:23.921            39.531               CapeTown          1235.344
       120   02 Jun 2027 04:16:52.733   02 Jun 2027 04:17:14.862            22.129               CapeTown           691.531
       121   02 Jun 2027 04:19:33.752   02 Jun 2027 04:19:41.401             7.649               CapeTown           239.031
       122   02 Jun 2027 04:20:12.117   02 Jun 2027 04:20:25.809            13.692               CapeTown           427.875
       123   02 Jun 2027 04:21:21.518   02 Jun 2027 04:22:24.976            63.458               CapeTown          1983.063
       124   02 Jun 2027 05:14:00.407   02 Jun 2027 05:17:11.922           191.515               Magadan2          5984.844
       125   02 Jun 2027 05:17:11.922   02 Jun 2027 05:17:22.330            10.408               Magadan1           325.250
       126   02 Jun 2027 05:17:47.365   02 Jun 2027 05:20:02.980           135.615                Anadyr1          4237.969
       127   02 Jun 2027 06:53:45.001   02 Jun 2027 06:54:04.954            19.953               Magadan2           623.531
       128   02 Jun 2027 08:26:36.062   02 Jun 2027 08:26:59.983            23.921                Irkutsk           747.531
       129   02 Jun 2027 08:27:05.394   02 Jun 2027 08:27:18.085            12.691                Anadyr1           396.594
       130   02 Jun 2027 08:27:28.820   02 Jun 2027 08:30:03.573           154.753               Magadan1          4836.031
       131   02 Jun 2027 08:30:03.573   02 Jun 2027 08:30:16.109            12.536               Magadan2           391.750
       132   02 Jun 2027 08:30:54.546   02 Jun 2027 08:31:26.184            31.638                Norilsk           988.687
       133   02 Jun 2027 08:36:57.189   02 Jun 2027 08:37:20.754            23.565              Murmansk1           736.406
       134   02 Jun 2027 09:06:19.427   02 Jun 2027 09:06:31.415            11.988            RioGallegos           374.625
       135   02 Jun 2027 09:07:15.710   02 Jun 2027 09:08:23.556            67.846            RioGallegos          2120.187
       136   02 Jun 2027 09:11:14.436   02 Jun 2027 09:11:16.855             2.419            RioGallegos            75.594
       137   02 Jun 2027 09:11:34.989   02 Jun 2027 09:12:25.497            50.508            RioGallegos          1578.375
       138   02 Jun 2027 09:42:34.537   02 Jun 2027 09:43:06.361            31.824                Sumatra           994.500
       139   02 Jun 2027 09:46:04.783   02 Jun 2027 09:47:01.560            56.777                Sumatra          1774.281
       140   02 Jun 2027 10:02:51.838   02 Jun 2027 10:02:54.009             2.171                Irkutsk            67.844
       141   02 Jun 2027 10:03:38.192   02 Jun 2027 10:03:51.302            13.110                Novosib           409.687
       142   02 Jun 2027 10:04:12.677   02 Jun 2027 10:04:37.860            25.183                Irkutsk           786.969
       143   02 Jun 2027 10:05:00.148   02 Jun 2027 10:05:08.088             7.940                Novosib           248.125
       144   02 Jun 2027 10:05:21.156   02 Jun 2027 10:06:28.440            67.284                Novosib          2102.625
       145   02 Jun 2027 10:06:35.215   02 Jun 2027 10:07:00.288            25.073                Irkutsk           783.531
       146   02 Jun 2027 10:07:04.813   02 Jun 2027 10:07:16.739            11.926                Novosib           372.688
       147   02 Jun 2027 10:43:02.772   02 Jun 2027 10:43:26.056            23.284            RioGallegos           727.625
       148   02 Jun 2027 10:43:44.722   02 Jun 2027 10:44:16.354            31.632            RioGallegos           988.500
       149   02 Jun 2027 10:47:28.004   02 Jun 2027 10:47:58.451            30.447            RioGallegos           951.469
       150   02 Jun 2027 11:17:20.640   02 Jun 2027 11:17:56.580            35.940                Sumatra          1123.125
       151   02 Jun 2027 11:25:52.159   02 Jun 2027 11:26:24.475            32.316                  Delhi          1009.875
       152   02 Jun 2027 11:38:01.253   02 Jun 2027 11:38:37.639            36.386                Irkutsk          1137.063
       153   02 Jun 2027 11:39:50.432   02 Jun 2027 11:40:34.888            44.456                Irkutsk          1389.250
       154   02 Jun 2027 11:40:42.820   02 Jun 2027 11:40:59.492            16.672                Novosib           521.000
       155   02 Jun 2027 11:41:04.640   02 Jun 2027 11:41:33.397            28.757                Norilsk           898.656
       156   02 Jun 2027 11:41:44.641   02 Jun 2027 11:42:27.656            43.015                Irkutsk          1344.219
       157   02 Jun 2027 11:42:39.461   02 Jun 2027 11:42:58.021            18.560                Norilsk           580.000
       158   02 Jun 2027 13:02:08.269   02 Jun 2027 13:05:01.283           173.014                  Delhi          5406.688
       159   02 Jun 2027 13:06:53.225   02 Jun 2027 13:07:24.290            31.065                  Delhi           970.781
       160   02 Jun 2027 13:10:27.925   02 Jun 2027 13:10:50.631            22.706                Novosib           709.562
       161   02 Jun 2027 13:11:41.413   02 Jun 2027 13:12:13.975            32.562                Novosib          1017.562
       162   02 Jun 2027 13:13:18.662   02 Jun 2027 13:13:39.387            20.725              Murmansk2           647.656
       163   02 Jun 2027 13:14:14.366   02 Jun 2027 13:14:48.756            34.390                Norilsk          1074.688
       164   02 Jun 2027 13:15:07.734   02 Jun 2027 13:16:23.493            75.759                Norilsk          2367.469
       165   02 Jun 2027 14:45:42.681   02 Jun 2027 14:48:53.815           191.134                 Moscow          5972.938
       166   02 Jun 2027 14:49:14.218   02 Jun 2027 14:50:28.950            74.732              Murmansk1          2335.375
       167   02 Jun 2027 14:51:07.357   02 Jun 2027 14:51:08.076             0.719              Murmansk2            22.469
       168   02 Jun 2027 14:52:25.239   02 Jun 2027 14:52:34.133             8.894              Murmansk2           277.938
       169   02 Jun 2027 14:52:46.441   02 Jun 2027 14:53:00.099            13.658              Murmansk1           426.812
       170   02 Jun 2027 14:54:23.349   02 Jun 2027 14:54:29.636             6.287              Murmansk2           196.469
       171   02 Jun 2027 14:54:46.336   02 Jun 2027 14:55:32.840            46.504              Murmansk2          1453.250
       172   02 Jun 2027 14:56:16.554   02 Jun 2027 14:58:28.369           131.815                Norilsk          4119.219
       173   02 Jun 2027 15:06:51.075   02 Jun 2027 15:07:04.000            12.925                Anadyr2           403.906
       174   02 Jun 2027 15:07:30.939   02 Jun 2027 15:07:44.720            13.781                Anadyr2           430.656
       175   02 Jun 2027 15:59:25.108   02 Jun 2027 16:00:21.622            56.514               CapeTown          1766.063
       176   02 Jun 2027 16:07:04.273   02 Jun 2027 16:08:35.833            91.560               CapeTown          2861.250
       177   02 Jun 2027 16:27:00.020   02 Jun 2027 16:27:55.928            55.908              Murmansk1          1747.125
       178   02 Jun 2027 16:31:05.027   02 Jun 2027 16:32:07.051            62.024              Murmansk1          1938.250
       179   02 Jun 2027 16:39:54.023   02 Jun 2027 16:41:40.838           106.815                Anadyr2          3337.969
       180   02 Jun 2027 16:44:45.235   02 Jun 2027 16:45:34.296            49.061                Anadyr1          1533.156
       181   02 Jun 2027 17:35:31.407   02 Jun 2027 17:36:17.826            46.419               CapeTown          1450.594
       182   02 Jun 2027 17:40:07.119   02 Jun 2027 17:40:20.644            13.525               CapeTown           422.656
       183   02 Jun 2027 17:42:41.977   02 Jun 2027 17:42:49.590             7.613               CapeTown           237.906
       184   02 Jun 2027 17:43:32.641   02 Jun 2027 17:43:42.613             9.972               CapeTown           311.625
       185   02 Jun 2027 17:46:08.199   02 Jun 2027 17:46:11.600             3.401               CapeTown           106.281
       186   02 Jun 2027 18:07:25.957   02 Jun 2027 18:12:04.247           278.290              Murmansk2          8696.563
       187   02 Jun 2027 18:16:12.531   02 Jun 2027 18:16:20.894             8.363                Anadyr1           261.344
       188   02 Jun 2027 18:16:38.195   02 Jun 2027 18:17:00.603            22.408                Anadyr1           700.250
       189   02 Jun 2027 18:18:28.068   02 Jun 2027 18:19:48.839            80.771               Magadan2          2524.094
       190   02 Jun 2027 18:20:09.908   02 Jun 2027 18:21:15.713            65.805               Magadan1          2056.406
       191   02 Jun 2027 19:51:35.207   02 Jun 2027 19:54:54.595           199.388                Anadyr1          6230.875
       192   02 Jun 2027 19:55:08.031   02 Jun 2027 19:57:50.208           162.177               Magadan2          5068.031
       193   02 Jun 2027 19:58:46.686   02 Jun 2027 19:58:50.314             3.628               Magadan1           113.375
       194   02 Jun 2027 20:46:48.096   02 Jun 2027 20:49:50.580           182.484            RioGallegos          5702.625
       195   02 Jun 2027 20:52:49.774   02 Jun 2027 20:53:16.664            26.890            RioGallegos           840.313
       196   02 Jun 2027 21:27:20.283   02 Jun 2027 21:27:53.938            33.655                Anadyr2          1051.719
       197   02 Jun 2027 21:29:28.453   02 Jun 2027 21:32:39.136           190.683                Norilsk          5958.844
       198   02 Jun 2027 21:32:46.243   02 Jun 2027 21:33:10.762            24.519                Norilsk           766.219
       199   02 Jun 2027 21:34:04.590   02 Jun 2027 21:34:09.241             4.651                Irkutsk           145.344
       200   02 Jun 2027 21:34:18.922   02 Jun 2027 21:35:14.987            56.065                Irkutsk          1752.031
       201   02 Jun 2027 21:36:46.783   02 Jun 2027 21:37:24.002            37.219                Irkutsk          1163.094
       202   02 Jun 2027 21:40:17.599   02 Jun 2027 21:41:00.914            43.315                Irkutsk          1353.594
       203   02 Jun 2027 21:48:17.420   02 Jun 2027 21:49:05.991            48.571                Sumatra          1517.844
       204   02 Jun 2027 21:50:17.390   02 Jun 2027 21:51:10.050            52.660                Sumatra          1645.625
       205   02 Jun 2027 23:02:25.343   02 Jun 2027 23:02:42.965            17.622                Anadyr2           550.688
       206   02 Jun 2027 23:02:50.033   02 Jun 2027 23:03:36.505            46.472                Anadyr2          1452.250
       207   02 Jun 2027 23:05:54.059   02 Jun 2027 23:07:01.930            67.871                Norilsk          2120.969
       208   02 Jun 2027 23:07:20.288   02 Jun 2027 23:07:41.107            20.819               Magadan1           650.594
       209   02 Jun 2027 23:07:41.107   02 Jun 2027 23:07:54.017            12.910               Magadan2           403.438
       210   02 Jun 2027 23:08:20.837   02 Jun 2027 23:08:33.233            12.396                Norilsk           387.375
       211   02 Jun 2027 23:09:11.645   02 Jun 2027 23:09:31.830            20.185               Magadan2           630.781
       212   02 Jun 2027 23:09:37.926   02 Jun 2027 23:10:39.207            61.281                Novosib          1915.031
       213   02 Jun 2027 23:10:48.506   02 Jun 2027 23:12:38.044           109.538                Novosib          3423.063
       214   02 Jun 2027 23:18:19.491   02 Jun 2027 23:19:14.791            55.300                  Delhi          1728.125
       215   02 Jun 2027 23:21:35.448   02 Jun 2027 23:21:40.587             5.139                  Delhi           160.594
       216   02 Jun 2027 23:22:31.718   02 Jun 2027 23:22:58.489            26.771                  Delhi           836.594
       217   02 Jun 2027 23:25:23.909   02 Jun 2027 23:25:39.543            15.634                  Delhi           488.562
       218   03 Jun 2027 00:05:42.225   03 Jun 2027 00:05:53.897            11.672            RioGallegos           364.750
       219   03 Jun 2027 00:07:13.816   03 Jun 2027 00:07:18.316             4.500            RioGallegos           140.625
       220   03 Jun 2027 00:08:27.306   03 Jun 2027 00:08:56.710            29.404            RioGallegos           918.875
       221   03 Jun 2027 00:36:17.729   03 Jun 2027 00:36:40.484            22.755                Anadyr2           711.094
       222   03 Jun 2027 00:36:59.418   03 Jun 2027 00:37:40.428            41.010                Anadyr1          1281.562
       223   03 Jun 2027 00:38:32.001   03 Jun 2027 00:39:10.690            38.689                Anadyr2          1209.031
       224   03 Jun 2027 00:40:51.378   03 Jun 2027 00:41:02.816            11.438                Anadyr2           357.437
       225   03 Jun 2027 00:41:20.509   03 Jun 2027 00:41:36.701            16.192                Norilsk           506.000
       226   03 Jun 2027 00:41:49.480   03 Jun 2027 00:42:33.302            43.822               Magadan2          1369.438
       227   03 Jun 2027 00:42:33.302   03 Jun 2027 00:43:11.186            37.884               Magadan1          1183.875
       228   03 Jun 2027 00:43:11.398   03 Jun 2027 00:43:23.859            12.461                Norilsk           389.406
       229   03 Jun 2027 00:43:57.290   03 Jun 2027 00:46:30.747           153.457              Murmansk1          4795.531
       230   03 Jun 2027 00:46:49.468   03 Jun 2027 00:48:10.719            81.251              Murmansk1          2539.094
       231   03 Jun 2027 00:56:29.743   03 Jun 2027 00:57:16.642            46.899                  Delhi          1465.594
       232   03 Jun 2027 01:34:58.848   03 Jun 2027 01:35:57.927            59.079            RioGallegos          1846.219
       233   03 Jun 2027 01:37:21.764   03 Jun 2027 01:37:34.084            12.320            RioGallegos           385.000
       234   03 Jun 2027 01:38:36.922   03 Jun 2027 01:39:12.397            35.475            RioGallegos          1108.594
       235   03 Jun 2027 02:09:35.130   03 Jun 2027 02:09:53.464            18.334                Anadyr2           572.937
       236   03 Jun 2027 02:10:08.597   03 Jun 2027 02:10:53.756            45.159                Anadyr1          1411.219
       237   03 Jun 2027 02:12:01.470   03 Jun 2027 02:12:26.332            24.862                Anadyr2           776.937
       238   03 Jun 2027 02:15:20.858   03 Jun 2027 02:16:33.817            72.959               Magadan2          2279.969
       239   03 Jun 2027 02:17:13.343   03 Jun 2027 02:17:37.516            24.173                Norilsk           755.406
       240   03 Jun 2027 02:19:28.877   03 Jun 2027 02:19:56.870            27.993              Murmansk1           874.781
       241   03 Jun 2027 02:20:10.439   03 Jun 2027 02:20:40.871            30.432              Murmansk2           951.000
       242   03 Jun 2027 02:20:59.289   03 Jun 2027 02:21:23.652            24.363              Murmansk1           761.344
       243   03 Jun 2027 02:22:10.261   03 Jun 2027 02:23:10.516            60.255                Novosib          1882.969
       244   03 Jun 2027 02:26:01.309   03 Jun 2027 02:27:08.739            67.430                 Moscow          2107.188
       245   03 Jun 2027 02:48:16.396   03 Jun 2027 02:48:33.268            16.872               CapeTown           527.250
       246   03 Jun 2027 02:52:04.199   03 Jun 2027 02:52:58.055            53.856               CapeTown          1683.000
       247   03 Jun 2027 03:47:03.282   03 Jun 2027 03:47:12.296             9.014                Anadyr2           281.688
       248   03 Jun 2027 03:52:35.745   03 Jun 2027 03:52:44.068             8.323                Anadyr2           260.094
       249   03 Jun 2027 04:05:48.815   03 Jun 2027 04:08:18.816           150.001              Murmansk2          4687.531
       250   03 Jun 2027 04:10:15.676   03 Jun 2027 04:10:28.454            12.778                 Moscow           399.313
       251   03 Jun 2027 04:10:58.307   03 Jun 2027 04:11:28.927            30.620                 Moscow           956.875
       252   03 Jun 2027 05:24:41.902   03 Jun 2027 05:24:52.187            10.285                Anadyr1           321.406
       253   03 Jun 2027 05:25:51.254   03 Jun 2027 05:32:11.594           380.340                Anadyr2         11885.625
       254   03 Jun 2027 07:03:10.593   03 Jun 2027 07:03:12.362             1.769               Magadan1            55.281
       255   03 Jun 2027 07:03:32.278   03 Jun 2027 07:03:35.401             3.123               Magadan2            97.594
       256   03 Jun 2027 07:03:41.895   03 Jun 2027 07:04:14.946            33.051                Anadyr2          1032.844
       257   03 Jun 2027 07:04:34.375   03 Jun 2027 07:05:43.594            69.219               Magadan1          2163.094
       258   03 Jun 2027 08:37:06.041   03 Jun 2027 08:37:12.038             5.997               Magadan2           187.406
       259   03 Jun 2027 08:37:58.295   03 Jun 2027 08:37:59.170             0.875               Magadan1            27.344
       260   03 Jun 2027 08:39:03.865   03 Jun 2027 08:39:46.102            42.237               Magadan1          1319.906
       261   03 Jun 2027 08:40:15.154   03 Jun 2027 08:40:17.280             2.126               Magadan1            66.437
       262   03 Jun 2027 08:40:48.148   03 Jun 2027 08:42:03.935            75.787               Magadan1          2368.344
       263   03 Jun 2027 08:42:14.696   03 Jun 2027 08:42:54.111            39.415                Irkutsk          1231.719
       264   03 Jun 2027 08:43:01.606   03 Jun 2027 08:43:16.620            15.014               Magadan2           469.188
       265   03 Jun 2027 08:44:29.850   03 Jun 2027 08:45:24.152            54.302              Murmansk1          1696.937
       266   03 Jun 2027 09:18:14.755   03 Jun 2027 09:19:25.179            70.424            RioGallegos          2200.750
       267   03 Jun 2027 09:54:02.874   03 Jun 2027 09:55:18.236            75.362                Sumatra          2355.063
       268   03 Jun 2027 10:14:52.813   03 Jun 2027 10:15:12.908            20.095                Novosib           627.969
       269   03 Jun 2027 10:15:28.738   03 Jun 2027 10:15:43.388            14.650                Norilsk           457.812
       270   03 Jun 2027 10:15:46.300   03 Jun 2027 10:16:00.472            14.172                Irkutsk           442.875
       271   03 Jun 2027 10:16:05.491   03 Jun 2027 10:16:17.660            12.169                Irkutsk           380.281
       272   03 Jun 2027 10:16:25.111   03 Jun 2027 10:16:52.590            27.479                Norilsk           858.719
       273   03 Jun 2027 10:17:05.645   03 Jun 2027 10:17:20.116            14.471                Novosib           452.219
       274   03 Jun 2027 10:17:44.530   03 Jun 2027 10:18:27.888            43.358                Irkutsk          1354.938
       275   03 Jun 2027 10:18:32.796   03 Jun 2027 10:19:24.354            51.558                Irkutsk          1611.187
       276   03 Jun 2027 10:55:28.577   03 Jun 2027 10:56:25.572            56.995            RioGallegos          1781.094
       277   03 Jun 2027 11:29:42.004   03 Jun 2027 11:30:16.296            34.292                Sumatra          1071.625
       278   03 Jun 2027 11:33:49.683   03 Jun 2027 11:34:03.923            14.240                Sumatra           445.000
       279   03 Jun 2027 11:44:44.642   03 Jun 2027 11:45:10.043            25.401                  Delhi           793.781
       280   03 Jun 2027 11:50:56.664   03 Jun 2027 11:51:12.463            15.799                Irkutsk           493.719
       281   03 Jun 2027 11:52:16.608   03 Jun 2027 11:52:19.933             3.325                Novosib           103.906
       282   03 Jun 2027 11:52:30.899   03 Jun 2027 11:52:50.685            19.786                Norilsk           618.313
       283   03 Jun 2027 11:52:56.046   03 Jun 2027 11:53:04.580             8.534                Norilsk           266.687
       284   03 Jun 2027 11:53:06.858   03 Jun 2027 11:53:07.303             0.445                Novosib            13.906
       285   03 Jun 2027 11:53:07.466   03 Jun 2027 11:53:43.209            35.743                Norilsk          1116.969
       286   03 Jun 2027 11:53:55.788   03 Jun 2027 11:54:22.424            26.636                Novosib           832.375
       287   03 Jun 2027 11:54:40.916   03 Jun 2027 11:55:14.507            33.591                Novosib          1049.719
       288   03 Jun 2027 13:14:42.878   03 Jun 2027 13:17:40.576           177.698                  Delhi          5553.063
       289   03 Jun 2027 13:18:27.813   03 Jun 2027 13:19:45.605            77.792                  Delhi          2431.000
       290   03 Jun 2027 13:23:10.172   03 Jun 2027 13:23:11.867             1.695                Novosib            52.969
       291   03 Jun 2027 13:24:21.507   03 Jun 2027 13:25:10.401            48.894                Novosib          1527.938
       292   03 Jun 2027 13:26:12.586   03 Jun 2027 13:27:29.592            77.006                Novosib          2406.437
       293   03 Jun 2027 13:28:35.981   03 Jun 2027 13:29:23.803            47.822                Novosib          1494.438
       294   03 Jun 2027 14:57:52.002   03 Jun 2027 14:59:44.457           112.455                 Moscow          3514.219
       295   03 Jun 2027 15:01:22.816   03 Jun 2027 15:02:30.522            67.706              Murmansk1          2115.813
       296   03 Jun 2027 15:06:24.362   03 Jun 2027 15:06:45.383            21.021              Murmansk1           656.906
       297   03 Jun 2027 15:07:00.750   03 Jun 2027 15:07:36.184            35.434                 Moscow          1107.313
       298   03 Jun 2027 15:08:35.338   03 Jun 2027 15:10:38.496           123.158                Norilsk          3848.687
       299   03 Jun 2027 15:17:09.308   03 Jun 2027 15:17:27.074            17.766                Anadyr1           555.188
       300   03 Jun 2027 15:18:12.599   03 Jun 2027 15:18:48.252            35.653                Anadyr2          1114.156
       301   03 Jun 2027 15:19:26.385   03 Jun 2027 15:19:32.270             5.885                Anadyr2           183.906
       302   03 Jun 2027 16:12:13.125   03 Jun 2027 16:13:29.269            76.144               CapeTown          2379.500
       303   03 Jun 2027 16:20:48.143   03 Jun 2027 16:21:06.442            18.299               CapeTown           571.844
       304   03 Jun 2027 16:23:16.102   03 Jun 2027 16:23:39.930            23.828               CapeTown           744.625
       305   03 Jun 2027 16:37:20.513   03 Jun 2027 16:38:00.290            39.777                 Moscow          1243.031
       306   03 Jun 2027 16:39:24.944   03 Jun 2027 16:39:31.126             6.182              Murmansk1           193.187
       307   03 Jun 2027 16:40:23.065   03 Jun 2027 16:41:26.817            63.752              Murmansk1          1992.250
       308   03 Jun 2027 16:47:07.137   03 Jun 2027 16:47:48.054            40.917              Murmansk2          1278.656
       309   03 Jun 2027 16:51:52.513   03 Jun 2027 16:53:24.913            92.400                Anadyr1          2887.500
       310   03 Jun 2027 16:53:35.689   03 Jun 2027 16:54:37.323            61.634                Anadyr2          1926.062
       311   03 Jun 2027 17:02:55.736   03 Jun 2027 17:03:07.024            11.288                Anadyr1           352.750
       312   03 Jun 2027 17:47:49.034   03 Jun 2027 17:48:38.310            49.276               CapeTown          1539.875
       313   03 Jun 2027 17:51:04.858   03 Jun 2027 17:51:14.600             9.742               CapeTown           304.438
       314   03 Jun 2027 17:52:15.828   03 Jun 2027 17:52:42.740            26.912               CapeTown           841.000
       315   03 Jun 2027 17:57:41.311   03 Jun 2027 17:58:04.092            22.781               CapeTown           711.906
       316   03 Jun 2027 18:20:22.450   03 Jun 2027 18:23:41.396           198.946              Murmansk1          6217.063
       317   03 Jun 2027 18:24:12.420   03 Jun 2027 18:24:50.089            37.669              Murmansk1          1177.156
       318   03 Jun 2027 18:30:21.365   03 Jun 2027 18:30:50.875            29.510               Magadan2           922.188
       319   03 Jun 2027 18:31:10.561   03 Jun 2027 18:31:35.117            24.556               Magadan1           767.375
       320   03 Jun 2027 18:31:40.251   03 Jun 2027 18:33:08.267            88.016               Magadan2          2750.500
       321   03 Jun 2027 18:40:27.798   03 Jun 2027 18:40:50.374            22.576               Magadan2           705.500
       322   03 Jun 2027 20:03:36.378   03 Jun 2027 20:05:42.592           126.214                Anadyr1          3944.187
       323   03 Jun 2027 20:05:51.498   03 Jun 2027 20:07:22.013            90.515                Anadyr2          2828.594
       324   03 Jun 2027 20:07:23.281   03 Jun 2027 20:08:20.464            57.183                Norilsk          1786.969
       325   03 Jun 2027 20:08:48.281   03 Jun 2027 20:09:43.275            54.994               Magadan2          1718.562
       326   03 Jun 2027 20:09:43.275   03 Jun 2027 20:10:25.688            42.413               Magadan1          1325.406
       327   03 Jun 2027 20:14:12.583   03 Jun 2027 20:14:51.272            38.689               Magadan1          1209.031
       328   03 Jun 2027 20:16:26.245   03 Jun 2027 20:16:36.090             9.845               Magadan2           307.656
       329   03 Jun 2027 20:58:26.950   03 Jun 2027 21:00:59.151           152.201            RioGallegos          4756.281
       330   03 Jun 2027 21:02:58.347   03 Jun 2027 21:03:15.397            17.050            RioGallegos           532.812
       331   03 Jun 2027 21:04:36.661   03 Jun 2027 21:04:55.428            18.767            RioGallegos           586.469
       332   03 Jun 2027 21:07:26.539   03 Jun 2027 21:07:48.474            21.935            RioGallegos           685.469
       333   03 Jun 2027 21:39:18.395   03 Jun 2027 21:39:55.675            37.280                Anadyr2          1165.000
       334   03 Jun 2027 21:41:27.843   03 Jun 2027 21:41:52.653            24.810                Norilsk           775.313
       335   03 Jun 2027 21:41:53.528   03 Jun 2027 21:43:47.596           114.068               Magadan1          3564.625
       336   03 Jun 2027 21:43:47.596   03 Jun 2027 21:43:59.008            11.412               Magadan2           356.625
       337   03 Jun 2027 21:44:37.068   03 Jun 2027 21:45:14.082            37.014               Magadan2          1156.688
       338   03 Jun 2027 21:45:50.563   03 Jun 2027 21:46:54.304            63.741                Irkutsk          1991.906
       339   03 Jun 2027 21:51:48.850   03 Jun 2027 21:51:59.253            10.403                Irkutsk           325.094
       340   03 Jun 2027 21:54:26.500   03 Jun 2027 21:54:54.808            28.308                Irkutsk           884.625
       341   03 Jun 2027 21:59:50.553   03 Jun 2027 22:00:18.420            27.867                Sumatra           870.844
       342   03 Jun 2027 22:01:26.661   03 Jun 2027 22:03:00.335            93.674                Sumatra          2927.312
       343   03 Jun 2027 22:10:52.217   03 Jun 2027 22:11:28.707            36.490                Sumatra          1140.313
       344   03 Jun 2027 23:14:25.491   03 Jun 2027 23:14:39.123            13.632                Anadyr2           426.000
       345   03 Jun 2027 23:15:41.275   03 Jun 2027 23:16:58.684            77.409                Anadyr2          2419.031
       346   03 Jun 2027 23:17:43.004   03 Jun 2027 23:17:50.113             7.109                Norilsk           222.156
       347   03 Jun 2027 23:18:00.454   03 Jun 2027 23:18:36.170            35.716               Magadan1          1116.125
       348   03 Jun 2027 23:19:13.129   03 Jun 2027 23:19:51.267            38.138               Magadan2          1191.812
       349   03 Jun 2027 23:19:55.755   03 Jun 2027 23:20:23.154            27.399               Magadan1           856.219
       350   03 Jun 2027 23:21:02.817   03 Jun 2027 23:21:12.573             9.756               Magadan2           304.875
       351   03 Jun 2027 23:21:13.823   03 Jun 2027 23:21:48.544            34.721                Irkutsk          1085.031
       352   03 Jun 2027 23:22:22.328   03 Jun 2027 23:23:07.364            45.036                Novosib          1407.375
       353   03 Jun 2027 23:24:31.559   03 Jun 2027 23:25:08.539            36.980                Irkutsk          1155.625
       354   03 Jun 2027 23:27:27.661   03 Jun 2027 23:27:48.662            21.001                Novosib           656.281
       355   03 Jun 2027 23:29:46.304   03 Jun 2027 23:30:47.351            61.047                  Delhi          1907.719
       356   03 Jun 2027 23:34:08.235   03 Jun 2027 23:34:46.135            37.900                  Delhi          1184.375
       357   03 Jun 2027 23:35:56.835   03 Jun 2027 23:36:36.021            39.186                  Delhi          1224.562
       358   04 Jun 2027 00:15:36.480   04 Jun 2027 00:16:31.163            54.683            RioGallegos          1708.844
       359   04 Jun 2027 00:47:59.425   04 Jun 2027 00:48:57.549            58.124                Anadyr2          1816.375
       360   04 Jun 2027 00:50:05.377   04 Jun 2027 00:50:33.335            27.958                Anadyr2           873.688
       361   04 Jun 2027 00:50:33.335   04 Jun 2027 00:50:55.499            22.164                Anadyr1           692.625
       362   04 Jun 2027 00:53:22.297   04 Jun 2027 00:53:38.739            16.442                Norilsk           513.812
       363   04 Jun 2027 00:53:45.387   04 Jun 2027 00:55:13.692            88.305               Magadan1          2759.531
       364   04 Jun 2027 00:55:35.206   04 Jun 2027 00:56:02.602            27.396               Magadan2           856.125
       365   04 Jun 2027 00:56:14.135   04 Jun 2027 00:57:25.920            71.785              Murmansk2          2243.281
       366   04 Jun 2027 00:57:25.920   04 Jun 2027 00:57:31.921             6.001              Murmansk1           187.531
       367   04 Jun 2027 00:58:07.940   04 Jun 2027 00:58:42.569            34.629              Murmansk2          1082.156
       368   04 Jun 2027 01:01:55.217   04 Jun 2027 01:02:35.399            40.182                 Moscow          1255.687
       369   04 Jun 2027 01:05:12.499   04 Jun 2027 01:05:28.057            15.558                  Delhi           486.188
       370   04 Jun 2027 01:09:38.153   04 Jun 2027 01:09:46.692             8.539                  Delhi           266.844
       371   04 Jun 2027 01:10:33.502   04 Jun 2027 01:12:46.728           133.226                  Delhi          4163.312
       372   04 Jun 2027 01:47:42.419   04 Jun 2027 01:48:11.172            28.753            RioGallegos           898.531
       373   04 Jun 2027 02:21:18.643   04 Jun 2027 02:21:41.545            22.902                Anadyr2           715.687
       374   04 Jun 2027 02:22:52.781   04 Jun 2027 02:24:08.325            75.544                Anadyr1          2360.750
       375   04 Jun 2027 02:26:49.858   04 Jun 2027 02:27:53.565            63.707               Magadan2          1990.844
       376   04 Jun 2027 02:29:28.029   04 Jun 2027 02:29:39.806            11.777                Norilsk           368.031
       377   04 Jun 2027 02:31:00.243   04 Jun 2027 02:31:25.634            25.391                Norilsk           793.469
       378   04 Jun 2027 02:31:30.069   04 Jun 2027 02:32:23.600            53.531              Murmansk1          1672.844
       379   04 Jun 2027 02:33:25.343   04 Jun 2027 02:34:06.531            41.188                Novosib          1287.125
       380   04 Jun 2027 02:34:48.929   04 Jun 2027 02:36:04.169            75.240                Novosib          2351.250
       381   04 Jun 2027 02:59:46.628   04 Jun 2027 03:00:39.499            52.871               CapeTown          1652.219
       382   04 Jun 2027 03:06:15.578   04 Jun 2027 03:06:28.665            13.087               CapeTown           408.969
       383   04 Jun 2027 03:10:19.245   04 Jun 2027 03:11:01.605            42.360               CapeTown          1323.750
       384   04 Jun 2027 03:59:10.306   04 Jun 2027 03:59:16.433             6.127                Anadyr1           191.469
       385   04 Jun 2027 04:17:12.386   04 Jun 2027 04:17:16.329             3.943                 Moscow           123.219
       386   04 Jun 2027 04:17:36.158   04 Jun 2027 04:18:29.605            53.447                 Moscow          1670.219
       387   04 Jun 2027 04:18:37.937   04 Jun 2027 04:20:23.740           105.803              Murmansk1          3306.344
       388   04 Jun 2027 04:21:37.477   04 Jun 2027 04:23:24.123           106.646                 Moscow          3332.687
       389   04 Jun 2027 04:45:35.332   04 Jun 2027 04:46:14.830            39.498               CapeTown          1234.313
       390   04 Jun 2027 05:37:52.619   04 Jun 2027 05:38:32.965            40.346               Magadan2          1260.812
       391   04 Jun 2027 05:38:36.207   04 Jun 2027 05:42:26.256           230.049               Magadan1          7189.031
       392   04 Jun 2027 05:42:26.256   04 Jun 2027 05:43:51.846            85.590               Magadan2          2674.688
       393   04 Jun 2027 07:15:08.298   04 Jun 2027 07:15:18.416            10.118                Anadyr1           316.187
       394   04 Jun 2027 07:15:25.921   04 Jun 2027 07:15:40.542            14.621               Magadan1           456.906
       395   04 Jun 2027 07:15:40.542   04 Jun 2027 07:16:05.532            24.990               Magadan2           780.937
       396   04 Jun 2027 07:16:11.562   04 Jun 2027 07:16:42.163            30.601               Magadan2           956.281
       397   04 Jun 2027 07:17:02.387   04 Jun 2027 07:18:28.355            85.968                Anadyr1          2686.500
       398   04 Jun 2027 08:48:59.334   04 Jun 2027 08:49:02.268             2.934               Magadan2            91.688
       399   04 Jun 2027 08:49:56.706   04 Jun 2027 08:50:07.662            10.956                Irkutsk           342.375
       400   04 Jun 2027 08:50:21.304   04 Jun 2027 08:50:24.118             2.814               Magadan2            87.937
       401   04 Jun 2027 08:50:24.339   04 Jun 2027 08:51:28.864            64.525                Irkutsk          2016.406
       402   04 Jun 2027 08:51:42.359   04 Jun 2027 08:51:44.658             2.299               Magadan1            71.844
       403   04 Jun 2027 08:51:52.755   04 Jun 2027 08:52:14.951            22.196                Irkutsk           693.625
       404   04 Jun 2027 08:52:17.615   04 Jun 2027 08:52:50.337            32.722               Magadan2          1022.562
       405   04 Jun 2027 08:52:52.989   04 Jun 2027 08:52:59.294             6.305                Irkutsk           197.031
       406   04 Jun 2027 08:53:04.876   04 Jun 2027 08:53:10.186             5.310                Irkutsk           165.937
       407   04 Jun 2027 08:53:39.306   04 Jun 2027 08:53:47.468             8.162                Irkutsk           255.062
       408   04 Jun 2027 08:54:03.729   04 Jun 2027 08:54:53.793            50.064               Magadan2          1564.500
       409   04 Jun 2027 08:54:57.439   04 Jun 2027 08:56:19.714            82.275                Novosib          2571.094
       410   04 Jun 2027 10:05:40.226   04 Jun 2027 10:06:17.145            36.919                Sumatra          1153.719
       411   04 Jun 2027 10:10:24.635   04 Jun 2027 10:12:03.422            98.787                Sumatra          3087.094
       412   04 Jun 2027 10:27:55.758   04 Jun 2027 10:28:01.705             5.947                Novosib           185.844
       413   04 Jun 2027 10:28:26.085   04 Jun 2027 10:29:08.847            42.762                Irkutsk          1336.312
       414   04 Jun 2027 10:29:49.363   04 Jun 2027 10:30:08.781            19.418                Irkutsk           606.812
       415   04 Jun 2027 10:30:23.661   04 Jun 2027 10:31:30.117            66.456                Irkutsk          2076.750
       416   04 Jun 2027 11:09:37.294   04 Jun 2027 11:09:46.803             9.509            RioGallegos           297.156
       417   04 Jun 2027 11:15:25.967   04 Jun 2027 11:16:12.694            46.727            RioGallegos          1460.219
       418   04 Jun 2027 11:42:58.043   04 Jun 2027 11:43:04.092             6.049                Sumatra           189.031
       419   04 Jun 2027 11:46:16.465   04 Jun 2027 11:46:40.950            24.485                Sumatra           765.156
       420   04 Jun 2027 11:55:36.983   04 Jun 2027 11:55:59.180            22.197                  Delhi           693.656
       421   04 Jun 2027 12:05:41.067   04 Jun 2027 12:06:04.905            23.838                Irkutsk           744.937
       422   04 Jun 2027 12:10:48.330   04 Jun 2027 12:11:31.219            42.889                Norilsk          1340.281
       423   04 Jun 2027 13:27:29.908   04 Jun 2027 13:29:31.811           121.903                  Delhi          3809.469
       424   04 Jun 2027 13:35:38.699   04 Jun 2027 13:36:04.141            25.442                  Delhi           795.062
       425   04 Jun 2027 13:36:29.659   04 Jun 2027 13:37:30.888            61.229                Novosib          1913.406
       426   04 Jun 2027 13:39:14.971   04 Jun 2027 13:40:00.379            45.408                Norilsk          1419.000
       427   04 Jun 2027 13:40:25.454   04 Jun 2027 13:40:38.171            12.717                Novosib           397.406
       428   04 Jun 2027 13:41:29.236   04 Jun 2027 13:42:06.720            37.484                Novosib          1171.375
       429   04 Jun 2027 13:43:06.013   04 Jun 2027 13:43:24.739            18.726                Novosib           585.187
       430   04 Jun 2027 14:51:01.846   04 Jun 2027 14:52:23.692            81.846               CapeTown          2557.687
       431   04 Jun 2027 14:53:59.816   04 Jun 2027 14:55:23.269            83.453               CapeTown          2607.906
       432   04 Jun 2027 15:10:30.301   04 Jun 2027 15:11:18.068            47.767                 Moscow          1492.719
       433   04 Jun 2027 15:16:29.058   04 Jun 2027 15:16:42.530            13.472              Murmansk2           421.000
       434   04 Jun 2027 15:18:25.057   04 Jun 2027 15:18:33.283             8.226              Murmansk2           257.062
       435   04 Jun 2027 15:20:17.114   04 Jun 2027 15:21:02.313            45.199              Murmansk1          1412.469
       436   04 Jun 2027 15:22:18.650   04 Jun 2027 15:22:32.760            14.110              Murmansk1           440.938
       437   04 Jun 2027 15:24:07.365   04 Jun 2027 15:24:23.831            16.466              Murmansk1           514.562
       438   04 Jun 2027 15:24:23.831   04 Jun 2027 15:24:35.356            11.525              Murmansk2           360.156
       439   04 Jun 2027 15:28:49.594   04 Jun 2027 15:30:29.760           100.166                Anadyr2          3130.188
       440   04 Jun 2027 15:34:44.371   04 Jun 2027 15:35:33.136            48.765                Anadyr2          1523.906
       441   04 Jun 2027 16:29:21.439   04 Jun 2027 16:30:08.109            46.670               CapeTown          1458.437
       442   04 Jun 2027 16:35:35.881   04 Jun 2027 16:35:54.344            18.463               CapeTown           576.969
       443   04 Jun 2027 16:50:22.222   04 Jun 2027 16:51:04.052            41.830                 Moscow          1307.188
       444   04 Jun 2027 16:51:42.312   04 Jun 2027 16:52:58.703            76.391                 Moscow          2387.219
       445   04 Jun 2027 16:56:05.275   04 Jun 2027 16:56:14.534             9.259              Murmansk2           289.344
       446   04 Jun 2027 16:56:14.534   04 Jun 2027 16:56:36.225            21.691              Murmansk1           677.844
       447   04 Jun 2027 16:59:43.618   04 Jun 2027 17:00:22.819            39.201              Murmansk2          1225.031
       448   04 Jun 2027 17:03:51.691   04 Jun 2027 17:04:31.119            39.428                Anadyr1          1232.125
       449   04 Jun 2027 17:05:23.076   04 Jun 2027 17:05:33.856            10.780                Anadyr2           336.875
       450   04 Jun 2027 17:05:47.621   04 Jun 2027 17:06:10.004            22.383                Anadyr1           699.469
       451   04 Jun 2027 17:07:22.874   04 Jun 2027 17:07:35.725            12.851                Anadyr1           401.594
       452   04 Jun 2027 17:09:28.059   04 Jun 2027 17:09:42.379            14.320                Anadyr2           447.500
       453   04 Jun 2027 17:11:14.662   04 Jun 2027 17:11:24.642             9.980                Anadyr1           311.875
       454   04 Jun 2027 17:13:02.716   04 Jun 2027 17:13:54.267            51.551                Anadyr1          1610.969
       455   04 Jun 2027 18:06:27.342   04 Jun 2027 18:07:03.099            35.757               CapeTown          1117.406
       456   04 Jun 2027 18:33:33.291   04 Jun 2027 18:36:35.645           182.354              Murmansk1          5698.563
       457   04 Jun 2027 18:39:42.231   04 Jun 2027 18:40:02.197            19.966                Anadyr1           623.937
       458   04 Jun 2027 18:40:09.062   04 Jun 2027 18:40:54.528            45.466                Anadyr2          1420.813
       459   04 Jun 2027 18:41:16.170   04 Jun 2027 18:41:48.431            32.261                Anadyr2          1008.156
       460   04 Jun 2027 18:42:16.407   04 Jun 2027 18:42:56.042            39.635               Magadan2          1238.594
       461   04 Jun 2027 18:43:19.378   04 Jun 2027 18:43:28.905             9.527               Magadan1           297.719
       462   04 Jun 2027 18:45:11.284   04 Jun 2027 18:45:32.396            21.112                Anadyr2           659.750
       463   04 Jun 2027 18:48:45.104   04 Jun 2027 18:49:13.734            28.630               Magadan1           894.688
       464   04 Jun 2027 18:50:27.776   04 Jun 2027 18:50:59.940            32.164               Magadan2          1005.125
       465   04 Jun 2027 20:15:37.341   04 Jun 2027 20:19:48.944           251.603                Anadyr1          7862.594
       466   04 Jun 2027 20:20:32.679   04 Jun 2027 20:22:44.410           131.731               Magadan1          4116.594
       467   04 Jun 2027 20:26:23.219   04 Jun 2027 20:26:59.171            35.952               Magadan1          1123.500
       468   04 Jun 2027 21:10:11.474   04 Jun 2027 21:12:43.497           152.023            RioGallegos          4750.719
       469   04 Jun 2027 21:18:36.324   04 Jun 2027 21:18:54.034            17.710            RioGallegos           553.437
       470   04 Jun 2027 21:19:11.726   04 Jun 2027 21:19:36.428            24.702            RioGallegos           771.938
       471   04 Jun 2027 21:51:15.812   04 Jun 2027 21:52:02.198            46.386                Anadyr1          1449.562
       472   04 Jun 2027 21:53:27.924   04 Jun 2027 21:53:41.765            13.841                Norilsk           432.531
       473   04 Jun 2027 21:53:56.385   04 Jun 2027 21:55:19.065            82.680               Magadan1          2583.750
       474   04 Jun 2027 21:55:19.065   04 Jun 2027 21:56:01.514            42.449               Magadan2          1326.531
       475   04 Jun 2027 21:57:13.629   04 Jun 2027 21:57:14.065             0.436                Norilsk            13.625
       476   04 Jun 2027 21:57:23.926   04 Jun 2027 21:57:47.093            23.167               Magadan2           723.969
       477   04 Jun 2027 21:58:08.184   04 Jun 2027 21:58:16.954             8.770                Norilsk           274.062
       478   04 Jun 2027 21:58:27.649   04 Jun 2027 21:59:01.983            34.334                Irkutsk          1072.938
       479   04 Jun 2027 21:59:23.574   04 Jun 2027 22:00:25.214            61.640                Irkutsk          1926.250
       480   04 Jun 2027 22:00:53.133   04 Jun 2027 22:02:43.355           110.222                Novosib          3444.437
       481   04 Jun 2027 22:13:36.046   04 Jun 2027 22:13:49.298            13.252                Sumatra           414.125
       482   04 Jun 2027 22:13:58.047   04 Jun 2027 22:14:56.440            58.393                Sumatra          1824.781
