uniorb/output/strategy_4/Drop/Drop_KinoSat_111010.txt

KinoSat_111010
-------------------------
    Access    *     Start Time (UTCG)     *     Stop Time (UTCG)  *   Duration (s)        *       Station  *  Data (Mbytes)
         1   01 Jun 2027 04:16:29.285   01 Jun 2027 04:16:53.893            24.608                Anadyr1           769.000
         2   01 Jun 2027 04:16:55.923   01 Jun 2027 04:18:32.801            96.878                Anadyr1          3027.437
         3   01 Jun 2027 04:19:06.945   01 Jun 2027 04:19:12.594             5.649               Magadan2           176.531
         4   01 Jun 2027 04:19:39.658   01 Jun 2027 04:20:03.572            23.914               Magadan2           747.313
         5   01 Jun 2027 05:53:16.679   01 Jun 2027 05:54:16.232            59.553                Irkutsk          1861.031
         6   01 Jun 2027 05:54:34.444   01 Jun 2027 05:55:46.350            71.906               Magadan2          2247.062
         7   01 Jun 2027 07:29:30.413   01 Jun 2027 07:30:30.051            59.638               Magadan2          1863.688
         8   01 Jun 2027 07:30:30.801   01 Jun 2027 07:32:21.491           110.690                Irkutsk          3459.063
         9   01 Jun 2027 07:32:33.763   01 Jun 2027 07:32:46.441            12.678              Murmansk1           396.188
        10   01 Jun 2027 07:32:52.832   01 Jun 2027 07:33:06.069            13.237               Magadan1           413.656
        11   01 Jun 2027 07:33:19.887   01 Jun 2027 07:34:26.488            66.601                Novosib          2081.281
        12   01 Jun 2027 07:34:34.844   01 Jun 2027 07:36:44.941           130.097              Murmansk2          4065.531
        13   01 Jun 2027 07:38:14.637   01 Jun 2027 07:38:38.429            23.792              Murmansk1           743.500
        14   01 Jun 2027 08:08:08.528   01 Jun 2027 08:09:45.091            96.563            RioGallegos          3017.594
        15   01 Jun 2027 08:10:31.566   01 Jun 2027 08:11:25.620            54.054            RioGallegos          1689.188
        16   01 Jun 2027 08:43:42.163   01 Jun 2027 08:45:35.987           113.824                Sumatra          3557.000
        17   01 Jun 2027 09:05:56.136   01 Jun 2027 09:08:06.746           130.610                Novosib          4081.562
        18   01 Jun 2027 09:08:22.620   01 Jun 2027 09:09:21.379            58.759              Murmansk1          1836.219
        19   01 Jun 2027 09:09:29.304   01 Jun 2027 09:10:05.038            35.734                Novosib          1116.688
        20   01 Jun 2027 09:10:39.583   01 Jun 2027 09:10:56.335            16.752                Novosib           523.500
        21   01 Jun 2027 09:45:44.207   01 Jun 2027 09:46:09.695            25.488            RioGallegos           796.500
        22   01 Jun 2027 09:47:25.544   01 Jun 2027 09:47:40.820            15.276            RioGallegos           477.375
        23   01 Jun 2027 09:47:58.154   01 Jun 2027 09:48:53.936            55.782            RioGallegos          1743.187
        24   01 Jun 2027 10:19:56.002   01 Jun 2027 10:20:48.715            52.713                Sumatra          1647.281
        25   01 Jun 2027 10:24:57.556   01 Jun 2027 10:25:18.909            21.353                Sumatra           667.281
        26   01 Jun 2027 10:28:40.327   01 Jun 2027 10:29:06.138            25.811                  Delhi           806.594
        27   01 Jun 2027 10:30:22.094   01 Jun 2027 10:30:54.525            32.431                  Delhi          1013.469
        28   01 Jun 2027 10:43:01.563   01 Jun 2027 10:43:59.035            57.472                Novosib          1796.000
        29   01 Jun 2027 10:44:13.174   01 Jun 2027 10:45:50.188            97.014                 Moscow          3031.687
        30   01 Jun 2027 12:05:07.645   01 Jun 2027 12:07:16.147           128.502                  Delhi          4015.687
        31   01 Jun 2027 12:08:06.783   01 Jun 2027 12:09:10.936            64.153                  Delhi          2004.781
        32   01 Jun 2027 12:13:38.894   01 Jun 2027 12:14:37.646            58.752                Novosib          1836.000
        33   01 Jun 2027 12:14:49.032   01 Jun 2027 12:15:26.732            37.700                Novosib          1178.125
        34   01 Jun 2027 12:16:54.881   01 Jun 2027 12:17:50.414            55.533              Murmansk2          1735.406
        35   01 Jun 2027 12:17:59.568   01 Jun 2027 12:18:28.522            28.954                Norilsk           904.812
        36   01 Jun 2027 12:18:37.085   01 Jun 2027 12:18:54.868            17.783                Norilsk           555.719
        37   01 Jun 2027 12:19:30.053   01 Jun 2027 12:20:36.410            66.357                Norilsk          2073.656
        38   01 Jun 2027 12:22:42.008   01 Jun 2027 12:24:22.934           100.926                Norilsk          3153.938
        39   01 Jun 2027 13:29:48.434   01 Jun 2027 13:30:40.144            51.710               CapeTown          1615.937
        40   01 Jun 2027 13:47:55.217   01 Jun 2027 13:49:24.824            89.607                 Moscow          2800.219
        41   01 Jun 2027 13:51:24.742   01 Jun 2027 13:52:51.859            87.117              Murmansk2          2722.406
        42   01 Jun 2027 13:52:52.576   01 Jun 2027 13:54:23.287            90.711              Murmansk1          2834.719
        43   01 Jun 2027 13:55:49.283   01 Jun 2027 13:56:12.409            23.126              Murmansk1           722.687
        44   01 Jun 2027 14:06:51.889   01 Jun 2027 14:08:32.354           100.465                Anadyr1          3139.531
        45   01 Jun 2027 14:09:01.172   01 Jun 2027 14:10:16.202            75.030                Anadyr2          2344.688
        46   01 Jun 2027 14:11:50.674   01 Jun 2027 14:12:03.268            12.594                Anadyr1           393.562
        47   01 Jun 2027 15:01:09.421   01 Jun 2027 15:02:23.622            74.201               CapeTown          2318.781
        48   01 Jun 2027 15:29:38.452   01 Jun 2027 15:30:44.719            66.267              Murmansk1          2070.844
        49   01 Jun 2027 15:31:23.458   01 Jun 2027 15:32:10.818            47.360              Murmansk2          1480.000
        50   01 Jun 2027 15:41:47.417   01 Jun 2027 15:43:54.702           127.285                Anadyr2          3977.656
        51   01 Jun 2027 16:37:58.210   01 Jun 2027 16:38:55.583            57.373               CapeTown          1792.906
        52   01 Jun 2027 16:40:15.827   01 Jun 2027 16:40:59.572            43.745               CapeTown          1367.031
        53   01 Jun 2027 17:11:04.738   01 Jun 2027 17:14:39.177           214.439              Murmansk1          6701.219
        54   01 Jun 2027 17:17:36.829   01 Jun 2027 17:20:15.761           158.932                Anadyr2          4966.625
        55   01 Jun 2027 17:20:31.223   01 Jun 2027 17:21:20.155            48.932               Magadan2          1529.125
        56   01 Jun 2027 17:22:24.731   01 Jun 2027 17:22:50.508            25.777               Magadan2           805.531
        57   01 Jun 2027 17:25:50.876   01 Jun 2027 17:26:11.128            20.252               Magadan2           632.875
        58   01 Jun 2027 18:53:31.827   01 Jun 2027 18:55:23.451           111.624                Anadyr1          3488.250
        59   01 Jun 2027 18:55:48.695   01 Jun 2027 19:00:10.942           262.247               Magadan1          8195.219
        60   01 Jun 2027 19:03:40.161   01 Jun 2027 19:04:13.518            33.357               Magadan1          1042.406
        61   01 Jun 2027 19:06:46.369   01 Jun 2027 19:06:59.220            12.851               Magadan1           401.594
        62   01 Jun 2027 19:48:11.904   01 Jun 2027 19:51:39.823           207.919            RioGallegos          6497.469
        63   01 Jun 2027 20:29:11.203   01 Jun 2027 20:29:37.436            26.233                Anadyr2           819.781
        64   01 Jun 2027 20:31:23.663   01 Jun 2027 20:33:27.417           123.754                Norilsk          3867.312
        65   01 Jun 2027 20:34:04.508   01 Jun 2027 20:34:39.294            34.786               Magadan2          1087.062
        66   01 Jun 2027 20:35:40.492   01 Jun 2027 20:38:42.341           181.849                Irkutsk          5682.781
        67   01 Jun 2027 20:39:12.977   01 Jun 2027 20:40:03.970            50.993                Novosib          1593.531
        68   01 Jun 2027 20:49:59.309   01 Jun 2027 20:50:32.775            33.466                Sumatra          1045.812
        69   01 Jun 2027 20:51:46.911   01 Jun 2027 20:53:03.097            76.186                Sumatra          2380.813
        70   01 Jun 2027 22:07:18.847   01 Jun 2027 22:08:26.981            68.134                Norilsk          2129.187
        71   01 Jun 2027 22:09:04.918   01 Jun 2027 22:09:07.559             2.641                Norilsk            82.531
        72   01 Jun 2027 22:09:22.057   01 Jun 2027 22:09:59.832            37.775               Magadan1          1180.469
        73   01 Jun 2027 22:10:22.588   01 Jun 2027 22:10:27.802             5.214               Magadan2           162.938
        74   01 Jun 2027 22:10:32.653   01 Jun 2027 22:10:49.797            17.144                Norilsk           535.750
        75   01 Jun 2027 22:11:20.297   01 Jun 2027 22:11:55.953            35.656               Magadan2          1114.250
        76   01 Jun 2027 22:12:02.572   01 Jun 2027 22:12:16.819            14.247                Irkutsk           445.219
        77   01 Jun 2027 22:12:52.893   01 Jun 2027 22:13:07.114            14.221                Novosib           444.406
        78   01 Jun 2027 22:13:16.087   01 Jun 2027 22:13:26.857            10.770                Novosib           336.562
        79   01 Jun 2027 22:13:47.374   01 Jun 2027 22:15:04.981            77.607                Novosib          2425.219
        80   01 Jun 2027 22:19:25.126   01 Jun 2027 22:22:36.600           191.474                  Delhi          5983.562
        81   01 Jun 2027 23:42:51.727   01 Jun 2027 23:43:04.334            12.607                Anadyr1           393.969
        82   01 Jun 2027 23:43:06.845   01 Jun 2027 23:43:10.950             4.105                Anadyr1           128.281
        83   01 Jun 2027 23:43:18.452   01 Jun 2027 23:43:21.297             2.845                Norilsk            88.906
        84   01 Jun 2027 23:43:24.777   01 Jun 2027 23:43:45.822            21.045                Anadyr2           657.656
        85   01 Jun 2027 23:43:49.701   01 Jun 2027 23:45:07.377            77.676                Norilsk          2427.375
        86   01 Jun 2027 23:45:08.999   01 Jun 2027 23:45:32.016            23.017               Magadan2           719.281
        87   01 Jun 2027 23:45:44.976   01 Jun 2027 23:49:26.074           221.098              Murmansk2          6909.313
        88   01 Jun 2027 23:51:07.757   01 Jun 2027 23:52:32.390            84.633                 Moscow          2644.781
        89   01 Jun 2027 23:55:44.497   01 Jun 2027 23:56:12.580            28.083                 Moscow           877.594
        90   02 Jun 2027 01:11:02.907   02 Jun 2027 01:11:16.582            13.675                Anadyr2           427.344
        91   02 Jun 2027 01:11:34.822   02 Jun 2027 01:11:58.737            23.915                Anadyr2           747.344
        92   02 Jun 2027 01:12:47.884   02 Jun 2027 01:13:21.917            34.033                Anadyr1          1063.531
        93   02 Jun 2027 01:13:45.792   02 Jun 2027 01:14:12.739            26.947                Anadyr1           842.094
        94   02 Jun 2027 01:16:22.152   02 Jun 2027 01:18:25.114           122.962               Magadan2          3842.563
        95   02 Jun 2027 01:20:10.263   02 Jun 2027 01:20:21.646            11.383               Magadan1           355.719
        96   02 Jun 2027 01:21:26.426   02 Jun 2027 01:22:06.987            40.561              Murmansk1          1267.531
        97   02 Jun 2027 01:22:10.654   02 Jun 2027 01:23:28.934            78.280              Murmansk2          2446.250
        98   02 Jun 2027 01:23:41.222   02 Jun 2027 01:25:11.187            89.965              Murmansk2          2811.406
        99   02 Jun 2027 01:36:20.675   02 Jun 2027 01:36:39.391            18.716                 Moscow           584.875
       100   02 Jun 2027 01:49:25.477   02 Jun 2027 01:50:15.695            50.218               CapeTown          1569.313
       101   02 Jun 2027 01:55:37.527   02 Jun 2027 01:55:58.622            21.095               CapeTown           659.219
       102   02 Jun 2027 02:45:25.955   02 Jun 2027 02:45:56.798            30.843                Anadyr2           963.844
       103   02 Jun 2027 02:45:56.798   02 Jun 2027 02:47:50.397           113.599                Anadyr1          3549.969
       104   02 Jun 2027 02:47:54.403   02 Jun 2027 02:47:55.049             0.646                Anadyr1            20.187
       105   02 Jun 2027 02:48:07.935   02 Jun 2027 02:48:14.278             6.343               Magadan1           198.219
       106   02 Jun 2027 02:48:28.780   02 Jun 2027 02:49:38.440            69.660               Magadan2          2176.875
       107   02 Jun 2027 02:50:56.059   02 Jun 2027 02:51:34.346            38.287               Magadan1          1196.469
       108   02 Jun 2027 02:54:44.194   02 Jun 2027 02:54:49.520             5.326                Norilsk           166.438
       109   02 Jun 2027 02:57:24.466   02 Jun 2027 02:57:30.927             6.461              Murmansk2           201.906
       110   02 Jun 2027 02:57:49.535   02 Jun 2027 02:59:03.441            73.906              Murmansk1          2309.563
       111   02 Jun 2027 02:59:09.138   02 Jun 2027 02:59:20.359            11.221              Murmansk2           350.656
       112   02 Jun 2027 03:04:11.552   02 Jun 2027 03:04:54.148            42.596                 Moscow          1331.125
       113   02 Jun 2027 03:04:57.271   02 Jun 2027 03:05:35.030            37.759              Murmansk1          1179.969
       114   02 Jun 2027 03:05:35.030   02 Jun 2027 03:06:16.259            41.229              Murmansk2          1288.406
       115   02 Jun 2027 03:06:49.360   02 Jun 2027 03:07:15.789            26.429                 Moscow           825.906
       116   02 Jun 2027 03:07:18.081   02 Jun 2027 03:07:36.341            18.260              Murmansk2           570.625
       117   02 Jun 2027 03:25:00.793   02 Jun 2027 03:26:21.562            80.769               CapeTown          2524.031
       118   02 Jun 2027 04:21:26.751   02 Jun 2027 04:23:43.475           136.724               Magadan1          4272.625
       119   02 Jun 2027 04:28:14.092   02 Jun 2027 04:29:00.083            45.991               Magadan1          1437.219
       120   02 Jun 2027 04:29:00.083   02 Jun 2027 04:29:40.609            40.526               Magadan2          1266.437
       121   02 Jun 2027 04:29:40.850   02 Jun 2027 04:30:02.583            21.733                Norilsk           679.156
       122   02 Jun 2027 06:05:58.162   02 Jun 2027 06:06:29.319            31.157                Anadyr2           973.656
       123   02 Jun 2027 06:06:32.467   02 Jun 2027 06:07:48.734            76.267               Magadan2          2383.344
       124   02 Jun 2027 07:40:57.853   02 Jun 2027 07:41:25.888            28.035               Magadan2           876.094
       125   02 Jun 2027 07:42:06.419   02 Jun 2027 07:44:20.905           134.486               Magadan2          4202.688
       126   02 Jun 2027 07:44:43.675   02 Jun 2027 07:45:26.694            43.019              Murmansk1          1344.344
       127   02 Jun 2027 08:20:09.218   02 Jun 2027 08:21:22.601            73.383            RioGallegos          2293.219
       128   02 Jun 2027 08:55:24.401   02 Jun 2027 08:56:42.461            78.060                Sumatra          2439.375
       129   02 Jun 2027 09:18:18.742   02 Jun 2027 09:18:59.230            40.488                Novosib          1265.250
       130   02 Jun 2027 09:19:18.761   02 Jun 2027 09:19:28.222             9.461                Irkutsk           295.656
       131   02 Jun 2027 09:19:43.212   02 Jun 2027 09:21:17.303            94.091                Irkutsk          2940.344
       132   02 Jun 2027 10:32:34.359   02 Jun 2027 10:32:53.162            18.803                Sumatra           587.594
       133   02 Jun 2027 10:33:15.858   02 Jun 2027 10:35:17.290           121.432                Sumatra          3794.750
       134   02 Jun 2027 10:54:39.081   02 Jun 2027 10:55:02.204            23.123                Norilsk           722.594
       135   02 Jun 2027 10:55:04.528   02 Jun 2027 10:55:07.465             2.937                Novosib            91.781
       136   02 Jun 2027 10:55:16.373   02 Jun 2027 10:55:27.559            11.186                Norilsk           349.562
       137   02 Jun 2027 10:55:30.458   02 Jun 2027 10:55:46.897            16.439                Norilsk           513.719
       138   02 Jun 2027 10:56:07.286   02 Jun 2027 10:56:39.924            32.638                Norilsk          1019.938
       139   02 Jun 2027 10:56:43.164   02 Jun 2027 10:56:43.351             0.187                Novosib             5.844
       140   02 Jun 2027 10:56:50.956   02 Jun 2027 10:57:05.406            14.450                Norilsk           451.563
       141   02 Jun 2027 12:18:06.554   02 Jun 2027 12:19:59.524           112.970                  Delhi          3530.312
       142   02 Jun 2027 12:20:10.518   02 Jun 2027 12:22:15.833           125.315                  Delhi          3916.094
       143   02 Jun 2027 12:27:51.250   02 Jun 2027 12:28:28.702            37.452              Murmansk2          1170.375
       144   02 Jun 2027 12:28:43.275   02 Jun 2027 12:28:56.536            13.261              Murmansk1           414.406
       145   02 Jun 2027 12:29:33.141   02 Jun 2027 12:30:38.574            65.433                Norilsk          2044.781
       146   02 Jun 2027 13:40:01.717   02 Jun 2027 13:42:12.644           130.927               CapeTown          4091.469
       147   02 Jun 2027 13:43:41.254   02 Jun 2027 13:44:12.397            31.143               CapeTown           973.219
       148   02 Jun 2027 13:45:18.243   02 Jun 2027 13:46:25.967            67.724               CapeTown          2116.375
       149   02 Jun 2027 14:00:10.085   02 Jun 2027 14:00:30.951            20.866                 Moscow           652.062
       150   02 Jun 2027 14:03:36.258   02 Jun 2027 14:05:20.747           104.489              Murmansk1          3265.281
       151   02 Jun 2027 14:06:25.024   02 Jun 2027 14:06:32.466             7.442              Murmansk1           232.562
       152   02 Jun 2027 14:10:21.776   02 Jun 2027 14:10:24.779             3.003              Murmansk2            93.844
       153   02 Jun 2027 14:10:48.528   02 Jun 2027 14:11:21.072            32.544              Murmansk2          1017.000
       154   02 Jun 2027 14:18:36.570   02 Jun 2027 14:20:31.483           114.913                Anadyr1          3591.031
       155   02 Jun 2027 14:20:58.350   02 Jun 2027 14:22:16.771            78.421                Anadyr2          2450.656
       156   02 Jun 2027 14:24:04.604   02 Jun 2027 14:24:45.293            40.689                Anadyr2          1271.531
       157   02 Jun 2027 15:41:11.558   02 Jun 2027 15:41:31.283            19.725                 Moscow           616.406
       158   02 Jun 2027 15:42:07.532   02 Jun 2027 15:43:22.511            74.979              Murmansk1          2343.094
       159   02 Jun 2027 15:50:19.889   02 Jun 2027 15:50:54.197            34.308              Murmansk1          1072.125
       160   02 Jun 2027 15:53:46.818   02 Jun 2027 15:55:40.011           113.193                Anadyr2          3537.281
       161   02 Jun 2027 15:56:03.368   02 Jun 2027 15:56:22.097            18.729                Anadyr2           585.281
       162   02 Jun 2027 15:58:44.477   02 Jun 2027 16:01:55.460           190.983               Magadan2          5968.219
       163   02 Jun 2027 17:25:00.683   02 Jun 2027 17:25:28.050            27.367              Murmansk2           855.219
       164   02 Jun 2027 17:29:38.238   02 Jun 2027 17:31:03.526            85.288                Anadyr1          2665.250
       165   02 Jun 2027 17:31:03.526   02 Jun 2027 17:31:13.069             9.543                Anadyr2           298.219
       166   02 Jun 2027 17:32:09.315   02 Jun 2027 17:36:24.990           255.675               Magadan2          7989.844
       167   02 Jun 2027 19:05:32.497   02 Jun 2027 19:07:24.894           112.397                Anadyr1          3512.406
       168   02 Jun 2027 19:07:45.692   02 Jun 2027 19:08:57.285            71.593                Anadyr2          2237.281
       169   02 Jun 2027 19:09:09.887   02 Jun 2027 19:09:50.063            40.176               Magadan1          1255.500
       170   02 Jun 2027 19:10:15.325   02 Jun 2027 19:12:06.075           110.750                Norilsk          3460.938
       171   02 Jun 2027 19:59:58.989   02 Jun 2027 20:03:33.841           214.852            RioGallegos          6714.125
       172   02 Jun 2027 20:43:52.855   02 Jun 2027 20:45:39.877           107.022               Magadan1          3344.437
       173   02 Jun 2027 20:47:07.611   02 Jun 2027 20:47:18.625            11.014               Magadan1           344.187
       174   02 Jun 2027 20:47:33.767   02 Jun 2027 20:47:53.624            19.857                Irkutsk           620.531
       175   02 Jun 2027 20:48:28.549   02 Jun 2027 20:48:45.795            17.246                Norilsk           538.938
       176   02 Jun 2027 20:48:58.248   02 Jun 2027 20:49:34.785            36.537                Irkutsk          1141.781
       177   02 Jun 2027 20:49:56.122   02 Jun 2027 20:50:18.459            22.337                Irkutsk           698.031
       178   02 Jun 2027 20:50:58.383   02 Jun 2027 20:52:13.136            74.753                Novosib          2336.031
       179   02 Jun 2027 20:53:45.349   02 Jun 2027 20:54:58.822            73.473                Novosib          2296.031
       180   02 Jun 2027 21:01:18.021   02 Jun 2027 21:02:21.164            63.143                Sumatra          1973.219
       181   02 Jun 2027 21:03:39.212   02 Jun 2027 21:04:03.190            23.978                Sumatra           749.312
       182   02 Jun 2027 21:05:09.714   02 Jun 2027 21:05:14.706             4.992                Sumatra           156.000
       183   02 Jun 2027 21:11:41.740   02 Jun 2027 21:13:13.827            92.087                Sumatra          2877.719
       184   02 Jun 2027 22:19:20.826   02 Jun 2027 22:19:30.990            10.164                Norilsk           317.625
       185   02 Jun 2027 22:19:58.212   02 Jun 2027 22:20:00.393             2.181               Magadan2            68.156
       186   02 Jun 2027 22:20:57.494   02 Jun 2027 22:21:26.612            29.118               Magadan1           909.937
       187   02 Jun 2027 22:23:12.796   02 Jun 2027 22:24:02.994            50.198                Irkutsk          1568.687
       188   02 Jun 2027 22:24:49.455   02 Jun 2027 22:25:26.775            37.320                Novosib          1166.250
       189   02 Jun 2027 22:25:45.428   02 Jun 2027 22:26:45.813            60.385                Novosib          1887.031
       190   02 Jun 2027 22:28:59.783   02 Jun 2027 22:29:46.432            46.649                Novosib          1457.781
       191   02 Jun 2027 22:31:05.843   02 Jun 2027 22:32:50.561           104.718                  Delhi          3272.438
       192   02 Jun 2027 23:50:08.595   02 Jun 2027 23:51:31.326            82.731                Anadyr2          2585.344
       193   02 Jun 2027 23:55:19.853   02 Jun 2027 23:55:23.351             3.498                Norilsk           109.313
       194   02 Jun 2027 23:55:24.708   02 Jun 2027 23:55:53.650            28.942               Magadan2           904.438
       195   02 Jun 2027 23:56:08.008   02 Jun 2027 23:57:15.181            67.173               Magadan1          2099.156
       196   02 Jun 2027 23:57:41.946   03 Jun 2027 00:00:11.863           149.917              Murmansk1          4684.906
       197   03 Jun 2027 00:01:03.328   03 Jun 2027 00:01:56.741            53.413              Murmansk1          1669.156
       198   03 Jun 2027 00:02:28.971   03 Jun 2027 00:03:34.189            65.218                 Moscow          2038.063
       199   03 Jun 2027 00:05:20.041   03 Jun 2027 00:05:50.068            30.027                 Moscow           938.344
       200   03 Jun 2027 00:06:10.403   03 Jun 2027 00:07:08.375            57.972                 Moscow          1811.625
       201   03 Jun 2027 01:22:48.043   03 Jun 2027 01:22:55.234             7.191                Anadyr2           224.719
       202   03 Jun 2027 01:24:07.680   03 Jun 2027 01:24:20.732            13.052                Anadyr1           407.875
       203   03 Jun 2027 01:24:47.553   03 Jun 2027 01:25:29.264            41.711                Anadyr1          1303.469
       204   03 Jun 2027 01:26:09.567   03 Jun 2027 01:26:19.939            10.372                Anadyr1           324.125
       205   03 Jun 2027 01:27:50.117   03 Jun 2027 01:29:56.085           125.968               Magadan2          3936.500
       206   03 Jun 2027 01:30:41.853   03 Jun 2027 01:31:14.319            32.466               Magadan2          1014.563
       207   03 Jun 2027 01:33:27.823   03 Jun 2027 01:35:07.118            99.295              Murmansk1          3102.969
       208   03 Jun 2027 01:35:32.017   03 Jun 2027 01:35:42.257            10.240                Novosib           320.000
       209   03 Jun 2027 01:36:49.026   03 Jun 2027 01:37:17.698            28.672                 Moscow           896.000
       210   03 Jun 2027 01:40:42.129   03 Jun 2027 01:42:24.084           101.955                 Moscow          3186.094
       211   03 Jun 2027 02:05:59.416   03 Jun 2027 02:07:28.117            88.701               CapeTown          2771.906
       212   03 Jun 2027 02:57:22.610   03 Jun 2027 02:58:44.540            81.930                Anadyr1          2560.313
       213   03 Jun 2027 02:59:07.815   03 Jun 2027 02:59:43.681            35.866                Anadyr2          1120.813
       214   03 Jun 2027 02:59:51.516   03 Jun 2027 03:00:05.728            14.212               Magadan2           444.125
       215   03 Jun 2027 03:04:16.443   03 Jun 2027 03:05:22.851            66.408               Magadan2          2075.250
       216   03 Jun 2027 03:05:22.851   03 Jun 2027 03:05:45.930            23.079               Magadan1           721.219
       217   03 Jun 2027 03:06:52.040   03 Jun 2027 03:07:30.638            38.598                Anadyr2          1206.188
       218   03 Jun 2027 04:33:17.431   03 Jun 2027 04:34:08.807            51.376               Magadan2          1605.500
       219   03 Jun 2027 04:39:31.270   03 Jun 2027 04:40:53.182            81.912                Anadyr2          2559.750
       220   03 Jun 2027 04:40:53.777   03 Jun 2027 04:41:34.160            40.383               Magadan2          1261.969
       221   03 Jun 2027 04:41:53.896   03 Jun 2027 04:42:44.390            50.494               Magadan1          1577.937
       222   03 Jun 2027 04:42:46.047   03 Jun 2027 04:43:03.636            17.589               Magadan2           549.656
       223   03 Jun 2027 04:43:03.636   03 Jun 2027 04:43:22.130            18.494               Magadan1           577.937
       224   03 Jun 2027 04:43:45.581   03 Jun 2027 04:43:59.711            14.130               Magadan1           441.562
       225   03 Jun 2027 04:45:17.625   03 Jun 2027 04:45:34.566            16.941              Murmansk1           529.406
       226   03 Jun 2027 06:16:02.018   03 Jun 2027 06:16:10.954             8.936               Magadan2           279.250
       227   03 Jun 2027 06:16:23.240   03 Jun 2027 06:17:16.197            52.957                Anadyr2          1654.906
       228   03 Jun 2027 06:17:20.035   03 Jun 2027 06:17:53.117            33.082               Magadan2          1033.812
       229   03 Jun 2027 06:17:55.199   03 Jun 2027 06:18:30.986            35.787                Anadyr1          1118.344
       230   03 Jun 2027 06:18:30.986   03 Jun 2027 06:19:11.549            40.563                Anadyr2          1267.594
       231   03 Jun 2027 06:19:18.444   03 Jun 2027 06:19:40.374            21.930               Magadan1           685.313
       232   03 Jun 2027 06:19:43.621   03 Jun 2027 06:20:22.796            39.175                Norilsk          1224.219
       233   03 Jun 2027 06:20:32.043   03 Jun 2027 06:20:59.713            27.670                Anadyr2           864.687
       234   03 Jun 2027 07:50:22.625   03 Jun 2027 07:50:48.633            26.008               Magadan2           812.750
       235   03 Jun 2027 07:54:08.343   03 Jun 2027 07:55:03.032            54.689               Magadan1          1709.031
       236   03 Jun 2027 07:55:09.120   03 Jun 2027 07:55:53.332            44.212                Irkutsk          1381.625
       237   03 Jun 2027 07:56:02.640   03 Jun 2027 07:56:07.115             4.475               Magadan2           139.844
       238   03 Jun 2027 07:56:41.454   03 Jun 2027 07:57:04.184            22.730              Murmansk1           710.313
       239   03 Jun 2027 07:57:22.627   03 Jun 2027 07:57:30.004             7.377                Irkutsk           230.531
       240   03 Jun 2027 08:32:13.276   03 Jun 2027 08:33:19.758            66.482            RioGallegos          2077.563
       241   03 Jun 2027 09:07:13.176   03 Jun 2027 09:08:12.949            59.773                Sumatra          1867.906
       242   03 Jun 2027 09:10:08.843   03 Jun 2027 09:10:26.726            17.883                Sumatra           558.844
       243   03 Jun 2027 09:28:25.017   03 Jun 2027 09:28:33.403             8.386                Irkutsk           262.063
       244   03 Jun 2027 09:29:34.846   03 Jun 2027 09:30:41.630            66.784                Irkutsk          2087.000
       245   03 Jun 2027 09:31:03.294   03 Jun 2027 09:31:36.043            32.749                Novosib          1023.406
       246   03 Jun 2027 09:31:51.591   03 Jun 2027 09:31:58.183             6.592                Novosib           206.000
       247   03 Jun 2027 09:31:59.029   03 Jun 2027 09:32:29.424            30.395                Norilsk           949.844
       248   03 Jun 2027 09:32:46.631   03 Jun 2027 09:33:29.764            43.133                Novosib          1347.906
       249   03 Jun 2027 10:12:54.054   03 Jun 2027 10:13:26.657            32.603            RioGallegos          1018.844
       250   03 Jun 2027 10:45:31.353   03 Jun 2027 10:47:04.719            93.366                Sumatra          2917.687
       251   03 Jun 2027 11:05:15.077   03 Jun 2027 11:05:44.843            29.766                Novosib           930.187
       252   03 Jun 2027 11:06:29.086   03 Jun 2027 11:07:01.225            32.139                Novosib          1004.344
       253   03 Jun 2027 11:07:26.540   03 Jun 2027 11:07:28.714             2.174                Norilsk            67.937
       254   03 Jun 2027 11:08:21.540   03 Jun 2027 11:08:28.152             6.612                Novosib           206.625
       255   03 Jun 2027 11:08:32.514   03 Jun 2027 11:08:51.782            19.268                Novosib           602.125
       256   03 Jun 2027 11:08:55.560   03 Jun 2027 11:09:02.416             6.856                Novosib           214.250
       257   03 Jun 2027 12:31:41.080   03 Jun 2027 12:33:57.436           136.356                  Delhi          4261.125
       258   03 Jun 2027 12:34:18.982   03 Jun 2027 12:34:41.523            22.541                  Delhi           704.406
       259   03 Jun 2027 12:38:29.609   03 Jun 2027 12:38:58.597            28.988                 Moscow           905.875
       260   03 Jun 2027 12:39:07.134   03 Jun 2027 12:39:14.185             7.051              Murmansk1           220.344
       261   03 Jun 2027 12:39:28.865   03 Jun 2027 12:39:52.583            23.718              Murmansk2           741.187
       262   03 Jun 2027 12:39:52.583   03 Jun 2027 12:40:15.986            23.403              Murmansk1           731.344
       263   03 Jun 2027 12:40:32.126   03 Jun 2027 12:40:58.233            26.107              Murmansk1           815.844
       264   03 Jun 2027 12:40:58.233   03 Jun 2027 12:41:13.115            14.882              Murmansk2           465.062
       265   03 Jun 2027 12:41:38.046   03 Jun 2027 12:42:28.524            50.478              Murmansk1          1577.437
       266   03 Jun 2027 12:44:53.752   03 Jun 2027 12:45:26.210            32.458                Norilsk          1014.312
       267   03 Jun 2027 13:51:09.481   03 Jun 2027 13:53:52.666           163.185               CapeTown          5099.531
       268   03 Jun 2027 13:57:23.483   03 Jun 2027 13:58:12.642            49.159               CapeTown          1536.219
       269   03 Jun 2027 14:15:49.673   03 Jun 2027 14:17:01.929            72.256              Murmansk1          2258.000
       270   03 Jun 2027 14:17:08.450   03 Jun 2027 14:18:26.697            78.247              Murmansk2          2445.219
       271   03 Jun 2027 14:20:29.844   03 Jun 2027 14:20:41.812            11.968              Murmansk1           374.000
       272   03 Jun 2027 14:30:25.890   03 Jun 2027 14:32:31.137           125.247                Anadyr2          3913.969
       273   03 Jun 2027 14:32:43.102   03 Jun 2027 14:34:05.446            82.344                Anadyr1          2573.250
       274   03 Jun 2027 15:30:52.162   03 Jun 2027 15:31:08.251            16.089               CapeTown           502.781
       275   03 Jun 2027 15:54:39.411   03 Jun 2027 15:56:13.403            93.992              Murmansk2          2937.250
       276   03 Jun 2027 15:58:30.502   03 Jun 2027 15:59:00.366            29.864              Murmansk1           933.250
       277   03 Jun 2027 16:05:46.705   03 Jun 2027 16:07:47.373           120.668                Anadyr1          3770.875
       278   03 Jun 2027 16:08:13.807   03 Jun 2027 16:08:34.449            20.642                Anadyr2           645.062
       279   03 Jun 2027 16:09:52.628   03 Jun 2027 16:12:51.414           178.786               Magadan2          5587.062
       280   03 Jun 2027 16:14:13.010   03 Jun 2027 16:15:00.311            47.301               Magadan1          1478.156
       281   03 Jun 2027 17:41:39.679   03 Jun 2027 17:44:07.181           147.502                Anadyr1          4609.437
       282   03 Jun 2027 17:44:10.392   03 Jun 2027 17:45:46.416            96.024               Magadan2          3000.750
       283   03 Jun 2027 17:46:06.113   03 Jun 2027 17:47:58.229           112.116               Magadan2          3503.625
       284   03 Jun 2027 19:17:32.890   03 Jun 2027 19:19:26.242           113.352                Anadyr1          3542.250
       285   03 Jun 2027 19:19:35.470   03 Jun 2027 19:21:00.075            84.605                Anadyr2          2643.906
       286   03 Jun 2027 19:21:11.878   03 Jun 2027 19:23:09.332           117.454               Magadan1          3670.438
       287   03 Jun 2027 19:26:19.480   03 Jun 2027 19:27:09.833            50.353                Irkutsk          1573.531
       288   03 Jun 2027 19:28:25.085   03 Jun 2027 19:29:44.205            79.120                Irkutsk          2472.500
       289   03 Jun 2027 20:11:49.292   03 Jun 2027 20:13:01.638            72.346            RioGallegos          2260.812
       290   03 Jun 2027 20:13:16.899   03 Jun 2027 20:13:25.558             8.659            RioGallegos           270.594
       291   03 Jun 2027 20:14:01.357   03 Jun 2027 20:14:56.476            55.119            RioGallegos          1722.469
       292   03 Jun 2027 20:55:39.418   03 Jun 2027 20:55:45.682             6.264                Anadyr1           195.750
       293   03 Jun 2027 20:55:48.709   03 Jun 2027 20:56:01.048            12.339                Norilsk           385.594
       294   03 Jun 2027 20:56:08.494   03 Jun 2027 20:56:11.968             3.474                Norilsk           108.562
       295   03 Jun 2027 20:56:13.692   03 Jun 2027 20:57:31.162            77.470               Magadan1          2420.937
       296   03 Jun 2027 20:58:42.901   03 Jun 2027 20:59:13.804            30.903               Magadan2           965.719
       297   03 Jun 2027 20:59:23.771   03 Jun 2027 20:59:52.779            29.008                Norilsk           906.500
       298   03 Jun 2027 21:00:33.357   03 Jun 2027 21:01:00.415            27.058                Norilsk           845.562
       299   03 Jun 2027 21:01:01.955   03 Jun 2027 21:02:41.159            99.204                Novosib          3100.125
       300   03 Jun 2027 21:03:57.714   03 Jun 2027 21:04:42.944            45.230                Novosib          1413.438
       301   03 Jun 2027 21:05:52.300   03 Jun 2027 21:07:38.246           105.946                Novosib          3310.812
       302   03 Jun 2027 21:21:34.795   03 Jun 2027 21:22:08.484            33.689                Sumatra          1052.781
       303   03 Jun 2027 22:31:22.825   03 Jun 2027 22:32:21.303            58.478                Norilsk          1827.437
       304   03 Jun 2027 22:33:01.630   03 Jun 2027 22:33:06.364             4.734                Norilsk           147.937
       305   03 Jun 2027 22:33:50.249   03 Jun 2027 22:33:58.781             8.532               Magadan1           266.625
       306   03 Jun 2027 22:34:04.892   03 Jun 2027 22:34:28.424            23.532                Norilsk           735.375
       307   03 Jun 2027 22:34:58.172   03 Jun 2027 22:35:16.338            18.166               Magadan1           567.687
       308   03 Jun 2027 22:35:17.865   03 Jun 2027 22:36:58.377           100.512                Novosib          3141.000
       309   03 Jun 2027 22:37:13.125   03 Jun 2027 22:37:17.690             4.565                Novosib           142.656
       310   03 Jun 2027 22:37:39.719   03 Jun 2027 22:38:03.543            23.824                Novosib           744.500
       311   03 Jun 2027 22:40:52.808   03 Jun 2027 22:41:06.609            13.801                Novosib           431.281
       312   03 Jun 2027 22:42:52.141   03 Jun 2027 22:45:14.898           142.757                  Delhi          4461.156
       313   03 Jun 2027 22:46:31.675   03 Jun 2027 22:46:37.251             5.576                  Delhi           174.250
       314   03 Jun 2027 22:51:25.166   03 Jun 2027 22:52:18.979            53.813                  Delhi          1681.656
       315   04 Jun 2027 00:03:30.932   04 Jun 2027 00:04:08.956            38.024                Anadyr2          1188.250
       316   04 Jun 2027 00:07:11.551   04 Jun 2027 00:08:04.856            53.305               Magadan2          1665.781
       317   04 Jun 2027 00:08:05.083   04 Jun 2027 00:08:27.287            22.204               Magadan1           693.875
       318   04 Jun 2027 00:08:48.106   04 Jun 2027 00:09:00.338            12.232               Magadan1           382.250
       319   04 Jun 2027 00:09:40.071   04 Jun 2027 00:12:13.273           153.202              Murmansk2          4787.562
       320   04 Jun 2027 00:14:04.068   04 Jun 2027 00:15:32.113            88.045                 Moscow          2751.406
       321   04 Jun 2027 00:15:53.822   04 Jun 2027 00:16:31.875            38.053              Murmansk1          1189.156
       322   04 Jun 2027 00:18:59.907   04 Jun 2027 00:19:44.745            44.838                 Moscow          1401.188
       323   04 Jun 2027 00:43:14.365   04 Jun 2027 00:44:40.201            85.836               CapeTown          2682.375
       324   04 Jun 2027 00:44:53.439   04 Jun 2027 00:45:02.272             8.833               CapeTown           276.031
       325   04 Jun 2027 00:45:11.254   04 Jun 2027 00:45:38.582            27.328               CapeTown           854.000
       326   04 Jun 2027 01:36:51.999   04 Jun 2027 01:37:13.771            21.772                Anadyr2           680.375
       327   04 Jun 2027 01:37:54.995   04 Jun 2027 01:37:59.370             4.375                Anadyr1           136.719
       328   04 Jun 2027 01:39:18.058   04 Jun 2027 01:41:22.775           124.717               Magadan1          3897.406
       329   04 Jun 2027 01:43:05.660   04 Jun 2027 01:43:22.202            16.542                Norilsk           516.938
       330   04 Jun 2027 01:45:29.370   04 Jun 2027 01:45:53.645            24.275              Murmansk2           758.594
       331   04 Jun 2027 01:45:58.773   04 Jun 2027 01:47:20.373            81.600              Murmansk1          2550.000
       332   04 Jun 2027 01:47:38.434   04 Jun 2027 01:47:46.442             8.008                Novosib           250.250
       333   04 Jun 2027 01:48:02.844   04 Jun 2027 01:48:19.808            16.964              Murmansk2           530.125
       334   04 Jun 2027 01:48:47.353   04 Jun 2027 01:50:28.128           100.775                 Moscow          3149.219
       335   04 Jun 2027 02:14:50.483   04 Jun 2027 02:15:42.759            52.276               CapeTown          1633.625
       336   04 Jun 2027 03:09:55.922   04 Jun 2027 03:10:30.610            34.688                Anadyr1          1084.000
       337   04 Jun 2027 03:12:10.748   04 Jun 2027 03:12:40.722            29.974                Anadyr1           936.687
       338   04 Jun 2027 03:15:58.504   04 Jun 2027 03:17:49.869           111.365               Magadan1          3480.156
       339   04 Jun 2027 03:18:08.475   04 Jun 2027 03:18:19.770            11.295               Magadan1           352.969
       340   04 Jun 2027 03:18:47.903   04 Jun 2027 03:18:57.243             9.340               Magadan2           291.875
       341   04 Jun 2027 03:18:57.243   04 Jun 2027 03:19:17.010            19.767               Magadan1           617.719
       342   04 Jun 2027 03:20:37.637   04 Jun 2027 03:20:53.726            16.089               Magadan1           502.781
       343   04 Jun 2027 04:53:56.468   04 Jun 2027 04:57:53.169           236.701               Magadan1          7396.906
       344   04 Jun 2027 06:25:41.750   04 Jun 2027 06:25:51.046             9.296                Anadyr2           290.500
       345   04 Jun 2027 06:25:54.013   04 Jun 2027 06:26:04.824            10.811               Magadan1           337.844
       346   04 Jun 2027 06:26:10.858   04 Jun 2027 06:26:17.952             7.094               Magadan2           221.688
       347   04 Jun 2027 06:26:46.659   04 Jun 2027 06:27:10.604            23.945                Anadyr2           748.281
       348   04 Jun 2027 06:27:19.147   04 Jun 2027 06:28:23.834            64.687                Anadyr1          2021.469
       349   04 Jun 2027 06:28:30.612   04 Jun 2027 06:28:34.528             3.916               Magadan1           122.375
       350   04 Jun 2027 06:28:34.528   04 Jun 2027 06:29:53.520            78.992               Magadan2          2468.500
       351   04 Jun 2027 06:30:07.573   04 Jun 2027 06:31:07.535            59.962               Magadan1          1873.812
       352   04 Jun 2027 06:31:11.721   04 Jun 2027 06:31:17.113             5.392               Magadan1           168.500
       353   04 Jun 2027 06:31:22.767   04 Jun 2027 06:32:05.290            42.523                Anadyr1          1328.844
       354   04 Jun 2027 06:33:02.717   04 Jun 2027 06:33:21.725            19.008                Anadyr2           594.000
       355   04 Jun 2027 08:05:34.120   04 Jun 2027 08:06:09.953            35.833               Magadan2          1119.781
       356   04 Jun 2027 08:07:04.637   04 Jun 2027 08:08:02.740            58.103                Irkutsk          1815.719
       357   04 Jun 2027 08:08:09.835   04 Jun 2027 08:08:25.114            15.279               Magadan1           477.469
       358   04 Jun 2027 08:09:01.464   04 Jun 2027 08:09:26.855            25.391              Murmansk2           793.469
       359   04 Jun 2027 08:09:57.029   04 Jun 2027 08:10:26.860            29.831              Murmansk1           932.219
       360   04 Jun 2027 08:45:25.394   04 Jun 2027 08:46:08.890            43.496            RioGallegos          1359.250
       361   04 Jun 2027 08:48:49.991   04 Jun 2027 08:48:55.589             5.598            RioGallegos           174.937
       362   04 Jun 2027 09:19:07.845   04 Jun 2027 09:20:29.040            81.195                Sumatra          2537.344
       363   04 Jun 2027 09:41:34.084   04 Jun 2027 09:42:15.805            41.721                Irkutsk          1303.781
       364   04 Jun 2027 09:42:49.024   04 Jun 2027 09:42:58.372             9.348                Irkutsk           292.125
       365   04 Jun 2027 09:43:01.762   04 Jun 2027 09:43:06.979             5.217                Irkutsk           163.031
       366   04 Jun 2027 09:43:34.829   04 Jun 2027 09:44:04.822            29.993                Irkutsk           937.281
       367   04 Jun 2027 09:44:13.927   04 Jun 2027 09:44:58.614            44.687                Irkutsk          1396.469
       368   04 Jun 2027 09:45:28.841   04 Jun 2027 09:46:18.367            49.526                Novosib          1547.687
       369   04 Jun 2027 10:24:54.537   04 Jun 2027 10:25:32.394            37.857            RioGallegos          1183.031
       370   04 Jun 2027 10:59:18.159   04 Jun 2027 11:00:20.425            62.266                Sumatra          1945.813
       371   04 Jun 2027 11:06:28.453   04 Jun 2027 11:07:57.653            89.200                  Delhi          2787.500
       372   04 Jun 2027 11:17:54.168   04 Jun 2027 11:18:59.791            65.623                Novosib          2050.719
       373   04 Jun 2027 11:20:09.844   04 Jun 2027 11:20:11.159             1.315                Novosib            41.094
       374   04 Jun 2027 11:20:16.838   04 Jun 2027 11:20:43.761            26.923                Norilsk           841.344
       375   04 Jun 2027 11:20:53.393   04 Jun 2027 11:21:04.497            11.104                Norilsk           347.000
       376   04 Jun 2027 11:21:20.978   04 Jun 2027 11:21:26.872             5.894                Norilsk           184.188
       377   04 Jun 2027 12:47:44.369   04 Jun 2027 12:48:39.895            55.526                 Moscow          1735.188
       378   04 Jun 2027 12:49:25.095   04 Jun 2027 12:50:14.695            49.600                 Moscow          1550.000
       379   04 Jun 2027 12:51:00.852   04 Jun 2027 12:51:28.072            27.220                 Moscow           850.625
       380   04 Jun 2027 12:52:36.013   04 Jun 2027 12:52:59.935            23.922              Murmansk1           747.562
       381   04 Jun 2027 12:53:32.988   04 Jun 2027 12:54:30.005            57.017              Murmansk1          1781.781
       382   04 Jun 2027 12:54:48.919   04 Jun 2027 12:56:44.306           115.387                Norilsk          3605.844
       383   04 Jun 2027 12:58:53.596   04 Jun 2027 12:59:15.182            21.586                Norilsk           674.562
       384   04 Jun 2027 14:02:34.758   04 Jun 2027 14:04:03.709            88.951               CapeTown          2779.719
       385   04 Jun 2027 14:04:17.162   04 Jun 2027 14:05:15.612            58.450               CapeTown          1826.562
       386   04 Jun 2027 14:07:43.887   04 Jun 2027 14:08:31.705            47.818               CapeTown          1494.312
       387   04 Jun 2027 14:09:19.490   04 Jun 2027 14:09:30.860            11.370               CapeTown           355.312
       388   04 Jun 2027 14:25:08.849   04 Jun 2027 14:25:38.061            29.212                 Moscow           912.875
       389   04 Jun 2027 14:28:05.051   04 Jun 2027 14:29:59.059           114.008              Murmansk2          3562.750
       390   04 Jun 2027 14:30:34.849   04 Jun 2027 14:30:58.623            23.774              Murmansk1           742.938
       391   04 Jun 2027 14:42:18.203   04 Jun 2027 14:44:31.207           133.004                Anadyr2          4156.375
       392   04 Jun 2027 14:47:08.744   04 Jun 2027 14:47:52.188            43.444                Anadyr1          1357.625
       393   04 Jun 2027 15:37:10.322   04 Jun 2027 15:39:04.471           114.149               CapeTown          3567.156
       394   04 Jun 2027 16:07:14.349   04 Jun 2027 16:07:50.647            36.298              Murmansk2          1134.313
       395   04 Jun 2027 16:08:14.293   04 Jun 2027 16:08:36.451            22.158              Murmansk1           692.438
       396   04 Jun 2027 16:17:46.988   04 Jun 2027 16:20:01.230           134.242                Anadyr2          4195.062
       397   04 Jun 2027 16:21:24.300   04 Jun 2027 16:25:06.879           222.579               Magadan1          6955.594
       398   04 Jun 2027 16:26:15.734   04 Jun 2027 16:27:00.112            44.378               Magadan2          1386.813
       399   04 Jun 2027 17:53:41.116   04 Jun 2027 17:55:31.758           110.642                Anadyr2          3457.563
       400   04 Jun 2027 17:55:48.910   04 Jun 2027 17:56:13.058            24.148                Anadyr2           754.625
       401   04 Jun 2027 17:56:17.285   04 Jun 2027 17:58:17.081           119.796               Magadan2          3743.625
       402   04 Jun 2027 17:58:33.032   04 Jun 2027 17:58:43.128            10.096               Magadan1           315.500
       403   04 Jun 2027 18:03:21.324   04 Jun 2027 18:03:31.604            10.280               Magadan2           321.250
       404   04 Jun 2027 18:03:40.685   04 Jun 2027 18:04:21.400            40.715               Magadan2          1272.344
       405   04 Jun 2027 19:29:32.960   04 Jun 2027 19:33:26.516           233.556                Anadyr2          7298.625
       406   04 Jun 2027 19:33:37.105   04 Jun 2027 19:34:59.186            82.081               Magadan1          2565.031
       407   04 Jun 2027 19:35:10.198   04 Jun 2027 19:35:36.589            26.391                Norilsk           824.719
       408   04 Jun 2027 19:36:58.262   04 Jun 2027 19:37:24.645            26.383               Magadan2           824.469
       409   04 Jun 2027 19:37:25.936   04 Jun 2027 19:38:40.666            74.730                Irkutsk          2335.312
       410   04 Jun 2027 19:39:58.701   04 Jun 2027 19:40:51.581            52.880                Irkutsk          1652.500
       411   04 Jun 2027 19:41:18.694   04 Jun 2027 19:41:48.762            30.068                Irkutsk           939.625
       412   04 Jun 2027 19:42:20.146   04 Jun 2027 19:42:56.423            36.277                Irkutsk          1133.656
       413   04 Jun 2027 19:53:58.496   04 Jun 2027 19:57:35.777           217.281                Sumatra          6790.031
       414   04 Jun 2027 21:08:34.076   04 Jun 2027 21:08:47.626            13.550                Norilsk           423.438
       415   04 Jun 2027 21:09:17.204   04 Jun 2027 21:09:20.262             3.058                Norilsk            95.562
       416   04 Jun 2027 21:11:25.551   04 Jun 2027 21:12:43.381            77.830                Irkutsk          2432.187
       417   04 Jun 2027 21:12:54.573   04 Jun 2027 21:14:01.033            66.460                Novosib          2076.875
       418   04 Jun 2027 21:18:00.107   04 Jun 2027 21:19:00.800            60.693                Novosib          1896.656
       419   04 Jun 2027 21:25:07.293   04 Jun 2027 21:25:53.860            46.567                Sumatra          1455.219
       420   04 Jun 2027 21:33:49.571   04 Jun 2027 21:34:30.649            41.078                Sumatra          1283.687
       421   04 Jun 2027 22:39:40.304   04 Jun 2027 22:39:58.524            18.220                Anadyr1           569.375
       422   04 Jun 2027 22:40:38.417   04 Jun 2027 22:41:19.525            41.108                Anadyr1          1284.625
       423   04 Jun 2027 22:43:24.810   04 Jun 2027 22:43:30.897             6.087                Norilsk           190.219
       424   04 Jun 2027 22:44:00.933   04 Jun 2027 22:45:08.702            67.769               Magadan1          2117.781
       425   04 Jun 2027 22:47:10.370   04 Jun 2027 22:49:46.643           156.273              Murmansk1          4883.531
       426   04 Jun 2027 22:54:42.967   04 Jun 2027 22:56:38.663           115.696                  Delhi          3615.500
       427   04 Jun 2027 23:00:45.833   04 Jun 2027 23:01:44.220            58.387                  Delhi          1824.594
       428   05 Jun 2027 00:12:44.599   05 Jun 2027 00:12:50.718             6.119                Anadyr2           191.219
       429   05 Jun 2027 00:14:02.041   05 Jun 2027 00:14:36.674            34.633                Anadyr2          1082.281
       430   05 Jun 2027 00:15:14.703   05 Jun 2027 00:15:24.654             9.951                Anadyr1           310.969
       431   05 Jun 2027 00:15:32.167   05 Jun 2027 00:15:47.921            15.754                Anadyr2           492.313
       432   05 Jun 2027 00:18:46.619   05 Jun 2027 00:19:01.977            15.358                Anadyr2           479.938
       433   05 Jun 2027 00:19:14.039   05 Jun 2027 00:21:18.827           124.788               Magadan1          3899.625
       434   05 Jun 2027 00:21:39.070   05 Jun 2027 00:24:57.608           198.538              Murmansk1          6204.312
       435   05 Jun 2027 00:25:21.794   05 Jun 2027 00:26:04.186            42.392              Murmansk2          1324.750
       436   05 Jun 2027 00:26:50.121   05 Jun 2027 00:26:56.650             6.529              Murmansk2           204.031
       437   05 Jun 2027 00:27:28.386   05 Jun 2027 00:27:30.977             2.591                 Moscow            80.969
       438   05 Jun 2027 00:28:55.817   05 Jun 2027 00:29:14.060            18.243                 Moscow           570.094
       439   05 Jun 2027 00:30:29.830   05 Jun 2027 00:30:36.213             6.383                 Moscow           199.469
       440   05 Jun 2027 00:31:16.197   05 Jun 2027 00:31:37.814            21.617                 Moscow           675.531
       441   05 Jun 2027 00:53:17.282   05 Jun 2027 00:54:44.379            87.097               CapeTown          2721.781
       442   05 Jun 2027 00:56:32.360   05 Jun 2027 00:57:26.272            53.912               CapeTown          1684.750
       443   05 Jun 2027 01:50:46.368   05 Jun 2027 01:52:11.404            85.036               Magadan2          2657.375
       444   05 Jun 2027 01:55:16.794   05 Jun 2027 01:55:27.421            10.627                Norilsk           332.094
       445   05 Jun 2027 01:57:30.746   05 Jun 2027 01:57:31.324             0.578                Norilsk            18.062
       446   05 Jun 2027 01:57:50.218   05 Jun 2027 02:00:12.681           142.463              Murmansk2          4451.969
       447   05 Jun 2027 02:00:46.585   05 Jun 2027 02:02:24.346            97.761                 Moscow          3055.031
       448   05 Jun 2027 02:24:43.508   05 Jun 2027 02:25:39.859            56.351               CapeTown          1760.969
       449   05 Jun 2027 03:23:19.658   05 Jun 2027 03:23:29.251             9.593                Anadyr1           299.781
       450   05 Jun 2027 03:24:42.169   05 Jun 2027 03:24:55.470            13.301                Anadyr2           415.656
       451   05 Jun 2027 03:27:46.349   05 Jun 2027 03:31:20.953           214.604               Magadan1          6706.375
       452   05 Jun 2027 03:31:20.953   05 Jun 2027 03:33:50.810           149.857               Magadan2          4683.031
       453   05 Jun 2027 05:04:49.633   05 Jun 2027 05:05:18.329            28.696               Magadan1           896.750
       454   05 Jun 2027 05:05:18.329   05 Jun 2027 05:06:37.665            79.336               Magadan2          2479.250
       455   05 Jun 2027 05:06:56.483   05 Jun 2027 05:09:51.050           174.567               Magadan1          5455.219
       456   05 Jun 2027 06:38:05.896   05 Jun 2027 06:38:36.255            30.359               Magadan1           948.719
       457   05 Jun 2027 06:38:36.255   05 Jun 2027 06:38:58.059            21.804               Magadan2           681.375
       458   05 Jun 2027 06:39:41.516   05 Jun 2027 06:39:55.284            13.768               Magadan1           430.250
       459   05 Jun 2027 06:40:04.873   05 Jun 2027 06:40:08.267             3.394               Magadan2           106.063
       460   05 Jun 2027 06:40:08.267   05 Jun 2027 06:40:34.692            26.425               Magadan1           825.781
       461   05 Jun 2027 06:40:37.382   05 Jun 2027 06:41:53.413            76.031               Magadan1          2375.969
       462   05 Jun 2027 06:42:10.590   05 Jun 2027 06:42:55.657            45.067               Magadan1          1408.344
       463   05 Jun 2027 06:42:58.800   05 Jun 2027 06:43:30.329            31.529               Magadan1           985.281
       464   05 Jun 2027 06:43:36.106   05 Jun 2027 06:43:54.540            18.434               Magadan2           576.063
       465   05 Jun 2027 06:43:54.540   05 Jun 2027 06:44:05.972            11.432               Magadan1           357.250
       466   05 Jun 2027 06:44:13.525   05 Jun 2027 06:44:29.143            15.618               Magadan1           488.063
       467   05 Jun 2027 06:44:29.143   05 Jun 2027 06:45:40.753            71.610               Magadan2          2237.812
       468   05 Jun 2027 08:14:55.368   05 Jun 2027 08:15:58.471            63.103               Magadan2          1971.969
       469   05 Jun 2027 08:17:00.649   05 Jun 2027 08:17:57.480            56.831               Magadan2          1775.969
       470   05 Jun 2027 08:18:16.341   05 Jun 2027 08:18:57.400            41.059               Magadan2          1283.094
       471   05 Jun 2027 08:19:34.606   05 Jun 2027 08:19:58.256            23.650               Magadan1           739.062
       472   05 Jun 2027 08:20:01.540   05 Jun 2027 08:20:38.644            37.104                Irkutsk          1159.500
       473   05 Jun 2027 08:21:06.007   05 Jun 2027 08:21:28.223            22.216                Irkutsk           694.250
       474   05 Jun 2027 08:22:43.457   05 Jun 2027 08:22:57.059            13.602              Murmansk2           425.063
       475   05 Jun 2027 08:56:32.050   05 Jun 2027 08:57:15.984            43.934            RioGallegos          1372.937
       476   05 Jun 2027 08:57:47.500   05 Jun 2027 08:58:05.554            18.054            RioGallegos           564.187
       477   05 Jun 2027 09:31:08.137   05 Jun 2027 09:32:04.179            56.042                Sumatra          1751.313
       478   05 Jun 2027 09:40:20.335   05 Jun 2027 09:40:23.881             3.546                Sumatra           110.813
       479   05 Jun 2027 09:51:03.397   05 Jun 2027 09:51:28.972            25.575                  Delhi           799.219
       480   05 Jun 2027 09:52:18.991   05 Jun 2027 09:53:27.146            68.155                Irkutsk          2129.844
       481   05 Jun 2027 09:54:53.562   05 Jun 2027 09:55:12.047            18.485                Irkutsk           577.656
       482   05 Jun 2027 09:55:20.984   05 Jun 2027 09:55:36.329            15.345                Norilsk           479.531
