uniorb/output/strategy_4/Drop/Drop_KinoSat_111608.txt

KinoSat_111608
-------------------------
    Access    *     Start Time (UTCG)     *     Stop Time (UTCG)  *   Duration (s)        *       Station  *  Data (Mbytes)
         1   01 Jun 2027 04:25:31.957   01 Jun 2027 04:27:10.351            98.394                Novosib          3074.813
         2   01 Jun 2027 04:27:14.744   01 Jun 2027 04:27:40.358            25.614              Murmansk2           800.437
         3   01 Jun 2027 04:27:56.639   01 Jun 2027 04:31:39.969           223.330                 Moscow          6979.062
         4   01 Jun 2027 04:48:03.849   01 Jun 2027 04:48:32.264            28.415               CapeTown           887.969
         5   01 Jun 2027 05:49:13.715   01 Jun 2027 05:49:56.971            43.256                Anadyr2          1351.750
         6   01 Jun 2027 05:50:23.507   01 Jun 2027 05:51:27.106            63.599               Magadan2          1987.469
         7   01 Jun 2027 05:51:57.962   01 Jun 2027 05:53:58.125           120.163               Magadan2          3755.094
         8   01 Jun 2027 05:54:00.169   01 Jun 2027 05:54:27.596            27.427                Anadyr1           857.094
         9   01 Jun 2027 06:00:38.983   01 Jun 2027 06:02:41.693           122.710              Murmansk1          3834.688
        10   01 Jun 2027 06:03:40.053   01 Jun 2027 06:04:35.547            55.494                 Moscow          1734.187
        11   01 Jun 2027 07:24:37.802   01 Jun 2027 07:25:14.175            36.373                Anadyr1          1136.656
        12   01 Jun 2027 07:25:31.864   01 Jun 2027 07:29:30.413           238.549               Magadan2          7454.656
        13   01 Jun 2027 07:29:30.413   01 Jun 2027 07:29:32.872             2.459               Magadan1            76.844
        14   01 Jun 2027 08:59:17.875   01 Jun 2027 09:02:40.535           202.660                Anadyr2          6333.125
        15   01 Jun 2027 09:02:40.535   01 Jun 2027 09:05:34.825           174.290                Anadyr1          5446.563
        16   01 Jun 2027 10:36:07.849   01 Jun 2027 10:39:55.596           227.747               Magadan1          7117.094
        17   01 Jun 2027 10:39:55.596   01 Jun 2027 10:40:15.979            20.383               Magadan2           636.969
        18   01 Jun 2027 10:41:30.812   01 Jun 2027 10:41:52.689            21.877                Novosib           683.656
        19   01 Jun 2027 12:56:16.344   01 Jun 2027 12:57:14.691            58.347            RioGallegos          1823.344
        20   01 Jun 2027 12:59:25.179   01 Jun 2027 13:00:42.490            77.311            RioGallegos          2415.969
        21   01 Jun 2027 13:31:43.135   01 Jun 2027 13:34:12.232           149.097                Sumatra          4659.281
        22   01 Jun 2027 13:45:22.630   01 Jun 2027 13:45:37.407            14.777                Novosib           461.781
        23   01 Jun 2027 13:46:15.040   01 Jun 2027 13:47:36.752            81.712                Novosib          2553.500
        24   01 Jun 2027 13:47:40.709   01 Jun 2027 13:48:20.857            40.148                Irkutsk          1254.625
        25   01 Jun 2027 15:19:55.555   01 Jun 2027 15:21:03.735            68.180                 Moscow          2130.625
        26   01 Jun 2027 15:22:32.236   01 Jun 2027 15:23:12.101            39.865                 Moscow          1245.781
        27   01 Jun 2027 15:24:36.494   01 Jun 2027 15:24:44.219             7.725              Murmansk1           241.406
        28   01 Jun 2027 15:24:53.364   01 Jun 2027 15:24:57.014             3.650              Murmansk2           114.063
        29   01 Jun 2027 15:25:29.408   01 Jun 2027 15:25:37.155             7.747              Murmansk1           242.094
        30   01 Jun 2027 15:26:41.397   01 Jun 2027 15:27:11.147            29.750              Murmansk1           929.688
        31   01 Jun 2027 15:28:13.198   01 Jun 2027 15:28:53.287            40.089                Norilsk          1252.781
        32   01 Jun 2027 15:30:36.577   01 Jun 2027 15:32:30.942           114.365                Norilsk          3573.906
        33   01 Jun 2027 16:34:42.903   01 Jun 2027 16:35:03.746            20.843               CapeTown           651.344
        34   01 Jun 2027 16:41:33.345   01 Jun 2027 16:41:53.930            20.585               CapeTown           643.281
        35   01 Jun 2027 16:57:03.574   01 Jun 2027 16:58:02.657            59.083                 Moscow          1846.344
        36   01 Jun 2027 16:58:49.755   01 Jun 2027 17:01:07.335           137.580                 Moscow          4299.375
        37   01 Jun 2027 17:03:36.884   01 Jun 2027 17:03:38.474             1.590                 Moscow            49.688
        38   01 Jun 2027 17:04:15.238   01 Jun 2027 17:04:40.420            25.182              Murmansk1           786.938
        39   01 Jun 2027 17:06:24.997   01 Jun 2027 17:07:07.729            42.732              Murmansk1          1335.375
        40   01 Jun 2027 17:14:27.083   01 Jun 2027 17:14:55.912            28.829                Anadyr2           900.906
        41   01 Jun 2027 17:15:20.686   01 Jun 2027 17:16:09.667            48.981                Anadyr1          1530.656
        42   01 Jun 2027 17:22:29.034   01 Jun 2027 17:22:35.634             6.600                Anadyr2           206.250
        43   01 Jun 2027 18:09:22.059   01 Jun 2027 18:11:32.019           129.960               CapeTown          4061.250
        44   01 Jun 2027 18:39:26.227   01 Jun 2027 18:40:09.508            43.281              Murmansk2          1352.531
        45   01 Jun 2027 18:40:37.428   01 Jun 2027 18:44:43.747           246.319              Murmansk1          7697.469
        46   01 Jun 2027 18:45:19.910   01 Jun 2027 18:48:00.907           160.997              Murmansk2          5031.156
        47   01 Jun 2027 19:48:30.825   01 Jun 2027 19:49:15.536            44.711               CapeTown          1397.219
        48   01 Jun 2027 19:51:30.163   01 Jun 2027 19:52:17.929            47.766               CapeTown          1492.688
        49   01 Jun 2027 20:25:52.658   01 Jun 2027 20:27:30.070            97.412                Anadyr1          3044.125
        50   01 Jun 2027 20:27:49.063   01 Jun 2027 20:29:11.203            82.140                Anadyr2          2566.875
        51   01 Jun 2027 20:29:17.794   01 Jun 2027 20:29:52.656            34.862               Magadan2          1089.437
        52   01 Jun 2027 20:30:25.042   01 Jun 2027 20:30:35.045            10.003               Magadan1           312.594
        53   01 Jun 2027 20:30:56.419   01 Jun 2027 20:31:16.983            20.564               Magadan2           642.625
        54   01 Jun 2027 20:33:06.923   01 Jun 2027 20:33:22.131            15.208               Magadan2           475.250
        55   01 Jun 2027 20:34:58.720   01 Jun 2027 20:35:02.172             3.452               Magadan2           107.875
        56   01 Jun 2027 20:37:44.518   01 Jun 2027 20:37:51.103             6.585               Magadan1           205.781
        57   01 Jun 2027 20:38:56.173   01 Jun 2027 20:39:03.886             7.713               Magadan1           241.031
        58   01 Jun 2027 20:40:17.470   01 Jun 2027 20:40:32.897            15.427               Magadan1           482.094
        59   01 Jun 2027 22:01:45.134   01 Jun 2027 22:05:38.813           233.679                Anadyr1          7302.469
        60   01 Jun 2027 22:05:47.299   01 Jun 2027 22:07:18.847            91.548                Norilsk          2860.875
        61   01 Jun 2027 22:07:40.226   01 Jun 2027 22:09:22.057           101.831               Magadan1          3182.219
        62   01 Jun 2027 22:10:19.140   01 Jun 2027 22:10:22.588             3.448               Magadan2           107.750
        63   01 Jun 2027 22:10:27.802   01 Jun 2027 22:10:37.313             9.511               Magadan2           297.219
        64   01 Jun 2027 22:11:10.203   01 Jun 2027 22:12:02.572            52.369                Irkutsk          1636.531
        65   01 Jun 2027 22:14:25.768   01 Jun 2027 22:15:05.802            40.034                Irkutsk          1251.063
        66   01 Jun 2027 22:26:00.130   01 Jun 2027 22:26:53.718            53.588                Sumatra          1674.625
        67   01 Jun 2027 22:28:16.527   01 Jun 2027 22:29:26.062            69.535                Sumatra          2172.969
        68   01 Jun 2027 23:37:11.558   01 Jun 2027 23:37:44.360            32.802                Anadyr1          1025.062
        69   01 Jun 2027 23:37:51.812   01 Jun 2027 23:39:32.679           100.867                Anadyr2          3152.094
        70   01 Jun 2027 23:40:00.265   01 Jun 2027 23:40:47.931            47.666                Norilsk          1489.563
        71   01 Jun 2027 23:41:12.330   01 Jun 2027 23:42:14.334            62.004               Magadan1          1937.625
        72   01 Jun 2027 23:42:33.673   01 Jun 2027 23:42:40.914             7.241               Magadan1           226.281
        73   01 Jun 2027 23:43:09.921   01 Jun 2027 23:43:51.086            41.165               Magadan1          1286.406
        74   01 Jun 2027 23:44:37.153   01 Jun 2027 23:45:45.233            68.080                Novosib          2127.500
        75   01 Jun 2027 23:47:49.969   01 Jun 2027 23:47:53.613             3.644                Novosib           113.875
        76   01 Jun 2027 23:48:22.577   01 Jun 2027 23:49:54.907            92.330                Novosib          2885.312
        77   01 Jun 2027 23:57:35.601   01 Jun 2027 23:57:56.049            20.448                Sumatra           639.000
        78   02 Jun 2027 00:01:43.229   02 Jun 2027 00:03:16.116            92.887                Sumatra          2902.719
        79   02 Jun 2027 00:37:55.038   02 Jun 2027 00:38:54.019            58.981            RioGallegos          1843.156
        80   02 Jun 2027 01:11:58.737   02 Jun 2027 01:12:47.884            49.147                Anadyr2          1535.844
        81   02 Jun 2027 01:13:21.917   02 Jun 2027 01:13:45.792            23.875                Anadyr2           746.094
        82   02 Jun 2027 01:13:55.310   02 Jun 2027 01:14:21.160            25.850                Anadyr2           807.812
        83   02 Jun 2027 01:15:35.861   02 Jun 2027 01:17:17.392           101.531                Norilsk          3172.844
        84   02 Jun 2027 01:18:25.114   02 Jun 2027 01:18:39.665            14.551               Magadan2           454.719
        85   02 Jun 2027 01:19:10.214   02 Jun 2027 01:19:56.210            45.996              Murmansk1          1437.375
        86   02 Jun 2027 01:20:01.715   02 Jun 2027 01:21:05.797            64.082                Novosib          2002.563
        87   02 Jun 2027 01:23:12.696   02 Jun 2027 01:23:23.896            11.200                Novosib           350.000
        88   02 Jun 2027 01:26:26.887   02 Jun 2027 01:26:47.180            20.293                Novosib           634.156
        89   02 Jun 2027 01:26:53.462   02 Jun 2027 01:28:25.997            92.535                  Delhi          2891.719
        90   02 Jun 2027 02:08:17.180   02 Jun 2027 02:10:33.335           136.155            RioGallegos          4254.844
        91   02 Jun 2027 02:11:38.870   02 Jun 2027 02:12:38.840            59.970            RioGallegos          1874.063
        92   02 Jun 2027 02:45:10.503   02 Jun 2027 02:45:56.798            46.295                Anadyr1          1446.719
        93   02 Jun 2027 02:51:09.913   02 Jun 2027 02:51:34.346            24.433               Magadan2           763.531
        94   02 Jun 2027 02:51:34.346   02 Jun 2027 02:52:03.854            29.508               Magadan1           922.125
        95   02 Jun 2027 02:52:19.444   02 Jun 2027 02:52:57.493            38.049                Norilsk          1189.031
        96   02 Jun 2027 02:53:48.747   02 Jun 2027 02:55:10.108            81.361              Murmansk1          2542.531
        97   02 Jun 2027 02:55:26.368   02 Jun 2027 02:56:08.605            42.237                Novosib          1319.906
        98   02 Jun 2027 02:56:29.393   02 Jun 2027 02:57:59.098            89.705                Irkutsk          2803.281
        99   02 Jun 2027 03:00:37.789   02 Jun 2027 03:01:10.606            32.817                 Moscow          1025.531
       100   02 Jun 2027 03:01:11.758   02 Jun 2027 03:01:24.153            12.395              Murmansk2           387.344
       101   02 Jun 2027 03:01:24.153   02 Jun 2027 03:01:39.095            14.942              Murmansk1           466.937
       102   02 Jun 2027 03:01:46.473   02 Jun 2027 03:02:36.613            50.140                Norilsk          1566.875
       103   02 Jun 2027 03:02:55.644   02 Jun 2027 03:03:29.098            33.454                Novosib          1045.438
       104   02 Jun 2027 03:03:37.542   02 Jun 2027 03:03:41.880             4.338                 Moscow           135.563
       105   02 Jun 2027 03:03:43.813   02 Jun 2027 03:03:53.468             9.655              Murmansk1           301.719
       106   02 Jun 2027 03:04:01.913   02 Jun 2027 03:06:09.391           127.478                  Delhi          3983.687
       107   02 Jun 2027 04:37:12.300   02 Jun 2027 04:37:45.145            32.845              Murmansk1          1026.406
       108   02 Jun 2027 04:37:49.767   02 Jun 2027 04:38:18.624            28.857                Norilsk           901.781
       109   02 Jun 2027 04:38:30.177   02 Jun 2027 04:39:00.543            30.366              Murmansk1           948.938
       110   02 Jun 2027 04:39:01.374   02 Jun 2027 04:39:07.205             5.831                Norilsk           182.219
       111   02 Jun 2027 04:39:15.601   02 Jun 2027 04:39:54.889            39.288                Novosib          1227.750
       112   02 Jun 2027 04:39:59.578   02 Jun 2027 04:41:41.929           102.351                 Moscow          3198.469
       113   02 Jun 2027 04:41:59.673   02 Jun 2027 04:42:32.179            32.506                 Moscow          1015.813
       114   02 Jun 2027 04:56:54.503   02 Jun 2027 05:00:06.954           192.451               CapeTown          6014.094
       115   02 Jun 2027 06:00:18.927   02 Jun 2027 06:01:47.930            89.003                Anadyr1          2781.344
       116   02 Jun 2027 07:37:16.873   02 Jun 2027 07:38:37.671            80.798                Anadyr2          2524.938
       117   02 Jun 2027 07:38:48.299   02 Jun 2027 07:39:59.324            71.025               Magadan1          2219.531
       118   02 Jun 2027 07:39:59.736   02 Jun 2027 07:40:26.082            26.346                Anadyr2           823.312
       119   02 Jun 2027 09:11:50.689   02 Jun 2027 09:12:45.867            55.178                Irkutsk          1724.312
       120   02 Jun 2027 09:12:52.975   02 Jun 2027 09:15:19.898           146.923               Magadan2          4591.344
       121   02 Jun 2027 09:15:19.898   02 Jun 2027 09:16:12.822            52.924               Magadan1          1653.875
       122   02 Jun 2027 09:16:12.822   02 Jun 2027 09:16:50.380            37.558               Magadan2          1173.688
       123   02 Jun 2027 09:53:03.638   02 Jun 2027 09:53:40.420            36.782            RioGallegos          1149.438
       124   02 Jun 2027 09:54:02.513   02 Jun 2027 09:54:12.372             9.859            RioGallegos           308.094
       125   02 Jun 2027 09:56:30.775   02 Jun 2027 09:57:14.818            44.043            RioGallegos          1376.344
       126   02 Jun 2027 10:01:35.018   02 Jun 2027 10:02:28.354            53.336            RioGallegos          1666.750
       127   02 Jun 2027 10:32:08.729   02 Jun 2027 10:32:34.204            25.475                Sumatra           796.094
       128   02 Jun 2027 10:46:46.389   02 Jun 2027 10:48:07.260            80.871               Magadan1          2527.219
       129   02 Jun 2027 10:48:15.195   02 Jun 2027 10:48:19.461             4.266                Irkutsk           133.312
       130   02 Jun 2027 10:49:11.265   02 Jun 2027 10:49:34.955            23.690                Norilsk           740.312
       131   02 Jun 2027 10:50:21.237   02 Jun 2027 10:50:47.561            26.324               Magadan2           822.625
       132   02 Jun 2027 10:50:47.561   02 Jun 2027 10:51:52.616            65.055               Magadan1          2032.969
       133   02 Jun 2027 10:52:13.183   02 Jun 2027 10:52:50.852            37.669                Norilsk          1177.156
       134   02 Jun 2027 10:53:03.193   02 Jun 2027 10:53:03.422             0.229                Novosib             7.156
       135   02 Jun 2027 10:53:10.808   02 Jun 2027 10:53:34.375            23.567                Novosib           736.469
       136   02 Jun 2027 10:53:47.381   02 Jun 2027 10:55:01.782            74.401                Novosib          2325.031
       137   02 Jun 2027 12:03:19.805   02 Jun 2027 12:03:30.165            10.360                Sumatra           323.750
       138   02 Jun 2027 12:05:25.471   02 Jun 2027 12:05:58.243            32.772                Sumatra          1024.125
       139   02 Jun 2027 12:06:28.115   02 Jun 2027 12:07:25.791            57.676                Sumatra          1802.375
       140   02 Jun 2027 12:15:53.768   02 Jun 2027 12:16:26.809            33.041                  Delhi          1032.531
       141   02 Jun 2027 12:17:44.064   02 Jun 2027 12:18:19.296            35.232                Irkutsk          1101.000
       142   02 Jun 2027 12:18:24.643   02 Jun 2027 12:19:32.988            68.345                Novosib          2135.781
       143   02 Jun 2027 12:31:18.022   02 Jun 2027 12:31:34.123            16.101              Murmansk1           503.156
       144   02 Jun 2027 12:34:26.666   02 Jun 2027 12:34:29.562             2.896              Murmansk1            90.500
       145   02 Jun 2027 12:34:54.795   02 Jun 2027 12:35:20.282            25.487              Murmansk1           796.469
       146   02 Jun 2027 13:09:26.334   02 Jun 2027 13:11:24.225           117.891            RioGallegos          3684.094
       147   02 Jun 2027 13:50:35.132   02 Jun 2027 13:52:14.480            99.348                  Delhi          3104.625
       148   02 Jun 2027 13:55:38.423   02 Jun 2027 13:55:50.849            12.426                Novosib           388.313
       149   02 Jun 2027 13:57:01.332   02 Jun 2027 13:57:18.067            16.735                Novosib           522.969
       150   02 Jun 2027 13:58:11.750   02 Jun 2027 13:59:36.712            84.962                Novosib          2655.062
       151   02 Jun 2027 13:59:39.771   02 Jun 2027 14:00:11.804            32.033                Norilsk          1001.031
       152   02 Jun 2027 14:00:40.633   02 Jun 2027 14:00:55.024            14.391                Novosib           449.719
       153   02 Jun 2027 14:01:41.767   02 Jun 2027 14:02:40.066            58.299                Norilsk          1821.844
       154   02 Jun 2027 14:05:44.067   02 Jun 2027 14:06:11.001            26.934                Novosib           841.687
       155   02 Jun 2027 15:31:55.189   02 Jun 2027 15:34:40.415           165.226                 Moscow          5163.312
       156   02 Jun 2027 15:35:14.114   02 Jun 2027 15:35:46.740            32.626                 Moscow          1019.562
       157   02 Jun 2027 15:36:36.283   02 Jun 2027 15:37:31.576            55.293              Murmansk2          1727.906
       158   02 Jun 2027 15:39:44.072   02 Jun 2027 15:42:35.141           171.069                Norilsk          5345.906
       159   02 Jun 2027 15:44:15.582   02 Jun 2027 15:44:50.617            35.035                Norilsk          1094.844
       160   02 Jun 2027 16:50:17.509   02 Jun 2027 16:50:51.838            34.329               CapeTown          1072.781
       161   02 Jun 2027 16:56:37.364   02 Jun 2027 16:56:42.585             5.221               CapeTown           163.156
       162   02 Jun 2027 17:09:31.238   02 Jun 2027 17:10:06.980            35.742                 Moscow          1116.937
       163   02 Jun 2027 17:12:34.580   02 Jun 2027 17:13:46.033            71.453              Murmansk1          2232.906
       164   02 Jun 2027 17:15:08.835   02 Jun 2027 17:16:14.387            65.552              Murmansk2          2048.500
       165   02 Jun 2027 17:26:22.065   02 Jun 2027 17:26:55.877            33.812                Anadyr2          1056.625
       166   02 Jun 2027 17:27:19.442   02 Jun 2027 17:27:56.784            37.342                Anadyr1          1166.938
       167   02 Jun 2027 17:28:46.821   02 Jun 2027 17:28:56.794             9.973                Anadyr1           311.656
       168   02 Jun 2027 17:31:13.069   02 Jun 2027 17:31:29.371            16.302                Anadyr2           509.438
       169   02 Jun 2027 17:34:47.514   02 Jun 2027 17:35:29.895            42.381                Anadyr2          1324.406
       170   02 Jun 2027 18:21:28.502   02 Jun 2027 18:22:01.543            33.041               CapeTown          1032.531
       171   02 Jun 2027 18:25:19.633   02 Jun 2027 18:25:36.555            16.922               CapeTown           528.813
       172   02 Jun 2027 18:26:46.465   02 Jun 2027 18:27:11.903            25.438               CapeTown           794.937
       173   02 Jun 2027 18:30:08.890   02 Jun 2027 18:30:23.186            14.296               CapeTown           446.750
       174   02 Jun 2027 18:52:04.924   02 Jun 2027 18:55:54.880           229.956              Murmansk1          7186.125
       175   02 Jun 2027 18:56:59.320   02 Jun 2027 18:58:23.916            84.596              Murmansk2          2643.625
       176   02 Jun 2027 19:05:13.494   02 Jun 2027 19:05:59.183            45.689               Magadan1          1427.781
       177   02 Jun 2027 20:37:54.365   02 Jun 2027 20:41:38.855           224.490                Anadyr1          7015.313
       178   02 Jun 2027 20:42:27.634   02 Jun 2027 20:43:52.855            85.221               Magadan1          2663.156
       179   02 Jun 2027 20:44:11.075   02 Jun 2027 20:45:39.877            88.802               Magadan2          2775.062
       180   02 Jun 2027 20:46:30.533   02 Jun 2027 20:46:41.281            10.748               Magadan1           335.875
       181   02 Jun 2027 20:47:18.625   02 Jun 2027 20:47:43.415            24.790               Magadan1           774.687
       182   02 Jun 2027 20:48:52.821   02 Jun 2027 20:49:13.717            20.896               Magadan2           653.000
       183   02 Jun 2027 21:34:44.665   02 Jun 2027 21:36:48.331           123.666            RioGallegos          3864.562
       184   02 Jun 2027 22:13:45.101   02 Jun 2027 22:15:00.374            75.273                Anadyr1          2352.281
       185   02 Jun 2027 22:15:28.377   02 Jun 2027 22:16:08.392            40.015                Anadyr1          1250.469
       186   02 Jun 2027 22:16:15.347   02 Jun 2027 22:18:37.305           141.958               Magadan2          4436.187
       187   02 Jun 2027 22:19:11.796   02 Jun 2027 22:19:58.212            46.416               Magadan1          1450.500
       188   02 Jun 2027 22:21:01.714   02 Jun 2027 22:22:27.957            86.243                Irkutsk          2695.094
       189   02 Jun 2027 22:36:24.518   02 Jun 2027 22:38:11.995           107.477                Sumatra          3358.656
       190   02 Jun 2027 22:41:51.870   02 Jun 2027 22:43:31.293            99.423                Sumatra          3106.969
       191   02 Jun 2027 23:49:21.913   02 Jun 2027 23:49:30.709             8.796                Anadyr1           274.875
       192   02 Jun 2027 23:50:04.367   02 Jun 2027 23:50:34.277            29.910                Anadyr1           934.687
       193   02 Jun 2027 23:51:32.126   02 Jun 2027 23:52:11.104            38.978                Anadyr1          1218.062
       194   02 Jun 2027 23:52:14.308   02 Jun 2027 23:53:50.907            96.599               Magadan1          3018.719
       195   02 Jun 2027 23:54:08.815   02 Jun 2027 23:54:32.732            23.917               Magadan2           747.406
       196   02 Jun 2027 23:55:10.791   02 Jun 2027 23:55:24.708            13.917               Magadan2           434.906
       197   02 Jun 2027 23:56:21.491   02 Jun 2027 23:57:09.638            48.147                Novosib          1504.594
       198   02 Jun 2027 23:58:30.131   02 Jun 2027 23:59:35.975            65.844                Novosib          2057.625
       199   03 Jun 2027 00:07:29.668   03 Jun 2027 00:08:18.619            48.951                  Delhi          1529.719
       200   03 Jun 2027 00:09:00.545   03 Jun 2027 00:10:22.366            81.821                  Delhi          2556.906
       201   03 Jun 2027 00:45:49.144   03 Jun 2027 00:45:52.824             3.680            RioGallegos           115.000
       202   03 Jun 2027 00:45:57.909   03 Jun 2027 00:46:30.714            32.805            RioGallegos          1025.156
       203   03 Jun 2027 00:51:19.995   03 Jun 2027 00:51:29.379             9.384            RioGallegos           293.250
       204   03 Jun 2027 00:55:06.525   03 Jun 2027 00:55:12.679             6.154            RioGallegos           192.313
       205   03 Jun 2027 00:55:29.892   03 Jun 2027 00:55:37.220             7.328            RioGallegos           229.000
       206   03 Jun 2027 01:23:19.182   03 Jun 2027 01:24:07.680            48.498                Anadyr1          1515.562
       207   03 Jun 2027 01:24:20.732   03 Jun 2027 01:24:47.553            26.821                Anadyr2           838.156
       208   03 Jun 2027 01:25:09.767   03 Jun 2027 01:25:29.264            19.497                Anadyr2           609.281
       209   03 Jun 2027 01:25:46.443   03 Jun 2027 01:25:56.630            10.187                Anadyr1           318.344
       210   03 Jun 2027 01:27:38.114   03 Jun 2027 01:29:36.765           118.651                Norilsk          3707.844
       211   03 Jun 2027 01:29:56.085   03 Jun 2027 01:29:58.771             2.686               Magadan2            83.938
       212   03 Jun 2027 01:30:20.366   03 Jun 2027 01:30:29.253             8.887               Magadan2           277.719
       213   03 Jun 2027 01:30:43.327   03 Jun 2027 01:31:36.055            52.728              Murmansk2          1647.750
       214   03 Jun 2027 01:31:37.731   03 Jun 2027 01:32:53.286            75.555                Irkutsk          2361.094
       215   03 Jun 2027 01:35:15.334   03 Jun 2027 01:35:23.032             7.698              Murmansk1           240.563
       216   03 Jun 2027 01:35:59.839   03 Jun 2027 01:38:13.074           133.235                Novosib          4163.594
       217   03 Jun 2027 02:20:32.287   03 Jun 2027 02:22:16.828           104.541            RioGallegos          3266.906
       218   03 Jun 2027 02:23:22.363   03 Jun 2027 02:25:06.893           104.530            RioGallegos          3266.562
       219   03 Jun 2027 03:10:16.165   03 Jun 2027 03:10:34.989            18.824                Norilsk           588.250
       220   03 Jun 2027 03:10:50.655   03 Jun 2027 03:11:05.185            14.530              Murmansk1           454.063
       221   03 Jun 2027 03:11:08.757   03 Jun 2027 03:11:23.322            14.565                Irkutsk           455.156
       222   03 Jun 2027 03:11:34.504   03 Jun 2027 03:11:49.848            15.344                Norilsk           479.500
       223   03 Jun 2027 03:12:19.470   03 Jun 2027 03:13:37.174            77.704                Norilsk          2428.250
       224   03 Jun 2027 03:13:47.480   03 Jun 2027 03:15:37.636           110.156                Novosib          3442.375
       225   03 Jun 2027 03:16:10.935   03 Jun 2027 03:18:36.213           145.278                  Delhi          4539.937
       226   03 Jun 2027 04:48:26.160   03 Jun 2027 04:48:27.055             0.895                Novosib            27.969
       227   03 Jun 2027 04:49:42.558   03 Jun 2027 04:50:14.913            32.355                Novosib          1011.094
       228   03 Jun 2027 04:51:14.510   03 Jun 2027 04:53:54.021           159.511                 Moscow          4984.719
       229   03 Jun 2027 04:54:33.150   03 Jun 2027 04:54:38.647             5.497                 Moscow           171.781
       230   03 Jun 2027 04:55:22.383   03 Jun 2027 04:55:29.713             7.330                 Moscow           229.063
       231   03 Jun 2027 05:08:51.232   03 Jun 2027 05:11:42.231           170.999               CapeTown          5343.719
       232   03 Jun 2027 06:06:50.554   03 Jun 2027 06:07:46.283            55.729               Magadan2          1741.531
       233   03 Jun 2027 06:12:02.778   03 Jun 2027 06:12:39.878            37.100                Anadyr1          1159.375
       234   03 Jun 2027 06:12:58.830   03 Jun 2027 06:14:44.864           106.034                Anadyr2          3313.563
       235   03 Jun 2027 07:47:52.990   03 Jun 2027 07:48:17.124            24.134                Anadyr1           754.187
       236   03 Jun 2027 07:48:22.341   03 Jun 2027 07:48:58.465            36.124               Magadan2          1128.875
       237   03 Jun 2027 07:49:26.687   03 Jun 2027 07:50:38.179            71.492                Anadyr2          2234.125
       238   03 Jun 2027 07:50:48.633   03 Jun 2027 07:51:59.629            70.996               Magadan2          2218.625
       239   03 Jun 2027 08:33:34.900   03 Jun 2027 08:34:15.436            40.536            RioGallegos          1266.750
       240   03 Jun 2027 09:22:28.999   03 Jun 2027 09:22:53.879            24.880               Magadan1           777.500
       241   03 Jun 2027 09:23:26.381   03 Jun 2027 09:23:35.558             9.177               Magadan1           286.781
       242   03 Jun 2027 09:23:35.558   03 Jun 2027 09:23:50.305            14.747               Magadan2           460.844
       243   03 Jun 2027 09:24:18.639   03 Jun 2027 09:24:56.434            37.795               Magadan1          1181.094
       244   03 Jun 2027 09:24:56.434   03 Jun 2027 09:26:12.839            76.405               Magadan2          2387.656
       245   03 Jun 2027 09:27:12.975   03 Jun 2027 09:28:00.366            47.391               Magadan1          1480.969
       246   03 Jun 2027 09:28:05.128   03 Jun 2027 09:28:14.417             9.289               Magadan2           290.281
       247   03 Jun 2027 09:28:21.246   03 Jun 2027 09:29:01.068            39.822                Anadyr1          1244.437
       248   03 Jun 2027 09:29:49.971   03 Jun 2027 09:30:05.174            15.203                Norilsk           475.094
       249   03 Jun 2027 10:04:51.878   03 Jun 2027 10:05:35.773            43.895            RioGallegos          1371.719
       250   03 Jun 2027 10:08:05.684   03 Jun 2027 10:08:17.907            12.223            RioGallegos           381.969
       251   03 Jun 2027 10:41:52.971   03 Jun 2027 10:43:46.779           113.808                Sumatra          3556.500
       252   03 Jun 2027 10:59:52.012   03 Jun 2027 11:01:03.020            71.008               Magadan1          2219.000
       253   03 Jun 2027 11:01:11.713   03 Jun 2027 11:01:28.932            17.219                Irkutsk           538.094
       254   03 Jun 2027 11:02:01.358   03 Jun 2027 11:02:02.408             1.050                Irkutsk            32.812
       255   03 Jun 2027 11:02:33.297   03 Jun 2027 11:03:39.355            66.058                Irkutsk          2064.313
       256   03 Jun 2027 11:04:27.166   03 Jun 2027 11:05:05.668            38.502                Irkutsk          1203.188
       257   03 Jun 2027 11:05:08.106   03 Jun 2027 11:05:20.906            12.800                Irkutsk           400.000
       258   03 Jun 2027 11:05:43.106   03 Jun 2027 11:06:20.396            37.290                Norilsk          1165.313
       259   03 Jun 2027 11:40:59.796   03 Jun 2027 11:41:52.711            52.915            RioGallegos          1653.594
       260   03 Jun 2027 12:15:26.500   03 Jun 2027 12:16:04.594            38.094                Sumatra          1190.437
       261   03 Jun 2027 12:19:22.552   03 Jun 2027 12:19:48.103            25.551                Sumatra           798.469
       262   03 Jun 2027 12:23:49.129   03 Jun 2027 12:24:00.912            11.783                Sumatra           368.219
       263   03 Jun 2027 12:30:08.619   03 Jun 2027 12:31:04.948            56.329                Irkutsk          1760.281
       264   03 Jun 2027 12:31:31.968   03 Jun 2027 12:32:48.364            76.396                Novosib          2387.375
       265   03 Jun 2027 12:34:06.099   03 Jun 2027 12:34:57.896            51.797                Norilsk          1618.656
       266   03 Jun 2027 13:24:08.522   03 Jun 2027 13:24:30.449            21.927            RioGallegos           685.219
       267   03 Jun 2027 14:00:00.226   03 Jun 2027 14:00:18.869            18.643                  Delhi           582.594
       268   03 Jun 2027 14:01:36.505   03 Jun 2027 14:02:26.715            50.210                  Delhi          1569.062
       269   03 Jun 2027 14:04:36.258   03 Jun 2027 14:04:50.229            13.971                  Delhi           436.594
       270   03 Jun 2027 14:07:36.174   03 Jun 2027 14:09:52.828           136.654                  Delhi          4270.438
       271   03 Jun 2027 14:11:35.810   03 Jun 2027 14:13:16.715           100.905                Novosib          3153.281
       272   03 Jun 2027 14:13:50.198   03 Jun 2027 14:16:53.511           183.313                Norilsk          5728.531
       273   03 Jun 2027 15:43:57.741   03 Jun 2027 15:46:56.448           178.707                 Moscow          5584.594
       274   03 Jun 2027 15:48:33.678   03 Jun 2027 15:48:55.242            21.564              Murmansk2           673.875
       275   03 Jun 2027 15:48:55.242   03 Jun 2027 15:49:25.928            30.686              Murmansk1           958.938
       276   03 Jun 2027 15:52:32.440   03 Jun 2027 15:55:28.590           176.150                Norilsk          5504.687
       277   03 Jun 2027 15:56:51.691   03 Jun 2027 15:57:11.211            19.520                Norilsk           610.000
       278   03 Jun 2027 16:59:44.085   03 Jun 2027 17:01:02.086            78.001               CapeTown          2437.531
       279   03 Jun 2027 17:22:04.143   03 Jun 2027 17:22:30.151            26.008                 Moscow           812.750
       280   03 Jun 2027 17:24:54.498   03 Jun 2027 17:25:55.819            61.321              Murmansk2          1916.281
       281   03 Jun 2027 17:26:43.718   03 Jun 2027 17:27:13.421            29.703              Murmansk1           928.219
       282   03 Jun 2027 17:32:33.551   03 Jun 2027 17:34:07.710            94.159              Murmansk2          2942.469
       283   03 Jun 2027 17:38:45.838   03 Jun 2027 17:38:55.467             9.629                Anadyr2           300.906
       284   03 Jun 2027 17:39:16.409   03 Jun 2027 17:39:44.147            27.738                Anadyr1           866.812
       285   03 Jun 2027 18:33:37.956   03 Jun 2027 18:35:25.470           107.514               CapeTown          3359.812
       286   03 Jun 2027 18:42:45.159   03 Jun 2027 18:43:22.150            36.991               CapeTown          1155.969
       287   03 Jun 2027 19:04:47.591   03 Jun 2027 19:08:57.020           249.429              Murmansk1          7794.656
       288   03 Jun 2027 19:08:57.020   03 Jun 2027 19:09:34.972            37.952              Murmansk2          1186.000
       289   03 Jun 2027 19:17:00.744   03 Jun 2027 19:17:23.284            22.540               Magadan1           704.375
       290   03 Jun 2027 19:18:23.871   03 Jun 2027 19:19:14.530            50.659               Magadan1          1583.094
       291   03 Jun 2027 20:49:55.998   03 Jun 2027 20:51:30.603            94.605                Anadyr1          2956.406
       292   03 Jun 2027 20:51:31.750   03 Jun 2027 20:53:25.831           114.081                Anadyr2          3565.031
       293   03 Jun 2027 20:53:33.508   03 Jun 2027 20:53:40.119             6.611                Anadyr2           206.594
       294   03 Jun 2027 20:54:06.199   03 Jun 2027 20:54:26.482            20.283               Magadan1           633.844
       295   03 Jun 2027 20:54:30.100   03 Jun 2027 20:56:13.692           103.592               Magadan2          3237.250
       296   03 Jun 2027 20:56:48.654   03 Jun 2027 20:57:31.162            42.508               Magadan2          1328.375
       297   03 Jun 2027 21:00:20.155   03 Jun 2027 21:00:28.793             8.638               Magadan1           269.937
       298   03 Jun 2027 21:01:14.578   03 Jun 2027 21:01:22.441             7.863               Magadan1           245.719
       299   03 Jun 2027 21:02:57.425   03 Jun 2027 21:03:18.986            21.561               Magadan1           673.781
       300   03 Jun 2027 21:45:47.993   03 Jun 2027 21:48:28.035           160.042            RioGallegos          5001.312
       301   03 Jun 2027 21:50:31.875   03 Jun 2027 21:51:04.211            32.336            RioGallegos          1010.500
       302   03 Jun 2027 21:51:22.884   03 Jun 2027 21:51:40.243            17.359            RioGallegos           542.469
       303   03 Jun 2027 22:26:14.456   03 Jun 2027 22:27:53.236            98.780                Anadyr1          3086.875
       304   03 Jun 2027 22:27:56.278   03 Jun 2027 22:29:22.839            86.561                Norilsk          2705.031
       305   03 Jun 2027 22:30:17.575   03 Jun 2027 22:30:29.136            11.561               Magadan1           361.281
       306   03 Jun 2027 22:30:37.365   03 Jun 2027 22:30:41.189             3.824               Magadan1           119.500
       307   03 Jun 2027 22:31:01.798   03 Jun 2027 22:31:48.171            46.373               Magadan1          1449.156
       308   03 Jun 2027 22:32:40.913   03 Jun 2027 22:33:21.819            40.906                Irkutsk          1278.312
       309   03 Jun 2027 22:37:01.144   03 Jun 2027 22:37:03.881             2.737                Irkutsk            85.531
       310   03 Jun 2027 22:38:14.743   03 Jun 2027 22:38:40.015            25.272                Irkutsk           789.750
       311   03 Jun 2027 22:47:27.046   03 Jun 2027 22:49:16.279           109.233                Sumatra          3413.531
       312   03 Jun 2027 22:53:40.255   03 Jun 2027 22:55:01.591            81.336                Sumatra          2541.750
       313   04 Jun 2027 00:00:58.846   04 Jun 2027 00:01:15.855            17.009                Anadyr1           531.531
       314   04 Jun 2027 00:02:03.525   04 Jun 2027 00:03:30.932            87.407                Anadyr2          2731.469
       315   04 Jun 2027 00:04:17.436   04 Jun 2027 00:06:11.442           114.006               Magadan1          3562.688
       316   04 Jun 2027 00:06:38.942   04 Jun 2027 00:07:12.207            33.265               Magadan1          1039.531
       317   04 Jun 2027 00:08:09.932   04 Jun 2027 00:09:19.391            69.459                Novosib          2170.594
       318   04 Jun 2027 00:12:17.207   04 Jun 2027 00:13:15.458            58.251                Novosib          1820.344
       319   04 Jun 2027 00:17:43.920   04 Jun 2027 00:19:33.522           109.602                  Delhi          3425.062
       320   04 Jun 2027 00:57:25.060   04 Jun 2027 00:57:34.998             9.938            RioGallegos           310.562
       321   04 Jun 2027 01:01:46.904   04 Jun 2027 01:02:16.514            29.610            RioGallegos           925.312
       322   04 Jun 2027 01:05:20.499   04 Jun 2027 01:05:26.365             5.866            RioGallegos           183.312
       323   04 Jun 2027 01:06:30.152   04 Jun 2027 01:06:34.735             4.583            RioGallegos           143.219
       324   04 Jun 2027 01:07:36.332   04 Jun 2027 01:07:42.824             6.492            RioGallegos           202.875
       325   04 Jun 2027 01:35:02.532   04 Jun 2027 01:36:45.708           103.176                Anadyr1          3224.250
       326   04 Jun 2027 01:37:38.819   04 Jun 2027 01:37:54.995            16.176                Anadyr1           505.500
       327   04 Jun 2027 01:39:40.305   04 Jun 2027 01:41:39.175           118.870                Norilsk          3714.687
       328   04 Jun 2027 01:42:28.756   04 Jun 2027 01:43:59.600            90.844              Murmansk2          2838.875
       329   04 Jun 2027 01:44:16.901   04 Jun 2027 01:44:56.184            39.283                Irkutsk          1227.594
       330   04 Jun 2027 01:46:44.521   04 Jun 2027 01:46:57.643            13.122                Novosib           410.062
       331   04 Jun 2027 01:50:18.967   04 Jun 2027 01:50:31.234            12.267                Irkutsk           383.344
       332   04 Jun 2027 01:50:47.597   04 Jun 2027 01:51:16.247            28.650                  Delhi           895.312
       333   04 Jun 2027 01:53:31.971   04 Jun 2027 01:53:54.417            22.446                  Delhi           701.438
       334   04 Jun 2027 01:56:43.089   04 Jun 2027 01:57:31.958            48.869                  Delhi          1527.156
       335   04 Jun 2027 02:32:51.155   04 Jun 2027 02:34:53.499           122.344            RioGallegos          3823.250
       336   04 Jun 2027 02:35:27.346   04 Jun 2027 02:36:59.874            92.528            RioGallegos          2891.500
       337   04 Jun 2027 03:25:20.619   04 Jun 2027 03:25:36.190            15.571                Novosib           486.594
       338   04 Jun 2027 03:25:49.199   04 Jun 2027 03:27:24.520            95.321              Murmansk1          2978.781
       339   04 Jun 2027 03:27:27.299   04 Jun 2027 03:27:52.119            24.820                Novosib           775.625
       340   04 Jun 2027 03:28:55.944   04 Jun 2027 03:31:17.225           141.281                  Delhi          4415.031
       341   04 Jun 2027 03:33:46.177   04 Jun 2027 03:35:29.474           103.297                  Delhi          3228.031
       342   04 Jun 2027 05:01:27.354   04 Jun 2027 05:01:58.379            31.025                Novosib           969.531
       343   04 Jun 2027 05:02:06.733   04 Jun 2027 05:02:34.327            27.594                 Moscow           862.313
       344   04 Jun 2027 05:02:42.956   04 Jun 2027 05:03:25.856            42.900                 Moscow          1340.625
       345   04 Jun 2027 05:03:56.773   04 Jun 2027 05:04:09.386            12.613                 Moscow           394.156
       346   04 Jun 2027 05:04:12.957   04 Jun 2027 05:04:33.273            20.316                 Moscow           634.875
       347   04 Jun 2027 05:04:58.247   04 Jun 2027 05:05:24.576            26.329                 Moscow           822.781
       348   04 Jun 2027 05:06:02.801   04 Jun 2027 05:06:34.768            31.967                 Moscow           998.969
       349   04 Jun 2027 05:20:52.988   04 Jun 2027 05:21:25.656            32.668               CapeTown          1020.875
       350   04 Jun 2027 05:24:54.273   04 Jun 2027 05:24:58.466             4.193               CapeTown           131.031
       351   04 Jun 2027 05:27:25.837   04 Jun 2027 05:27:37.172            11.335               CapeTown           354.219
       352   04 Jun 2027 06:23:55.260   04 Jun 2027 06:24:41.141            45.881                Anadyr2          1433.781
       353   04 Jun 2027 06:24:47.017   04 Jun 2027 06:25:07.225            20.208                Anadyr1           631.500
       354   04 Jun 2027 06:25:07.225   04 Jun 2027 06:25:34.592            27.367                Anadyr2           855.219
       355   04 Jun 2027 06:25:41.750   04 Jun 2027 06:25:51.046             9.296                Anadyr1           290.500
       356   04 Jun 2027 06:25:52.554   04 Jun 2027 06:25:54.013             1.459               Magadan2            45.594
       357   04 Jun 2027 06:26:04.824   04 Jun 2027 06:26:10.858             6.034               Magadan2           188.562
       358   04 Jun 2027 06:26:12.467   04 Jun 2027 06:26:46.659            34.192                Anadyr1          1068.500
       359   04 Jun 2027 07:01:30.911   04 Jun 2027 07:03:52.286           141.375               CapeTown          4417.969
       360   04 Jun 2027 08:00:09.043   04 Jun 2027 08:00:20.299            11.256                Anadyr1           351.750
       361   04 Jun 2027 08:00:22.973   04 Jun 2027 08:01:10.869            47.896               Magadan2          1496.750
       362   04 Jun 2027 08:01:36.199   04 Jun 2027 08:02:38.255            62.056                Anadyr2          1939.250
       363   04 Jun 2027 08:02:50.731   04 Jun 2027 08:03:59.377            68.646               Magadan1          2145.187
       364   04 Jun 2027 08:47:26.837   04 Jun 2027 08:48:26.175            59.338            RioGallegos          1854.313
       365   04 Jun 2027 09:32:15.236   04 Jun 2027 09:32:36.793            21.557               Magadan1           673.656
       366   04 Jun 2027 09:33:01.158   04 Jun 2027 09:34:29.357            88.199               Magadan1          2756.219
       367   04 Jun 2027 09:35:27.023   04 Jun 2027 09:35:44.081            17.058               Magadan1           533.063
       368   04 Jun 2027 09:35:53.472   04 Jun 2027 09:36:20.780            27.308               Magadan2           853.375
       369   04 Jun 2027 09:36:32.730   04 Jun 2027 09:37:02.493            29.763               Magadan2           930.094
       370   04 Jun 2027 09:37:29.366   04 Jun 2027 09:37:47.275            17.909                Irkutsk           559.656
       371   04 Jun 2027 09:38:11.548   04 Jun 2027 09:39:00.343            48.795               Magadan2          1524.844
       372   04 Jun 2027 09:40:15.618   04 Jun 2027 09:40:31.514            15.896               Magadan2           496.750
       373   04 Jun 2027 09:40:48.078   04 Jun 2027 09:41:16.394            28.316               Magadan2           884.875
       374   04 Jun 2027 09:41:45.671   04 Jun 2027 09:41:46.454             0.783               Magadan2            24.469
       375   04 Jun 2027 10:16:43.331   04 Jun 2027 10:17:42.756            59.425            RioGallegos          1857.031
       376   04 Jun 2027 10:53:05.315   04 Jun 2027 10:54:38.069            92.754                Sumatra          2898.562
       377   04 Jun 2027 11:14:04.997   04 Jun 2027 11:14:34.325            29.328                Irkutsk           916.500
       378   04 Jun 2027 11:14:54.395   04 Jun 2027 11:15:06.236            11.841                Norilsk           370.031
       379   04 Jun 2027 11:15:17.796   04 Jun 2027 11:15:20.837             3.041                Norilsk            95.031
       380   04 Jun 2027 11:15:24.969   04 Jun 2027 11:15:36.994            12.025                Irkutsk           375.781
       381   04 Jun 2027 11:15:47.906   04 Jun 2027 11:16:06.114            18.208                Irkutsk           569.000
       382   04 Jun 2027 11:16:11.864   04 Jun 2027 11:16:14.099             2.235                Novosib            69.844
       383   04 Jun 2027 11:16:49.174   04 Jun 2027 11:16:51.303             2.129                Novosib            66.531
       384   04 Jun 2027 11:16:54.401   04 Jun 2027 11:16:58.433             4.032                Norilsk           126.000
       385   04 Jun 2027 11:17:03.092   04 Jun 2027 11:17:14.906            11.814                Norilsk           369.187
       386   04 Jun 2027 11:17:17.319   04 Jun 2027 11:17:45.148            27.829                Novosib           869.656
       387   04 Jun 2027 11:53:55.862   04 Jun 2027 11:54:32.818            36.956            RioGallegos          1154.875
       388   04 Jun 2027 11:55:29.548   04 Jun 2027 11:56:32.268            62.720            RioGallegos          1960.000
       389   04 Jun 2027 12:27:39.322   04 Jun 2027 12:27:44.818             5.496                Sumatra           171.750
       390   04 Jun 2027 12:36:18.874   04 Jun 2027 12:36:44.845            25.971                  Delhi           811.594
       391   04 Jun 2027 12:42:28.068   04 Jun 2027 12:44:10.068           102.000                Novosib          3187.500
       392   04 Jun 2027 12:46:08.477   04 Jun 2027 12:46:49.391            40.914                Irkutsk          1278.562
       393   04 Jun 2027 12:47:19.908   04 Jun 2027 12:47:52.934            33.026                Norilsk          1032.063
       394   04 Jun 2027 12:54:40.682   04 Jun 2027 12:54:48.919             8.237                Norilsk           257.406
       395   04 Jun 2027 14:12:24.098   04 Jun 2027 14:13:51.310            87.212                  Delhi          2725.375
       396   04 Jun 2027 14:16:11.296   04 Jun 2027 14:17:38.911            87.615                  Delhi          2737.969
       397   04 Jun 2027 14:20:41.256   04 Jun 2027 14:24:10.740           209.484                Novosib          6546.375
       398   04 Jun 2027 14:24:29.912   04 Jun 2027 14:25:11.619            41.707                Norilsk          1303.344
       399   04 Jun 2027 14:32:56.489   04 Jun 2027 14:33:18.663            22.174                Norilsk           692.938
       400   04 Jun 2027 15:56:03.310   04 Jun 2027 15:59:25.259           201.949                 Moscow          6310.906
       401   04 Jun 2027 15:59:34.763   04 Jun 2027 16:00:29.661            54.898              Murmansk2          1715.562
       402   04 Jun 2027 16:00:42.281   04 Jun 2027 16:01:26.312            44.031              Murmansk1          1375.969
       403   04 Jun 2027 16:05:27.493   04 Jun 2027 16:09:56.774           269.281                Norilsk          8415.031
       404   04 Jun 2027 17:34:43.289   04 Jun 2027 17:34:49.429             6.140                 Moscow           191.875
       405   04 Jun 2027 17:37:02.114   04 Jun 2027 17:37:22.889            20.775                 Moscow           649.219
       406   04 Jun 2027 17:37:24.505   04 Jun 2027 17:37:24.783             0.278              Murmansk2             8.688
       407   04 Jun 2027 17:38:45.047   04 Jun 2027 17:40:46.845           121.798              Murmansk1          3806.188
       408   04 Jun 2027 17:46:33.161   04 Jun 2027 17:46:54.564            21.403              Murmansk2           668.844
       409   04 Jun 2027 17:50:16.149   04 Jun 2027 17:51:34.858            78.709                Anadyr1          2459.656
       410   04 Jun 2027 17:56:13.058   04 Jun 2027 17:56:20.181             7.123                Anadyr2           222.594
       411   04 Jun 2027 18:45:50.795   04 Jun 2027 18:47:26.594            95.799               CapeTown          2993.719
       412   04 Jun 2027 18:49:38.695   04 Jun 2027 18:50:18.899            40.204               CapeTown          1256.375
       413   04 Jun 2027 19:17:35.139   04 Jun 2027 19:22:12.229           277.090              Murmansk2          8659.063
       414   04 Jun 2027 19:27:14.712   04 Jun 2027 19:27:18.451             3.739                Anadyr2           116.844
       415   04 Jun 2027 19:28:51.376   04 Jun 2027 19:30:26.432            95.056               Magadan1          2970.500
       416   04 Jun 2027 19:31:18.023   04 Jun 2027 19:31:51.147            33.124               Magadan1          1035.125
       417   04 Jun 2027 21:01:57.524   04 Jun 2027 21:03:59.064           121.540                Anadyr2          3798.125
       418   04 Jun 2027 21:04:14.135   04 Jun 2027 21:08:17.893           243.758               Magadan1          7617.438
       419   04 Jun 2027 21:08:36.089   04 Jun 2027 21:08:56.638            20.549               Magadan2           642.156
       420   04 Jun 2027 21:09:11.597   04 Jun 2027 21:09:26.619            15.022               Magadan1           469.438
       421   04 Jun 2027 21:14:50.553   04 Jun 2027 21:15:28.521            37.968               Magadan2          1186.500
       422   04 Jun 2027 21:57:15.086   04 Jun 2027 21:59:45.642           150.556            RioGallegos          4704.875
       423   04 Jun 2027 22:00:07.204   04 Jun 2027 22:00:13.170             5.966            RioGallegos           186.438
       424   04 Jun 2027 22:03:27.976   04 Jun 2027 22:04:06.001            38.025            RioGallegos          1188.281
       425   04 Jun 2027 22:37:43.624   04 Jun 2027 22:39:22.626            99.002                Anadyr1          3093.813
       426   04 Jun 2027 22:40:12.841   04 Jun 2027 22:41:37.693            84.852               Magadan2          2651.625
       427   04 Jun 2027 22:42:31.817   04 Jun 2027 22:42:55.386            23.569               Magadan2           736.531
       428   04 Jun 2027 22:43:02.264   04 Jun 2027 22:43:24.681            22.417                Norilsk           700.531
       429   04 Jun 2027 22:43:53.514   04 Jun 2027 22:44:00.707             7.193               Magadan2           224.781
       430   04 Jun 2027 22:44:25.773   04 Jun 2027 22:45:20.313            54.540                Irkutsk          1704.375
       431   04 Jun 2027 22:52:22.988   04 Jun 2027 22:53:04.483            41.495                Irkutsk          1296.719
       432   04 Jun 2027 22:58:46.922   04 Jun 2027 23:01:33.628           166.706                Sumatra          5209.563
       433   05 Jun 2027 00:12:50.718   05 Jun 2027 00:14:02.041            71.323                Anadyr2          2228.844
       434   05 Jun 2027 00:14:02.041   05 Jun 2027 00:14:10.843             8.802                Anadyr1           275.062
       435   05 Jun 2027 00:14:36.674   05 Jun 2027 00:15:14.703            38.029                Anadyr2          1188.406
       436   05 Jun 2027 00:15:41.566   05 Jun 2027 00:17:24.632           103.066                Norilsk          3220.813
       437   05 Jun 2027 00:17:39.680   05 Jun 2027 00:18:37.145            57.465               Magadan1          1795.781
       438   05 Jun 2027 00:20:01.318   05 Jun 2027 00:21:04.391            63.073                Novosib          1971.031
       439   05 Jun 2027 00:22:25.971   05 Jun 2027 00:22:52.752            26.781                Novosib           836.906
       440   05 Jun 2027 00:28:50.325   05 Jun 2027 00:31:23.756           153.431                  Delhi          4794.719
       441   05 Jun 2027 01:10:21.153   05 Jun 2027 01:10:37.729            16.576            RioGallegos           518.000
       442   05 Jun 2027 01:15:04.783   05 Jun 2027 01:15:20.937            16.154            RioGallegos           504.812
       443   05 Jun 2027 01:16:18.360   05 Jun 2027 01:16:38.076            19.716            RioGallegos           616.125
       444   05 Jun 2027 01:46:45.038   05 Jun 2027 01:47:14.774            29.736                Anadyr1           929.250
       445   05 Jun 2027 01:47:39.441   05 Jun 2027 01:48:05.176            25.735                Anadyr2           804.219
       446   05 Jun 2027 01:48:05.176   05 Jun 2027 01:48:23.143            17.967                Anadyr1           561.469
       447   05 Jun 2027 01:48:47.976   05 Jun 2027 01:49:13.919            25.943                Anadyr1           810.719
       448   05 Jun 2027 01:49:32.361   05 Jun 2027 01:49:50.643            18.282                Anadyr1           571.313
       449   05 Jun 2027 01:51:42.398   05 Jun 2027 01:53:29.797           107.399                Norilsk          3356.219
       450   05 Jun 2027 01:54:19.652   05 Jun 2027 01:55:35.505            75.853              Murmansk2          2370.406
       451   05 Jun 2027 01:55:46.174   05 Jun 2027 01:56:01.250            15.076              Murmansk1           471.125
       452   05 Jun 2027 01:56:06.664   05 Jun 2027 01:57:36.111            89.447                Novosib          2795.219
       453   05 Jun 2027 02:02:53.944   05 Jun 2027 02:05:09.390           135.446                  Delhi          4232.688
       454   05 Jun 2027 02:45:16.348   05 Jun 2027 02:46:13.796            57.448            RioGallegos          1795.250
       455   05 Jun 2027 02:47:33.230   05 Jun 2027 02:48:44.995            71.765            RioGallegos          2242.656
       456   05 Jun 2027 02:50:03.973   05 Jun 2027 02:50:31.470            27.497            RioGallegos           859.281
       457   05 Jun 2027 03:36:30.037   05 Jun 2027 03:36:35.802             5.765              Murmansk2           180.156
       458   05 Jun 2027 03:36:49.529   05 Jun 2027 03:37:20.005            30.476              Murmansk2           952.375
       459   05 Jun 2027 03:37:40.112   05 Jun 2027 03:37:46.093             5.981              Murmansk2           186.906
       460   05 Jun 2027 03:37:50.446   05 Jun 2027 03:40:06.475           136.029                Norilsk          4250.906
       461   05 Jun 2027 05:14:38.236   05 Jun 2027 05:15:46.920            68.684                 Moscow          2146.375
       462   05 Jun 2027 05:15:51.167   05 Jun 2027 05:16:37.306            46.139                 Moscow          1441.844
       463   05 Jun 2027 05:33:10.561   05 Jun 2027 05:33:45.105            34.544               CapeTown          1079.500
       464   05 Jun 2027 05:36:03.530   05 Jun 2027 05:37:18.977            75.447               CapeTown          2357.719
       465   05 Jun 2027 06:35:44.832   05 Jun 2027 06:36:48.557            63.725                Anadyr2          1991.406
       466   05 Jun 2027 06:36:56.225   05 Jun 2027 06:37:23.088            26.863               Magadan2           839.469
       467   05 Jun 2027 06:37:23.088   05 Jun 2027 06:38:05.896            42.808               Magadan1          1337.750
       468   05 Jun 2027 06:38:48.404   05 Jun 2027 06:39:27.442            39.038                Anadyr1          1219.937
       469   05 Jun 2027 08:12:16.081   05 Jun 2027 08:12:44.493            28.412                Anadyr2           887.875
       470   05 Jun 2027 08:12:52.820   05 Jun 2027 08:13:26.296            33.476               Magadan2          1046.125
       471   05 Jun 2027 08:13:28.891   05 Jun 2027 08:13:36.184             7.293               Magadan1           227.906
       472   05 Jun 2027 08:13:47.996   05 Jun 2027 08:15:38.996           111.000                Anadyr2          3468.750
       473   05 Jun 2027 09:47:35.687   05 Jun 2027 09:48:05.548            29.861               Magadan1           933.156
       474   05 Jun 2027 09:48:14.805   05 Jun 2027 09:48:22.615             7.810               Magadan2           244.063
       475   05 Jun 2027 09:49:11.263   05 Jun 2027 09:50:09.360            58.097               Magadan1          1815.531
       476   05 Jun 2027 09:50:42.780   05 Jun 2027 09:52:16.371            93.591               Magadan1          2924.719
       477   05 Jun 2027 09:52:44.254   05 Jun 2027 09:53:02.186            17.932               Magadan2           560.375
       478   05 Jun 2027 09:53:32.213   05 Jun 2027 09:53:41.081             8.868                Irkutsk           277.125
       479   05 Jun 2027 09:54:45.606   05 Jun 2027 09:55:18.268            32.662                Norilsk          1020.687
       480   05 Jun 2027 10:29:32.840   05 Jun 2027 10:30:38.846            66.006            RioGallegos          2062.688
       481   05 Jun 2027 11:04:31.306   05 Jun 2027 11:05:05.140            33.834                Sumatra          1057.312
       482   05 Jun 2027 11:24:10.252   05 Jun 2027 11:25:00.936            50.684                Norilsk          1583.875
