uniorb/output/strategy_4/Drop/Drop_KinoSat_110109.txt

KinoSat_110109
-------------------------
    Access    *     Start Time (UTCG)     *     Stop Time (UTCG)  *   Duration (s)        *       Station  *  Data (Mbytes)
         1   01 Jun 2027 03:30:25.765   01 Jun 2027 03:30:28.821             3.056                Norilsk           382.000
         2   01 Jun 2027 03:30:32.299   01 Jun 2027 03:31:39.081            66.782                Norilsk          8347.750
         3   01 Jun 2027 03:32:01.655   01 Jun 2027 03:32:26.875            25.220                Norilsk          3152.500
         4   01 Jun 2027 03:32:42.347   01 Jun 2027 03:33:50.972            68.625                Novosib          8578.125
         5   01 Jun 2027 03:33:57.976   01 Jun 2027 03:35:32.475            94.499              Murmansk1         11812.375
         6   01 Jun 2027 03:36:08.136   01 Jun 2027 03:36:20.440            12.304              Murmansk1          1538.000
         7   01 Jun 2027 03:38:37.592   01 Jun 2027 03:39:07.148            29.556                Norilsk          3694.500
         8   01 Jun 2027 04:14:04.648   01 Jun 2027 04:14:35.938            31.290            RioGallegos          3911.250
         9   01 Jun 2027 04:44:56.291   01 Jun 2027 04:46:56.786           120.495                Sumatra         15061.875
        10   01 Jun 2027 05:07:46.528   01 Jun 2027 05:08:03.676            17.148                Irkutsk          2143.500
        11   01 Jun 2027 05:08:14.968   01 Jun 2027 05:08:51.497            36.529              Murmansk2          4566.125
        12   01 Jun 2027 05:08:56.710   01 Jun 2027 05:09:45.104            48.394                Norilsk          6049.250
        13   01 Jun 2027 05:10:06.426   01 Jun 2027 05:10:11.540             5.114                Irkutsk           639.250
        14   01 Jun 2027 05:10:15.030   01 Jun 2027 05:10:34.074            19.044              Murmansk1          2380.500
        15   01 Jun 2027 05:11:40.632   01 Jun 2027 05:12:20.329            39.697                Novosib          4962.125
        16   01 Jun 2027 05:12:28.197   01 Jun 2027 05:12:31.209             3.012                Novosib           376.500
        17   01 Jun 2027 06:29:45.465   01 Jun 2027 06:33:11.994           206.529                  Delhi         25816.125
        18   01 Jun 2027 06:44:14.557   01 Jun 2027 06:44:45.557            31.000              Murmansk1          3875.000
        19   01 Jun 2027 06:44:56.497   01 Jun 2027 06:45:24.125            27.628                Norilsk          3453.500
        20   01 Jun 2027 06:45:45.287   01 Jun 2027 06:47:33.925           108.638                Novosib         13579.750
        21   01 Jun 2027 09:29:27.495   01 Jun 2027 09:32:38.274           190.779               CapeTown         23847.375
        22   01 Jun 2027 13:21:26.071   01 Jun 2027 13:21:48.139            22.068               Magadan2          2758.500
        23   01 Jun 2027 13:22:44.089   01 Jun 2027 13:24:17.032            92.943               Magadan1         11617.875
        24   01 Jun 2027 15:05:00.369   01 Jun 2027 15:05:17.197            16.828                Irkutsk          2103.500
        25   01 Jun 2027 15:15:48.055   01 Jun 2027 15:23:30.791           462.736                Sumatra         57842.000
        26   01 Jun 2027 16:41:11.534   01 Jun 2027 16:43:37.096           145.562                Novosib         18195.250
        27   01 Jun 2027 16:45:49.836   01 Jun 2027 16:46:00.875            11.039                  Delhi          1379.875
        28   01 Jun 2027 16:50:32.786   01 Jun 2027 16:54:57.539           264.753                  Delhi         33094.125
        29   01 Jun 2027 18:27:48.047   01 Jun 2027 18:28:18.739            30.692                  Delhi          3836.500
        30   01 Jun 2027 19:55:20.335   01 Jun 2027 19:55:54.208            33.873                 Moscow          1744.001
        31   02 Jun 2027 04:57:18.274   02 Jun 2027 04:58:59.540           101.266                Sumatra         12658.250
        32   02 Jun 2027 05:02:47.169   02 Jun 2027 05:03:26.352            39.183                Sumatra          4897.875
        33   02 Jun 2027 05:11:55.585   02 Jun 2027 05:14:35.512           159.927                  Delhi         19990.875
        34   02 Jun 2027 05:22:48.941   02 Jun 2027 05:25:37.955           169.014                 Moscow         21126.750
        35   02 Jun 2027 05:26:06.904   02 Jun 2027 05:29:35.129           208.225              Murmansk1         26028.125
        36   02 Jun 2027 06:42:21.022   02 Jun 2027 06:45:47.409           206.387                  Delhi         25798.375
        37   02 Jun 2027 06:48:29.770   02 Jun 2027 06:52:10.330           220.560                  Delhi         27570.000
        38   02 Jun 2027 06:58:58.792   02 Jun 2027 07:01:03.650           124.858                Norilsk         15607.250
        39   02 Jun 2027 07:01:04.690   02 Jun 2027 07:04:33.935           209.245              Murmansk2         26155.625
        40   02 Jun 2027 08:28:26.530   02 Jun 2027 08:29:55.941            89.411                 Moscow         11176.375
        41   02 Jun 2027 08:31:10.594   02 Jun 2027 08:31:22.411            11.817              Murmansk2          1477.125
        42   02 Jun 2027 08:31:46.919   02 Jun 2027 08:33:24.837            97.918              Murmansk2         12239.750
        43   02 Jun 2027 08:33:24.837   02 Jun 2027 08:34:37.684            72.847              Murmansk1          9105.875
        44   02 Jun 2027 08:34:51.470   02 Jun 2027 08:35:11.497            20.027                 Moscow          2503.375
        45   02 Jun 2027 08:36:57.189   02 Jun 2027 08:39:17.787           140.598              Murmansk2         17574.750
        46   02 Jun 2027 08:44:42.729   02 Jun 2027 08:49:04.039           261.310                Anadyr1         32663.750
        47   02 Jun 2027 10:28:53.663   02 Jun 2027 10:29:39.459            45.796                Anadyr1          5724.500
        48   02 Jun 2027 11:55:14.645   02 Jun 2027 11:56:14.940            60.295                Anadyr1          7536.875
        49   02 Jun 2027 11:57:55.174   02 Jun 2027 12:01:14.647           199.473               Magadan2         24934.125
        50   02 Jun 2027 13:41:35.386   02 Jun 2027 13:43:02.009            86.623               Magadan1         10827.875
        51   02 Jun 2027 15:14:46.410   02 Jun 2027 15:18:30.727           224.317                Irkutsk         28039.625
        52   02 Jun 2027 15:29:13.126   02 Jun 2027 15:34:09.339           296.213                Sumatra         37026.625
        53   02 Jun 2027 16:54:20.670   02 Jun 2027 16:55:51.780            91.110                Novosib         11388.750
        54   02 Jun 2027 16:57:17.661   02 Jun 2027 17:04:56.576           458.915                  Delhi         57364.375
        55   02 Jun 2027 20:10:26.789   02 Jun 2027 20:12:04.107            97.318                 Moscow         12164.750
        56   02 Jun 2027 22:05:06.842   02 Jun 2027 22:06:51.437           104.595               CapeTown          1712.875
        57   03 Jun 2027 05:09:49.662   03 Jun 2027 05:10:31.711            42.049                Sumatra          5256.125
        58   03 Jun 2027 05:11:35.893   03 Jun 2027 05:13:28.963           113.070                Sumatra         14133.750
        59   03 Jun 2027 05:34:54.728   03 Jun 2027 05:37:45.679           170.951                 Moscow         21368.875
        60   03 Jun 2027 05:38:09.421   03 Jun 2027 05:39:53.789           104.368              Murmansk1         13046.000
        61   03 Jun 2027 07:03:06.771   03 Jun 2027 07:03:32.268            25.497                  Delhi          3187.125
        62   03 Jun 2027 07:03:42.116   03 Jun 2027 07:04:37.569            55.453                Novosib          6931.625
        63   03 Jun 2027 07:04:54.565   03 Jun 2027 07:05:37.205            42.640                Novosib          5330.000
        64   03 Jun 2027 07:11:23.815   03 Jun 2027 07:15:56.178           272.363                Norilsk         34045.375
        65   03 Jun 2027 07:16:23.725   03 Jun 2027 07:17:40.513            76.788              Murmansk2          9598.500
        66   03 Jun 2027 08:18:26.200   03 Jun 2027 08:23:08.755           282.555               CapeTown         35319.375
        67   03 Jun 2027 08:37:39.875   03 Jun 2027 08:40:51.968           192.093                 Moscow         24011.625
        68   03 Jun 2027 08:41:08.141   03 Jun 2027 08:41:42.323            34.182              Murmansk2          4272.750
        69   03 Jun 2027 08:44:29.850   03 Jun 2027 08:45:24.152            54.302              Murmansk1          6787.750
        70   03 Jun 2027 08:48:45.603   03 Jun 2027 08:50:52.317           126.714              Murmansk2         15839.250
        71   03 Jun 2027 08:56:23.312   03 Jun 2027 09:03:10.711           407.399                Anadyr1         50924.875
        72   03 Jun 2027 12:01:20.436   03 Jun 2027 12:02:20.416            59.980              Murmansk1          7497.500
        73   03 Jun 2027 12:02:38.475   03 Jun 2027 12:02:51.947            13.472              Murmansk1          1684.000
        74   03 Jun 2027 12:03:16.745   03 Jun 2027 12:03:37.249            20.504              Murmansk1          2563.000
        75   03 Jun 2027 12:07:15.977   03 Jun 2027 12:09:37.930           141.953                Anadyr1         17744.125
        76   03 Jun 2027 12:09:50.150   03 Jun 2027 12:11:15.706            85.556               Magadan1         10694.500
        77   03 Jun 2027 12:14:18.943   03 Jun 2027 12:14:36.349            17.406               Magadan1          2175.750
        78   03 Jun 2027 12:18:27.103   03 Jun 2027 12:19:21.621            54.518               Magadan2          6814.750
        79   03 Jun 2027 13:45:27.745   03 Jun 2027 13:47:36.280           128.535               Magadan1         16066.875
        80   03 Jun 2027 13:53:16.677   03 Jun 2027 13:54:34.257            77.580               Magadan2          9697.500
        81   03 Jun 2027 14:40:04.927   03 Jun 2027 14:40:58.317            53.390            RioGallegos          6673.750
        82   03 Jun 2027 15:30:57.775   03 Jun 2027 15:32:51.019           113.244                Irkutsk         14155.500
        83   03 Jun 2027 15:39:03.832   03 Jun 2027 15:41:33.471           149.639                Sumatra         18704.875
        84   03 Jun 2027 15:44:45.360   03 Jun 2027 15:45:16.960            31.600                Sumatra          3950.000
        85   03 Jun 2027 17:00:49.744   03 Jun 2027 17:01:02.922            13.178                Irkutsk          1647.250
        86   03 Jun 2027 17:03:00.236   03 Jun 2027 17:06:09.379           189.143                Novosib         23642.875
        87   03 Jun 2027 17:08:54.493   03 Jun 2027 17:15:31.178           396.685                  Delhi         49585.625
        88   03 Jun 2027 20:14:29.007   03 Jun 2027 20:15:46.464            77.457                 Moscow          9682.125
        89   03 Jun 2027 20:23:27.771   03 Jun 2027 20:24:01.598            33.827                 Moscow          4228.375
        90   03 Jun 2027 21:50:17.496   03 Jun 2027 21:50:58.122            40.626                 Moscow          5078.250
        91   03 Jun 2027 21:58:18.447   03 Jun 2027 21:59:53.435            94.988                 Moscow         11873.500
        92   03 Jun 2027 22:14:49.054   03 Jun 2027 22:16:56.909           127.855               CapeTown          3281.875
        93   04 Jun 2027 05:28:09.263   04 Jun 2027 05:30:13.646           124.383                Sumatra         15547.875
        94   04 Jun 2027 05:30:18.222   04 Jun 2027 05:30:19.703             1.481                  Delhi           185.125
        95   04 Jun 2027 05:31:26.941   04 Jun 2027 05:31:35.616             8.675                  Delhi          1084.375
        96   04 Jun 2027 05:36:32.279   04 Jun 2027 05:38:30.502           118.223                  Delhi         14777.875
        97   04 Jun 2027 05:46:58.681   04 Jun 2027 05:49:52.565           173.884                 Moscow         21735.500
        98   04 Jun 2027 05:50:02.260   04 Jun 2027 05:52:20.410           138.150              Murmansk2         17268.750
        99   04 Jun 2027 07:13:29.518   04 Jun 2027 07:14:22.458            52.940                 Moscow          6617.500
       100   04 Jun 2027 07:22:28.733   04 Jun 2027 07:22:52.461            23.728              Murmansk1          2966.000
       101   04 Jun 2027 07:23:48.272   04 Jun 2027 07:29:41.843           353.571              Murmansk2         44196.375
       102   04 Jun 2027 08:29:14.460   04 Jun 2027 08:36:37.618           443.158               CapeTown         55394.750
       103   04 Jun 2027 08:49:56.307   04 Jun 2027 08:52:22.738           146.431                 Moscow         18303.875
       104   04 Jun 2027 08:53:20.456   04 Jun 2027 08:54:18.459            58.003              Murmansk2          7250.375
       105   04 Jun 2027 08:56:01.159   04 Jun 2027 08:57:16.567            75.408              Murmansk2          9426.000
       106   04 Jun 2027 08:57:16.774   04 Jun 2027 08:57:42.209            25.435                 Moscow          3179.375
       107   04 Jun 2027 08:58:03.108   04 Jun 2027 08:59:46.657           103.549                 Moscow         12943.625
       108   04 Jun 2027 09:00:58.602   04 Jun 2027 09:01:39.483            40.881              Murmansk2          5110.125
       109   04 Jun 2027 09:08:10.218   04 Jun 2027 09:15:58.950           468.732                Anadyr2         58591.500
       110   04 Jun 2027 10:32:22.752   04 Jun 2027 10:33:01.062            38.310              Murmansk2          4788.750
       111   04 Jun 2027 10:47:55.635   04 Jun 2027 10:51:49.008           233.373               Magadan2         29171.625
       112   04 Jun 2027 12:21:46.469   04 Jun 2027 12:23:07.970            81.501               Magadan2         10187.625
       113   04 Jun 2027 12:23:40.287   04 Jun 2027 12:26:51.263           190.976               Magadan2         23872.000
       114   04 Jun 2027 12:29:33.259   04 Jun 2027 12:31:18.827           105.568               Magadan1         13196.000
       115   04 Jun 2027 14:53:07.900   04 Jun 2027 14:54:16.790            68.890            RioGallegos          8611.250
       116   04 Jun 2027 15:37:10.003   04 Jun 2027 15:39:18.236           128.233                Irkutsk         16029.125
       117   04 Jun 2027 15:44:52.301   04 Jun 2027 15:46:41.025           108.724                Irkutsk         13590.500
       118   04 Jun 2027 15:50:52.200   04 Jun 2027 15:53:46.737           174.537                Sumatra         21817.125
       119   04 Jun 2027 17:12:57.691   04 Jun 2027 17:14:10.842            73.151                Novosib          9143.875
       120   04 Jun 2027 17:19:10.377   04 Jun 2027 17:22:03.939           173.562                Novosib         21695.250
       121   04 Jun 2027 17:22:40.683   04 Jun 2027 17:26:42.399           241.716                  Delhi         30214.500
       122   04 Jun 2027 20:26:26.717   04 Jun 2027 20:27:25.907            59.190                 Moscow          7398.750
       123   04 Jun 2027 20:29:16.010   04 Jun 2027 20:31:26.398           130.388                 Moscow         16298.500
       124   04 Jun 2027 22:11:52.862   04 Jun 2027 22:11:57.952             5.090                 Moscow           636.250
       125   04 Jun 2027 22:27:16.585   04 Jun 2027 22:28:42.707            86.122               CapeTown          4607.875
       126   05 Jun 2027 05:40:24.530   05 Jun 2027 05:41:28.926            64.396                Sumatra          8049.500
       127   05 Jun 2027 05:44:40.800   05 Jun 2027 05:45:58.654            77.854                  Delhi          9731.750
       128   05 Jun 2027 05:58:41.958   05 Jun 2027 06:00:22.703           100.745                Novosib         12593.125
       129   05 Jun 2027 06:00:32.827   05 Jun 2027 06:01:09.854            37.027              Murmansk2          4628.375
       130   05 Jun 2027 06:01:42.042   05 Jun 2027 06:01:58.752            16.710                 Moscow          2088.750
       131   05 Jun 2027 06:02:22.788   05 Jun 2027 06:03:22.971            60.183              Murmansk2          7522.875
       132   05 Jun 2027 07:22:47.603   05 Jun 2027 07:24:02.258            74.655                  Delhi          9331.875
       133   05 Jun 2027 07:25:24.456   05 Jun 2027 07:25:45.713            21.257                 Moscow          2657.125
       134   05 Jun 2027 07:35:45.979   05 Jun 2027 07:39:52.216           246.237                Norilsk         30779.625
       135   05 Jun 2027 07:40:05.405   05 Jun 2027 07:41:43.311            97.906              Murmansk1         12238.250
       136   05 Jun 2027 08:40:31.359   05 Jun 2027 08:49:35.448           544.089               CapeTown         68011.125
       137   05 Jun 2027 09:04:33.657   05 Jun 2027 09:10:50.365           376.708                 Moscow         47088.500
       138   05 Jun 2027 09:10:55.834   05 Jun 2027 09:11:15.775            19.941              Murmansk2          2492.625
       139   05 Jun 2027 09:12:59.632   05 Jun 2027 09:15:06.385           126.753              Murmansk2         15844.125
       140   05 Jun 2027 09:16:12.497   05 Jun 2027 09:16:38.189            25.692              Murmansk2          3211.500
       141   05 Jun 2027 09:20:00.922   05 Jun 2027 09:28:40.939           520.017                Anadyr1         65002.125
       142   05 Jun 2027 10:44:32.962   05 Jun 2027 10:46:10.908            97.946              Murmansk1         12243.250
       143   05 Jun 2027 10:55:25.329   05 Jun 2027 10:57:42.170           136.841                Anadyr2         17105.125
       144   05 Jun 2027 10:59:17.442   05 Jun 2027 11:02:37.540           200.098               Magadan2         25012.250
       145   05 Jun 2027 12:33:43.872   05 Jun 2027 12:34:45.389            61.517               Magadan2          7689.625
       146   05 Jun 2027 12:39:04.451   05 Jun 2027 12:41:44.741           160.290               Magadan1         20036.250
       147   05 Jun 2027 14:09:30.772   05 Jun 2027 14:09:35.440             4.668               Magadan2           583.500
       148   05 Jun 2027 14:12:55.781   05 Jun 2027 14:14:15.034            79.253               Magadan1          9906.625
       149   05 Jun 2027 15:03:07.322   05 Jun 2027 15:05:34.385           147.063            RioGallegos         18382.875
       150   05 Jun 2027 15:06:21.154   05 Jun 2027 15:06:50.123            28.969            RioGallegos          3621.125
       151   05 Jun 2027 15:49:05.792   05 Jun 2027 15:50:39.168            93.376                Irkutsk         11672.000
       152   05 Jun 2027 15:58:01.361   05 Jun 2027 15:58:37.957            36.596                Irkutsk          4574.500
       153   05 Jun 2027 16:02:46.483   05 Jun 2027 16:05:53.863           187.380                Sumatra         23422.500
       154   05 Jun 2027 17:26:02.777   05 Jun 2027 17:27:48.034           105.257                Novosib         13157.125
       155   05 Jun 2027 17:31:37.912   05 Jun 2027 17:34:29.160           171.248                Novosib         21406.000
       156   05 Jun 2027 17:35:01.684   05 Jun 2027 17:38:09.024           187.340                  Delhi         23417.500
       157   05 Jun 2027 20:38:25.414   05 Jun 2027 20:39:10.929            45.515                 Moscow          5689.375
       158   05 Jun 2027 20:41:05.980   05 Jun 2027 20:43:21.360           135.380                 Moscow         15419.625
       159   06 Jun 2027 05:53:03.347   06 Jun 2027 05:55:21.127           137.780                  Delhi         17222.500
       160   06 Jun 2027 06:10:48.501   06 Jun 2027 06:13:33.307           164.806              Murmansk1         20600.750
       161   06 Jun 2027 06:13:50.152   06 Jun 2027 06:16:08.226           138.074              Murmansk2         17259.250
       162   06 Jun 2027 07:40:13.076   06 Jun 2027 07:40:40.123            27.047                 Moscow          3380.875
       163   06 Jun 2027 07:47:16.986   06 Jun 2027 07:51:48.132           271.146                Norilsk         33893.250
       164   06 Jun 2027 07:51:57.345   06 Jun 2027 07:53:44.886           107.541              Murmansk1         13442.625
       165   06 Jun 2027 08:52:01.495   06 Jun 2027 09:01:18.224           556.729               CapeTown         69591.125
       166   06 Jun 2027 09:16:34.948   06 Jun 2027 09:20:14.275           219.327                 Moscow         27415.875
       167   06 Jun 2027 09:20:30.401   06 Jun 2027 09:23:59.582           209.181              Murmansk2         26147.625
       168   06 Jun 2027 09:25:00.833   06 Jun 2027 09:27:03.781           122.948              Murmansk1         15368.500
       169   06 Jun 2027 09:31:54.172   06 Jun 2027 09:41:17.981           563.809                Anadyr2         70476.125
       170   06 Jun 2027 11:10:53.891   06 Jun 2027 11:11:40.424            46.533               Magadan1          5816.625
       171   06 Jun 2027 12:45:42.167   06 Jun 2027 12:48:18.711           156.544               Magadan2         19568.000
       172   06 Jun 2027 12:50:00.617   06 Jun 2027 12:55:14.874           314.257               Magadan1         39282.125
       173   06 Jun 2027 15:13:18.080   06 Jun 2027 15:15:37.375           139.295            RioGallegos         17411.875
       174   06 Jun 2027 16:01:02.994   06 Jun 2027 16:02:13.448            70.454                Irkutsk          8806.750
       175   06 Jun 2027 16:14:46.388   06 Jun 2027 16:17:14.712           148.324                Sumatra         18540.500
       176   06 Jun 2027 16:22:20.084   06 Jun 2027 16:24:24.843           124.759                Sumatra         15594.875
       177   06 Jun 2027 17:44:00.886   06 Jun 2027 17:46:28.712           147.826                Novosib         18478.250
       178   06 Jun 2027 17:47:15.996   06 Jun 2027 17:47:49.291            33.295                  Delhi          4161.875
       179   06 Jun 2027 17:52:51.981   06 Jun 2027 17:53:49.891            57.910                  Delhi          7238.750
       180   06 Jun 2027 19:21:15.748   06 Jun 2027 19:21:31.481            15.733                  Delhi          1966.625
       181   06 Jun 2027 20:47:15.683   06 Jun 2027 20:47:57.143            41.460              Murmansk1          5182.500
       182   06 Jun 2027 20:50:24.962   06 Jun 2027 20:50:59.717            34.755                 Moscow          4344.375
       183   06 Jun 2027 20:53:36.842   06 Jun 2027 20:55:17.739           100.897                 Moscow         12612.125
       184   06 Jun 2027 21:17:44.026   06 Jun 2027 21:19:45.236           121.210               CapeTown         15151.250
       185   07 Jun 2027 03:11:13.182   07 Jun 2027 03:15:07.548           234.366              Murmansk1         29295.750
       186   07 Jun 2027 04:20:48.437   07 Jun 2027 04:22:48.613           120.176                Sumatra         15022.000
       187   07 Jun 2027 04:28:27.871   07 Jun 2027 04:30:29.206           121.335                Sumatra         15166.875
       188   07 Jun 2027 04:45:53.041   07 Jun 2027 04:46:04.448            11.407              Murmansk1          1425.875
       189   07 Jun 2027 04:47:12.119   07 Jun 2027 04:49:59.303           167.184              Murmansk1         20898.000
       190   07 Jun 2027 04:50:21.691   07 Jun 2027 04:52:08.459           106.768                Norilsk         13346.000
       191   07 Jun 2027 06:05:15.802   07 Jun 2027 06:11:27.225           371.423                  Delhi         46427.875
       192   07 Jun 2027 06:14:41.707   07 Jun 2027 06:16:59.020           137.313                Novosib         17164.125
       193   07 Jun 2027 06:17:18.810   07 Jun 2027 06:17:51.743            32.933                 Moscow          4116.625
       194   07 Jun 2027 06:23:03.521   07 Jun 2027 06:25:35.526           152.005              Murmansk2         19000.625
       195   07 Jun 2027 06:25:35.526   07 Jun 2027 06:28:08.272           152.746              Murmansk1         19093.250
       196   07 Jun 2027 06:28:49.645   07 Jun 2027 06:28:56.321             6.676              Murmansk1           834.500
       197   07 Jun 2027 06:29:22.745   07 Jun 2027 06:29:48.539            25.794              Murmansk1          3224.250
       198   07 Jun 2027 07:49:22.687   07 Jun 2027 07:50:27.659            64.972                 Moscow          8121.500
       199   07 Jun 2027 07:52:29.765   07 Jun 2027 07:53:02.694            32.929                 Moscow          4116.125
       200   07 Jun 2027 07:53:47.223   07 Jun 2027 07:55:20.083            92.860                 Moscow         11607.500
       201   07 Jun 2027 07:58:01.191   07 Jun 2027 08:02:16.726           255.535                 Moscow         31941.875
       202   07 Jun 2027 08:02:28.275   07 Jun 2027 08:03:09.091            40.816              Murmansk2          5102.000
       203   07 Jun 2027 08:03:09.091   07 Jun 2027 08:05:46.542           157.451              Murmansk1         19681.375
       204   07 Jun 2027 09:03:39.885   07 Jun 2027 09:10:08.704           388.819               CapeTown         48602.375
       205   07 Jun 2027 09:32:05.797   07 Jun 2027 09:33:19.863            74.066              Murmansk1          9258.250
       206   07 Jun 2027 09:33:19.863   07 Jun 2027 09:35:07.832           107.969              Murmansk2         13496.125
       207   07 Jun 2027 09:43:49.266   07 Jun 2027 09:53:20.851           571.585                Anadyr1         71448.125
       208   07 Jun 2027 11:19:26.400   07 Jun 2027 11:19:38.875            12.475                Anadyr2          1559.375
       209   07 Jun 2027 11:22:37.539   07 Jun 2027 11:27:46.057           308.518               Magadan1         38564.750
       210   07 Jun 2027 12:57:41.203   07 Jun 2027 13:00:18.747           157.544               Magadan2         19693.000
       211   07 Jun 2027 14:33:34.799   07 Jun 2027 14:34:23.354            48.555               Magadan1          6069.375
       212   07 Jun 2027 14:53:54.338   07 Jun 2027 14:54:59.761            65.423                Sumatra          8177.875
       213   07 Jun 2027 15:25:13.549   07 Jun 2027 15:26:53.737           100.188            RioGallegos         12523.500
       214   07 Jun 2027 15:34:04.559   07 Jun 2027 15:36:05.078           120.519            RioGallegos         15064.875
       215   07 Jun 2027 16:15:20.540   07 Jun 2027 16:16:07.729            47.189                Irkutsk          5898.625
       216   07 Jun 2027 16:20:09.011   07 Jun 2027 16:20:09.911             0.900                Irkutsk           112.500
       217   07 Jun 2027 16:26:51.922   07 Jun 2027 16:29:51.142           179.220                Sumatra         22402.500
       218   07 Jun 2027 16:34:34.006   07 Jun 2027 16:36:35.099           121.093                Sumatra         15136.625
       219   07 Jun 2027 17:53:00.704   07 Jun 2027 17:53:46.380            45.676                Novosib          5709.500
       220   07 Jun 2027 17:56:14.909   07 Jun 2027 17:58:37.335           142.426                  Delhi         17803.250
       221   07 Jun 2027 21:01:20.127   07 Jun 2027 21:02:11.849            51.722              Murmansk1          6465.250
       222   07 Jun 2027 21:02:25.259   07 Jun 2027 21:02:51.256            25.997                 Moscow          3249.625
       223   07 Jun 2027 21:04:01.911   07 Jun 2027 21:05:42.503           100.592                 Moscow         12574.000
       224   07 Jun 2027 21:13:58.669   07 Jun 2027 21:15:19.370            80.701                 Moscow         10087.625
       225   07 Jun 2027 21:30:30.078   07 Jun 2027 21:31:27.756            57.678               CapeTown          7209.750
       226   08 Jun 2027 02:59:27.510   08 Jun 2027 03:01:34.818           127.308                Sumatra         15913.500
       227   08 Jun 2027 03:23:02.182   08 Jun 2027 03:23:08.584             6.402              Murmansk2           800.250
       228   08 Jun 2027 03:23:08.584   08 Jun 2027 03:23:47.710            39.126              Murmansk1          4890.750
       229   08 Jun 2027 03:23:54.246   08 Jun 2027 03:24:22.507            28.261                Norilsk          3532.625
       230   08 Jun 2027 04:32:56.895   08 Jun 2027 04:34:08.084            71.189                Sumatra          8898.625
       231   08 Jun 2027 04:35:46.909   08 Jun 2027 04:37:37.617           110.708                Sumatra         13838.500
       232   08 Jun 2027 04:57:40.082   08 Jun 2027 04:57:44.290             4.208              Murmansk1           526.000
       233   08 Jun 2027 04:59:15.632   08 Jun 2027 05:01:34.191           138.559                 Moscow         17319.875
       234   08 Jun 2027 05:01:41.910   08 Jun 2027 05:04:09.674           147.764                Norilsk         18470.500
       235   08 Jun 2027 06:17:34.691   08 Jun 2027 06:21:44.638           249.947                  Delhi         31243.375
       236   08 Jun 2027 06:25:46.309   08 Jun 2027 06:28:36.948           170.639                Novosib         21329.875
       237   08 Jun 2027 06:29:25.629   08 Jun 2027 06:30:05.768            40.139                 Moscow          5017.375
       238   08 Jun 2027 06:34:50.508   08 Jun 2027 06:40:11.214           320.706                Norilsk         40088.250
       239   08 Jun 2027 08:04:42.332   08 Jun 2027 08:06:13.194            90.862                 Moscow         11357.750
       240   08 Jun 2027 08:10:04.359   08 Jun 2027 08:14:15.568           251.209              Murmansk1         31401.125
       241   08 Jun 2027 08:14:15.568   08 Jun 2027 08:15:43.486            87.918              Murmansk2         10989.750
       242   08 Jun 2027 08:17:46.717   08 Jun 2027 08:17:48.248             1.531              Murmansk1           191.375
       243   08 Jun 2027 09:19:57.894   08 Jun 2027 09:21:23.632            85.738               CapeTown         10717.250
       244   08 Jun 2027 09:40:15.505   08 Jun 2027 09:40:35.582            20.077                 Moscow          2509.625
       245   08 Jun 2027 09:40:59.431   08 Jun 2027 09:42:16.068            76.637                 Moscow          9579.625
       246   08 Jun 2027 09:42:29.682   08 Jun 2027 09:42:43.262            13.580              Murmansk1          1697.500
       247   08 Jun 2027 09:42:43.262   08 Jun 2027 09:44:06.968            83.706              Murmansk2         10463.250
       248   08 Jun 2027 09:44:32.057   08 Jun 2027 09:44:53.133            21.076              Murmansk1          2634.500
       249   08 Jun 2027 09:45:01.073   08 Jun 2027 09:45:08.056             6.983              Murmansk1           872.875
       250   08 Jun 2027 09:45:22.700   08 Jun 2027 09:46:36.069            73.369              Murmansk1          9171.125
       251   08 Jun 2027 09:47:04.787   08 Jun 2027 09:47:25.190            20.403              Murmansk1          2550.375
       252   08 Jun 2027 09:49:03.642   08 Jun 2027 09:50:40.598            96.956              Murmansk2         12119.500
       253   08 Jun 2027 09:55:45.728   08 Jun 2027 10:00:50.296           304.568                Anadyr2         38071.000
       254   08 Jun 2027 10:01:19.659   08 Jun 2027 10:05:18.187           238.528                Anadyr1         29816.000
       255   08 Jun 2027 11:31:27.318   08 Jun 2027 11:31:36.451             9.133                Anadyr1          1141.625
       256   08 Jun 2027 11:34:25.605   08 Jun 2027 11:40:44.189           378.584               Magadan2         47323.000
       257   08 Jun 2027 13:09:40.865   08 Jun 2027 13:10:09.290            28.425               Magadan1          3553.125
       258   08 Jun 2027 13:10:26.642   08 Jun 2027 13:15:42.740           316.098               Magadan2         39512.250
       259   08 Jun 2027 15:04:54.643   08 Jun 2027 15:08:22.864           208.221                Sumatra         26027.625
       260   08 Jun 2027 15:13:14.839   08 Jun 2027 15:13:43.223            28.384                Sumatra          3548.000
       261   08 Jun 2027 16:39:03.439   08 Jun 2027 16:39:04.085             0.646                Sumatra            80.750
       262   08 Jun 2027 16:40:04.054   08 Jun 2027 16:42:15.915           131.861                  Delhi         16482.625
       263   08 Jun 2027 16:46:41.720   08 Jun 2027 16:47:10.454            28.734                Sumatra          3591.750
       264   08 Jun 2027 16:50:54.260   08 Jun 2027 16:51:03.219             8.959                Sumatra          1119.875
       265   08 Jun 2027 18:00:54.654   08 Jun 2027 18:01:19.007            24.353                Novosib          3044.125
       266   08 Jun 2027 18:02:37.192   08 Jun 2027 18:04:12.550            95.358                Novosib         11919.750
       267   08 Jun 2027 18:08:14.553   08 Jun 2027 18:09:53.159            98.606                  Delhi         12325.750
       268   08 Jun 2027 18:15:48.123   08 Jun 2027 18:17:51.121           122.998                  Delhi         15374.750
       269   08 Jun 2027 19:42:26.899   08 Jun 2027 19:44:24.776           117.877                 Moscow         14734.625
       270   08 Jun 2027 21:14:26.224   08 Jun 2027 21:14:44.890            18.666                 Moscow          2333.250
       271   08 Jun 2027 21:26:22.352   08 Jun 2027 21:27:19.728            57.376                 Moscow          7172.000
       272   08 Jun 2027 21:38:21.398   08 Jun 2027 21:39:50.151            88.753               CapeTown         11094.125
       273   08 Jun 2027 21:46:12.041   08 Jun 2027 21:46:55.930            43.889               CapeTown          5486.125
       274   09 Jun 2027 03:10:18.832   09 Jun 2027 03:15:52.480           333.648                Sumatra         12482.250
       275   09 Jun 2027 03:35:26.817   09 Jun 2027 03:35:49.721            22.904              Murmansk1          2863.000
       276   09 Jun 2027 04:45:11.656   09 Jun 2027 04:45:38.752            27.096                Sumatra          3387.000
       277   09 Jun 2027 04:47:11.892   09 Jun 2027 04:49:34.110           142.218                Sumatra         17777.250
       278   09 Jun 2027 05:00:54.123   09 Jun 2027 05:01:06.763            12.640                  Delhi          1580.000
       279   09 Jun 2027 05:10:33.682   09 Jun 2027 05:11:08.336            34.654              Murmansk1          4331.750
       280   09 Jun 2027 05:11:14.558   09 Jun 2027 05:13:44.330           149.772                 Moscow         18721.500
       281   09 Jun 2027 05:14:40.521   09 Jun 2027 05:15:26.713            46.192              Murmansk2          5774.000
       282   09 Jun 2027 05:15:53.242   09 Jun 2027 05:16:32.288            39.046              Murmansk2          4880.750
       283   09 Jun 2027 06:38:22.391   09 Jun 2027 06:41:36.468           194.077                Novosib         24259.625
       284   09 Jun 2027 06:47:09.379   09 Jun 2027 06:52:16.610           307.231              Murmansk2         38403.875
       285   09 Jun 2027 06:52:16.610   09 Jun 2027 06:52:53.601            36.991              Murmansk1          4623.875
       286   09 Jun 2027 06:52:59.440   09 Jun 2027 06:53:22.737            23.297              Murmansk1          2912.125
       287   09 Jun 2027 08:15:32.722   09 Jun 2027 08:18:10.583           157.861                 Moscow         19732.625
       288   09 Jun 2027 08:18:35.174   09 Jun 2027 08:19:40.264            65.090                 Moscow          8136.250
       289   09 Jun 2027 08:20:14.096   09 Jun 2027 08:23:27.830           193.734              Murmansk1         24216.750
       290   09 Jun 2027 08:24:57.269   09 Jun 2027 08:28:03.412           186.143              Murmansk2         23267.875
       291   09 Jun 2027 08:33:29.517   09 Jun 2027 08:37:17.516           227.999                Anadyr2         28499.875
       292   09 Jun 2027 10:11:58.372   09 Jun 2027 10:13:05.645            67.273                Anadyr1          8409.125
       293   09 Jun 2027 10:14:29.776   09 Jun 2027 10:17:16.404           166.628                Anadyr1         20828.500
       294   09 Jun 2027 11:46:16.703   09 Jun 2027 11:48:52.450           155.747               Magadan1         19468.375
       295   09 Jun 2027 11:52:36.506   09 Jun 2027 11:52:56.334            19.828               Magadan1          2478.500
       296   09 Jun 2027 13:21:41.059   09 Jun 2027 13:22:02.761            21.702               Magadan2          2712.750
       297   09 Jun 2027 13:22:59.233   09 Jun 2027 13:24:30.954            91.721               Magadan1         11465.125
       298   09 Jun 2027 13:24:53.130   09 Jun 2027 13:26:14.101            80.971               Magadan2         10121.375
       299   09 Jun 2027 14:57:39.554   09 Jun 2027 14:58:14.142            34.588               Magadan1          4323.500
       300   09 Jun 2027 15:05:05.132   09 Jun 2027 15:05:41.062            35.930                Irkutsk          4491.250
       301   09 Jun 2027 15:16:02.397   09 Jun 2027 15:23:43.769           461.372                Sumatra         57671.500
       302   09 Jun 2027 16:40:50.843   09 Jun 2027 16:44:01.835           190.992                Novosib         23874.000
       303   09 Jun 2027 16:46:04.009   09 Jun 2027 16:46:31.629            27.620                  Delhi          3452.500
       304   09 Jun 2027 16:50:39.288   09 Jun 2027 16:55:12.190           272.902                  Delhi         34112.750
       305   09 Jun 2027 19:55:35.925   09 Jun 2027 19:57:17.617           101.692                 Moscow         12711.500
       306   09 Jun 2027 21:29:44.957   09 Jun 2027 21:31:13.307            88.350                 Moscow         11043.750
       307   09 Jun 2027 21:50:29.972   09 Jun 2027 21:51:22.086            52.114               CapeTown          6514.250
       308   10 Jun 2027 03:21:48.408   10 Jun 2027 03:25:01.348           192.940                Sumatra         14630.625
       309   10 Jun 2027 04:59:14.035   10 Jun 2027 05:01:36.182           142.147                Sumatra         17768.375
       310   10 Jun 2027 05:23:05.152   10 Jun 2027 05:25:53.085           167.933                 Moscow         20991.625
       311   10 Jun 2027 05:26:31.870   10 Jun 2027 05:28:10.599            98.729              Murmansk2         12341.125
       312   10 Jun 2027 06:51:05.572   10 Jun 2027 06:52:47.333           101.761                Novosib         12720.125
       313   10 Jun 2027 06:53:26.322   10 Jun 2027 06:54:03.254            36.932                Novosib          4616.500
       314   10 Jun 2027 06:54:06.633   10 Jun 2027 06:54:40.665            34.032                 Moscow          4254.000
       315   10 Jun 2027 06:59:14.155   10 Jun 2027 07:04:11.775           297.620                Norilsk         37202.500
       316   10 Jun 2027 08:28:41.282   10 Jun 2027 08:30:10.794            89.512                 Moscow         11189.000
       317   10 Jun 2027 08:30:51.700   10 Jun 2027 08:33:39.734           168.034              Murmansk2         21004.250
       318   10 Jun 2027 08:33:39.734   10 Jun 2027 08:34:31.711            51.977              Murmansk1          6497.125
       319   10 Jun 2027 08:35:11.440   10 Jun 2027 08:35:26.771            15.331                 Moscow          1916.375
       320   10 Jun 2027 08:35:58.800   10 Jun 2027 08:37:18.345            79.545                 Moscow          9943.125
       321   10 Jun 2027 08:37:33.355   10 Jun 2027 08:39:01.869            88.514              Murmansk1         11064.250
       322   10 Jun 2027 08:44:57.156   10 Jun 2027 08:50:29.994           332.838                Anadyr1         41604.750
       323   10 Jun 2027 10:19:41.632   10 Jun 2027 10:21:16.204            94.572                Anadyr2         11821.500
       324   10 Jun 2027 10:24:34.969   10 Jun 2027 10:24:38.161             3.192                Anadyr2           399.000
       325   10 Jun 2027 10:28:50.652   10 Jun 2027 10:29:53.995            63.343                Anadyr1          7917.875
       326   10 Jun 2027 11:55:29.653   10 Jun 2027 11:55:33.911             4.258                Anadyr2           532.250
       327   10 Jun 2027 11:58:10.019   10 Jun 2027 12:01:34.952           204.933               Magadan2         25616.625
       328   10 Jun 2027 12:04:26.039   10 Jun 2027 12:07:25.270           179.231               Magadan2         22403.875
       329   10 Jun 2027 13:33:41.713   10 Jun 2027 13:35:27.279           105.566               Magadan2         13195.750
       330   10 Jun 2027 15:15:00.888   10 Jun 2027 15:18:57.136           236.248                Irkutsk         29531.000
       331   10 Jun 2027 15:31:54.703   10 Jun 2027 15:34:23.090           148.387                Sumatra         18548.375
       332   10 Jun 2027 16:49:02.658   10 Jun 2027 16:49:23.278            20.620                Irkutsk          2577.500
       333   10 Jun 2027 16:52:16.436   10 Jun 2027 16:54:14.134           117.698                Novosib         14712.250
       334   10 Jun 2027 16:57:32.062   10 Jun 2027 17:05:09.188           457.126                  Delhi         57140.750
       335   10 Jun 2027 20:07:56.864   10 Jun 2027 20:10:42.500           165.636                 Moscow         20704.500
       336   10 Jun 2027 22:02:44.130   10 Jun 2027 22:05:15.201           151.071               CapeTown         18794.125
       337   11 Jun 2027 05:10:05.433   11 Jun 2027 05:10:46.016            40.583                Sumatra          5072.875
       338   11 Jun 2027 05:11:50.777   11 Jun 2027 05:13:43.973           113.196                Sumatra         14149.500
       339   11 Jun 2027 05:34:59.590   11 Jun 2027 05:35:49.983            50.393              Murmansk2          6299.125
       340   11 Jun 2027 05:36:03.797   11 Jun 2027 05:36:56.466            52.669                Norilsk          6583.625
       341   11 Jun 2027 05:37:03.652   11 Jun 2027 05:38:00.789            57.137                 Moscow          7142.125
       342   11 Jun 2027 05:38:23.965   11 Jun 2027 05:40:08.294           104.329              Murmansk1         13041.125
       343   11 Jun 2027 06:57:46.624   11 Jun 2027 06:58:20.618            33.994                  Delhi          4249.250
       344   11 Jun 2027 07:03:41.508   11 Jun 2027 07:03:57.388            15.880                 Moscow          1985.000
       345   11 Jun 2027 07:03:58.304   11 Jun 2027 07:05:09.783            71.479                Novosib          8934.875
       346   11 Jun 2027 07:05:28.663   11 Jun 2027 07:05:41.335            12.672                 Moscow          1584.000
       347   11 Jun 2027 07:05:51.717   11 Jun 2027 07:06:31.152            39.435                Novosib          4929.375
       348   11 Jun 2027 07:11:39.256   11 Jun 2027 07:16:11.166           271.910                Norilsk         33988.750
       349   11 Jun 2027 07:16:38.406   11 Jun 2027 07:17:55.521            77.115              Murmansk1          9639.375
       350   11 Jun 2027 08:18:39.037   11 Jun 2027 08:23:26.249           287.212               CapeTown         35901.500
       351   11 Jun 2027 08:37:55.161   11 Jun 2027 08:41:06.887           191.726                 Moscow         23965.750
       352   11 Jun 2027 08:41:23.362   11 Jun 2027 08:41:57.093            33.731              Murmansk2          4216.375
       353   11 Jun 2027 08:44:44.465   11 Jun 2027 08:45:41.985            57.520              Murmansk1          7190.000
       354   11 Jun 2027 08:49:00.459   11 Jun 2027 08:50:58.251           117.792              Murmansk1         14724.000
       355   11 Jun 2027 08:50:58.251   11 Jun 2027 08:51:07.565             9.314              Murmansk2          1164.250
       356   11 Jun 2027 08:56:37.930   11 Jun 2027 09:03:26.811           408.881                Anadyr1         51110.125
       357   11 Jun 2027 12:03:07.761   11 Jun 2027 12:03:17.134             9.373              Murmansk1          1171.625
       358   11 Jun 2027 12:03:32.114   11 Jun 2027 12:03:52.082            19.968              Murmansk1          2496.000
       359   11 Jun 2027 12:07:30.988   11 Jun 2027 12:09:52.894           141.906                Anadyr1         17738.250
       360   11 Jun 2027 12:10:05.030   11 Jun 2027 12:11:31.252            86.222               Magadan1         10777.750
       361   11 Jun 2027 12:14:34.504   11 Jun 2027 12:15:03.384            28.880               Magadan1          3610.000
       362   11 Jun 2027 12:18:38.937   11 Jun 2027 12:19:36.523            57.586               Magadan1          7198.250
       363   11 Jun 2027 13:45:42.752   11 Jun 2027 13:45:54.303            11.551               Magadan2          1443.875
       364   11 Jun 2027 13:47:51.308   11 Jun 2027 13:49:02.437            71.129               Magadan1          8891.125
       365   11 Jun 2027 13:57:42.403   11 Jun 2027 13:58:37.842            55.439               Magadan2          6929.875
       366   11 Jun 2027 14:39:01.971   11 Jun 2027 14:39:12.804            10.833            RioGallegos          1354.125
       367   11 Jun 2027 14:40:09.837   11 Jun 2027 14:41:22.475            72.638            RioGallegos          9079.750
       368   11 Jun 2027 15:27:15.030   11 Jun 2027 15:28:52.056            97.026                Irkutsk         12128.250
       369   11 Jun 2027 15:39:18.504   11 Jun 2027 15:41:48.796           150.292                Sumatra         18786.500
       370   11 Jun 2027 15:45:01.065   11 Jun 2027 15:48:43.338           222.273                Sumatra         27784.125
       371   11 Jun 2027 17:06:24.025   11 Jun 2027 17:06:53.052            29.027                Novosib          3628.375
       372   11 Jun 2027 17:09:09.057   11 Jun 2027 17:15:44.961           395.904                  Delhi         49488.000
       373   11 Jun 2027 20:14:43.923   11 Jun 2027 20:16:00.817            76.894                 Moscow          9611.750
       374   11 Jun 2027 20:19:47.878   11 Jun 2027 20:20:50.177            62.299                 Moscow          7787.375
       375   11 Jun 2027 20:23:43.252   11 Jun 2027 20:24:16.533            33.281                 Moscow          4160.125
       376   11 Jun 2027 21:58:33.299   11 Jun 2027 22:00:08.128            94.829                 Moscow         11853.625
       377   11 Jun 2027 22:22:19.818   11 Jun 2027 22:24:09.475           109.657               CapeTown          1259.750
       378   12 Jun 2027 05:24:00.021   12 Jun 2027 05:24:38.818            38.797                Sumatra          4849.625
       379   12 Jun 2027 05:29:10.416   12 Jun 2027 05:30:33.546            83.130                  Delhi         10391.250
       380   12 Jun 2027 05:36:47.327   12 Jun 2027 05:38:45.545           118.218                  Delhi         14777.250
       381   12 Jun 2027 05:47:16.252   12 Jun 2027 05:50:07.669           171.417                 Moscow         21427.125
       382   12 Jun 2027 05:50:16.814   12 Jun 2027 05:52:39.180           142.366              Murmansk1         17795.750
       383   12 Jun 2027 07:13:44.371   12 Jun 2027 07:16:28.485           164.114                 Moscow         20514.250
       384   12 Jun 2027 07:22:43.352   12 Jun 2027 07:23:14.149            30.797              Murmansk2          3849.625
       385   12 Jun 2027 07:24:04.268   12 Jun 2027 07:29:56.856           352.588              Murmansk1         44073.500
       386   12 Jun 2027 08:29:28.319   12 Jun 2027 08:36:54.040           445.721               CapeTown         55715.125
       387   12 Jun 2027 08:50:11.670   12 Jun 2027 08:52:37.665           145.995                 Moscow         18249.375
       388   12 Jun 2027 08:53:35.712   12 Jun 2027 08:54:35.361            59.649              Murmansk1          7456.125
       389   12 Jun 2027 08:56:15.888   12 Jun 2027 08:57:50.717            94.829              Murmansk2         11853.625
       390   12 Jun 2027 08:57:50.717   12 Jun 2027 08:59:35.650           104.933              Murmansk1         13116.625
       391   12 Jun 2027 09:01:13.253   12 Jun 2027 09:02:30.596            77.343              Murmansk2          9667.875
       392   12 Jun 2027 09:08:24.944   12 Jun 2027 09:16:14.893           469.949                Anadyr1         58743.625
       393   12 Jun 2027 10:48:09.484   12 Jun 2027 10:50:51.277           161.793               Magadan1         20224.125
       394   12 Jun 2027 12:22:01.377   12 Jun 2027 12:23:22.276            80.899               Magadan1         10112.375
       395   12 Jun 2027 12:27:13.768   12 Jun 2027 12:27:50.898            37.130               Magadan1          4641.250
       396   12 Jun 2027 12:27:50.898   12 Jun 2027 12:31:33.753           222.855               Magadan2         27856.875
       397   12 Jun 2027 14:50:53.988   12 Jun 2027 14:54:44.033           230.045            RioGallegos         28755.625
       398   12 Jun 2027 15:51:07.004   12 Jun 2027 15:56:54.008           347.004                Sumatra         43375.500
       399   12 Jun 2027 17:20:52.471   12 Jun 2027 17:26:56.541           364.070                  Delhi         45508.750
       400   12 Jun 2027 20:26:58.079   12 Jun 2027 20:27:40.362            42.283                 Moscow          5285.375
       401   12 Jun 2027 20:29:31.280   12 Jun 2027 20:31:41.115           129.835                 Moscow         15289.375
       402   13 Jun 2027 05:41:11.745   13 Jun 2027 05:43:05.351           113.606                  Delhi         14200.750
       403   13 Jun 2027 05:48:58.605   13 Jun 2027 05:50:51.209           112.604                  Delhi         14075.500
       404   13 Jun 2027 05:59:00.866   13 Jun 2027 06:00:37.605            96.739                Novosib         12092.375
       405   13 Jun 2027 06:00:47.304   13 Jun 2027 06:01:24.641            37.337              Murmansk1          4667.125
       406   13 Jun 2027 06:01:56.414   13 Jun 2027 06:02:13.845            17.431                 Moscow          2178.875
       407   13 Jun 2027 06:02:37.527   13 Jun 2027 06:03:39.953            62.426              Murmansk2          7803.250
       408   13 Jun 2027 07:24:03.338   13 Jun 2027 07:24:17.413            14.075                  Delhi          1759.375
       409   13 Jun 2027 07:25:39.365   13 Jun 2027 07:27:15.545            96.180                 Moscow         12022.500
       410   13 Jun 2027 07:36:00.991   13 Jun 2027 07:40:07.163           246.172                Norilsk         30771.500
       411   13 Jun 2027 07:40:20.110   13 Jun 2027 07:41:58.328            98.218              Murmansk1         12277.250
       412   13 Jun 2027 08:40:45.591   13 Jun 2027 08:49:51.455           545.864               CapeTown         68233.000
       413   13 Jun 2027 09:02:32.025   13 Jun 2027 09:11:05.099           513.074                 Moscow         64134.250
       414   13 Jun 2027 09:11:10.370   13 Jun 2027 09:11:30.691            20.321              Murmansk2          2540.125
       415   13 Jun 2027 09:13:14.286   13 Jun 2027 09:15:21.182           126.896              Murmansk2         15862.000
       416   13 Jun 2027 09:20:15.717   13 Jun 2027 09:25:48.426           332.709                Anadyr2         41588.625
       417   13 Jun 2027 09:27:35.318   13 Jun 2027 09:28:56.763            81.445                Anadyr1         10180.625
       418   13 Jun 2027 10:55:40.310   13 Jun 2027 10:57:54.343           134.033                Anadyr2         16754.125
       419   13 Jun 2027 10:59:31.788   13 Jun 2027 11:02:54.135           202.347               Magadan2         25293.375
       420   13 Jun 2027 12:33:58.803   13 Jun 2027 12:34:20.746            21.943               Magadan1          2742.875
       421   13 Jun 2027 12:39:18.419   13 Jun 2027 12:41:57.746           159.327               Magadan1         19915.875
       422   13 Jun 2027 14:09:45.795   13 Jun 2027 14:09:50.129             4.334               Magadan1           541.750
       423   13 Jun 2027 14:13:11.306   13 Jun 2027 14:14:29.872            78.566               Magadan2          9820.750
       424   13 Jun 2027 15:01:39.244   13 Jun 2027 15:03:22.859           103.615            RioGallegos         12951.875
       425   13 Jun 2027 15:06:42.874   13 Jun 2027 15:07:04.626            21.752            RioGallegos          2719.000
       426   13 Jun 2027 15:49:20.697   13 Jun 2027 15:50:53.432            92.735                Irkutsk         11591.875
       427   13 Jun 2027 15:54:28.044   13 Jun 2027 15:58:16.917           228.873                Irkutsk         28609.125
       428   13 Jun 2027 16:06:08.934   13 Jun 2027 16:06:39.932            30.998                Sumatra          3874.750
       429   13 Jun 2027 17:25:10.570   13 Jun 2027 17:26:06.126            55.556                Novosib          6944.500
       430   13 Jun 2027 17:28:03.294   13 Jun 2027 17:30:09.182           125.888                Novosib         15736.000
       431   13 Jun 2027 17:32:40.911   13 Jun 2027 17:38:23.365           342.454                  Delhi         42806.750
       432   13 Jun 2027 20:38:40.377   13 Jun 2027 20:41:21.709           161.332                 Moscow         20166.500
       433   13 Jun 2027 22:11:21.680   13 Jun 2027 22:11:44.719            23.039              Murmansk2           667.750
