uniorb/output/strategy_4/Drop/Drop_KinoSat_111704.txt

KinoSat_111704
-------------------------
    Access    *     Start Time (UTCG)     *     Stop Time (UTCG)  *   Duration (s)        *       Station  *  Data (Mbytes)
         1   01 Jun 2027 03:21:13.979   01 Jun 2027 03:22:12.552            58.573              Murmansk2          1830.406
         2   01 Jun 2027 03:22:30.968   01 Jun 2027 03:22:55.391            24.423                Norilsk           763.219
         3   01 Jun 2027 03:23:03.785   01 Jun 2027 03:24:51.034           107.249                 Moscow          3351.531
         4   01 Jun 2027 03:24:58.820   01 Jun 2027 03:26:57.135           118.315                Norilsk          3697.344
         5   01 Jun 2027 03:26:58.170   01 Jun 2027 03:31:23.312           265.142                  Delhi          8285.688
         6   01 Jun 2027 04:59:10.582   01 Jun 2027 05:01:04.088           113.506              Murmansk1          3547.063
         7   01 Jun 2027 05:01:04.088   01 Jun 2027 05:01:08.715             4.627              Murmansk2           144.594
         8   01 Jun 2027 05:01:30.918   01 Jun 2027 05:01:43.948            13.030                Norilsk           407.187
         9   01 Jun 2027 05:01:52.438   01 Jun 2027 05:04:46.520           174.082              Murmansk2          5440.062
        10   01 Jun 2027 05:05:01.745   01 Jun 2027 05:08:02.084           180.339                 Moscow          5635.594
        11   01 Jun 2027 05:20:24.315   01 Jun 2027 05:20:41.011            16.696               CapeTown           521.750
        12   01 Jun 2027 05:22:01.763   01 Jun 2027 05:23:11.054            69.291               CapeTown          2165.344
        13   01 Jun 2027 06:22:48.587   01 Jun 2027 06:23:45.434            56.847               Magadan2          1776.469
        14   01 Jun 2027 06:24:14.210   01 Jun 2027 06:24:33.069            18.859               Magadan1           589.344
        15   01 Jun 2027 06:24:48.857   01 Jun 2027 06:26:58.713           129.856                Anadyr1          4058.000
        16   01 Jun 2027 06:34:58.947   01 Jun 2027 06:35:14.215            15.268              Murmansk2           477.125
        17   01 Jun 2027 06:36:38.652   01 Jun 2027 06:37:24.252            45.600                 Moscow          1425.000
        18   01 Jun 2027 06:38:00.853   01 Jun 2027 06:38:44.686            43.833                 Moscow          1369.781
        19   01 Jun 2027 06:39:54.042   01 Jun 2027 06:40:11.594            17.552                 Moscow           548.500
        20   01 Jun 2027 06:57:20.905   01 Jun 2027 06:57:28.384             7.479               CapeTown           233.719
        21   01 Jun 2027 06:59:25.339   01 Jun 2027 07:02:08.773           163.434               CapeTown          5107.313
        22   01 Jun 2027 07:58:29.681   01 Jun 2027 07:59:42.887            73.206                Anadyr2          2287.688
        23   01 Jun 2027 07:59:54.365   01 Jun 2027 08:01:10.490            76.125                Anadyr2          2378.906
        24   01 Jun 2027 08:01:58.432   01 Jun 2027 08:02:19.292            20.860                Norilsk           651.875
        25   01 Jun 2027 08:02:31.093   01 Jun 2027 08:04:55.360           144.267                Anadyr1          4508.344
        26   01 Jun 2027 08:05:28.973   01 Jun 2027 08:06:38.852            69.879              Murmansk2          2183.719
        27   01 Jun 2027 08:08:13.618   01 Jun 2027 08:08:23.157             9.539                 Moscow           298.094
        28   01 Jun 2027 08:09:57.053   01 Jun 2027 08:10:10.762            13.709              Murmansk2           428.406
        29   01 Jun 2027 08:43:43.887   01 Jun 2027 08:44:05.590            21.703            RioGallegos           678.219
        30   01 Jun 2027 09:32:25.022   01 Jun 2027 09:34:11.450           106.428                Irkutsk          3325.875
        31   01 Jun 2027 09:34:44.353   01 Jun 2027 09:39:59.763           315.410                Anadyr1          9856.563
        32   01 Jun 2027 11:08:49.185   01 Jun 2027 11:14:52.412           363.227               Magadan2         11350.844
        33   01 Jun 2027 16:02:52.760   01 Jun 2027 16:04:13.375            80.615                Norilsk          2519.219
        34   01 Jun 2027 16:05:20.754   01 Jun 2027 16:07:55.178           154.424                Norilsk          4825.750
        35   01 Jun 2027 19:14:32.603   01 Jun 2027 19:15:38.422            65.819              Murmansk1          2056.844
        36   01 Jun 2027 19:16:32.558   01 Jun 2027 19:22:33.748           361.190              Murmansk2         11287.187
        37   01 Jun 2027 21:02:49.004   01 Jun 2027 21:03:55.303            66.299               Magadan2          2071.844
        38   01 Jun 2027 21:04:43.088   01 Jun 2027 21:05:01.003            17.915               Magadan1           559.844
        39   01 Jun 2027 21:05:34.196   01 Jun 2027 21:05:58.340            24.144               Magadan1           754.500
        40   01 Jun 2027 21:13:40.826   01 Jun 2027 21:13:47.683             6.857               Magadan2           214.281
        41   01 Jun 2027 21:57:34.773   01 Jun 2027 21:59:27.843           113.070            RioGallegos          3533.438
        42   01 Jun 2027 22:01:00.404   01 Jun 2027 22:01:00.411             0.007            RioGallegos             0.219
        43   01 Jun 2027 22:36:20.396   01 Jun 2027 22:40:33.865           253.469                Anadyr1          7920.906
        44   01 Jun 2027 22:40:36.570   01 Jun 2027 22:42:22.710           106.140               Magadan2          3316.875
        45   01 Jun 2027 22:43:35.237   01 Jun 2027 22:44:21.537            46.300               Magadan2          1446.875
        46   01 Jun 2027 22:44:25.567   01 Jun 2027 22:45:04.697            39.130                Irkutsk          1222.813
        47   01 Jun 2027 22:47:24.049   01 Jun 2027 22:47:37.018            12.969               Magadan2           405.281
        48   01 Jun 2027 22:48:42.506   01 Jun 2027 22:49:10.537            28.031                Irkutsk           875.969
        49   01 Jun 2027 22:59:12.358   01 Jun 2027 23:00:46.651            94.293                Sumatra          2946.656
        50   01 Jun 2027 23:05:54.170   01 Jun 2027 23:06:16.092            21.922                Sumatra           685.063
        51   01 Jun 2027 23:32:17.791   01 Jun 2027 23:32:47.604            29.813            RioGallegos           931.656
        52   01 Jun 2027 23:35:41.792   01 Jun 2027 23:36:21.952            40.160            RioGallegos          1255.000
        53   01 Jun 2027 23:39:30.522   01 Jun 2027 23:39:39.529             9.007            RioGallegos           281.469
        54   01 Jun 2027 23:39:56.257   01 Jun 2027 23:40:12.586            16.329            RioGallegos           510.281
        55   01 Jun 2027 23:42:24.605   01 Jun 2027 23:42:37.147            12.542            RioGallegos           391.938
        56   02 Jun 2027 00:11:42.252   02 Jun 2027 00:11:56.917            14.665                Anadyr2           458.281
        57   02 Jun 2027 00:11:59.231   02 Jun 2027 00:12:31.017            31.786                Anadyr1           993.312
        58   02 Jun 2027 00:13:22.260   02 Jun 2027 00:14:26.657            64.397                Anadyr2          2012.406
        59   02 Jun 2027 00:14:26.657   02 Jun 2027 00:14:46.272            19.615                Anadyr1           612.969
        60   02 Jun 2027 00:14:49.079   02 Jun 2027 00:16:38.985           109.906               Magadan1          3434.563
        61   02 Jun 2027 00:16:48.990   02 Jun 2027 00:17:44.902            55.912               Magadan1          1747.250
        62   02 Jun 2027 00:18:58.670   02 Jun 2027 00:19:27.006            28.336                Novosib           885.500
        63   02 Jun 2027 00:20:01.558   02 Jun 2027 00:20:28.859            27.301                Irkutsk           853.156
        64   02 Jun 2027 00:22:04.210   02 Jun 2027 00:22:35.535            31.325                Novosib           978.906
        65   02 Jun 2027 00:24:18.497   02 Jun 2027 00:24:42.836            24.339                Novosib           760.594
        66   02 Jun 2027 00:26:27.227   02 Jun 2027 00:26:29.940             2.713                Irkutsk            84.781
        67   02 Jun 2027 00:26:33.230   02 Jun 2027 00:26:37.374             4.144                Irkutsk           129.500
        68   02 Jun 2027 00:28:54.401   02 Jun 2027 00:29:57.687            63.286                Irkutsk          1977.688
        69   02 Jun 2027 00:37:02.414   02 Jun 2027 00:37:44.652            42.238                Sumatra          1319.938
        70   02 Jun 2027 00:41:06.171   02 Jun 2027 00:41:19.115            12.944                Sumatra           404.500
        71   02 Jun 2027 00:41:37.111   02 Jun 2027 00:42:00.225            23.114                Sumatra           722.313
        72   02 Jun 2027 00:43:45.587   02 Jun 2027 00:44:32.005            46.418                Sumatra          1450.562
        73   02 Jun 2027 01:16:33.924   02 Jun 2027 01:17:30.232            56.308            RioGallegos          1759.625
        74   02 Jun 2027 01:46:21.509   02 Jun 2027 01:46:46.005            24.496                Anadyr1           765.500
        75   02 Jun 2027 01:47:00.136   02 Jun 2027 01:47:14.492            14.356                Anadyr1           448.625
        76   02 Jun 2027 01:48:03.681   02 Jun 2027 01:48:23.631            19.950                Anadyr2           623.438
        77   02 Jun 2027 01:48:37.531   02 Jun 2027 01:48:59.200            21.669                Anadyr2           677.156
        78   02 Jun 2027 01:50:12.758   02 Jun 2027 01:51:25.032            72.274                Norilsk          2258.562
        79   02 Jun 2027 01:53:20.951   02 Jun 2027 01:54:11.506            50.555              Murmansk1          1579.844
        80   02 Jun 2027 01:54:11.949   02 Jun 2027 01:55:53.697           101.748                Irkutsk          3179.625
        81   02 Jun 2027 01:59:34.147   02 Jun 2027 01:59:56.389            22.242                Irkutsk           695.063
        82   02 Jun 2027 02:02:05.107   02 Jun 2027 02:02:10.672             5.565                  Delhi           173.906
        83   02 Jun 2027 02:03:30.387   02 Jun 2027 02:03:50.985            20.598                Irkutsk           643.687
        84   02 Jun 2027 02:04:57.903   02 Jun 2027 02:05:06.728             8.825                  Delhi           275.781
        85   02 Jun 2027 02:07:24.739   02 Jun 2027 02:07:57.161            32.422                  Delhi          1013.188
        86   02 Jun 2027 02:10:57.508   02 Jun 2027 02:11:33.395            35.887                  Delhi          1121.469
        87   02 Jun 2027 02:43:04.885   02 Jun 2027 02:43:24.690            19.805            RioGallegos           618.906
        88   02 Jun 2027 02:44:14.884   02 Jun 2027 02:47:13.950           179.066            RioGallegos          5595.812
        89   02 Jun 2027 03:35:06.404   02 Jun 2027 03:37:16.498           130.094                Irkutsk          4065.437
        90   02 Jun 2027 03:37:20.133   02 Jun 2027 03:38:31.994            71.861                 Moscow          2245.656
        91   02 Jun 2027 03:38:39.034   02 Jun 2027 03:40:41.754           122.720                Novosib          3835.000
        92   02 Jun 2027 03:42:07.816   02 Jun 2027 03:43:46.512            98.696                  Delhi          3084.250
        93   02 Jun 2027 05:13:45.028   02 Jun 2027 05:13:58.216            13.188                Novosib           412.125
        94   02 Jun 2027 05:14:53.233   02 Jun 2027 05:20:26.234           333.001                 Moscow         10406.281
        95   02 Jun 2027 05:32:16.989   02 Jun 2027 05:34:18.870           121.881               CapeTown          3808.781
        96   02 Jun 2027 05:40:20.707   02 Jun 2027 05:40:54.306            33.599               CapeTown          1049.969
        97   02 Jun 2027 05:43:36.454   02 Jun 2027 05:44:14.749            38.295               CapeTown          1196.719
        98   02 Jun 2027 06:31:43.257   02 Jun 2027 06:33:07.090            83.833                Anadyr2          2619.781
        99   02 Jun 2027 06:34:32.329   02 Jun 2027 06:37:34.687           182.358                Anadyr2          5698.687
       100   02 Jun 2027 06:38:25.471   02 Jun 2027 06:39:35.269            69.798               Magadan1          2181.188
       101   02 Jun 2027 06:39:59.631   02 Jun 2027 06:40:27.216            27.585                Anadyr1           862.031
       102   02 Jun 2027 06:40:59.404   02 Jun 2027 06:41:05.826             6.422                Anadyr1           200.687
       103   02 Jun 2027 08:13:11.137   02 Jun 2027 08:14:32.567            81.430                Anadyr1          2544.688
       104   02 Jun 2027 08:15:02.413   02 Jun 2027 08:16:18.754            76.341                Anadyr2          2385.656
       105   02 Jun 2027 09:45:25.558   02 Jun 2027 09:45:51.977            26.419               Magadan2           825.594
       106   02 Jun 2027 09:46:04.807   02 Jun 2027 09:46:11.556             6.749               Magadan1           210.906
       107   02 Jun 2027 09:46:27.603   02 Jun 2027 09:48:46.050           138.447               Magadan1          4326.469
       108   02 Jun 2027 09:49:00.439   02 Jun 2027 09:49:32.229            31.790                Norilsk           993.437
       109   02 Jun 2027 09:49:39.352   02 Jun 2027 09:49:58.165            18.813                Norilsk           587.906
       110   02 Jun 2027 09:50:15.578   02 Jun 2027 09:51:01.740            46.162                Irkutsk          1442.563
       111   02 Jun 2027 09:51:23.568   02 Jun 2027 09:51:43.836            20.268                Norilsk           633.375
       112   02 Jun 2027 09:52:03.883   02 Jun 2027 09:52:05.015             1.132                Norilsk            35.375
       113   02 Jun 2027 09:52:24.907   02 Jun 2027 09:52:28.397             3.490                Norilsk           109.063
       114   02 Jun 2027 10:27:28.847   02 Jun 2027 10:27:58.406            29.559            RioGallegos           923.719
       115   02 Jun 2027 10:30:17.169   02 Jun 2027 10:30:42.789            25.620            RioGallegos           800.625
       116   02 Jun 2027 10:31:59.708   02 Jun 2027 10:32:53.782            54.074            RioGallegos          1689.812
       117   02 Jun 2027 11:04:38.274   02 Jun 2027 11:06:33.506           115.232                Sumatra          3601.000
       118   02 Jun 2027 11:21:36.098   02 Jun 2027 11:22:24.453            48.355                Irkutsk          1511.094
       119   02 Jun 2027 11:22:35.739   02 Jun 2027 11:23:17.896            42.157                Irkutsk          1317.406
       120   02 Jun 2027 11:23:26.388   02 Jun 2027 11:23:47.427            21.039                Irkutsk           657.469
       121   02 Jun 2027 11:24:33.281   02 Jun 2027 11:24:36.876             3.595                Irkutsk           112.344
       122   02 Jun 2027 11:25:03.719   02 Jun 2027 11:26:11.165            67.446               Magadan2          2107.687
       123   02 Jun 2027 11:26:16.159   02 Jun 2027 11:27:03.178            47.019                Irkutsk          1469.344
       124   02 Jun 2027 11:27:19.121   02 Jun 2027 11:27:32.766            13.645                Norilsk           426.406
       125   02 Jun 2027 11:27:37.701   02 Jun 2027 11:27:42.006             4.305                Irkutsk           134.531
       126   02 Jun 2027 11:27:50.248   02 Jun 2027 11:27:53.463             3.215                Novosib           100.469
       127   02 Jun 2027 11:27:57.893   02 Jun 2027 11:27:59.648             1.755                Norilsk            54.844
       128   02 Jun 2027 11:28:20.706   02 Jun 2027 11:29:10.051            49.345                Novosib          1542.031
       129   02 Jun 2027 12:04:17.054   02 Jun 2027 12:04:57.267            40.213            RioGallegos          1256.656
       130   02 Jun 2027 12:38:00.034   02 Jun 2027 12:40:15.551           135.517                Sumatra          4234.906
       131   02 Jun 2027 12:52:38.992   02 Jun 2027 12:53:31.816            52.824                Irkutsk          1650.750
       132   02 Jun 2027 12:55:02.865   02 Jun 2027 12:55:36.751            33.886                Novosib          1058.938
       133   02 Jun 2027 12:56:39.511   02 Jun 2027 12:57:22.473            42.962                Norilsk          1342.563
       134   02 Jun 2027 12:57:42.662   02 Jun 2027 12:58:17.675            35.013                Norilsk          1094.156
       135   02 Jun 2027 13:08:58.895   02 Jun 2027 13:09:21.346            22.451                Norilsk           701.594
       136   02 Jun 2027 13:45:42.882   02 Jun 2027 13:47:45.468           122.586            RioGallegos          3830.813
       137   02 Jun 2027 14:22:31.921   02 Jun 2027 14:22:45.411            13.490                  Delhi           421.563
       138   02 Jun 2027 14:27:14.977   02 Jun 2027 14:27:20.555             5.578                  Delhi           174.312
       139   02 Jun 2027 14:30:07.332   02 Jun 2027 14:30:27.975            20.643                  Delhi           645.094
       140   02 Jun 2027 14:30:36.741   02 Jun 2027 14:34:06.075           209.334                Novosib          6541.688
       141   02 Jun 2027 14:34:34.314   02 Jun 2027 14:34:45.020            10.706                Norilsk           334.563
       142   02 Jun 2027 14:35:06.723   02 Jun 2027 14:35:44.281            37.558                Novosib          1173.688
       143   02 Jun 2027 14:36:06.168   02 Jun 2027 14:37:14.280            68.112                Norilsk          2128.500
       144   02 Jun 2027 16:06:32.192   02 Jun 2027 16:09:27.609           175.417                 Moscow          5481.781
       145   02 Jun 2027 16:10:02.303   02 Jun 2027 16:10:57.703            55.400              Murmansk2          1731.250
       146   02 Jun 2027 16:14:58.118   02 Jun 2027 16:19:34.025           275.907                Norilsk          8622.094
       147   02 Jun 2027 17:44:32.951   02 Jun 2027 17:45:44.772            71.821                 Moscow          2244.406
       148   02 Jun 2027 17:47:25.856   02 Jun 2027 17:49:13.822           107.966              Murmansk1          3373.938
       149   02 Jun 2027 17:50:51.866   02 Jun 2027 17:51:14.019            22.153              Murmansk1           692.281
       150   02 Jun 2027 17:56:44.612   02 Jun 2027 17:57:17.223            32.611              Murmansk2          1019.094
       151   02 Jun 2027 18:00:53.911   02 Jun 2027 18:01:37.916            44.005                Anadyr1          1375.156
       152   02 Jun 2027 18:10:26.129   02 Jun 2027 18:10:33.704             7.575                Anadyr2           236.719
       153   02 Jun 2027 18:11:11.967   02 Jun 2027 18:11:14.389             2.422                Anadyr1            75.688
       154   02 Jun 2027 18:56:11.282   02 Jun 2027 18:57:55.494           104.212               CapeTown          3256.625
       155   02 Jun 2027 19:01:36.397   02 Jun 2027 19:01:48.445            12.048               CapeTown           376.500
       156   02 Jun 2027 19:03:45.350   02 Jun 2027 19:04:28.964            43.614               CapeTown          1362.937
       157   02 Jun 2027 19:27:14.529   02 Jun 2027 19:32:50.667           336.138              Murmansk2         10504.313
       158   02 Jun 2027 19:43:47.720   02 Jun 2027 19:44:47.667            59.947               Magadan2          1873.344
       159   02 Jun 2027 21:12:30.901   02 Jun 2027 21:14:06.406            95.505                Anadyr1          2984.531
       160   02 Jun 2027 21:14:09.912   02 Jun 2027 21:15:55.796           105.884                Anadyr2          3308.875
       161   02 Jun 2027 21:16:01.128   02 Jun 2027 21:19:22.532           201.404               Magadan2          6293.875
       162   02 Jun 2027 21:22:48.077   02 Jun 2027 21:23:03.859            15.782               Magadan1           493.188
       163   02 Jun 2027 21:23:14.852   02 Jun 2027 21:23:27.779            12.927               Magadan2           403.969
       164   02 Jun 2027 21:25:35.787   02 Jun 2027 21:25:52.920            17.133               Magadan1           535.406
       165   02 Jun 2027 22:08:29.998   02 Jun 2027 22:11:06.631           156.633            RioGallegos          4894.781
       166   02 Jun 2027 22:13:43.087   02 Jun 2027 22:14:17.830            34.743            RioGallegos          1085.719
       167   02 Jun 2027 22:48:20.050   02 Jun 2027 22:49:32.079            72.029                Anadyr1          2250.906
       168   02 Jun 2027 22:49:50.339   02 Jun 2027 22:50:09.667            19.328                Anadyr2           604.000
       169   02 Jun 2027 22:50:18.923   02 Jun 2027 22:50:21.992             3.069                Anadyr2            95.906
       170   02 Jun 2027 22:50:26.485   02 Jun 2027 22:51:58.018            91.533                Norilsk          2860.406
       171   02 Jun 2027 22:52:28.557   02 Jun 2027 22:53:12.239            43.682               Magadan2          1365.063
       172   02 Jun 2027 22:55:18.860   02 Jun 2027 22:55:57.733            38.873                Irkutsk          1214.781
       173   02 Jun 2027 22:57:53.329   02 Jun 2027 22:58:30.128            36.799                Irkutsk          1149.969
       174   02 Jun 2027 22:59:32.888   02 Jun 2027 22:59:37.523             4.635                Irkutsk           144.844
       175   02 Jun 2027 23:00:41.559   02 Jun 2027 23:01:25.585            44.026                Irkutsk          1375.812
       176   02 Jun 2027 23:10:10.591   02 Jun 2027 23:12:07.182           116.591                Sumatra          3643.469
       177   02 Jun 2027 23:49:13.078   02 Jun 2027 23:49:43.186            30.108            RioGallegos           940.875
       178   03 Jun 2027 00:23:35.577   03 Jun 2027 00:25:32.191           116.614                Anadyr2          3644.187
       179   03 Jun 2027 00:26:14.097   03 Jun 2027 00:27:57.774           103.677                Norilsk          3239.906
       180   03 Jun 2027 00:28:16.737   03 Jun 2027 00:28:26.711             9.974               Magadan2           311.688
       181   03 Jun 2027 00:29:15.315   03 Jun 2027 00:29:41.175            25.860               Magadan1           808.125
       182   03 Jun 2027 00:30:39.812   03 Jun 2027 00:30:46.390             6.578               Magadan2           205.563
       183   03 Jun 2027 00:30:46.576   03 Jun 2027 00:33:00.772           134.196                Novosib          4193.625
       184   03 Jun 2027 00:35:37.119   03 Jun 2027 00:35:55.058            17.939                Novosib           560.594
       185   03 Jun 2027 00:36:25.139   03 Jun 2027 00:36:36.099            10.960                Novosib           342.500
       186   03 Jun 2027 00:40:31.150   03 Jun 2027 00:41:23.782            52.632                  Delhi          1644.750
       187   03 Jun 2027 00:43:14.388   03 Jun 2027 00:45:22.386           127.998                  Delhi          3999.938
       188   03 Jun 2027 01:28:41.848   03 Jun 2027 01:28:58.017            16.169            RioGallegos           505.281
       189   03 Jun 2027 01:29:11.972   03 Jun 2027 01:29:40.234            28.262            RioGallegos           883.188
       190   03 Jun 2027 01:58:50.538   03 Jun 2027 01:59:14.447            23.909                Anadyr1           747.156
       191   03 Jun 2027 01:59:47.873   03 Jun 2027 02:00:14.427            26.554                Anadyr1           829.813
       192   03 Jun 2027 02:02:15.013   03 Jun 2027 02:03:55.259           100.246                Norilsk          3132.687
       193   03 Jun 2027 02:04:07.098   03 Jun 2027 02:04:08.914             1.816               Magadan2            56.750
       194   03 Jun 2027 02:05:05.229   03 Jun 2027 02:06:15.471            70.242              Murmansk1          2195.062
       195   03 Jun 2027 02:06:16.780   03 Jun 2027 02:07:06.190            49.410                Novosib          1544.063
       196   03 Jun 2027 02:07:21.918   03 Jun 2027 02:08:01.199            39.281                Irkutsk          1227.531
       197   03 Jun 2027 02:11:11.277   03 Jun 2027 02:12:18.426            67.149                Irkutsk          2098.406
       198   03 Jun 2027 02:20:09.722   03 Jun 2027 02:21:23.381            73.659                  Delhi          2301.844
       199   03 Jun 2027 02:55:23.114   03 Jun 2027 02:59:07.573           224.459            RioGallegos          7014.344
       200   03 Jun 2027 03:00:04.393   03 Jun 2027 03:00:22.915            18.522            RioGallegos           578.813
       201   03 Jun 2027 03:44:36.820   03 Jun 2027 03:44:37.290             0.470                Irkutsk            14.688
       202   03 Jun 2027 03:44:38.940   03 Jun 2027 03:46:19.139           100.199                Irkutsk          3131.219
       203   03 Jun 2027 03:47:54.290   03 Jun 2027 03:48:16.442            22.152              Murmansk1           692.250
       204   03 Jun 2027 03:48:46.572   03 Jun 2027 03:48:58.717            12.145              Murmansk1           379.531
       205   03 Jun 2027 03:49:05.157   03 Jun 2027 03:49:38.772            33.615              Murmansk1          1050.469
       206   03 Jun 2027 03:49:43.896   03 Jun 2027 03:50:00.506            16.610                Norilsk           519.062
       207   03 Jun 2027 03:50:30.576   03 Jun 2027 03:53:34.476           183.900                Novosib          5746.875
       208   03 Jun 2027 04:18:47.228   03 Jun 2027 04:19:09.460            22.232               CapeTown           694.750
       209   03 Jun 2027 05:24:57.529   03 Jun 2027 05:25:41.721            44.192              Murmansk2          1381.000
       210   03 Jun 2027 05:28:29.697   03 Jun 2027 05:29:25.421            55.724                 Moscow          1741.375
       211   03 Jun 2027 05:32:05.986   03 Jun 2027 05:32:22.371            16.385                 Moscow           512.031
       212   03 Jun 2027 05:43:27.449   03 Jun 2027 05:45:58.437           150.988               CapeTown          4718.375
       213   03 Jun 2027 06:46:25.736   03 Jun 2027 06:47:35.026            69.290                Anadyr1          2165.312
       214   03 Jun 2027 06:47:51.470   03 Jun 2027 06:48:46.827            55.357                Anadyr1          1729.906
       215   03 Jun 2027 06:52:24.360   03 Jun 2027 06:52:42.031            17.671               Magadan1           552.219
       216   03 Jun 2027 07:23:44.242   03 Jun 2027 07:27:00.739           196.497               CapeTown          6140.531
       217   03 Jun 2027 08:22:50.736   03 Jun 2027 08:22:54.504             3.768               Magadan2           117.750
       218   03 Jun 2027 08:22:57.419   03 Jun 2027 08:23:04.785             7.366                Anadyr1           230.187
       219   03 Jun 2027 08:23:07.251   03 Jun 2027 08:23:58.025            50.774                Anadyr2          1586.687
       220   03 Jun 2027 08:24:16.317   03 Jun 2027 08:24:27.013            10.696               Magadan2           334.250
       221   03 Jun 2027 08:24:56.006   03 Jun 2027 08:25:25.320            29.314               Magadan1           916.062
       222   03 Jun 2027 08:26:26.296   03 Jun 2027 08:27:04.009            37.713                Anadyr1          1178.531
       223   03 Jun 2027 08:27:45.752   03 Jun 2027 08:28:21.674            35.922                Anadyr2          1122.563
       224   03 Jun 2027 08:36:07.698   03 Jun 2027 08:36:34.725            27.027                 Moscow           844.594
       225   03 Jun 2027 09:56:59.217   03 Jun 2027 09:57:58.015            58.798               Magadan2          1837.438
       226   03 Jun 2027 09:58:21.723   03 Jun 2027 09:58:55.376            33.653               Magadan1          1051.656
       227   03 Jun 2027 10:00:44.991   03 Jun 2027 10:01:39.335            54.344               Magadan1          1698.250
       228   03 Jun 2027 10:02:41.124   03 Jun 2027 10:03:01.643            20.519               Magadan1           641.219
       229   03 Jun 2027 10:03:16.857   03 Jun 2027 10:03:41.989            25.132               Magadan2           785.375
       230   03 Jun 2027 10:03:43.886   03 Jun 2027 10:04:13.769            29.883                Norilsk           933.844
       231   03 Jun 2027 10:04:19.400   03 Jun 2027 10:04:32.475            13.075                Norilsk           408.594
       232   03 Jun 2027 10:39:19.760   03 Jun 2027 10:40:19.272            59.512            RioGallegos          1859.750
       233   03 Jun 2027 11:15:47.521   03 Jun 2027 11:17:35.136           107.615                Sumatra          3362.969
       234   03 Jun 2027 11:35:38.093   03 Jun 2027 11:36:16.483            38.390                Irkutsk          1199.687
       235   03 Jun 2027 11:36:37.156   03 Jun 2027 11:36:55.324            18.168                Irkutsk           567.750
       236   03 Jun 2027 11:37:09.054   03 Jun 2027 11:38:10.981            61.927                Irkutsk          1935.219
       237   03 Jun 2027 11:38:24.979   03 Jun 2027 11:39:04.475            39.496                Norilsk          1234.250
       238   03 Jun 2027 11:39:12.893   03 Jun 2027 11:39:15.933             3.040                Novosib            95.000
       239   03 Jun 2027 11:39:20.925   03 Jun 2027 11:39:34.523            13.598                Norilsk           424.938
       240   03 Jun 2027 11:39:36.396   03 Jun 2027 11:39:53.392            16.996                Novosib           531.125
       241   03 Jun 2027 11:40:01.429   03 Jun 2027 11:40:27.300            25.871                Irkutsk           808.469
       242   03 Jun 2027 12:15:51.050   03 Jun 2027 12:16:20.599            29.549            RioGallegos           923.406
       243   03 Jun 2027 12:17:57.851   03 Jun 2027 12:20:16.466           138.615            RioGallegos          4331.719
       244   03 Jun 2027 13:05:02.437   03 Jun 2027 13:06:11.585            69.148                Novosib          2160.875
       245   03 Jun 2027 13:06:46.891   03 Jun 2027 13:07:12.384            25.493                Novosib           796.656
       246   03 Jun 2027 13:08:38.914   03 Jun 2027 13:09:28.744            49.830                Irkutsk          1557.187
       247   03 Jun 2027 13:09:44.785   03 Jun 2027 13:10:21.372            36.587                Norilsk          1143.344
       248   03 Jun 2027 14:34:54.523   03 Jun 2027 14:36:10.263            75.740                  Delhi          2366.875
       249   03 Jun 2027 14:39:18.309   03 Jun 2027 14:40:07.042            48.733                  Delhi          1522.906
       250   03 Jun 2027 14:41:55.803   03 Jun 2027 14:42:58.951            63.148                  Delhi          1973.375
       251   03 Jun 2027 14:43:09.891   03 Jun 2027 14:46:04.535           174.644                Novosib          5457.625
       252   03 Jun 2027 14:46:50.370   03 Jun 2027 14:48:09.358            78.988                Novosib          2468.375
       253   03 Jun 2027 14:50:57.643   03 Jun 2027 14:51:30.484            32.841                Norilsk          1026.281
       254   03 Jun 2027 16:18:37.250   03 Jun 2027 16:21:55.625           198.375                 Moscow          6199.219
       255   03 Jun 2027 16:22:08.616   03 Jun 2027 16:22:54.498            45.882              Murmansk2          1433.813
       256   03 Jun 2027 16:27:17.033   03 Jun 2027 16:27:49.399            32.366              Murmansk1          1011.437
       257   03 Jun 2027 16:27:51.684   03 Jun 2027 16:32:18.574           266.890                Norilsk          8340.313
       258   03 Jun 2027 17:42:45.717   03 Jun 2027 17:43:23.981            38.264               CapeTown          1195.750
       259   03 Jun 2027 17:57:10.944   03 Jun 2027 18:01:33.659           262.715                 Moscow          8209.844
       260   03 Jun 2027 18:14:45.335   03 Jun 2027 18:15:13.024            27.689                Anadyr1           865.281
       261   03 Jun 2027 19:08:23.577   03 Jun 2027 19:09:55.819            92.242               CapeTown          2882.562
       262   03 Jun 2027 19:16:43.374   03 Jun 2027 19:18:08.490            85.116               CapeTown          2659.875
       263   03 Jun 2027 19:40:01.116   03 Jun 2027 19:44:38.534           277.418              Murmansk1          8669.313
       264   03 Jun 2027 19:53:40.634   03 Jun 2027 19:53:48.161             7.527               Magadan1           235.219
       265   03 Jun 2027 19:53:48.161   03 Jun 2027 19:54:08.507            20.346               Magadan2           635.813
       266   03 Jun 2027 19:59:30.581   03 Jun 2027 20:00:04.478            33.897               Magadan1          1059.281
       267   03 Jun 2027 21:24:32.499   03 Jun 2027 21:28:17.506           225.007                Anadyr2          7031.469
       268   03 Jun 2027 21:28:21.047   03 Jun 2027 21:30:52.491           151.444               Magadan2          4732.625
       269   03 Jun 2027 21:30:59.680   03 Jun 2027 21:31:33.390            33.710               Magadan2          1053.437
       270   03 Jun 2027 21:33:22.895   03 Jun 2027 21:33:26.388             3.493               Magadan2           109.156
       271   03 Jun 2027 21:35:17.901   03 Jun 2027 21:35:58.654            40.753               Magadan1          1273.531
       272   03 Jun 2027 22:19:54.611   03 Jun 2027 22:22:39.966           165.355            RioGallegos          5167.344
       273   03 Jun 2027 22:25:47.788   03 Jun 2027 22:26:10.040            22.252            RioGallegos           695.375
       274   03 Jun 2027 23:00:19.203   03 Jun 2027 23:02:22.903           123.700                Anadyr2          3865.625
       275   03 Jun 2027 23:02:24.902   03 Jun 2027 23:03:19.065            54.163                Norilsk          1692.594
       276   03 Jun 2027 23:04:01.635   03 Jun 2027 23:04:28.378            26.743               Magadan2           835.719
       277   03 Jun 2027 23:05:12.556   03 Jun 2027 23:05:48.325            35.769                Norilsk          1117.781
       278   03 Jun 2027 23:07:02.974   03 Jun 2027 23:07:56.093            53.119                Irkutsk          1659.969
       279   03 Jun 2027 23:09:05.395   03 Jun 2027 23:09:30.517            25.122                Irkutsk           785.062
       280   03 Jun 2027 23:15:02.004   03 Jun 2027 23:15:27.194            25.190                Irkutsk           787.187
       281   03 Jun 2027 23:21:28.050   03 Jun 2027 23:22:54.443            86.393                Sumatra          2699.781
       282   03 Jun 2027 23:26:00.307   03 Jun 2027 23:27:33.796            93.489                Sumatra          2921.531
       283   04 Jun 2027 00:35:27.703   04 Jun 2027 00:37:37.226           129.523                Anadyr1          4047.594
       284   04 Jun 2027 00:38:16.205   04 Jun 2027 00:39:09.918            53.713                Norilsk          1678.531
       285   04 Jun 2027 00:39:11.624   04 Jun 2027 00:39:25.482            13.858               Magadan1           433.063
       286   04 Jun 2027 00:39:44.786   04 Jun 2027 00:40:11.712            26.926               Magadan2           841.437
       287   04 Jun 2027 00:40:29.357   04 Jun 2027 00:40:36.480             7.123               Magadan2           222.594
       288   04 Jun 2027 00:41:28.386   04 Jun 2027 00:41:29.072             0.686               Magadan1            21.438
       289   04 Jun 2027 00:42:09.524   04 Jun 2027 00:44:17.574           128.050                Irkutsk          4001.563
       290   04 Jun 2027 00:47:00.293   04 Jun 2027 00:48:10.998            70.705                Novosib          2209.531
       291   04 Jun 2027 00:51:54.931   04 Jun 2027 00:53:43.563           108.632                  Delhi          3394.750
       292   04 Jun 2027 01:06:11.619   04 Jun 2027 01:07:30.955            79.336                Sumatra          2479.250
       293   04 Jun 2027 01:39:35.238   04 Jun 2027 01:40:01.242            26.004            RioGallegos           812.625
       294   04 Jun 2027 02:09:23.589   04 Jun 2027 02:09:25.289             1.700                Anadyr2            53.125
       295   04 Jun 2027 02:09:30.926   04 Jun 2027 02:09:41.282            10.356                Anadyr1           323.625
       296   04 Jun 2027 02:10:36.986   04 Jun 2027 02:11:14.742            37.756                Anadyr1          1179.875
       297   04 Jun 2027 02:11:40.067   04 Jun 2027 02:11:57.284            17.217                Anadyr2           538.031
       298   04 Jun 2027 02:14:17.179   04 Jun 2027 02:16:10.655           113.476                Norilsk          3546.125
       299   04 Jun 2027 02:16:55.555   04 Jun 2027 02:17:16.458            20.903              Murmansk1           653.219
       300   04 Jun 2027 02:17:37.958   04 Jun 2027 02:18:11.858            33.900              Murmansk1          1059.375
       301   04 Jun 2027 02:18:25.006   04 Jun 2027 02:19:33.058            68.052                Irkutsk          2126.625
       302   04 Jun 2027 02:19:42.631   04 Jun 2027 02:20:04.196            21.565                Irkutsk           673.906
       303   04 Jun 2027 02:25:24.334   04 Jun 2027 02:27:42.498           138.164                  Delhi          4317.625
       304   04 Jun 2027 03:07:47.113   04 Jun 2027 03:10:47.597           180.484            RioGallegos          5640.125
       305   04 Jun 2027 03:11:26.951   04 Jun 2027 03:12:12.682            45.731            RioGallegos          1429.094
       306   04 Jun 2027 03:59:45.611   04 Jun 2027 04:00:00.247            14.636                Norilsk           457.375
       307   04 Jun 2027 04:00:24.515   04 Jun 2027 04:01:38.717            74.202                Norilsk          2318.812
       308   04 Jun 2027 04:02:00.519   04 Jun 2027 04:02:15.782            15.263              Murmansk2           476.969
       309   04 Jun 2027 04:02:23.963   04 Jun 2027 04:03:12.766            48.803                 Moscow          1525.094
       310   04 Jun 2027 04:03:32.977   04 Jun 2027 04:03:40.714             7.737              Murmansk1           241.781
       311   04 Jun 2027 04:03:54.458   04 Jun 2027 04:04:50.037            55.579                Novosib          1736.844
       312   04 Jun 2027 04:05:31.542   04 Jun 2027 04:08:45.222           193.680                  Delhi          6052.500
       313   04 Jun 2027 05:26:38.339   04 Jun 2027 05:28:29.039           110.700               Magadan1          3459.375
       314   04 Jun 2027 05:28:48.150   04 Jun 2027 05:28:50.872             2.722                Anadyr1            85.063
       315   04 Jun 2027 05:36:31.800   04 Jun 2027 05:37:21.579            49.779                 Moscow          1555.594
       316   04 Jun 2027 05:38:44.969   04 Jun 2027 05:39:13.363            28.394                 Moscow           887.312
       317   04 Jun 2027 05:43:05.303   04 Jun 2027 05:43:30.151            24.848                 Moscow           776.500
       318   04 Jun 2027 05:55:33.502   04 Jun 2027 05:57:43.648           130.146               CapeTown          4067.062
       319   04 Jun 2027 06:58:01.336   04 Jun 2027 06:59:18.514            77.178                Anadyr1          2411.812
       320   04 Jun 2027 06:59:33.436   04 Jun 2027 07:00:01.590            28.154               Magadan1           879.813
       321   04 Jun 2027 07:00:03.288   04 Jun 2027 07:00:42.204            38.916                Anadyr1          1216.125
       322   04 Jun 2027 07:02:00.982   04 Jun 2027 07:03:00.755            59.773                Anadyr2          1867.906
       323   04 Jun 2027 08:34:53.485   04 Jun 2027 08:35:15.193            21.708                Anadyr2           678.375
       324   04 Jun 2027 08:35:19.670   04 Jun 2027 08:35:58.751            39.081               Magadan1          1221.281
       325   04 Jun 2027 08:36:08.930   04 Jun 2027 08:37:11.115            62.185                Anadyr1          1943.281
       326   04 Jun 2027 08:37:29.538   04 Jun 2027 08:38:43.281            73.743               Magadan1          2304.469
       327   04 Jun 2027 08:39:05.398   04 Jun 2027 08:40:14.813            69.415                Anadyr1          2169.219
       328   04 Jun 2027 10:10:13.761   04 Jun 2027 10:10:35.719            21.958               Magadan1           686.187
       329   04 Jun 2027 10:10:42.593   04 Jun 2027 10:11:33.367            50.774               Magadan1          1586.687
       330   04 Jun 2027 10:12:10.214   04 Jun 2027 10:12:21.730            11.516                Irkutsk           359.875
       331   04 Jun 2027 10:12:25.241   04 Jun 2027 10:12:43.077            17.836               Magadan2           557.375
       332   04 Jun 2027 10:12:45.961   04 Jun 2027 10:13:19.082            33.121                Norilsk          1035.031
       333   04 Jun 2027 10:13:22.736   04 Jun 2027 10:14:42.110            79.374               Magadan2          2480.438
       334   04 Jun 2027 10:14:54.713   04 Jun 2027 10:16:03.840            69.127                Irkutsk          2160.219
       335   04 Jun 2027 10:16:11.783   04 Jun 2027 10:16:14.882             3.099                Irkutsk            96.844
       336   04 Jun 2027 10:20:54.050   04 Jun 2027 10:20:56.629             2.579                Norilsk            80.594
       337   04 Jun 2027 10:51:13.889   04 Jun 2027 10:52:19.133            65.244            RioGallegos          2038.875
       338   04 Jun 2027 10:56:09.194   04 Jun 2027 10:57:15.024            65.830            RioGallegos          2057.188
       339   04 Jun 2027 11:47:25.623   04 Jun 2027 11:47:35.744            10.121                Irkutsk           316.281
       340   04 Jun 2027 11:47:49.840   04 Jun 2027 11:47:59.318             9.478                Irkutsk           296.188
       341   04 Jun 2027 11:48:15.677   04 Jun 2027 11:49:09.145            53.468                Norilsk          1670.875
       342   04 Jun 2027 11:49:12.830   04 Jun 2027 11:50:10.563            57.733                Irkutsk          1804.156
       343   04 Jun 2027 11:50:17.121   04 Jun 2027 11:50:17.604             0.483                Irkutsk            15.094
       344   04 Jun 2027 11:50:37.834   04 Jun 2027 11:51:07.034            29.200                Norilsk           912.500
       345   04 Jun 2027 11:51:20.611   04 Jun 2027 11:52:28.338            67.727                Irkutsk          2116.469
       346   04 Jun 2027 12:28:14.981   04 Jun 2027 12:28:38.571            23.590            RioGallegos           737.187
       347   04 Jun 2027 12:35:58.607   04 Jun 2027 12:36:09.969            11.362            RioGallegos           355.062
       348   04 Jun 2027 12:37:58.923   04 Jun 2027 12:38:11.987            13.064            RioGallegos           408.250
       349   04 Jun 2027 13:02:30.411   04 Jun 2027 13:03:43.965            73.554                Sumatra          2298.563
       350   04 Jun 2027 13:07:03.832   04 Jun 2027 13:07:34.271            30.439                Sumatra           951.219
       351   04 Jun 2027 13:10:46.996   04 Jun 2027 13:12:25.249            98.253                Sumatra          3070.406
       352   04 Jun 2027 13:17:42.811   04 Jun 2027 13:17:57.677            14.866                Irkutsk           464.563
       353   04 Jun 2027 13:20:20.911   04 Jun 2027 13:20:31.508            10.597                Novosib           331.156
       354   04 Jun 2027 13:20:36.786   04 Jun 2027 13:21:07.692            30.906                Irkutsk           965.813
       355   04 Jun 2027 13:22:59.049   04 Jun 2027 13:23:17.250            18.201                Irkutsk           568.781
       356   04 Jun 2027 13:24:13.829   04 Jun 2027 13:24:27.639            13.810                Norilsk           431.562
       357   04 Jun 2027 13:28:01.632   04 Jun 2027 13:29:15.153            73.521                Norilsk          2297.531
       358   04 Jun 2027 14:47:25.449   04 Jun 2027 14:52:30.153           304.704                  Delhi          9522.000
       359   04 Jun 2027 14:55:49.329   04 Jun 2027 14:58:01.869           132.540                Novosib          4141.875
       360   04 Jun 2027 16:30:45.436   04 Jun 2027 16:33:51.569           186.133                 Moscow          5816.656
       361   04 Jun 2027 16:34:16.653   04 Jun 2027 16:34:49.648            32.995              Murmansk1          1031.094
       362   04 Jun 2027 16:35:20.522   04 Jun 2027 16:35:23.384             2.862              Murmansk1            89.438
       363   04 Jun 2027 16:35:57.358   04 Jun 2027 16:36:58.055            60.697              Murmansk1          1896.781
       364   04 Jun 2027 16:40:55.701   04 Jun 2027 16:42:35.055            99.354                Norilsk          3104.812
       365   04 Jun 2027 16:50:14.507   04 Jun 2027 16:50:38.794            24.287                Anadyr2           758.969
       366   04 Jun 2027 17:44:17.361   04 Jun 2027 17:45:10.579            53.218               CapeTown          1663.062
       367   04 Jun 2027 17:47:00.202   04 Jun 2027 17:47:27.492            27.290               CapeTown           852.812
       368   04 Jun 2027 17:50:18.863   04 Jun 2027 17:50:23.562             4.699               CapeTown           146.844
       369   04 Jun 2027 17:51:04.796   04 Jun 2027 17:51:40.273            35.477               CapeTown          1108.656
       370   04 Jun 2027 17:54:39.867   04 Jun 2027 17:55:17.394            37.527               CapeTown          1172.719
       371   04 Jun 2027 18:09:56.498   04 Jun 2027 18:11:29.359            92.861                 Moscow          2901.906
       372   04 Jun 2027 18:12:11.774   04 Jun 2027 18:13:21.320            69.546              Murmansk2          2173.312
       373   04 Jun 2027 18:17:04.061   04 Jun 2027 18:17:13.723             9.662              Murmansk2           301.937
       374   04 Jun 2027 18:18:03.491   04 Jun 2027 18:18:07.882             4.391              Murmansk1           137.219
       375   04 Jun 2027 18:18:44.700   04 Jun 2027 18:20:41.786           117.086              Murmansk1          3658.937
       376   04 Jun 2027 18:35:50.609   04 Jun 2027 18:36:01.021            10.412                Anadyr2           325.375
       377   04 Jun 2027 19:20:39.791   04 Jun 2027 19:21:58.948            79.157               CapeTown          2473.656
       378   04 Jun 2027 19:25:07.888   04 Jun 2027 19:25:22.768            14.880               CapeTown           465.000
       379   04 Jun 2027 19:27:38.549   04 Jun 2027 19:28:28.995            50.446               CapeTown          1576.437
       380   04 Jun 2027 19:52:53.919   04 Jun 2027 19:57:22.189           268.270              Murmansk2          8383.437
       381   04 Jun 2027 20:03:20.440   04 Jun 2027 20:03:31.390            10.950               Magadan2           342.187
       382   04 Jun 2027 20:03:34.154   04 Jun 2027 20:03:53.035            18.881               Magadan2           590.031
       383   04 Jun 2027 20:06:44.026   04 Jun 2027 20:06:57.239            13.213               Magadan1           412.906
       384   04 Jun 2027 20:09:19.986   04 Jun 2027 20:09:30.734            10.748               Magadan1           335.875
       385   04 Jun 2027 20:10:08.585   04 Jun 2027 20:11:10.954            62.369               Magadan1          1949.031
       386   04 Jun 2027 21:36:33.956   04 Jun 2027 21:41:43.521           309.565                Anadyr2          9673.906
       387   04 Jun 2027 21:42:05.379   04 Jun 2027 21:44:52.992           167.613               Magadan1          5237.906
       388   04 Jun 2027 22:31:30.820   04 Jun 2027 22:33:13.859           103.039            RioGallegos          3219.969
       389   04 Jun 2027 22:34:21.995   04 Jun 2027 22:34:39.700            17.705            RioGallegos           553.281
       390   04 Jun 2027 22:36:50.462   04 Jun 2027 22:36:56.884             6.422            RioGallegos           200.687
       391   04 Jun 2027 22:37:53.380   04 Jun 2027 22:38:03.682            10.302            RioGallegos           321.937
       392   04 Jun 2027 23:12:17.771   04 Jun 2027 23:13:40.383            82.612                Anadyr2          2581.625
       393   04 Jun 2027 23:13:41.017   04 Jun 2027 23:14:08.516            27.499                Anadyr1           859.344
       394   04 Jun 2027 23:14:24.292   04 Jun 2027 23:16:01.436            97.144                Norilsk          3035.750
       395   04 Jun 2027 23:16:05.884   04 Jun 2027 23:17:20.940            75.056               Magadan1          2345.500
       396   04 Jun 2027 23:17:59.411   04 Jun 2027 23:18:28.771            29.360               Magadan2           917.500
       397   04 Jun 2027 23:18:51.209   04 Jun 2027 23:19:39.349            48.140                Irkutsk          1504.375
       398   04 Jun 2027 23:27:29.758   04 Jun 2027 23:27:30.609             0.851                Irkutsk            26.594
       399   04 Jun 2027 23:32:57.520   04 Jun 2027 23:35:59.867           182.347                Sumatra          5698.344
       400   05 Jun 2027 00:15:21.819   05 Jun 2027 00:15:49.405            27.586            RioGallegos           862.063
       401   05 Jun 2027 00:47:18.556   05 Jun 2027 00:49:37.723           139.167                Anadyr1          4348.969
       402   05 Jun 2027 00:50:32.029   05 Jun 2027 00:52:01.826            89.797                Norilsk          2806.156
       403   05 Jun 2027 00:52:32.038   05 Jun 2027 00:52:58.810            26.772               Magadan2           836.625
       404   05 Jun 2027 00:54:10.840   05 Jun 2027 00:54:58.298            47.458                Irkutsk          1483.062
       405   05 Jun 2027 00:55:06.617   05 Jun 2027 00:56:03.977            57.360                Novosib          1792.500
       406   05 Jun 2027 00:57:43.803   05 Jun 2027 00:58:51.624            67.821                Novosib          2119.406
       407   05 Jun 2027 01:02:54.887   05 Jun 2027 01:03:37.741            42.854                  Delhi          1339.188
       408   05 Jun 2027 01:08:42.705   05 Jun 2027 01:09:56.543            73.838                Sumatra          2307.437
       409   05 Jun 2027 01:43:30.105   05 Jun 2027 01:43:49.797            19.692            RioGallegos           615.375
       410   05 Jun 2027 01:46:56.508   05 Jun 2027 01:47:14.833            18.325            RioGallegos           572.656
       411   05 Jun 2027 01:47:36.960   05 Jun 2027 01:48:08.343            31.383            RioGallegos           980.719
       412   05 Jun 2027 01:52:59.421   05 Jun 2027 01:53:05.705             6.284            RioGallegos           196.375
       413   05 Jun 2027 01:53:17.635   05 Jun 2027 01:53:44.452            26.817            RioGallegos           838.031
       414   05 Jun 2027 02:21:39.062   05 Jun 2027 02:22:16.354            37.292                Anadyr2          1165.375
       415   05 Jun 2027 02:26:19.227   05 Jun 2027 02:27:56.811            97.584                Norilsk          3049.500
       416   05 Jun 2027 02:28:49.288   05 Jun 2027 02:30:29.603           100.315              Murmansk2          3134.844
       417   05 Jun 2027 02:30:33.002   05 Jun 2027 02:31:04.951            31.949                Irkutsk           998.406
       418   05 Jun 2027 02:32:23.156   05 Jun 2027 02:33:37.371            74.215                Irkutsk          2319.219
       419   05 Jun 2027 02:41:21.308   05 Jun 2027 02:41:37.206            15.898                  Delhi           496.812
       420   05 Jun 2027 02:43:39.481   05 Jun 2027 02:45:36.140           116.659                  Delhi          3645.594
       421   05 Jun 2027 03:20:23.086   05 Jun 2027 03:20:52.723            29.637            RioGallegos           926.156
       422   05 Jun 2027 03:22:30.899   05 Jun 2027 03:24:07.470            96.571            RioGallegos          3017.844
       423   05 Jun 2027 04:10:46.268   05 Jun 2027 04:11:57.496            71.228                Novosib          2225.875
       424   05 Jun 2027 04:12:24.568   05 Jun 2027 04:14:51.319           146.751              Murmansk1          4585.969
       425   05 Jun 2027 04:14:51.319   05 Jun 2027 04:16:00.337            69.018              Murmansk2          2156.813
       426   05 Jun 2027 04:16:45.071   05 Jun 2027 04:16:51.155             6.084                Novosib           190.125
       427   05 Jun 2027 04:17:28.818   05 Jun 2027 04:19:07.391            98.573                 Moscow          3080.406
       428   05 Jun 2027 05:48:26.600   05 Jun 2027 05:48:49.729            23.129              Murmansk2           722.781
       429   05 Jun 2027 05:52:19.362   05 Jun 2027 05:53:30.556            71.194                 Moscow          2224.813
       430   05 Jun 2027 06:07:44.983   05 Jun 2027 06:09:34.130           109.147               CapeTown          3410.844
       431   05 Jun 2027 06:12:18.636   05 Jun 2027 06:12:37.166            18.530               CapeTown           579.062
       432   05 Jun 2027 07:10:33.873   05 Jun 2027 07:10:55.112            21.239               Magadan2           663.719
       433   05 Jun 2027 07:10:55.112   05 Jun 2027 07:11:00.212             5.100               Magadan1           159.375
       434   05 Jun 2027 07:11:19.373   05 Jun 2027 07:12:41.477            82.104                Anadyr2          2565.750
       435   05 Jun 2027 07:12:56.537   05 Jun 2027 07:13:12.978            16.441               Magadan1           513.781
       436   05 Jun 2027 07:13:22.752   05 Jun 2027 07:14:11.147            48.395                Anadyr1          1512.344
       437   05 Jun 2027 07:19:57.172   05 Jun 2027 07:20:26.866            29.694                 Moscow           927.937
       438   05 Jun 2027 08:46:47.934   05 Jun 2027 08:47:43.298            55.364                Anadyr2          1730.125
       439   05 Jun 2027 08:47:49.643   05 Jun 2027 08:47:53.274             3.631               Magadan2           113.469
       440   05 Jun 2027 08:47:54.528   05 Jun 2027 08:49:10.232            75.704                Anadyr2          2365.750
       441   05 Jun 2027 08:49:27.806   05 Jun 2027 08:49:36.393             8.587               Magadan1           268.344
       442   05 Jun 2027 08:49:36.393   05 Jun 2027 08:50:33.812            57.419               Magadan2          1794.344
       443   05 Jun 2027 08:51:06.540   05 Jun 2027 08:51:46.460            39.920                Anadyr2          1247.500
       444   05 Jun 2027 10:22:02.987   05 Jun 2027 10:23:06.815            63.828               Magadan1          1994.625
       445   05 Jun 2027 10:23:19.835   05 Jun 2027 10:23:43.857            24.022               Magadan1           750.687
       446   05 Jun 2027 10:24:21.764   05 Jun 2027 10:25:22.329            60.565                Irkutsk          1892.656
       447   05 Jun 2027 10:26:28.173   05 Jun 2027 10:26:55.955            27.782                Irkutsk           868.188
       448   05 Jun 2027 10:27:11.856   05 Jun 2027 10:27:24.618            12.762                Norilsk           398.812
       449   05 Jun 2027 10:28:01.124   05 Jun 2027 10:28:21.579            20.455                Irkutsk           639.219
       450   05 Jun 2027 11:03:11.278   05 Jun 2027 11:04:17.860            66.582            RioGallegos          2080.688
       451   05 Jun 2027 11:15:09.293   05 Jun 2027 11:15:37.055            27.762            RioGallegos           867.562
       452   05 Jun 2027 11:38:45.697   05 Jun 2027 11:40:01.976            76.279                Sumatra          2383.719
       453   05 Jun 2027 11:59:33.327   05 Jun 2027 11:59:47.671            14.344                Norilsk           448.250
       454   05 Jun 2027 11:59:51.871   05 Jun 2027 12:00:20.032            28.161                Norilsk           880.031
       455   05 Jun 2027 12:01:35.182   05 Jun 2027 12:04:28.424           173.242                Irkutsk          5413.813
       456   05 Jun 2027 12:45:50.105   05 Jun 2027 12:46:45.487            55.382            RioGallegos          1730.688
       457   05 Jun 2027 12:49:59.889   05 Jun 2027 12:50:46.164            46.275            RioGallegos          1446.094
       458   05 Jun 2027 13:20:08.555   05 Jun 2027 13:20:40.810            32.255                Sumatra          1007.969
       459   05 Jun 2027 13:21:44.769   05 Jun 2027 13:22:35.129            50.360                Sumatra          1573.750
       460   05 Jun 2027 13:30:25.167   05 Jun 2027 13:32:33.246           128.079                Irkutsk          4002.469
       461   05 Jun 2027 13:36:03.392   05 Jun 2027 13:36:37.465            34.073                Irkutsk          1064.781
       462   05 Jun 2027 13:42:08.027   05 Jun 2027 13:42:21.837            13.810                Norilsk           431.562
       463   05 Jun 2027 13:43:25.042   05 Jun 2027 13:44:14.177            49.135                Norilsk          1535.469
       464   05 Jun 2027 15:00:07.245   05 Jun 2027 15:04:55.906           288.661                  Delhi          9020.656
       465   05 Jun 2027 15:08:36.778   05 Jun 2027 15:09:52.217            75.439                Novosib          2357.469
       466   05 Jun 2027 15:13:26.784   05 Jun 2027 15:15:15.920           109.136                Novosib          3410.500
       467   05 Jun 2027 16:25:38.192   05 Jun 2027 16:25:41.410             3.218               CapeTown           100.563
       468   05 Jun 2027 16:26:29.696   05 Jun 2027 16:27:15.091            45.395               CapeTown          1418.594
       469   05 Jun 2027 16:42:56.885   05 Jun 2027 16:43:53.706            56.821                 Moscow          1775.656
       470   05 Jun 2027 16:46:26.475   05 Jun 2027 16:46:42.400            15.925              Murmansk1           497.656
       471   05 Jun 2027 16:46:42.400   05 Jun 2027 16:46:49.580             7.180              Murmansk2           224.375
       472   05 Jun 2027 16:47:08.614   05 Jun 2027 16:47:19.776            11.162                 Moscow           348.813
       473   05 Jun 2027 16:48:57.259   05 Jun 2027 16:49:26.418            29.159              Murmansk1           911.219
       474   05 Jun 2027 16:53:13.081   05 Jun 2027 16:53:39.386            26.305              Murmansk1           822.031
       475   05 Jun 2027 16:54:42.476   05 Jun 2027 16:55:20.352            37.876                Norilsk          1183.625
       476   05 Jun 2027 16:58:30.467   05 Jun 2027 16:59:02.376            31.909              Murmansk2           997.156
       477   05 Jun 2027 17:01:51.647   05 Jun 2027 17:02:37.822            46.175                Anadyr2          1442.969
       478   05 Jun 2027 17:03:39.120   05 Jun 2027 17:04:10.387            31.267                Anadyr2           977.094
       479   05 Jun 2027 17:07:45.873   05 Jun 2027 17:07:53.207             7.334                Anadyr2           229.188
       480   05 Jun 2027 17:56:12.011   05 Jun 2027 17:56:41.033            29.022               CapeTown           906.937
       481   05 Jun 2027 17:59:01.726   05 Jun 2027 17:59:13.564            11.838               CapeTown           369.937
       482   05 Jun 2027 17:59:38.838   05 Jun 2027 17:59:53.177            14.339               CapeTown           448.094
