uniorb/output/strategy_4/Drop/Drop_KinoSat_110202.txt

KinoSat_110202
-------------------------
    Access    *     Start Time (UTCG)     *     Stop Time (UTCG)  *   Duration (s)        *       Station  *  Data (Mbytes)
         1   01 Jun 2027 03:00:13.544   01 Jun 2027 03:00:58.708            45.164               Magadan2          5645.500
         2   01 Jun 2027 03:36:02.464   01 Jun 2027 03:37:35.806            93.342            RioGallegos          8966.500
         3   01 Jun 2027 04:33:23.479   01 Jun 2027 04:34:16.554            53.075                Norilsk          6634.375
         4   01 Jun 2027 04:34:17.115   01 Jun 2027 04:34:23.372             6.257                Norilsk           782.125
         5   01 Jun 2027 04:34:25.771   01 Jun 2027 04:35:26.008            60.237                Norilsk          7529.625
         6   01 Jun 2027 04:35:38.778   01 Jun 2027 04:36:04.842            26.064              Murmansk1          3258.000
         7   01 Jun 2027 04:36:34.856   01 Jun 2027 04:37:58.431            83.575              Murmansk2         10446.875
         8   01 Jun 2027 05:14:39.694   01 Jun 2027 05:14:44.410             4.716            RioGallegos           589.500
         9   01 Jun 2027 05:15:27.207   01 Jun 2027 05:15:38.411            11.204            RioGallegos          1400.500
        10   01 Jun 2027 05:15:56.964   01 Jun 2027 05:16:25.014            28.050            RioGallegos          3506.250
        11   01 Jun 2027 05:47:54.018   01 Jun 2027 05:48:56.928            62.910                Sumatra          7863.750
        12   01 Jun 2027 05:50:03.705   01 Jun 2027 05:51:48.763           105.058                Sumatra         13132.250
        13   01 Jun 2027 05:55:17.409   01 Jun 2027 05:58:17.042           179.633                  Delhi         22454.125
        14   01 Jun 2027 06:11:13.121   01 Jun 2027 06:12:28.728            75.607                Novosib          9450.875
        15   01 Jun 2027 07:47:16.953   01 Jun 2027 07:48:19.588            62.635                Novosib          7829.375
        16   01 Jun 2027 07:48:48.662   01 Jun 2027 07:50:23.650            94.988                 Moscow         11873.500
        17   01 Jun 2027 08:57:21.110   01 Jun 2027 08:58:49.548            88.438               CapeTown         11054.750
        18   01 Jun 2027 11:09:41.537   01 Jun 2027 11:10:30.941            49.404                Anadyr2          6175.500
        19   01 Jun 2027 11:11:31.710   01 Jun 2027 11:13:30.390           118.680                Anadyr1         14835.000
        20   01 Jun 2027 11:14:27.603   01 Jun 2027 11:15:08.293            40.690                Anadyr1          5086.250
        21   01 Jun 2027 12:48:07.164   01 Jun 2027 12:50:12.643           125.479               Magadan2         15684.875
        22   01 Jun 2027 12:52:33.069   01 Jun 2027 12:53:24.023            50.954               Magadan1          6369.250
        23   01 Jun 2027 12:54:48.202   01 Jun 2027 12:59:17.980           269.778               Magadan2         33722.250
        24   01 Jun 2027 15:16:04.407   01 Jun 2027 15:17:58.779           114.372            RioGallegos         14296.500
        25   01 Jun 2027 16:03:33.763   01 Jun 2027 16:07:10.077           216.314                Irkutsk         27039.250
        26   01 Jun 2027 16:17:24.321   01 Jun 2027 16:19:43.396           139.075                Sumatra         17384.375
        27   01 Jun 2027 17:39:17.715   01 Jun 2027 17:41:06.902           109.187                Novosib         13648.375
        28   01 Jun 2027 17:47:16.565   01 Jun 2027 17:51:17.558           240.993                  Delhi         21623.000
        29   02 Jun 2027 03:13:40.263   02 Jun 2027 03:14:29.752            49.489                Novosib          6186.125
        30   02 Jun 2027 03:14:33.831   02 Jun 2027 03:17:56.508           202.677                Norilsk         25334.625
        31   02 Jun 2027 04:23:16.706   02 Jun 2027 04:27:54.179           277.473                Sumatra         34684.125
        32   02 Jun 2027 04:46:24.360   02 Jun 2027 04:49:17.580           173.220                Irkutsk         21652.500
        33   02 Jun 2027 04:49:34.166   02 Jun 2027 04:50:02.182            28.016                 Moscow          3502.000
        34   02 Jun 2027 04:50:07.493   02 Jun 2027 04:54:20.858           253.365                Norilsk         31670.625
        35   02 Jun 2027 04:54:21.792   02 Jun 2027 04:56:44.983           143.191              Murmansk2         17898.875
        36   02 Jun 2027 06:04:01.526   02 Jun 2027 06:04:51.805            50.279                Sumatra          6284.875
        37   02 Jun 2027 06:10:04.231   02 Jun 2027 06:12:27.535           143.304                  Delhi         17913.000
        38   02 Jun 2027 06:24:56.533   02 Jun 2027 06:28:06.073           189.540                 Moscow         23692.500
        39   02 Jun 2027 06:28:07.256   02 Jun 2027 06:32:08.067           240.811              Murmansk2         30101.375
        40   02 Jun 2027 07:52:50.644   02 Jun 2027 07:54:24.141            93.497                 Moscow         11687.125
        41   02 Jun 2027 07:54:32.962   02 Jun 2027 07:55:23.922            50.960                 Moscow          6370.000
        42   02 Jun 2027 07:55:37.664   02 Jun 2027 07:56:09.561            31.897              Murmansk1          3987.125
        43   02 Jun 2027 08:00:38.826   02 Jun 2027 08:00:58.892            20.066                 Moscow          2508.250
        44   02 Jun 2027 08:01:55.970   02 Jun 2027 08:04:23.401           147.431                Norilsk         18428.875
        45   02 Jun 2027 08:04:35.534   02 Jun 2027 08:07:56.882           201.348              Murmansk2         25168.500
        46   02 Jun 2027 09:12:10.585   02 Jun 2027 09:14:29.785           139.200               CapeTown         17400.000
        47   02 Jun 2027 09:30:39.071   02 Jun 2027 09:31:25.705            46.634                 Moscow          5829.250
        48   02 Jun 2027 09:34:29.101   02 Jun 2027 09:35:47.880            78.779              Murmansk2          9847.375
        49   02 Jun 2027 09:35:52.680   02 Jun 2027 09:40:10.985           258.305                 Moscow         32288.125
        50   02 Jun 2027 09:40:13.595   02 Jun 2027 09:43:54.895           221.300              Murmansk1         27662.500
        51   02 Jun 2027 09:46:29.567   02 Jun 2027 09:51:11.171           281.604                Anadyr2         35200.500
        52   02 Jun 2027 11:21:40.925   02 Jun 2027 11:22:21.855            40.930                Anadyr2          5116.250
        53   02 Jun 2027 11:31:06.084   02 Jun 2027 11:33:40.832           154.748                Anadyr2         19343.500
        54   02 Jun 2027 13:00:03.058   02 Jun 2027 13:01:36.441            93.383               Magadan2         11672.875
        55   02 Jun 2027 13:01:48.354   02 Jun 2027 13:04:42.452           174.098               Magadan1         21762.250
        56   02 Jun 2027 15:27:51.853   02 Jun 2027 15:31:18.389           206.536            RioGallegos         25817.000
        57   02 Jun 2027 16:15:27.208   02 Jun 2027 16:17:31.480           124.272                Irkutsk         15534.000
        58   02 Jun 2027 16:29:10.688   02 Jun 2027 16:31:58.723           168.035                Sumatra         21004.375
        59   02 Jun 2027 17:51:14.093   02 Jun 2027 17:52:39.213            85.120                Novosib         10640.000
        60   02 Jun 2027 17:58:57.982   02 Jun 2027 18:03:15.813           257.831                  Delhi         32228.875
        61   02 Jun 2027 21:28:58.087   02 Jun 2027 21:30:39.423           101.336               CapeTown         12667.000
        62   02 Jun 2027 23:07:46.410   02 Jun 2027 23:08:08.126            21.716               CapeTown          2714.500
        63   03 Jun 2027 03:25:29.067   03 Jun 2027 03:26:36.681            67.614                Novosib          8451.750
        64   03 Jun 2027 03:26:38.527   03 Jun 2027 03:31:27.038           288.511              Murmansk1         36063.875
        65   03 Jun 2027 04:35:06.181   03 Jun 2027 04:38:03.955           177.774                Sumatra         22221.750
        66   03 Jun 2027 05:01:31.924   03 Jun 2027 05:02:53.400            81.476                 Moscow         10184.500
        67   03 Jun 2027 05:03:06.790   03 Jun 2027 05:06:22.597           195.807                Norilsk         24475.875
        68   03 Jun 2027 05:06:44.752   03 Jun 2027 05:08:40.138           115.386              Murmansk2         14423.250
        69   03 Jun 2027 06:26:41.982   03 Jun 2027 06:31:57.052           315.070                  Delhi         39383.750
        70   03 Jun 2027 06:37:16.663   03 Jun 2027 06:40:12.434           175.771                 Moscow         21971.375
        71   03 Jun 2027 06:40:29.642   03 Jun 2027 06:44:07.498           217.856              Murmansk2         27232.000
        72   03 Jun 2027 08:13:57.789   03 Jun 2027 08:14:48.034            50.245                Norilsk          6280.625
        73   03 Jun 2027 08:15:14.890   03 Jun 2027 08:19:58.281           283.391              Murmansk1         35423.875
        74   03 Jun 2027 09:24:35.956   03 Jun 2027 09:27:34.628           178.672               CapeTown         22334.000
        75   03 Jun 2027 09:46:30.549   03 Jun 2027 09:47:40.863            70.314              Murmansk2          8789.250
        76   03 Jun 2027 09:48:03.022   03 Jun 2027 09:52:06.519           243.497                 Moscow         30437.125
        77   03 Jun 2027 09:52:21.354   03 Jun 2027 09:55:56.410           215.056              Murmansk1         26882.000
        78   03 Jun 2027 09:58:28.781   03 Jun 2027 10:06:43.547           494.766                Anadyr1         61845.750
        79   03 Jun 2027 11:00:49.587   03 Jun 2027 11:05:46.686           297.099               CapeTown         37137.375
        80   03 Jun 2027 11:27:05.646   03 Jun 2027 11:28:14.507            68.861              Murmansk2          8607.625
        81   03 Jun 2027 11:28:14.507   03 Jun 2027 11:31:43.340           208.833              Murmansk1         26104.125
        82   03 Jun 2027 11:34:15.234   03 Jun 2027 11:45:56.429           701.195                Anadyr1         87649.375
        83   03 Jun 2027 13:09:33.761   03 Jun 2027 13:12:33.162           179.401                Anadyr2         22425.125
        84   03 Jun 2027 13:14:10.360   03 Jun 2027 13:17:48.160           217.800               Magadan2         27225.000
        85   03 Jun 2027 13:19:51.399   03 Jun 2027 13:20:02.921            11.522               Magadan2          1440.250
        86   03 Jun 2027 13:22:48.147   03 Jun 2027 13:23:59.946            71.799               Magadan1          8974.875
        87   03 Jun 2027 15:39:42.409   03 Jun 2027 15:44:13.205           270.796            RioGallegos         33849.500
        88   03 Jun 2027 15:44:37.809   03 Jun 2027 15:45:14.908            37.099            RioGallegos          4637.375
        89   03 Jun 2027 16:27:22.464   03 Jun 2027 16:29:07.654           105.190                Irkutsk         13148.750
        90   03 Jun 2027 16:36:54.274   03 Jun 2027 16:38:20.812            86.538                Irkutsk         10817.250
        91   03 Jun 2027 16:44:07.692   03 Jun 2027 16:44:55.758            48.066                Sumatra          6008.250
        92   03 Jun 2027 18:05:00.431   03 Jun 2027 18:05:59.156            58.725                Novosib          7340.625
        93   03 Jun 2027 18:07:56.733   03 Jun 2027 18:08:16.969            20.236                Novosib          2529.500
        94   03 Jun 2027 18:09:55.022   03 Jun 2027 18:10:40.295            45.273                Novosib          5659.125
        95   03 Jun 2027 18:10:44.812   03 Jun 2027 18:13:11.255           146.443                  Delhi         18305.375
        96   03 Jun 2027 19:41:55.944   03 Jun 2027 19:42:25.368            29.424                 Moscow          3678.000
        97   03 Jun 2027 21:13:23.609   03 Jun 2027 21:13:38.980            15.371              Murmansk1          1921.375
        98   03 Jun 2027 21:17:17.882   03 Jun 2027 21:17:39.127            21.245                 Moscow          2655.625
        99   03 Jun 2027 21:19:53.116   03 Jun 2027 21:21:28.583            95.467                 Moscow         11933.375
       100   03 Jun 2027 21:40:44.817   03 Jun 2027 21:43:37.664           172.847               CapeTown         21605.875
       101   04 Jun 2027 03:17:22.773   04 Jun 2027 03:18:04.008            41.235                Sumatra          4268.625
       102   04 Jun 2027 03:37:35.306   04 Jun 2027 03:41:44.507           249.201              Murmansk2         31150.125
       103   04 Jun 2027 04:47:01.488   04 Jun 2027 04:50:09.981           188.493                Sumatra         23561.625
       104   04 Jun 2027 05:13:07.543   04 Jun 2027 05:13:12.318             4.775                Novosib           596.875
       105   04 Jun 2027 05:13:37.939   04 Jun 2027 05:18:24.421           286.482                Norilsk         35810.250
       106   04 Jun 2027 05:18:46.884   04 Jun 2027 05:20:35.962           109.078              Murmansk2         13634.750
       107   04 Jun 2027 06:39:11.692   04 Jun 2027 06:43:52.617           280.925                  Delhi         35115.625
       108   04 Jun 2027 06:43:53.946   04 Jun 2027 06:44:10.552            16.606                 Moscow          2075.750
       109   04 Jun 2027 06:44:26.283   04 Jun 2027 06:44:38.592            12.309              Murmansk1          1538.625
       110   04 Jun 2027 06:49:10.485   04 Jun 2027 06:50:34.645            84.160                Novosib         10520.000
       111   04 Jun 2027 06:50:38.745   04 Jun 2027 06:51:48.621            69.876                Norilsk          8734.500
       112   04 Jun 2027 06:51:59.760   04 Jun 2027 06:56:07.289           247.529              Murmansk2         30941.125
       113   04 Jun 2027 08:25:59.529   04 Jun 2027 08:28:54.820           175.291                Norilsk         21911.375
       114   04 Jun 2027 08:28:56.282   04 Jun 2027 08:31:59.796           183.514              Murmansk2         22939.250
       115   04 Jun 2027 09:36:54.409   04 Jun 2027 09:40:21.064           206.655               CapeTown         25831.875
       116   04 Jun 2027 09:58:22.184   04 Jun 2027 10:00:14.353           112.169              Murmansk2         14021.125
       117   04 Jun 2027 10:00:35.343   04 Jun 2027 10:02:12.346            97.003                 Moscow         12125.375
       118   04 Jun 2027 10:03:11.838   04 Jun 2027 10:06:02.597           170.759              Murmansk1         21344.875
       119   04 Jun 2027 10:06:02.597   04 Jun 2027 10:07:57.794           115.197              Murmansk2         14399.625
       120   04 Jun 2027 10:10:11.690   04 Jun 2027 10:19:22.044           550.354                Anadyr1         68794.250
       121   04 Jun 2027 11:13:01.315   04 Jun 2027 11:17:39.222           277.907               CapeTown         34738.375
       122   04 Jun 2027 11:39:05.789   04 Jun 2027 11:40:13.489            67.700              Murmansk2          8462.500
       123   04 Jun 2027 11:40:13.489   04 Jun 2027 11:43:40.661           207.172              Murmansk1         25896.500
       124   04 Jun 2027 11:48:24.755   04 Jun 2027 11:58:09.590           584.835                Anadyr2         73104.375
       125   04 Jun 2027 13:21:35.131   04 Jun 2027 13:26:25.474           290.343                Anadyr2         36292.875
       126   04 Jun 2027 13:26:28.903   04 Jun 2027 13:30:17.994           229.091               Magadan1         28636.375
       127   04 Jun 2027 15:10:15.877   04 Jun 2027 15:11:56.200           100.323                Irkutsk         12540.375
       128   04 Jun 2027 15:21:35.615   04 Jun 2027 15:22:47.759            72.144                Sumatra          9018.000
       129   04 Jun 2027 15:24:19.316   04 Jun 2027 15:26:14.317           115.001                Sumatra         14375.125
       130   04 Jun 2027 15:51:35.377   04 Jun 2027 15:54:06.288           150.911            RioGallegos         18863.875
       131   04 Jun 2027 16:39:19.209   04 Jun 2027 16:40:41.779            82.570                Irkutsk         10321.250
       132   04 Jun 2027 16:53:01.237   04 Jun 2027 16:55:43.471           162.234                Sumatra         20279.250
       133   04 Jun 2027 17:04:09.039   04 Jun 2027 17:04:38.172            29.133                Sumatra          3641.625
       134   04 Jun 2027 18:22:36.067   04 Jun 2027 18:26:18.743           222.676                  Delhi         27834.500
       135   04 Jun 2027 18:31:18.274   04 Jun 2027 18:32:06.367            48.093                  Delhi          6011.625
       136   04 Jun 2027 19:53:38.871   04 Jun 2027 19:55:40.739           121.868                 Moscow         15233.500
       137   04 Jun 2027 21:38:14.958   04 Jun 2027 21:39:57.804           102.846                 Moscow         12855.750
       138   04 Jun 2027 21:52:36.639   04 Jun 2027 21:54:11.257            94.618               CapeTown          8168.625
       139   05 Jun 2027 03:49:35.273   05 Jun 2027 03:54:29.142           293.869                Norilsk         36733.625
       140   05 Jun 2027 04:59:02.387   05 Jun 2027 05:01:17.240           134.853                Sumatra         16856.625
       141   05 Jun 2027 05:24:26.067   05 Jun 2027 05:25:01.527            35.460                 Moscow          4432.500
       142   05 Jun 2027 05:25:39.446   05 Jun 2027 05:30:26.305           286.859                Norilsk         35857.375
       143   05 Jun 2027 05:30:35.663   05 Jun 2027 05:32:32.425           116.762              Murmansk2         14595.250
       144   05 Jun 2027 06:51:16.455   05 Jun 2027 06:55:44.420           267.965                  Delhi         33495.625
       145   05 Jun 2027 06:55:47.644   05 Jun 2027 06:56:42.304            54.660                 Moscow          6832.500
       146   05 Jun 2027 07:01:09.682   05 Jun 2027 07:02:28.184            78.502                Novosib          9812.750
       147   05 Jun 2027 07:02:34.600   05 Jun 2027 07:06:25.242           230.642                Norilsk         28830.250
       148   05 Jun 2027 07:06:45.353   05 Jun 2027 07:08:07.405            82.052              Murmansk2         10256.500
       149   05 Jun 2027 08:32:03.920   05 Jun 2027 08:32:41.183            37.263                 Moscow          4657.875
       150   05 Jun 2027 08:37:07.016   05 Jun 2027 08:40:31.901           204.885                 Moscow         25610.625
       151   05 Jun 2027 08:40:41.259   05 Jun 2027 08:44:01.399           200.140              Murmansk2         25017.500
       152   05 Jun 2027 09:44:34.665   05 Jun 2027 09:52:55.863           501.198               CapeTown         62649.750
       153   05 Jun 2027 10:10:23.535   05 Jun 2027 10:11:45.486            81.951              Murmansk2         10243.875
       154   05 Jun 2027 10:12:07.911   05 Jun 2027 10:14:14.987           127.076                 Moscow         15884.500
       155   05 Jun 2027 10:15:13.480   05 Jun 2027 10:19:58.988           285.508              Murmansk1         35688.500
       156   05 Jun 2027 10:22:06.219   05 Jun 2027 10:31:56.141           589.922                Anadyr1         73740.250
       157   05 Jun 2027 11:25:07.643   05 Jun 2027 11:29:26.695           259.052               CapeTown         32381.500
       158   05 Jun 2027 12:01:54.320   05 Jun 2027 12:04:58.513           184.193               Magadan2         23024.125
       159   05 Jun 2027 13:40:43.790   05 Jun 2027 13:42:43.617           119.827               Magadan2         14978.375
       160   05 Jun 2027 15:21:37.663   05 Jun 2027 15:24:54.822           197.159                Irkutsk         24644.875
       161   05 Jun 2027 15:32:03.954   05 Jun 2027 15:34:26.658           142.704                Sumatra         17838.000
       162   05 Jun 2027 16:52:05.175   05 Jun 2027 16:53:13.811            68.636                Novosib          8579.500
       163   05 Jun 2027 17:01:29.905   05 Jun 2027 17:01:39.472             9.567                Novosib          1195.875
       164   05 Jun 2027 17:03:07.732   05 Jun 2027 17:06:11.372           183.640                  Delhi         22955.000
       165   05 Jun 2027 17:11:44.686   05 Jun 2027 17:12:53.564            68.878                Sumatra          8609.750
       166   05 Jun 2027 18:31:43.910   05 Jun 2027 18:32:08.369            24.459                Novosib          3057.375
       167   05 Jun 2027 18:34:31.144   05 Jun 2027 18:37:06.106           154.962                  Delhi         19370.250
       168   05 Jun 2027 18:39:30.545   05 Jun 2027 18:39:51.761            21.216                  Delhi          2652.000
       169   05 Jun 2027 20:05:26.210   05 Jun 2027 20:07:54.706           148.496                 Moscow         18562.000
       170   05 Jun 2027 20:09:46.708   05 Jun 2027 20:11:13.268            86.560                 Moscow         10820.000
       171   05 Jun 2027 22:04:33.417   05 Jun 2027 22:06:27.534           114.117               CapeTown          4118.000
       172   06 Jun 2027 04:01:24.098   06 Jun 2027 04:02:53.570            89.472                Novosib         11184.000
       173   06 Jun 2027 04:03:05.500   06 Jun 2027 04:04:21.128            75.628              Murmansk1          9453.500
       174   06 Jun 2027 05:11:08.948   06 Jun 2027 05:12:36.520            87.572                Sumatra         10946.500
       175   06 Jun 2027 05:17:26.395   06 Jun 2027 05:17:31.405             5.010                Sumatra           626.250
       176   06 Jun 2027 05:20:22.772   06 Jun 2027 05:21:54.945            92.173                  Delhi         11521.625
       177   06 Jun 2027 05:35:55.637   06 Jun 2027 05:36:28.003            32.366                 Moscow          4045.750
       178   06 Jun 2027 05:37:23.798   06 Jun 2027 05:39:01.284            97.486                Novosib         12185.750
       179   06 Jun 2027 05:39:45.344   06 Jun 2027 05:39:46.245             0.901                 Moscow           112.625
       180   06 Jun 2027 05:40:03.642   06 Jun 2027 05:44:29.480           265.838              Murmansk2         33229.750
       181   06 Jun 2027 07:03:17.932   06 Jun 2027 07:07:31.899           253.967                  Delhi         31745.875
       182   06 Jun 2027 07:07:40.211   06 Jun 2027 07:08:47.161            66.950                 Moscow          8368.750
       183   06 Jun 2027 07:13:36.198   06 Jun 2027 07:16:27.985           171.787                 Moscow         21473.375
       184   06 Jun 2027 07:16:34.659   06 Jun 2027 07:20:07.813           213.154              Murmansk2         26644.250
       185   06 Jun 2027 08:42:57.527   06 Jun 2027 08:43:32.482            34.955                 Moscow          4369.375
       186   06 Jun 2027 08:48:15.279   06 Jun 2027 08:52:32.340           257.061                 Moscow         32132.625
       187   06 Jun 2027 08:52:37.281   06 Jun 2027 08:56:03.064           205.783              Murmansk2         25722.875
       188   06 Jun 2027 09:58:07.596   06 Jun 2027 10:05:22.006           434.410               CapeTown         54301.250
       189   06 Jun 2027 10:22:35.356   06 Jun 2027 10:23:52.015            76.659              Murmansk2          9582.375
       190   06 Jun 2027 10:24:09.563   06 Jun 2027 10:27:41.588           212.025                 Moscow         26503.125
       191   06 Jun 2027 10:28:13.749   06 Jun 2027 10:31:59.949           226.200              Murmansk1         28275.000
       192   06 Jun 2027 10:34:28.021   06 Jun 2027 10:39:13.331           285.310                Anadyr2         35663.750
       193   06 Jun 2027 10:40:51.620   06 Jun 2027 10:41:46.930            55.310                Anadyr1          6913.750
       194   06 Jun 2027 12:13:46.113   06 Jun 2027 12:15:43.848           117.735               Magadan1         14716.875
       195   06 Jun 2027 12:16:19.627   06 Jun 2027 12:17:04.267            44.640               Magadan2          5580.000
       196   06 Jun 2027 13:50:56.559   06 Jun 2027 13:52:05.606            69.047               Magadan1          8630.875
       197   06 Jun 2027 14:45:45.625   06 Jun 2027 14:47:58.057           132.432            RioGallegos         16554.000
       198   06 Jun 2027 15:32:18.377   06 Jun 2027 15:34:30.778           132.401                Irkutsk         16550.125
       199   06 Jun 2027 15:43:07.601   06 Jun 2027 15:46:12.540           184.939                Sumatra         23117.375
       200   06 Jun 2027 15:48:58.783   06 Jun 2027 15:52:09.455           190.672                Sumatra         23834.000
       201   06 Jun 2027 17:13:25.407   06 Jun 2027 17:16:00.192           154.785                  Delhi         19348.125
       202   06 Jun 2027 18:46:29.695   06 Jun 2027 18:48:21.663           111.968                  Delhi         13996.000
       203   06 Jun 2027 18:51:42.659   06 Jun 2027 18:53:54.675           132.016                  Delhi         16502.000
       204   06 Jun 2027 20:17:16.674   06 Jun 2027 20:20:58.964           222.290                 Moscow         18307.500
       205   07 Jun 2027 04:13:18.989   07 Jun 2027 04:15:10.122           111.133                Norilsk         13891.625
       206   07 Jun 2027 05:23:21.581   07 Jun 2027 05:24:07.046            45.465                Sumatra          5683.125
       207   07 Jun 2027 05:25:54.060   07 Jun 2027 05:27:55.752           121.692                Sumatra         15211.500
       208   07 Jun 2027 05:31:59.869   07 Jun 2027 05:34:11.543           131.674                  Delhi         16459.250
       209   07 Jun 2027 05:48:32.702   07 Jun 2027 05:51:01.584           148.882                Novosib         18610.250
       210   07 Jun 2027 05:51:21.792   07 Jun 2027 05:51:56.863            35.071                 Moscow          4383.875
       211   07 Jun 2027 05:51:58.946   07 Jun 2027 05:56:27.097           268.151              Murmansk1         33518.875
       212   07 Jun 2027 07:17:32.615   07 Jun 2027 07:20:05.304           152.689                Novosib         19086.125
       213   07 Jun 2027 07:25:01.269   07 Jun 2027 07:25:27.587            26.318                Novosib          3289.750
       214   07 Jun 2027 07:25:28.628   07 Jun 2027 07:28:32.147           183.519                 Moscow         22939.875
       215   07 Jun 2027 07:28:33.675   07 Jun 2027 07:32:08.479           214.804              Murmansk2         26850.500
       216   07 Jun 2027 08:54:57.831   07 Jun 2027 08:57:24.609           146.778                 Moscow         18347.250
       217   07 Jun 2027 08:59:37.113   07 Jun 2027 09:04:32.059           294.946                 Moscow         36868.250
       218   07 Jun 2027 09:04:51.168   07 Jun 2027 09:08:04.765           193.597              Murmansk1         24199.625
       219   07 Jun 2027 09:12:02.327   07 Jun 2027 09:15:02.217           179.890                Anadyr2         22486.250
       220   07 Jun 2027 10:11:06.920   07 Jun 2027 10:17:41.111           394.191               CapeTown         49273.875
       221   07 Jun 2027 10:34:37.025   07 Jun 2027 10:35:15.039            38.014              Murmansk1          4751.750
       222   07 Jun 2027 12:24:34.780   07 Jun 2027 12:29:01.275           266.495               Magadan1         33311.875
       223   07 Jun 2027 12:34:35.169   07 Jun 2027 12:34:35.819             0.650               Magadan2            81.250
       224   07 Jun 2027 13:59:56.344   07 Jun 2027 14:01:26.673            90.329               Magadan2         11291.125
       225   07 Jun 2027 14:57:02.977   07 Jun 2027 15:00:59.406           236.429            RioGallegos         29553.625
       226   07 Jun 2027 15:44:23.761   07 Jun 2027 15:46:08.845           105.084                Irkutsk         13135.500
       227   07 Jun 2027 15:54:27.941   07 Jun 2027 15:58:04.549           216.608                Sumatra         27076.000
       228   07 Jun 2027 17:16:46.414   07 Jun 2027 17:20:12.805           206.391                Novosib         25798.875
       229   07 Jun 2027 17:24:32.254   07 Jun 2027 17:27:46.668           194.414                  Delhi         24301.750
       230   07 Jun 2027 20:29:09.487   07 Jun 2027 20:31:50.695           161.208                 Moscow         20151.000
       231   07 Jun 2027 22:07:19.675   07 Jun 2027 22:08:00.694            41.019                 Moscow           956.250
       232   08 Jun 2027 05:35:41.181   08 Jun 2027 05:37:36.476           115.295                Sumatra         14411.875
       233   08 Jun 2027 05:39:29.100   08 Jun 2027 05:39:56.847            27.747                Sumatra          3468.375
       234   08 Jun 2027 05:43:43.150   08 Jun 2027 05:46:23.662           160.512                  Delhi         20064.000
       235   08 Jun 2027 06:01:30.643   08 Jun 2027 06:04:05.959           155.316                 Moscow         19414.500
       236   08 Jun 2027 06:04:15.873   08 Jun 2027 06:08:25.227           249.354              Murmansk2         31169.250
       237   08 Jun 2027 07:29:31.625   08 Jun 2027 07:32:45.677           194.052                Novosib         24256.500
       238   08 Jun 2027 07:36:58.932   08 Jun 2027 07:40:35.839           216.907                 Moscow         27113.375
       239   08 Jun 2027 07:40:52.424   08 Jun 2027 07:44:09.369           196.945              Murmansk1         24618.125
       240   08 Jun 2027 09:06:57.390   08 Jun 2027 09:09:47.385           169.995                 Moscow         21249.375
       241   08 Jun 2027 09:10:41.273   08 Jun 2027 09:12:00.447            79.174              Murmansk2          9896.750
       242   08 Jun 2027 09:12:06.712   08 Jun 2027 09:16:30.958           264.246                 Moscow         33030.750
       243   08 Jun 2027 09:16:39.571   08 Jun 2027 09:20:06.466           206.895              Murmansk1         25861.875
       244   08 Jun 2027 09:23:21.185   08 Jun 2027 09:25:02.082           100.897                Anadyr1         12612.125
       245   08 Jun 2027 11:02:50.333   08 Jun 2027 11:03:00.461            10.128                Anadyr2          1266.000
       246   08 Jun 2027 11:05:24.784   08 Jun 2027 11:05:33.710             8.926                Anadyr1          1115.750
       247   08 Jun 2027 12:36:27.416   08 Jun 2027 12:41:51.634           324.218               Magadan2         40527.250
       248   08 Jun 2027 15:04:35.675   08 Jun 2027 15:06:08.605            92.930            RioGallegos         11616.250
       249   08 Jun 2027 15:07:13.784   08 Jun 2027 15:08:36.830            83.046            RioGallegos         10380.750
       250   08 Jun 2027 15:10:38.763   08 Jun 2027 15:11:20.388            41.625            RioGallegos          5203.125
       251   08 Jun 2027 15:52:51.605   08 Jun 2027 15:55:31.427           159.822                Irkutsk         19977.750
       252   08 Jun 2027 16:07:35.831   08 Jun 2027 16:10:02.254           146.423                Sumatra         18302.875
       253   08 Jun 2027 17:27:37.477   08 Jun 2027 17:29:14.896            97.419                Novosib         12177.375
       254   08 Jun 2027 17:35:56.547   08 Jun 2027 17:39:37.640           221.093                  Delhi         27636.625
       255   08 Jun 2027 17:42:27.600   08 Jun 2027 17:43:55.570            87.970                  Delhi         10996.250
       256   08 Jun 2027 20:38:50.284   08 Jun 2027 20:39:20.528            30.244              Murmansk2          3780.500
       257   08 Jun 2027 20:41:04.137   08 Jun 2027 20:42:59.210           115.073                 Moscow         14384.125
       258   08 Jun 2027 21:13:22.714   08 Jun 2027 21:15:10.136           107.422               CapeTown          3164.500
       259   09 Jun 2027 04:11:48.123   09 Jun 2027 04:16:03.203           255.080                Sumatra         31885.000
       260   09 Jun 2027 04:37:25.375   09 Jun 2027 04:37:41.782            16.407              Murmansk1          2050.875
       261   09 Jun 2027 05:48:09.416   09 Jun 2027 05:48:39.924            30.508                Sumatra          3813.500
       262   09 Jun 2027 05:49:11.258   09 Jun 2027 05:50:18.504            67.246                Sumatra          8405.750
       263   09 Jun 2027 05:55:32.096   09 Jun 2027 05:58:31.972           179.876                  Delhi         22484.500
       264   09 Jun 2027 06:13:42.267   09 Jun 2027 06:16:13.924           151.657                 Moscow         18957.125
       265   09 Jun 2027 06:16:25.834   09 Jun 2027 06:20:23.829           237.995              Murmansk2         29749.375
       266   09 Jun 2027 07:39:01.581   09 Jun 2027 07:42:15.306           193.725                  Delhi         24215.625
       267   09 Jun 2027 07:42:16.696   09 Jun 2027 07:44:22.870           126.174                Novosib         15771.750
       268   09 Jun 2027 07:44:38.630   09 Jun 2027 07:45:04.993            26.363                 Moscow          3295.375
       269   09 Jun 2027 07:50:08.739   09 Jun 2027 07:51:04.056            55.317                Norilsk          6914.625
       270   09 Jun 2027 07:51:27.283   09 Jun 2027 07:56:10.467           283.184              Murmansk1         35398.000
       271   09 Jun 2027 08:59:52.560   09 Jun 2027 09:00:56.839            64.279               CapeTown          8034.875
       272   09 Jun 2027 09:18:56.108   09 Jun 2027 09:19:35.129            39.021                 Moscow          4877.625
       273   09 Jun 2027 09:22:42.442   09 Jun 2027 09:24:46.179           123.737              Murmansk1         15467.125
       274   09 Jun 2027 09:25:14.814   09 Jun 2027 09:28:28.909           194.095                 Moscow         24261.875
       275   09 Jun 2027 09:28:34.564   09 Jun 2027 09:31:10.998           156.434              Murmansk1         19554.250
       276   09 Jun 2027 09:31:10.998   09 Jun 2027 09:32:08.139            57.141              Murmansk2          7142.625
       277   09 Jun 2027 09:34:58.841   09 Jun 2027 09:38:04.803           185.962                Anadyr1         23245.250
       278   09 Jun 2027 11:10:37.415   09 Jun 2027 11:10:45.444             8.029                Anadyr2          1003.625
       279   09 Jun 2027 12:48:21.896   09 Jun 2027 12:50:26.672           124.776               Magadan1         15597.000
       280   09 Jun 2027 12:52:48.409   09 Jun 2027 12:53:38.564            50.155               Magadan2          6269.375
       281   09 Jun 2027 12:55:03.918   09 Jun 2027 12:55:44.283            40.365               Magadan1          5045.625
       282   09 Jun 2027 14:23:57.716   09 Jun 2027 14:24:22.290            24.574               Magadan2          3071.750
       283   09 Jun 2027 14:26:18.850   09 Jun 2027 14:27:16.961            58.111               Magadan1          7263.875
       284   09 Jun 2027 14:36:34.250   09 Jun 2027 14:36:52.994            18.744               Magadan2          2343.000
       285   09 Jun 2027 15:16:18.976   09 Jun 2027 15:20:31.629           252.653            RioGallegos         31581.625
       286   09 Jun 2027 16:03:48.449   09 Jun 2027 16:05:21.817            93.368                Irkutsk         11671.000
       287   09 Jun 2027 16:17:38.857   09 Jun 2027 16:22:05.555           266.698                Sumatra         33337.250
       288   09 Jun 2027 17:39:32.463   09 Jun 2027 17:41:38.710           126.247                Novosib         15780.875
       289   09 Jun 2027 17:47:31.016   09 Jun 2027 17:48:31.542            60.526                  Delhi          7565.750
       290   09 Jun 2027 19:22:45.304   09 Jun 2027 19:23:12.270            26.966                  Delhi          3370.750
       291   09 Jun 2027 19:25:19.542   09 Jun 2027 19:27:24.001           124.459                  Delhi         15557.375
       292   09 Jun 2027 20:49:35.614   09 Jun 2027 20:49:55.851            20.237              Murmansk1          2529.625
       293   09 Jun 2027 20:53:00.267   09 Jun 2027 20:54:29.191            88.924                 Moscow         11115.500
       294   09 Jun 2027 21:02:10.268   09 Jun 2027 21:02:32.584            22.316                 Moscow          2789.500
       295   09 Jun 2027 21:17:31.188   09 Jun 2027 21:17:54.098            22.910               CapeTown          2863.750
       296   09 Jun 2027 21:24:47.704   09 Jun 2027 21:26:50.457           122.753               CapeTown         10038.625
       297   10 Jun 2027 03:13:55.813   10 Jun 2027 03:18:11.801           255.988                Norilsk         31998.500
       298   10 Jun 2027 04:23:31.298   10 Jun 2027 04:28:09.351           278.053                Sumatra         34756.625
       299   10 Jun 2027 04:49:19.645   10 Jun 2027 04:49:32.367            12.722                Irkutsk          1590.250
       300   10 Jun 2027 04:49:50.128   10 Jun 2027 04:50:10.676            20.548                Norilsk          2568.500
       301   10 Jun 2027 04:50:10.682   10 Jun 2027 04:51:08.891            58.209                Novosib          7276.125
       302   10 Jun 2027 04:51:16.608   10 Jun 2027 04:54:35.718           199.110                Norilsk         24888.750
       303   10 Jun 2027 04:54:37.523   10 Jun 2027 04:56:59.709           142.186              Murmansk2         17773.250
       304   10 Jun 2027 06:14:38.130   10 Jun 2027 06:16:27.556           109.426                Novosib         13678.250
       305   10 Jun 2027 06:17:00.201   10 Jun 2027 06:20:12.883           192.682                  Delhi         24085.250
       306   10 Jun 2027 06:20:13.734   10 Jun 2027 06:21:13.269            59.535                Irkutsk          7441.875
       307   10 Jun 2027 06:25:16.621   10 Jun 2027 06:28:20.998           184.377                 Moscow         23047.125
       308   10 Jun 2027 06:28:23.968   10 Jun 2027 06:32:22.871           238.903              Murmansk2         29862.875
       309   10 Jun 2027 07:54:56.344   10 Jun 2027 07:55:41.609            45.265                 Moscow          5658.125
       310   10 Jun 2027 07:55:52.312   10 Jun 2027 07:56:26.488            34.176              Murmansk1          4272.000
       311   10 Jun 2027 08:00:55.295   10 Jun 2027 08:01:16.763            21.468                 Moscow          2683.500
       312   10 Jun 2027 08:02:10.608   10 Jun 2027 08:04:39.532           148.924                Norilsk         18615.500
       313   10 Jun 2027 08:04:50.369   10 Jun 2027 08:08:11.725           201.356              Murmansk1         25169.500
       314   10 Jun 2027 09:12:26.180   10 Jun 2027 09:14:45.960           139.780               CapeTown         17472.500
       315   10 Jun 2027 09:30:53.854   10 Jun 2027 09:31:40.418            46.564                 Moscow          5820.500
       316   10 Jun 2027 09:34:43.758   10 Jun 2027 09:36:36.553           112.795              Murmansk1         14099.375
       317   10 Jun 2027 09:36:48.211   10 Jun 2027 09:40:25.753           217.542                 Moscow         27192.750
       318   10 Jun 2027 09:40:29.493   10 Jun 2027 09:42:46.030           136.537              Murmansk1         17067.125
       319   10 Jun 2027 09:42:46.030   10 Jun 2027 09:44:09.750            83.720              Murmansk2         10465.000
       320   10 Jun 2027 09:46:44.159   10 Jun 2027 09:54:15.407           451.248                Anadyr2         56406.000
       321   10 Jun 2027 10:48:46.949   10 Jun 2027 10:54:04.031           317.082               CapeTown         39635.250
       322   10 Jun 2027 11:15:19.826   10 Jun 2027 11:16:36.923            77.097              Murmansk1          9637.125
       323   10 Jun 2027 11:16:36.923   10 Jun 2027 11:19:48.347           191.424              Murmansk2         23928.000
       324   10 Jun 2027 11:25:05.407   10 Jun 2027 11:26:43.428            98.021                Anadyr2         12252.625
       325   10 Jun 2027 13:00:17.815   10 Jun 2027 13:04:57.424           279.609               Magadan2         34951.125
       326   10 Jun 2027 13:05:28.742   10 Jun 2027 13:07:56.853           148.111               Magadan1         18513.875
       327   10 Jun 2027 15:28:06.482   10 Jun 2027 15:31:34.044           207.562            RioGallegos         25945.250
       328   10 Jun 2027 16:17:46.690   10 Jun 2027 16:18:01.034            14.344                Irkutsk          1793.000
       329   10 Jun 2027 16:29:25.333   10 Jun 2027 16:32:13.755           168.422                Sumatra         21052.750
       330   10 Jun 2027 17:51:28.861   10 Jun 2027 17:52:53.562            84.701                Novosib         10587.625
       331   10 Jun 2027 17:59:12.539   10 Jun 2027 18:03:30.794           258.255                  Delhi         32281.875
       332   10 Jun 2027 21:04:57.621   10 Jun 2027 21:06:08.606            70.985                 Moscow          8873.125
       333   10 Jun 2027 21:29:12.639   10 Jun 2027 21:31:07.058           114.419               CapeTown         14302.375
       334   11 Jun 2027 03:25:40.366   11 Jun 2027 03:31:24.824           344.458              Murmansk1         43057.250
       335   11 Jun 2027 04:35:20.877   11 Jun 2027 04:38:18.935           178.058                Sumatra         22257.250
       336   11 Jun 2027 05:01:47.370   11 Jun 2027 05:03:11.508            84.138                Novosib         10517.250
       337   11 Jun 2027 05:03:21.713   11 Jun 2027 05:06:37.454           195.741                Norilsk         24467.625
       338   11 Jun 2027 05:07:02.087   11 Jun 2027 05:08:54.878           112.791              Murmansk2         14098.875
       339   11 Jun 2027 06:26:56.649   11 Jun 2027 06:32:11.833           315.184                  Delhi         39398.000
       340   11 Jun 2027 06:32:14.199   11 Jun 2027 06:32:32.269            18.070                 Moscow          2258.750
       341   11 Jun 2027 06:37:33.003   11 Jun 2027 06:40:27.350           174.347                 Moscow         21793.375
       342   11 Jun 2027 06:40:44.191   11 Jun 2027 06:44:22.311           218.120              Murmansk1         27265.000
       343   11 Jun 2027 08:14:12.424   11 Jun 2027 08:18:23.176           250.752                Norilsk         31344.000
       344   11 Jun 2027 08:18:26.083   11 Jun 2027 08:20:13.133           107.050              Murmansk1         13381.250
       345   11 Jun 2027 09:24:51.394   11 Jun 2027 09:27:50.375           178.981               CapeTown         22372.625
       346   11 Jun 2027 09:46:45.207   11 Jun 2027 09:47:57.211            72.004              Murmansk2          9000.500
       347   11 Jun 2027 09:48:17.676   11 Jun 2027 09:52:21.263           243.587                 Moscow         30448.375
       348   11 Jun 2027 09:52:39.088   11 Jun 2027 09:54:50.015           130.927              Murmansk1         16365.875
       349   11 Jun 2027 09:54:50.015   11 Jun 2027 09:56:11.266            81.251              Murmansk2         10156.375
       350   11 Jun 2027 09:58:44.808   11 Jun 2027 10:06:59.084           494.276                Anadyr1         61784.500
       351   11 Jun 2027 11:01:04.503   11 Jun 2027 11:06:01.425           296.922               CapeTown         37115.250
       352   11 Jun 2027 11:26:48.534   11 Jun 2027 11:31:58.146           309.612              Murmansk2         38701.500
       353   11 Jun 2027 11:33:55.615   11 Jun 2027 11:46:11.499           735.884                Anadyr2         91985.500
       354   11 Jun 2027 13:09:48.613   11 Jun 2027 13:10:53.870            65.257                Anadyr1          8157.125
       355   11 Jun 2027 13:12:14.891   11 Jun 2027 13:16:57.419           282.528               Magadan2         35316.000
       356   11 Jun 2027 13:18:03.330   11 Jun 2027 13:20:06.559           123.229               Magadan2         15403.625
       357   11 Jun 2027 15:39:57.092   11 Jun 2027 15:44:18.733           261.641            RioGallegos         32705.125
       358   11 Jun 2027 16:36:43.811   11 Jun 2027 16:38:35.161           111.350                Irkutsk         13918.750
       359   11 Jun 2027 16:41:17.872   11 Jun 2027 16:44:22.618           184.746                Sumatra         23093.250
       360   11 Jun 2027 18:08:11.740   11 Jun 2027 18:08:31.591            19.851                Novosib          2481.375
       361   11 Jun 2027 18:10:59.453   11 Jun 2027 18:13:26.414           146.961                  Delhi         18370.125
       362   11 Jun 2027 18:15:32.428   11 Jun 2027 18:16:44.755            72.327                  Delhi          9040.875
       363   11 Jun 2027 19:42:10.412   11 Jun 2027 19:42:49.386            38.974                 Moscow          4871.750
       364   11 Jun 2027 21:13:38.455   11 Jun 2027 21:13:53.613            15.158              Murmansk1          1894.750
       365   11 Jun 2027 21:21:58.287   11 Jun 2027 21:23:59.976           121.689                 Moscow         15211.125
       366   11 Jun 2027 21:41:35.263   11 Jun 2027 21:43:52.611           137.348               CapeTown         12730.749
       367   12 Jun 2027 03:37:51.170   12 Jun 2027 03:38:57.815            66.645                Novosib          8330.625
       368   12 Jun 2027 03:39:03.707   12 Jun 2027 03:42:17.223           193.516                Norilsk         24189.500
       369   12 Jun 2027 04:47:16.283   12 Jun 2027 04:50:24.859           188.576                Sumatra         23572.000
       370   12 Jun 2027 05:13:52.670   12 Jun 2027 05:18:39.280           286.610                Norilsk         35826.250
       371   12 Jun 2027 05:18:40.402   12 Jun 2027 05:20:50.713           130.311              Murmansk1         16288.875
       372   12 Jun 2027 06:39:26.492   12 Jun 2027 06:44:07.333           280.841                  Delhi         35105.125
       373   12 Jun 2027 06:44:11.267   12 Jun 2027 06:44:25.978            14.711                 Moscow          1838.875
       374   12 Jun 2027 06:44:41.862   12 Jun 2027 06:44:59.972            18.110              Murmansk1          2263.750
       375   12 Jun 2027 06:49:24.948   12 Jun 2027 06:50:49.383            84.435                Novosib         10554.375
       376   12 Jun 2027 06:50:54.291   12 Jun 2027 06:52:03.273            68.982                Norilsk          8622.750
       377   12 Jun 2027 06:52:16.302   12 Jun 2027 06:56:22.110           245.808              Murmansk2         30726.000
       378   12 Jun 2027 08:26:14.162   12 Jun 2027 08:30:19.567           245.405                Norilsk         30675.625
       379   12 Jun 2027 08:30:44.025   12 Jun 2027 08:32:14.649            90.624              Murmansk2         11328.000
       380   12 Jun 2027 09:37:09.712   12 Jun 2027 09:40:36.571           206.859               CapeTown         25857.375
       381   12 Jun 2027 09:58:37.040   12 Jun 2027 10:00:28.976           111.936              Murmansk1         13992.000
       382   12 Jun 2027 10:00:49.349   12 Jun 2027 10:02:28.960            99.611                 Moscow         12451.375
       383   12 Jun 2027 10:03:26.573   12 Jun 2027 10:08:12.648           286.075              Murmansk2         35759.375
       384   12 Jun 2027 10:10:26.390   12 Jun 2027 10:19:37.496           551.106                Anadyr1         68888.250
       385   12 Jun 2027 11:13:16.147   12 Jun 2027 11:17:53.876           277.729               CapeTown         34716.125
       386   12 Jun 2027 11:39:20.503   12 Jun 2027 11:40:29.095            68.592              Murmansk2          8574.000
       387   12 Jun 2027 11:40:29.095   12 Jun 2027 11:43:55.447           206.352              Murmansk1         25794.000
       388   12 Jun 2027 11:48:39.821   12 Jun 2027 11:58:24.621           584.800                Anadyr1         73100.000
       389   12 Jun 2027 13:21:49.980   12 Jun 2027 13:26:40.202           290.222                Anadyr2         36277.750
       390   12 Jun 2027 13:26:44.016   12 Jun 2027 13:28:57.898           133.882               Magadan2         16735.250
       391   12 Jun 2027 13:30:33.099   12 Jun 2027 13:32:13.536           100.437               Magadan2         12554.625
       392   12 Jun 2027 15:10:30.868   12 Jun 2027 15:12:12.179           101.311                Irkutsk         12663.875
       393   12 Jun 2027 15:21:48.247   12 Jun 2027 15:24:34.880           166.633                Sumatra         20829.125
       394   12 Jun 2027 15:51:50.093   12 Jun 2027 15:54:20.204           150.111            RioGallegos         18763.875
       395   12 Jun 2027 16:39:33.987   12 Jun 2027 16:40:56.148            82.161                Irkutsk         10270.125
       396   12 Jun 2027 16:53:16.079   12 Jun 2027 16:55:57.392           161.313                Sumatra         20164.125
       397   12 Jun 2027 18:18:54.120   12 Jun 2027 18:20:13.195            79.075                Novosib          9884.375
       398   12 Jun 2027 18:22:50.779   12 Jun 2027 18:26:32.124           221.345                  Delhi         27668.125
       399   12 Jun 2027 19:53:53.434   12 Jun 2027 19:56:07.411           133.977                 Moscow         16747.125
       400   12 Jun 2027 21:36:20.289   12 Jun 2027 21:36:59.943            39.654                 Moscow          4956.750
       401   12 Jun 2027 21:52:51.368   12 Jun 2027 21:55:52.745           181.377               CapeTown         16125.125
       402   13 Jun 2027 03:49:51.661   13 Jun 2027 03:54:43.980           292.319                Norilsk         36539.875
       403   13 Jun 2027 04:59:17.276   13 Jun 2027 05:01:31.280           134.004                Sumatra         16750.500
       404   13 Jun 2027 05:09:47.938   13 Jun 2027 05:12:19.246           151.308                  Delhi         18913.500
       405   13 Jun 2027 05:24:43.355   13 Jun 2027 05:24:53.983            10.628                 Moscow          1328.500
       406   13 Jun 2027 05:25:54.179   13 Jun 2027 05:30:41.166           286.987                Norilsk         35873.375
       407   13 Jun 2027 05:30:50.285   13 Jun 2027 05:32:47.189           116.904              Murmansk2         14613.000
       408   13 Jun 2027 06:50:12.591   13 Jun 2027 06:55:59.074           346.483                  Delhi         43310.375
       409   13 Jun 2027 06:56:02.893   13 Jun 2027 06:57:00.106            57.213                 Moscow          7151.625
       410   13 Jun 2027 07:01:23.946   13 Jun 2027 07:02:42.892            78.946                Novosib          9868.250
       411   13 Jun 2027 07:02:43.409   13 Jun 2027 07:04:38.233           114.824                 Moscow         14353.000
       412   13 Jun 2027 07:04:40.775   13 Jun 2027 07:06:40.096           119.321                Norilsk         14915.125
       413   13 Jun 2027 07:07:02.583   13 Jun 2027 07:08:22.233            79.650              Murmansk1          9956.250
       414   13 Jun 2027 08:32:46.135   13 Jun 2027 08:32:55.791             9.656                 Moscow          1207.000
       415   13 Jun 2027 08:37:28.771   13 Jun 2027 08:40:46.741           197.970                 Moscow         24746.250
       416   13 Jun 2027 08:41:10.810   13 Jun 2027 08:44:16.254           185.444              Murmansk1         23180.500
       417   13 Jun 2027 09:44:51.200   13 Jun 2027 09:53:11.203           500.003               CapeTown         62500.375
       418   13 Jun 2027 10:10:38.389   13 Jun 2027 10:12:00.875            82.486              Murmansk2         10310.750
       419   13 Jun 2027 10:12:07.909   13 Jun 2027 10:14:29.305           141.396                 Moscow         17674.500
       420   13 Jun 2027 10:15:28.214   13 Jun 2027 10:18:12.752           164.538              Murmansk2         20567.250
       421   13 Jun 2027 10:18:12.752   13 Jun 2027 10:20:13.840           121.088              Murmansk1         15136.000
       422   13 Jun 2027 10:22:20.953   13 Jun 2027 10:32:11.522           590.569                Anadyr2         73821.125
       423   13 Jun 2027 11:25:22.404   13 Jun 2027 11:29:41.261           258.857               CapeTown         32357.125
       424   13 Jun 2027 12:05:13.522   13 Jun 2027 12:06:37.014            83.492               Magadan2         10436.500
       425   13 Jun 2027 13:36:11.700   13 Jun 2027 13:38:59.299           167.599               Magadan1         20949.875
       426   13 Jun 2027 15:21:50.757   13 Jun 2027 15:25:10.536           199.779                Irkutsk         24972.375
       427   13 Jun 2027 15:32:17.612   13 Jun 2027 15:34:41.277           143.665                Sumatra         17958.125
       428   13 Jun 2027 15:36:58.262   13 Jun 2027 15:39:55.159           176.897                Sumatra         22112.125
       429   13 Jun 2027 17:03:19.509   13 Jun 2027 17:06:29.490           189.981                  Delhi         23747.625
       430   13 Jun 2027 18:31:59.201   13 Jun 2027 18:32:15.218            16.017                Novosib          2002.125
       431   13 Jun 2027 18:32:23.034   13 Jun 2027 18:33:53.482            90.448                Novosib         11306.000
       432   13 Jun 2027 18:34:45.915   13 Jun 2027 18:37:20.070           154.155                  Delhi         19269.375
       433   13 Jun 2027 20:05:40.838   13 Jun 2027 20:08:10.478           149.640                 Moscow         18705.000
       434   13 Jun 2027 21:52:41.172   13 Jun 2027 21:53:48.921            67.749                 Moscow          2892.125
