uniorb/output/strategy_4/Drop/Drop_KinoSat_112007.txt

KinoSat_112007
-------------------------
    Access    *     Start Time (UTCG)     *     Stop Time (UTCG)  *   Duration (s)        *       Station  *  Data (Mbytes)
         1   01 Jun 2027 04:16:22.093   01 Jun 2027 04:17:58.971            96.878                Irkutsk          3027.437
         2   01 Jun 2027 04:18:11.052   01 Jun 2027 04:21:58.761           227.709                Irkutsk          7115.906
         3   01 Jun 2027 04:22:50.694   01 Jun 2027 04:23:13.469            22.775                Irkutsk           711.719
         4   01 Jun 2027 05:55:04.519   01 Jun 2027 05:55:44.534            40.015                Norilsk          1250.469
         5   01 Jun 2027 05:55:47.238   01 Jun 2027 05:58:32.519           165.281                Novosib          5165.031
         6   01 Jun 2027 05:58:43.930   01 Jun 2027 05:59:57.933            74.003              Murmansk2          2312.594
         7   01 Jun 2027 06:00:42.363   01 Jun 2027 06:03:40.053           177.690                 Moscow          5552.813
         8   01 Jun 2027 06:15:29.639   01 Jun 2027 06:22:06.283           396.644               CapeTown         12395.125
         9   01 Jun 2027 07:31:02.566   01 Jun 2027 07:31:17.286            14.720                Norilsk           460.000
        10   01 Jun 2027 07:31:38.252   01 Jun 2027 07:31:56.516            18.264                Norilsk           570.750
        11   01 Jun 2027 07:32:00.126   01 Jun 2027 07:32:46.441            46.315              Murmansk2          1447.344
        12   01 Jun 2027 07:32:46.441   01 Jun 2027 07:34:14.224            87.783              Murmansk1          2743.219
        13   01 Jun 2027 07:34:14.224   01 Jun 2027 07:34:34.844            20.620              Murmansk2           644.375
        14   01 Jun 2027 07:34:41.235   01 Jun 2027 07:34:49.424             8.189                 Moscow           255.906
        15   01 Jun 2027 07:35:47.305   01 Jun 2027 07:36:23.456            36.151              Murmansk1          1129.719
        16   01 Jun 2027 07:36:32.402   01 Jun 2027 07:38:06.758            94.356                 Moscow          2948.625
        17   01 Jun 2027 07:51:47.485   01 Jun 2027 07:57:25.660           338.175               CapeTown         10567.969
        18   01 Jun 2027 07:57:42.388   01 Jun 2027 08:01:46.814           244.426               CapeTown          7638.312
        19   01 Jun 2027 08:56:08.188   01 Jun 2027 09:00:32.452           264.264                Anadyr1          8258.250
        20   01 Jun 2027 09:00:44.773   01 Jun 2027 09:00:55.065            10.292                Norilsk           321.625
        21   01 Jun 2027 09:05:04.940   01 Jun 2027 09:05:35.002            30.062                 Moscow           939.437
        22   01 Jun 2027 10:24:51.158   01 Jun 2027 10:26:33.636           102.478               Magadan1          3202.437
        23   01 Jun 2027 10:27:18.956   01 Jun 2027 10:35:58.211           519.255                Anadyr1         16226.719
        24   01 Jun 2027 12:02:42.610   01 Jun 2027 12:11:10.160           507.550               Magadan2         15860.937
        25   01 Jun 2027 14:27:24.606   01 Jun 2027 14:32:20.640           296.034            RioGallegos          9251.063
        26   01 Jun 2027 14:59:55.178   01 Jun 2027 15:06:53.760           418.582                Sumatra         13080.687
        27   01 Jun 2027 15:15:47.277   01 Jun 2027 15:21:31.015           343.738                Irkutsk         10741.812
        28   01 Jun 2027 16:46:00.875   01 Jun 2027 16:50:32.786           271.911                  Delhi          8497.219
        29   01 Jun 2027 16:54:17.047   01 Jun 2027 16:58:41.565           264.518                Novosib          8266.188
        30   01 Jun 2027 20:09:43.281   01 Jun 2027 20:10:32.575            49.294              Murmansk2          1540.438
        31   01 Jun 2027 20:12:29.087   01 Jun 2027 20:14:28.341           119.254              Murmansk2          3726.687
        32   01 Jun 2027 20:16:00.233   01 Jun 2027 20:16:24.542            24.309              Murmansk1           759.656
        33   01 Jun 2027 21:17:31.511   01 Jun 2027 21:24:08.260           396.749               CapeTown         12398.406
        34   02 Jun 2027 03:06:37.602   02 Jun 2027 03:12:08.520           330.918                Sumatra         10341.187
        35   02 Jun 2027 03:42:35.342   02 Jun 2027 03:42:46.028            10.686            RioGallegos           333.937
        36   02 Jun 2027 04:29:25.467   02 Jun 2027 04:29:41.902            16.435              Murmansk1           513.594
        37   02 Jun 2027 04:30:02.583   02 Jun 2027 04:34:12.361           249.778                Norilsk          7805.562
        38   02 Jun 2027 04:34:23.336   02 Jun 2027 04:34:36.610            13.274                Norilsk           414.813
        39   02 Jun 2027 04:34:36.911   02 Jun 2027 04:36:09.514            92.603                Novosib          2893.844
        40   02 Jun 2027 04:37:11.494   02 Jun 2027 04:38:35.768            84.274                  Delhi          2633.562
        41   02 Jun 2027 04:41:42.274   02 Jun 2027 04:43:19.947            97.673                  Delhi          3052.281
        42   02 Jun 2027 06:08:11.690   02 Jun 2027 06:09:12.636            60.946                Novosib          1904.563
        43   02 Jun 2027 06:10:20.005   02 Jun 2027 06:12:43.993           143.988                 Moscow          4499.625
        44   02 Jun 2027 06:27:15.848   02 Jun 2027 06:30:55.070           219.222               CapeTown          6850.687
        45   02 Jun 2027 07:31:45.806   02 Jun 2027 07:34:51.004           185.198                Anadyr1          5787.438
        46   02 Jun 2027 07:35:02.514   02 Jun 2027 07:35:17.052            14.538               Magadan1           454.313
        47   02 Jun 2027 07:35:35.465   02 Jun 2027 07:35:40.389             4.924               Magadan1           153.875
        48   02 Jun 2027 07:36:00.329   02 Jun 2027 07:36:39.752            39.423                Anadyr2          1231.969
        49   02 Jun 2027 07:45:13.281   02 Jun 2027 07:45:40.072            26.791                 Moscow           837.219
        50   02 Jun 2027 08:04:20.243   02 Jun 2027 08:14:27.747           607.504               CapeTown         18984.500
        51   02 Jun 2027 09:02:58.388   02 Jun 2027 09:03:23.965            25.577                Anadyr1           799.281
        52   02 Jun 2027 09:07:58.124   02 Jun 2027 09:09:44.971           106.847                Anadyr2          3338.969
        53   02 Jun 2027 09:10:07.384   02 Jun 2027 09:12:33.001           145.617                Anadyr1          4550.531
        54   02 Jun 2027 10:40:27.280   02 Jun 2027 10:43:30.038           182.758               Magadan1          5711.187
        55   02 Jun 2027 10:44:23.419   02 Jun 2027 10:45:57.225            93.806               Magadan1          2931.438
        56   02 Jun 2027 10:46:26.606   02 Jun 2027 10:46:46.389            19.783               Magadan2           618.219
        57   02 Jun 2027 10:47:32.020   02 Jun 2027 10:47:32.152             0.132                Norilsk             4.125
        58   02 Jun 2027 11:23:32.277   02 Jun 2027 11:24:07.855            35.578            RioGallegos          1111.813
        59   02 Jun 2027 11:27:56.377   02 Jun 2027 11:28:44.143            47.766            RioGallegos          1492.688
        60   02 Jun 2027 12:11:25.928   02 Jun 2027 12:13:21.697           115.769                Irkutsk          3617.781
        61   02 Jun 2027 12:14:55.968   02 Jun 2027 12:15:30.527            34.559                Novosib          1079.969
        62   02 Jun 2027 12:15:32.315   02 Jun 2027 12:22:53.074           440.759               Magadan2         13773.719
        63   02 Jun 2027 13:50:40.794   02 Jun 2027 13:52:26.334           105.540                Irkutsk          3298.125
        64   02 Jun 2027 14:38:19.200   02 Jun 2027 14:45:38.224           439.024            RioGallegos         13719.500
        65   02 Jun 2027 15:13:43.738   02 Jun 2027 15:16:59.281           195.543                Sumatra          6110.719
        66   02 Jun 2027 15:29:36.678   02 Jun 2027 15:32:16.146           159.468                Irkutsk          4983.375
        67   02 Jun 2027 17:09:08.780   02 Jun 2027 17:11:58.540           169.760                Norilsk          5305.000
        68   02 Jun 2027 18:39:14.010   02 Jun 2027 18:39:56.383            42.373                 Moscow          1324.156
        69   02 Jun 2027 18:42:27.774   02 Jun 2027 18:42:47.138            19.364              Murmansk1           605.125
        70   02 Jun 2027 18:43:44.560   02 Jun 2027 18:44:26.259            41.699                 Moscow          1303.094
        71   02 Jun 2027 18:44:53.084   02 Jun 2027 18:46:47.945           114.861              Murmansk2          3589.406
        72   02 Jun 2027 18:52:02.512   02 Jun 2027 18:52:04.924             2.412              Murmansk1            75.375
        73   02 Jun 2027 19:01:01.930   02 Jun 2027 19:01:05.589             3.659                Anadyr2           114.344
        74   02 Jun 2027 19:51:34.203   02 Jun 2027 19:53:45.409           131.206               CapeTown          4100.187
        75   02 Jun 2027 19:54:41.369   02 Jun 2027 19:55:23.235            41.866               CapeTown          1308.313
        76   02 Jun 2027 19:59:56.258   02 Jun 2027 20:00:20.739            24.481               CapeTown           765.031
        77   02 Jun 2027 20:21:35.235   02 Jun 2027 20:22:55.726            80.491              Murmansk1          2515.344
        78   02 Jun 2027 20:23:00.529   02 Jun 2027 20:27:13.300           252.771              Murmansk2          7899.094
        79   02 Jun 2027 20:27:46.808   02 Jun 2027 20:30:14.768           147.960              Murmansk1          4623.750
        80   02 Jun 2027 21:30:39.423   02 Jun 2027 21:34:36.217           236.794               CapeTown          7399.813
        81   02 Jun 2027 22:11:48.200   02 Jun 2027 22:12:21.342            33.142               Magadan1          1035.687
        82   02 Jun 2027 22:13:38.418   02 Jun 2027 22:14:19.746            41.328               Magadan2          1291.500
        83   02 Jun 2027 23:43:58.041   02 Jun 2027 23:48:49.163           291.122                Anadyr2          9097.562
        84   02 Jun 2027 23:49:05.765   02 Jun 2027 23:49:07.356             1.591                Anadyr2            49.719
        85   02 Jun 2027 23:49:08.575   02 Jun 2027 23:50:15.365            66.790               Magadan2          2087.187
        86   02 Jun 2027 23:50:51.118   02 Jun 2027 23:51:40.712            49.594               Magadan1          1549.813
        87   02 Jun 2027 23:51:44.635   02 Jun 2027 23:52:56.317            71.682                Irkutsk          2240.063
        88   02 Jun 2027 23:53:59.282   02 Jun 2027 23:54:16.013            16.731                Irkutsk           522.844
        89   02 Jun 2027 23:55:34.539   02 Jun 2027 23:56:40.803            66.264                Irkutsk          2070.750
        90   03 Jun 2027 00:08:21.240   03 Jun 2027 00:09:08.489            47.249                Sumatra          1476.531
        91   03 Jun 2027 00:10:50.430   03 Jun 2027 00:11:48.960            58.530                Sumatra          1829.062
        92   03 Jun 2027 00:12:26.530   03 Jun 2027 00:12:26.616             0.086                Sumatra             2.687
        93   03 Jun 2027 00:38:04.343   03 Jun 2027 00:39:12.663            68.320            RioGallegos          2135.000
        94   03 Jun 2027 00:43:01.976   03 Jun 2027 00:43:17.792            15.816            RioGallegos           494.250
        95   03 Jun 2027 00:45:43.567   03 Jun 2027 00:45:49.144             5.577            RioGallegos           174.281
        96   03 Jun 2027 00:47:03.926   03 Jun 2027 00:47:30.387            26.461            RioGallegos           826.906
        97   03 Jun 2027 00:49:41.028   03 Jun 2027 00:49:56.141            15.113            RioGallegos           472.281
        98   03 Jun 2027 01:19:25.264   03 Jun 2027 01:19:58.027            32.763                Anadyr1          1023.844
        99   03 Jun 2027 01:20:49.943   03 Jun 2027 01:20:58.289             8.346                Anadyr1           260.812
       100   03 Jun 2027 01:21:24.066   03 Jun 2027 01:22:05.340            41.274                Anadyr1          1289.812
       101   03 Jun 2027 01:22:24.053   03 Jun 2027 01:24:58.000           153.947               Magadan1          4810.844
       102   03 Jun 2027 01:25:48.348   03 Jun 2027 01:27:31.092           102.744                Irkutsk          3210.750
       103   03 Jun 2027 01:29:06.035   03 Jun 2027 01:29:50.007            43.972                Novosib          1374.125
       104   03 Jun 2027 01:36:59.596   03 Jun 2027 01:38:21.190            81.594                Irkutsk          2549.813
       105   03 Jun 2027 01:39:30.939   03 Jun 2027 01:42:04.055           153.116                Sumatra          4784.875
       106   03 Jun 2027 02:22:37.933   03 Jun 2027 02:23:17.946            40.013            RioGallegos          1250.406
       107   03 Jun 2027 02:56:53.297   03 Jun 2027 02:56:58.285             4.988                Anadyr1           155.875
       108   03 Jun 2027 02:57:19.511   03 Jun 2027 02:57:22.610             3.099                Anadyr1            96.844
       109   03 Jun 2027 02:57:47.862   03 Jun 2027 02:58:44.331            56.469                Norilsk          1764.656
       110   03 Jun 2027 02:59:08.969   03 Jun 2027 02:59:23.003            14.034                Norilsk           438.563
       111   03 Jun 2027 03:01:54.386   03 Jun 2027 03:02:07.167            12.781               Magadan2           399.406
       112   03 Jun 2027 03:02:07.167   03 Jun 2027 03:03:46.500            99.333               Magadan1          3104.156
       113   03 Jun 2027 03:03:49.916   03 Jun 2027 03:04:23.617            33.701              Murmansk2          1053.156
       114   03 Jun 2027 03:04:48.165   03 Jun 2027 03:05:02.666            14.501                Norilsk           453.156
       115   03 Jun 2027 03:05:12.404   03 Jun 2027 03:06:23.990            71.586                Novosib          2237.063
       116   03 Jun 2027 03:06:27.128   03 Jun 2027 03:06:31.326             4.198                Norilsk           131.188
       117   03 Jun 2027 03:06:36.990   03 Jun 2027 03:08:50.256           133.266                Novosib          4164.562
       118   03 Jun 2027 03:08:59.746   03 Jun 2027 03:09:24.199            24.453                Novosib           764.156
       119   03 Jun 2027 03:10:09.053   03 Jun 2027 03:11:28.078            79.025                  Delhi          2469.531
       120   03 Jun 2027 03:50:29.847   03 Jun 2027 03:52:08.812            98.965            RioGallegos          3092.656
       121   03 Jun 2027 03:53:17.334   03 Jun 2027 03:55:08.129           110.795            RioGallegos          3462.344
       122   03 Jun 2027 04:41:26.219   03 Jun 2027 04:42:14.227            48.008              Murmansk2          1500.250
       123   03 Jun 2027 04:42:20.713   03 Jun 2027 04:45:55.019           214.306                Irkutsk          6697.063
       124   03 Jun 2027 04:46:21.106   03 Jun 2027 04:51:33.792           312.686                  Delhi          9771.438
       125   03 Jun 2027 06:20:52.902   03 Jun 2027 06:21:05.213            12.311                 Moscow           384.719
       126   03 Jun 2027 06:21:31.003   03 Jun 2027 06:21:55.291            24.288              Murmansk1           759.000
       127   03 Jun 2027 06:22:28.459   03 Jun 2027 06:22:55.710            27.251              Murmansk1           851.594
       128   03 Jun 2027 06:24:17.441   03 Jun 2027 06:24:44.417            26.976                 Moscow           843.000
       129   03 Jun 2027 06:39:07.301   03 Jun 2027 06:42:12.575           185.274               CapeTown          5789.812
       130   03 Jun 2027 07:42:24.505   03 Jun 2027 07:42:33.970             9.465                Anadyr2           295.781
       131   03 Jun 2027 07:42:55.255   03 Jun 2027 07:43:26.567            31.312               Magadan1           978.500
       132   03 Jun 2027 07:43:44.864   03 Jun 2027 07:44:27.113            42.249               Magadan2          1320.281
       133   03 Jun 2027 07:46:52.290   03 Jun 2027 07:47:37.551            45.261                Anadyr1          1414.406
       134   03 Jun 2027 07:54:58.603   03 Jun 2027 07:55:34.133            35.530                Norilsk          1110.312
       135   03 Jun 2027 07:57:01.441   03 Jun 2027 07:57:16.306            14.865                 Moscow           464.531
       136   03 Jun 2027 08:17:03.718   03 Jun 2027 08:18:26.200            82.482               CapeTown          2577.563
       137   03 Jun 2027 08:23:08.755   03 Jun 2027 08:25:41.563           152.808               CapeTown          4775.250
       138   03 Jun 2027 08:25:55.985   03 Jun 2027 08:26:06.127            10.142               CapeTown           316.938
       139   03 Jun 2027 09:16:39.046   03 Jun 2027 09:17:46.222            67.176               Magadan1          2099.250
       140   03 Jun 2027 09:18:12.640   03 Jun 2027 09:18:38.953            26.313               Magadan2           822.281
       141   03 Jun 2027 09:19:21.005   03 Jun 2027 09:19:35.504            14.499               Magadan2           453.094
       142   03 Jun 2027 09:19:43.592   03 Jun 2027 09:21:47.921           124.329                Anadyr2          3885.281
       143   03 Jun 2027 10:51:41.628   03 Jun 2027 10:52:52.632            71.004               Magadan1          2218.875
       144   03 Jun 2027 10:53:23.784   03 Jun 2027 10:54:17.603            53.819               Magadan2          1681.844
       145   03 Jun 2027 10:54:17.603   03 Jun 2027 10:54:39.331            21.728               Magadan1           679.000
       146   03 Jun 2027 10:57:49.852   03 Jun 2027 10:58:01.420            11.568               Magadan2           361.500
       147   03 Jun 2027 10:58:01.420   03 Jun 2027 10:59:52.012           110.592               Magadan1          3456.000
       148   03 Jun 2027 12:13:22.287   03 Jun 2027 12:14:43.242            80.955                Sumatra          2529.844
       149   03 Jun 2027 12:23:18.030   03 Jun 2027 12:24:35.791            77.761                Irkutsk          2430.031
       150   03 Jun 2027 12:28:33.139   03 Jun 2027 12:34:27.748           354.609               Magadan2         11081.531
       151   03 Jun 2027 13:54:48.481   03 Jun 2027 13:54:58.667            10.186                Sumatra           318.313
       152   03 Jun 2027 13:59:54.943   03 Jun 2027 14:02:04.325           129.382                Irkutsk          4043.187
       153   03 Jun 2027 14:05:39.068   03 Jun 2027 14:07:04.338            85.270                Irkutsk          2664.687
       154   03 Jun 2027 14:51:31.823   03 Jun 2027 14:56:56.647           324.824            RioGallegos         10150.750
       155   03 Jun 2027 15:41:50.350   03 Jun 2027 15:42:19.335            28.985                Norilsk           905.781
       156   03 Jun 2027 15:42:29.329   03 Jun 2027 15:43:04.236            34.907                Novosib          1090.844
       157   03 Jun 2027 15:45:00.437   03 Jun 2027 15:45:12.852            12.415                Norilsk           387.969
       158   03 Jun 2027 15:45:39.097   03 Jun 2027 15:46:07.168            28.071                Novosib           877.219
       159   03 Jun 2027 15:47:16.645   03 Jun 2027 15:48:08.286            51.641                Norilsk          1613.781
       160   03 Jun 2027 17:15:32.102   03 Jun 2027 17:17:12.899           100.797                 Moscow          3149.906
       161   03 Jun 2027 17:19:15.025   03 Jun 2027 17:20:12.936            57.911              Murmansk1          1809.719
       162   03 Jun 2027 17:21:52.138   03 Jun 2027 17:23:14.094            81.956                Norilsk          2561.125
       163   03 Jun 2027 17:24:38.813   03 Jun 2027 17:26:15.741            96.928                Norilsk          3029.000
       164   03 Jun 2027 17:27:11.398   03 Jun 2027 17:28:00.479            49.081                Norilsk          1533.781
       165   03 Jun 2027 18:51:41.513   03 Jun 2027 18:52:57.392            75.879                 Moscow          2371.219
       166   03 Jun 2027 18:54:45.558   03 Jun 2027 18:55:54.219            68.661              Murmansk2          2145.656
       167   03 Jun 2027 18:56:22.908   03 Jun 2027 18:57:09.215            46.307                 Moscow          1447.094
       168   03 Jun 2027 18:59:18.688   03 Jun 2027 19:00:49.939            91.251              Murmansk1          2851.594
       169   03 Jun 2027 20:03:40.733   03 Jun 2027 20:04:45.514            64.781               CapeTown          2024.406
       170   03 Jun 2027 20:06:33.716   03 Jun 2027 20:08:02.997            89.281               CapeTown          2790.031
       171   03 Jun 2027 20:11:38.161   03 Jun 2027 20:12:04.403            26.242               CapeTown           820.063
       172   03 Jun 2027 20:34:13.780   03 Jun 2027 20:40:03.791           350.011              Murmansk1         10937.844
       173   03 Jun 2027 20:40:23.963   03 Jun 2027 20:42:11.792           107.829              Murmansk2          3369.656
       174   03 Jun 2027 22:20:06.915   03 Jun 2027 22:21:23.605            76.690                Anadyr2          2396.562
       175   03 Jun 2027 22:21:29.674   03 Jun 2027 22:21:38.565             8.891                Anadyr2           277.844
       176   03 Jun 2027 22:21:48.653   03 Jun 2027 22:22:03.108            14.455                Anadyr2           451.719
       177   03 Jun 2027 22:22:26.104   03 Jun 2027 22:23:52.980            86.876               Magadan2          2714.875
       178   03 Jun 2027 22:23:52.980   03 Jun 2027 22:24:56.148            63.168               Magadan1          1974.000
       179   03 Jun 2027 22:25:13.437   03 Jun 2027 22:25:48.192            34.755               Magadan2          1086.094
       180   03 Jun 2027 22:28:04.099   03 Jun 2027 22:28:04.293             0.194               Magadan2             6.063
       181   03 Jun 2027 22:29:31.884   03 Jun 2027 22:29:54.381            22.497               Magadan1           703.031
       182   03 Jun 2027 22:30:29.136   03 Jun 2027 22:30:37.365             8.229               Magadan1           257.156
       183   03 Jun 2027 22:31:01.798   03 Jun 2027 22:31:48.171            46.373               Magadan2          1449.156
       184   03 Jun 2027 23:16:58.933   03 Jun 2027 23:19:05.448           126.515            RioGallegos          3953.594
       185   03 Jun 2027 23:55:58.220   03 Jun 2027 23:58:07.216           128.996                Anadyr1          4031.125
       186   03 Jun 2027 23:58:20.004   04 Jun 2027 00:00:08.787           108.783               Magadan2          3399.469
       187   04 Jun 2027 00:00:39.457   04 Jun 2027 00:01:25.068            45.611               Magadan1          1425.344
       188   04 Jun 2027 00:01:52.520   04 Jun 2027 00:02:03.062            10.542               Magadan1           329.437
       189   04 Jun 2027 00:03:09.279   04 Jun 2027 00:03:34.248            24.969               Magadan1           780.281
       190   04 Jun 2027 00:04:17.610   04 Jun 2027 00:05:00.012            42.402                Irkutsk          1325.062
       191   04 Jun 2027 00:06:56.806   04 Jun 2027 00:07:34.041            37.235                Irkutsk          1163.594
       192   04 Jun 2027 00:08:37.013   04 Jun 2027 00:09:50.940            73.927                Irkutsk          2310.219
       193   04 Jun 2027 00:18:40.906   04 Jun 2027 00:20:28.903           107.997                Sumatra          3374.906
       194   04 Jun 2027 00:51:49.244   04 Jun 2027 00:52:03.111            13.867            RioGallegos           433.344
       195   04 Jun 2027 00:53:45.662   04 Jun 2027 00:53:56.929            11.267            RioGallegos           352.094
       196   04 Jun 2027 00:56:36.984   04 Jun 2027 00:56:54.716            17.732            RioGallegos           554.125
       197   04 Jun 2027 01:00:52.628   04 Jun 2027 01:01:22.344            29.716            RioGallegos           928.625
       198   04 Jun 2027 01:31:19.697   04 Jun 2027 01:32:09.856            50.159                Anadyr2          1567.469
       199   04 Jun 2027 01:32:50.157   04 Jun 2027 01:32:57.268             7.111                Anadyr2           222.219
       200   04 Jun 2027 01:33:24.285   04 Jun 2027 01:34:06.426            42.141                Anadyr1          1316.906
       201   04 Jun 2027 01:34:27.463   04 Jun 2027 01:36:25.577           118.114               Magadan2          3691.062
       202   04 Jun 2027 01:37:35.396   04 Jun 2027 01:37:43.693             8.297               Magadan2           259.281
       203   04 Jun 2027 01:37:46.875   04 Jun 2027 01:40:49.388           182.513                Irkutsk          5703.531
       204   04 Jun 2027 01:49:51.518   04 Jun 2027 01:50:33.667            42.149                  Delhi          1317.156
       205   04 Jun 2027 01:51:34.598   04 Jun 2027 01:52:47.418            72.820                Sumatra          2275.625
       206   04 Jun 2027 01:54:39.355   04 Jun 2027 01:56:03.341            83.986                Sumatra          2624.562
       207   04 Jun 2027 02:00:04.405   04 Jun 2027 02:00:26.522            22.117                Sumatra           691.156
       208   04 Jun 2027 02:31:35.715   04 Jun 2027 02:32:00.268            24.553            RioGallegos           767.281
       209   04 Jun 2027 02:36:59.874   04 Jun 2027 02:37:23.625            23.751            RioGallegos           742.219
       210   04 Jun 2027 03:13:56.085   04 Jun 2027 03:14:05.434             9.349                Anadyr1           292.156
       211   04 Jun 2027 03:14:07.814   04 Jun 2027 03:16:19.037           131.223               Magadan2          4100.719
       212   04 Jun 2027 03:17:44.433   04 Jun 2027 03:18:13.005            28.572                Irkutsk           892.875
       213   04 Jun 2027 03:19:17.694   04 Jun 2027 03:21:14.836           117.142                Irkutsk          3660.688
       214   04 Jun 2027 03:21:56.812   04 Jun 2027 03:26:47.900           291.088                  Delhi          9096.500
       215   04 Jun 2027 04:02:45.195   04 Jun 2027 04:03:21.526            36.331            RioGallegos          1135.344
       216   04 Jun 2027 04:04:40.045   04 Jun 2027 04:07:39.576           179.531            RioGallegos          5610.344
       217   04 Jun 2027 04:53:45.591   04 Jun 2027 04:55:48.292           122.701                Irkutsk          3834.406
       218   04 Jun 2027 04:56:24.645   04 Jun 2027 04:57:22.362            57.717                Novosib          1803.656
       219   04 Jun 2027 04:58:22.244   04 Jun 2027 05:06:49.120           506.876                  Delhi         15839.875
       220   04 Jun 2027 06:30:52.158   04 Jun 2027 06:30:59.390             7.232                Norilsk           226.000
       221   04 Jun 2027 06:31:37.800   04 Jun 2027 06:31:43.701             5.901                Norilsk           184.406
       222   04 Jun 2027 06:32:59.682   04 Jun 2027 06:33:10.530            10.848                 Moscow           339.000
       223   04 Jun 2027 06:33:24.249   04 Jun 2027 06:33:26.231             1.982              Murmansk2            61.937
       224   04 Jun 2027 06:33:32.064   04 Jun 2027 06:33:45.971            13.907              Murmansk2           434.594
       225   04 Jun 2027 06:34:15.656   04 Jun 2027 06:34:53.772            38.116              Murmansk2          1191.125
       226   04 Jun 2027 06:37:31.567   04 Jun 2027 06:37:41.250             9.683                 Moscow           302.594
       227   04 Jun 2027 06:51:03.832   04 Jun 2027 06:52:05.293            61.461               CapeTown          1920.656
       228   04 Jun 2027 06:54:16.750   04 Jun 2027 06:54:55.761            39.011               CapeTown          1219.094
       229   04 Jun 2027 07:54:19.382   04 Jun 2027 07:55:03.233            43.851                Anadyr2          1370.344
       230   04 Jun 2027 07:55:11.713   04 Jun 2027 07:56:10.189            58.476                Anadyr1          1827.375
       231   04 Jun 2027 08:36:37.618   04 Jun 2027 08:37:22.685            45.067               CapeTown          1408.344
       232   04 Jun 2027 09:30:05.465   04 Jun 2027 09:30:46.548            41.083                Anadyr1          1283.844
       233   04 Jun 2027 09:31:21.125   04 Jun 2027 09:34:23.692           182.567                Anadyr1          5705.219
       234   04 Jun 2027 11:05:22.129   04 Jun 2027 11:05:33.029            10.900               Magadan1           340.625
       235   04 Jun 2027 11:05:33.029   04 Jun 2027 11:06:11.311            38.282               Magadan2          1196.312
       236   04 Jun 2027 11:06:13.009   04 Jun 2027 11:06:20.981             7.972               Magadan1           249.125
       237   04 Jun 2027 11:09:28.830   04 Jun 2027 11:09:51.698            22.868                Norilsk           714.625
       238   04 Jun 2027 11:10:10.754   04 Jun 2027 11:10:47.936            37.182                Irkutsk          1161.938
       239   04 Jun 2027 11:11:07.808   04 Jun 2027 11:11:15.497             7.689                Norilsk           240.281
       240   04 Jun 2027 11:11:30.432   04 Jun 2027 11:11:45.393            14.961                Norilsk           467.531
       241   04 Jun 2027 11:12:02.446   04 Jun 2027 11:12:28.506            26.060                Novosib           814.375
       242   04 Jun 2027 11:47:05.175   04 Jun 2027 11:48:06.399            61.224            RioGallegos          1913.250
       243   04 Jun 2027 12:24:08.521   04 Jun 2027 12:26:03.972           115.451                Sumatra          3607.844
       244   04 Jun 2027 12:35:13.258   04 Jun 2027 12:36:35.355            82.097                Irkutsk          2565.531
       245   04 Jun 2027 12:37:28.210   04 Jun 2027 12:37:43.215            15.005                Irkutsk           468.906
       246   04 Jun 2027 12:40:08.468   04 Jun 2027 12:40:42.547            34.079                Norilsk          1064.969
       247   04 Jun 2027 12:41:55.361   04 Jun 2027 12:45:43.993           228.632               Magadan1          7144.750
       248   04 Jun 2027 13:57:38.614   04 Jun 2027 14:00:36.580           177.966                Sumatra          5561.437
       249   04 Jun 2027 14:12:19.354   04 Jun 2027 14:13:20.926            61.572                Irkutsk          1924.125
       250   04 Jun 2027 14:17:02.654   04 Jun 2027 14:17:37.070            34.416                Norilsk          1075.500
       251   04 Jun 2027 14:20:18.865   04 Jun 2027 14:22:12.413           113.548                Irkutsk          3548.375
       252   04 Jun 2027 15:05:43.886   04 Jun 2027 15:07:18.915            95.029            RioGallegos          2969.656
       253   04 Jun 2027 15:42:11.660   04 Jun 2027 15:43:14.014            62.354                  Delhi          1948.563
       254   04 Jun 2027 15:50:17.521   04 Jun 2027 15:55:32.162           314.641                Novosib          9832.531
       255   04 Jun 2027 17:28:07.107   04 Jun 2027 17:29:28.127            81.020                 Moscow          2531.875
       256   04 Jun 2027 17:34:36.308   04 Jun 2027 17:34:59.640            23.332              Murmansk1           729.125
       257   04 Jun 2027 17:35:29.479   04 Jun 2027 17:38:14.235           164.756                Norilsk          5148.625
       258   04 Jun 2027 17:39:32.645   04 Jun 2027 17:40:29.197            56.552                Norilsk          1767.250
       259   04 Jun 2027 19:04:14.219   04 Jun 2027 19:06:21.887           127.668                 Moscow          3989.625
       260   04 Jun 2027 19:07:05.488   04 Jun 2027 19:09:25.351           139.863              Murmansk1          4370.719
       261   04 Jun 2027 19:11:21.667   04 Jun 2027 19:11:51.534            29.867              Murmansk1           933.344
       262   04 Jun 2027 20:15:50.273   04 Jun 2027 20:18:20.861           150.588               CapeTown          4705.875
       263   04 Jun 2027 20:22:44.477   04 Jun 2027 20:23:13.644            29.167               CapeTown           911.469
       264   04 Jun 2027 20:23:59.872   04 Jun 2027 20:25:32.537            92.665               CapeTown          2895.781
       265   04 Jun 2027 20:46:56.218   04 Jun 2027 20:54:07.037           430.819              Murmansk2         13463.094
       266   04 Jun 2027 22:32:08.746   04 Jun 2027 22:33:13.120            64.374                Anadyr1          2011.688
       267   04 Jun 2027 22:33:38.823   04 Jun 2027 22:34:03.267            24.444                Anadyr1           763.875
       268   04 Jun 2027 22:34:26.099   04 Jun 2027 22:36:21.337           115.238               Magadan2          3601.188
       269   04 Jun 2027 22:37:42.248   04 Jun 2027 22:37:51.833             9.585               Magadan2           299.531
       270   04 Jun 2027 22:39:28.120   04 Jun 2027 22:39:46.509            18.389               Magadan1           574.656
       271   04 Jun 2027 22:39:46.509   04 Jun 2027 22:40:08.549            22.040               Magadan2           688.750
       272   04 Jun 2027 22:42:55.386   04 Jun 2027 22:43:38.339            42.953               Magadan1          1342.281
       273   04 Jun 2027 23:28:01.031   04 Jun 2027 23:30:16.188           135.157            RioGallegos          4223.656
       274   04 Jun 2027 23:30:28.306   04 Jun 2027 23:30:46.696            18.390            RioGallegos           574.687
       275   05 Jun 2027 00:07:57.954   05 Jun 2027 00:09:26.122            88.168                Anadyr2          2755.250
       276   05 Jun 2027 00:09:32.737   05 Jun 2027 00:09:54.027            21.290                Anadyr1           665.313
       277   05 Jun 2027 00:10:02.676   05 Jun 2027 00:11:37.246            94.570                Norilsk          2955.312
       278   05 Jun 2027 00:12:09.197   05 Jun 2027 00:13:16.623            67.426               Magadan2          2107.063
       279   05 Jun 2027 00:14:53.417   05 Jun 2027 00:15:52.842            59.425                Irkutsk          1857.031
       280   05 Jun 2027 00:17:00.432   05 Jun 2027 00:17:31.543            31.111                Irkutsk           972.219
       281   05 Jun 2027 00:18:51.449   05 Jun 2027 00:19:30.508            39.059                Irkutsk          1220.594
       282   05 Jun 2027 00:20:09.796   05 Jun 2027 00:20:30.127            20.331                Irkutsk           635.344
       283   05 Jun 2027 00:29:42.043   05 Jun 2027 00:31:33.819           111.776                Sumatra          3493.000
       284   05 Jun 2027 01:01:56.678   05 Jun 2027 01:02:40.025            43.347            RioGallegos          1354.594
       285   05 Jun 2027 01:04:45.491   05 Jun 2027 01:05:04.517            19.026            RioGallegos           594.563
       286   05 Jun 2027 01:08:47.724   05 Jun 2027 01:09:01.661            13.937            RioGallegos           435.531
       287   05 Jun 2027 01:10:05.286   05 Jun 2027 01:10:21.153            15.867            RioGallegos           495.844
       288   05 Jun 2027 01:12:51.115   05 Jun 2027 01:13:00.260             9.145            RioGallegos           285.781
       289   05 Jun 2027 01:43:12.996   05 Jun 2027 01:43:42.972            29.976                Anadyr1           936.750
       290   05 Jun 2027 01:44:04.321   05 Jun 2027 01:44:43.600            39.279                Anadyr1          1227.469
       291   05 Jun 2027 01:45:24.119   05 Jun 2027 01:45:49.478            25.359                Anadyr1           792.469
       292   05 Jun 2027 01:45:51.423   05 Jun 2027 01:47:55.243           123.820                Norilsk          3869.375
       293   05 Jun 2027 01:48:04.640   05 Jun 2027 01:48:11.444             6.804               Magadan2           212.625
       294   05 Jun 2027 01:49:31.783   05 Jun 2027 01:49:33.082             1.299               Magadan1            40.594
       295   05 Jun 2027 01:49:46.526   05 Jun 2027 01:52:32.012           165.486                Irkutsk          5171.438
       296   05 Jun 2027 01:56:52.239   05 Jun 2027 01:56:57.721             5.482                Irkutsk           171.312
       297   05 Jun 2027 01:57:20.151   05 Jun 2027 01:57:25.506             5.355                Irkutsk           167.344
       298   05 Jun 2027 01:57:33.025   05 Jun 2027 01:58:38.342            65.317                Irkutsk          2041.156
       299   05 Jun 2027 02:03:44.156   05 Jun 2027 02:04:04.408            20.252                Sumatra           632.875
       300   05 Jun 2027 02:06:32.318   05 Jun 2027 02:08:32.220           119.902                Sumatra          3746.938
       301   05 Jun 2027 02:11:28.264   05 Jun 2027 02:13:30.477           122.213                Sumatra          3819.156
       302   05 Jun 2027 03:25:58.878   05 Jun 2027 03:26:08.022             9.144               Magadan1           285.750
       303   05 Jun 2027 03:26:15.353   05 Jun 2027 03:27:46.349            90.996               Magadan1          2843.625
       304   05 Jun 2027 03:30:33.269   05 Jun 2027 03:31:46.542            73.273                Norilsk          2289.781
       305   05 Jun 2027 03:31:50.318   05 Jun 2027 03:32:51.088            60.770                Novosib          1899.063
       306   05 Jun 2027 03:32:51.668   05 Jun 2027 03:33:59.139            67.471                Irkutsk          2108.469
       307   05 Jun 2027 03:34:02.018   05 Jun 2027 03:34:47.945            45.927                Norilsk          1435.219
       308   05 Jun 2027 03:36:10.881   05 Jun 2027 03:37:38.598            87.717                  Delhi          2741.156
       309   05 Jun 2027 04:15:04.332   05 Jun 2027 04:20:42.998           338.666            RioGallegos         10583.313
       310   05 Jun 2027 05:03:28.357   05 Jun 2027 05:03:37.387             9.030                Irkutsk           282.188
       311   05 Jun 2027 05:05:21.384   05 Jun 2027 05:08:09.698           168.314                Irkutsk          5259.812
       312   05 Jun 2027 05:09:27.067   05 Jun 2027 05:09:54.923            27.856                Novosib           870.500
       313   05 Jun 2027 05:10:01.038   05 Jun 2027 05:11:27.231            86.193                Novosib          2693.531
       314   05 Jun 2027 05:12:03.029   05 Jun 2027 05:17:45.561           342.532                  Delhi         10704.125
       315   05 Jun 2027 06:44:21.897   05 Jun 2027 06:44:53.856            31.959              Murmansk2           998.719
       316   05 Jun 2027 06:45:18.227   05 Jun 2027 06:45:26.615             8.388              Murmansk1           262.125
       317   05 Jun 2027 06:45:34.331   05 Jun 2027 06:45:35.838             1.507              Murmansk1            47.094
       318   05 Jun 2027 06:46:02.770   05 Jun 2027 06:46:51.302            48.532              Murmansk1          1516.625
       319   05 Jun 2027 07:03:05.422   05 Jun 2027 07:04:28.143            82.721               CapeTown          2585.031
       320   05 Jun 2027 08:06:12.248   05 Jun 2027 08:07:04.667            52.419                Anadyr2          1638.094
       321   05 Jun 2027 08:07:04.667   05 Jun 2027 08:07:47.103            42.436                Anadyr1          1326.125
       322   05 Jun 2027 08:08:04.197   05 Jun 2027 08:08:06.631             2.434               Magadan2            76.063
       323   05 Jun 2027 08:08:26.013   05 Jun 2027 08:08:43.212            17.199                Anadyr1           537.469
       324   05 Jun 2027 08:08:43.212   05 Jun 2027 08:09:22.731            39.519                Anadyr2          1234.969
       325   05 Jun 2027 08:10:54.024   05 Jun 2027 08:12:16.081            82.057                Anadyr2          2564.281
       326   05 Jun 2027 09:42:37.804   05 Jun 2027 09:42:38.579             0.775                Anadyr2            24.219
       327   05 Jun 2027 09:42:41.583   05 Jun 2027 09:43:03.177            21.594               Magadan1           674.813
       328   05 Jun 2027 09:43:24.628   05 Jun 2027 09:43:45.213            20.585               Magadan2           643.281
       329   05 Jun 2027 09:44:02.650   05 Jun 2027 09:44:11.189             8.539               Magadan1           266.844
       330   05 Jun 2027 09:45:03.212   05 Jun 2027 09:46:29.121            85.909               Magadan1          2684.656
       331   05 Jun 2027 11:14:28.729   05 Jun 2027 11:17:56.357           207.628               Magadan2          6488.375
       332   05 Jun 2027 11:19:35.356   05 Jun 2027 11:21:26.131           110.775               Magadan2          3461.719
       333   05 Jun 2027 11:21:54.025   05 Jun 2027 11:22:35.138            41.113                Norilsk          1284.781
       334   05 Jun 2027 11:22:42.225   05 Jun 2027 11:24:00.091            77.866               Magadan1          2433.313
       335   05 Jun 2027 11:58:56.512   05 Jun 2027 12:00:12.500            75.988            RioGallegos          2374.625
       336   05 Jun 2027 12:36:56.081   05 Jun 2027 12:38:01.257            65.176                Sumatra          2036.750
       337   05 Jun 2027 12:47:11.655   05 Jun 2027 12:50:17.477           185.822                Irkutsk          5806.937
       338   05 Jun 2027 13:35:31.055   05 Jun 2027 13:36:02.770            31.715            RioGallegos           991.094
       339   05 Jun 2027 13:37:30.398   05 Jun 2027 13:40:36.322           185.924            RioGallegos          5810.125
       340   05 Jun 2027 14:09:51.315   05 Jun 2027 14:10:42.364            51.049                Sumatra          1595.281
       341   05 Jun 2027 14:16:47.506   05 Jun 2027 14:19:40.467           172.961                Sumatra          5405.031
       342   05 Jun 2027 14:24:49.008   05 Jun 2027 14:26:37.798           108.790                Irkutsk          3399.687
       343   05 Jun 2027 15:54:35.298   05 Jun 2027 15:57:15.715           160.417                  Delhi          5013.031
       344   05 Jun 2027 15:59:17.431   05 Jun 2027 16:00:13.266            55.835                  Delhi          1744.844
       345   05 Jun 2027 16:02:51.448   05 Jun 2027 16:05:16.126           144.678                Novosib          4521.188
       346   05 Jun 2027 16:06:40.501   05 Jun 2027 16:08:05.769            85.268                Norilsk          2664.625
       347   05 Jun 2027 16:08:37.353   05 Jun 2027 16:08:43.611             6.258                Novosib           195.563
       348   05 Jun 2027 17:39:27.101   05 Jun 2027 17:41:29.117           122.016                 Moscow          3813.000
       349   05 Jun 2027 17:43:13.012   05 Jun 2027 17:44:53.113           100.101              Murmansk1          3128.156
       350   05 Jun 2027 17:47:34.318   05 Jun 2027 17:51:51.835           257.517                Norilsk          8047.406
       351   05 Jun 2027 19:16:53.095   05 Jun 2027 19:23:07.993           374.898                 Moscow         11715.562
       352   05 Jun 2027 20:28:03.211   05 Jun 2027 20:28:09.691             6.480               CapeTown           202.500
       353   05 Jun 2027 20:29:46.568   05 Jun 2027 20:31:55.380           128.812               CapeTown          4025.375
       354   05 Jun 2027 20:36:16.411   05 Jun 2027 20:37:50.473            94.062               CapeTown          2939.437
       355   05 Jun 2027 20:59:43.397   05 Jun 2027 21:05:59.643           376.246              Murmansk2         11757.687
       356   05 Jun 2027 22:44:10.468   05 Jun 2027 22:44:27.008            16.540                Anadyr1           516.875
       357   05 Jun 2027 22:44:36.446   05 Jun 2027 22:44:55.718            19.272                Anadyr1           602.250
       358   05 Jun 2027 22:45:12.963   05 Jun 2027 22:45:26.337            13.374                Anadyr1           417.937
       359   05 Jun 2027 22:45:39.359   05 Jun 2027 22:46:03.000            23.641                Anadyr1           738.781
       360   05 Jun 2027 22:46:26.659   05 Jun 2027 22:47:07.041            40.382               Magadan2          1261.937
       361   05 Jun 2027 22:47:07.041   05 Jun 2027 22:47:44.364            37.323               Magadan1          1166.344
       362   05 Jun 2027 22:48:04.288   05 Jun 2027 22:48:16.539            12.251               Magadan1           382.844
       363   05 Jun 2027 22:48:48.941   05 Jun 2027 22:49:36.536            47.595               Magadan2          1487.344
       364   05 Jun 2027 22:51:25.701   05 Jun 2027 22:51:50.034            24.333               Magadan1           760.406
       365   05 Jun 2027 22:55:21.912   05 Jun 2027 22:55:31.727             9.815               Magadan1           306.719
       366   05 Jun 2027 23:39:27.847   05 Jun 2027 23:42:32.945           185.098            RioGallegos          5784.312
       367   05 Jun 2027 23:45:59.688   05 Jun 2027 23:46:54.690            55.002            RioGallegos          1718.812
       368   06 Jun 2027 00:19:57.173   06 Jun 2027 00:21:19.645            82.472                Anadyr2          2577.250
       369   06 Jun 2027 00:22:01.439   06 Jun 2027 00:23:39.033            97.594                Norilsk          3049.812
       370   06 Jun 2027 00:24:59.513   06 Jun 2027 00:25:01.857             2.344               Magadan1            73.250
       371   06 Jun 2027 00:25:03.506   06 Jun 2027 00:25:36.331            32.825                Norilsk          1025.781
       372   06 Jun 2027 00:26:08.049   06 Jun 2027 00:26:35.367            27.318               Magadan1           853.687
       373   06 Jun 2027 00:26:38.305   06 Jun 2027 00:27:52.033            73.728                Irkutsk          2304.000
       374   06 Jun 2027 00:31:01.689   06 Jun 2027 00:31:35.945            34.256                Irkutsk          1070.500
       375   06 Jun 2027 00:33:35.621   06 Jun 2027 00:34:54.021            78.400                Irkutsk          2450.000
       376   06 Jun 2027 00:41:01.216   06 Jun 2027 00:42:05.150            63.934                Sumatra          1997.937
       377   06 Jun 2027 00:46:12.189   06 Jun 2027 00:46:29.379            17.190                Sumatra           537.187
       378   06 Jun 2027 00:51:30.842   06 Jun 2027 00:51:32.279             1.437                Sumatra            44.906
       379   06 Jun 2027 01:13:55.061   06 Jun 2027 01:14:13.285            18.224            RioGallegos           569.500
       380   06 Jun 2027 01:15:16.127   06 Jun 2027 01:15:57.852            41.725            RioGallegos          1303.906
       381   06 Jun 2027 01:18:41.744   06 Jun 2027 01:18:54.662            12.918            RioGallegos           403.687
       382   06 Jun 2027 01:21:31.386   06 Jun 2027 01:21:40.929             9.543            RioGallegos           298.219
       383   06 Jun 2027 01:22:40.772   06 Jun 2027 01:23:28.859            48.087            RioGallegos          1502.719
       384   06 Jun 2027 01:55:26.661   06 Jun 2027 01:55:33.352             6.691                Anadyr2           209.094
       385   06 Jun 2027 01:56:00.473   06 Jun 2027 01:56:34.585            34.112                Anadyr2          1066.000
       386   06 Jun 2027 01:57:33.495   06 Jun 2027 01:57:59.896            26.401                Anadyr2           825.031
       387   06 Jun 2027 01:58:34.148   06 Jun 2027 02:00:12.602            98.454               Magadan1          3076.688
       388   06 Jun 2027 02:00:57.669   06 Jun 2027 02:01:15.029            17.360                Norilsk           542.500
       389   06 Jun 2027 02:01:47.188   06 Jun 2027 02:03:59.795           132.607                Irkutsk          4143.969
       390   06 Jun 2027 02:04:49.812   06 Jun 2027 02:04:55.321             5.509                Novosib           172.156
       391   06 Jun 2027 02:08:55.092   06 Jun 2027 02:09:56.532            61.440                Irkutsk          1920.000
       392   06 Jun 2027 02:16:00.215   06 Jun 2027 02:18:19.091           138.876                Sumatra          4339.875
       393   06 Jun 2027 02:21:00.074   06 Jun 2027 02:21:13.319            13.245                Sumatra           413.906
       394   06 Jun 2027 02:50:00.372   06 Jun 2027 02:51:02.171            61.799            RioGallegos          1931.219
       395   06 Jun 2027 02:52:16.706   06 Jun 2027 02:52:44.225            27.519            RioGallegos           859.969
       396   06 Jun 2027 02:56:53.734   06 Jun 2027 02:57:25.512            31.778            RioGallegos           993.063
       397   06 Jun 2027 02:57:53.185   06 Jun 2027 02:57:55.543             2.358            RioGallegos            73.687
       398   06 Jun 2027 03:38:07.715   06 Jun 2027 03:39:04.473            56.758               Magadan2          1773.687
       399   06 Jun 2027 03:39:04.473   06 Jun 2027 03:39:14.070             9.597               Magadan1           299.906
       400   06 Jun 2027 03:42:18.582   06 Jun 2027 03:43:00.196            41.614                Novosib          1300.437
       401   06 Jun 2027 03:43:03.980   06 Jun 2027 03:43:21.044            17.064              Murmansk1           533.250
       402   06 Jun 2027 03:43:47.129   06 Jun 2027 03:45:58.805           131.676                Novosib          4114.875
       403   06 Jun 2027 03:46:34.428   06 Jun 2027 03:48:55.500           141.072                Irkutsk          4408.500
       404   06 Jun 2027 03:48:56.551   06 Jun 2027 03:53:49.598           293.047                  Delhi          9157.719
       405   06 Jun 2027 04:27:29.853   06 Jun 2027 04:32:45.410           315.557            RioGallegos          9861.156
       406   06 Jun 2027 05:16:13.324   06 Jun 2027 05:17:00.417            47.093                Irkutsk          1471.656
       407   06 Jun 2027 05:17:59.208   06 Jun 2027 05:18:51.842            52.634                Irkutsk          1644.813
       408   06 Jun 2027 05:19:49.575   06 Jun 2027 05:19:56.487             6.912                Novosib           216.000
       409   06 Jun 2027 05:20:15.143   06 Jun 2027 05:20:27.251            12.108                 Moscow           378.375
       410   06 Jun 2027 05:20:34.946   06 Jun 2027 05:20:45.927            10.981                 Moscow           343.156
       411   06 Jun 2027 05:20:54.370   06 Jun 2027 05:23:06.813           132.443                Novosib          4138.844
       412   06 Jun 2027 05:24:24.886   06 Jun 2027 05:28:05.517           220.631                  Delhi          6894.719
       413   06 Jun 2027 06:56:20.312   06 Jun 2027 06:56:30.749            10.437              Murmansk2           326.156
       414   06 Jun 2027 06:56:41.232   06 Jun 2027 06:57:39.162            57.930                 Moscow          1810.313
       415   06 Jun 2027 06:57:49.403   06 Jun 2027 06:57:49.918             0.515              Murmansk1            16.094
       416   06 Jun 2027 06:58:08.256   06 Jun 2027 06:58:12.729             4.473                 Moscow           139.781
       417   06 Jun 2027 07:15:12.211   06 Jun 2027 07:17:57.178           164.967               CapeTown          5155.219
       418   06 Jun 2027 08:18:02.287   06 Jun 2027 08:19:05.871            63.584                Anadyr2          1987.000
       419   06 Jun 2027 08:19:23.530   06 Jun 2027 08:19:24.699             1.169               Magadan2            36.531
       420   06 Jun 2027 08:20:17.466   06 Jun 2027 08:20:40.702            23.236                Anadyr2           726.125
       421   06 Jun 2027 08:33:56.913   06 Jun 2027 08:34:22.821            25.908                 Moscow           809.625
       422   06 Jun 2027 09:52:34.491   06 Jun 2027 09:53:03.933            29.442               Magadan1           920.062
       423   06 Jun 2027 09:54:40.166   06 Jun 2027 09:55:34.808            54.642               Magadan1          1707.563
       424   06 Jun 2027 09:55:51.900   06 Jun 2027 09:56:47.624            55.724                Anadyr1          1741.375
       425   06 Jun 2027 09:57:07.823   06 Jun 2027 09:58:28.194            80.371               Magadan2          2511.594
       426   06 Jun 2027 11:25:14.045   06 Jun 2027 11:26:12.609            58.564               Magadan2          1830.125
       427   06 Jun 2027 11:28:42.436   06 Jun 2027 11:29:39.014            56.578               Magadan1          1768.062
       428   06 Jun 2027 11:29:58.072   06 Jun 2027 11:30:10.699            12.627               Magadan2           394.594
       429   06 Jun 2027 11:30:36.166   06 Jun 2027 11:33:06.692           150.526               Magadan2          4703.937
       430   06 Jun 2027 11:33:22.381   06 Jun 2027 11:34:02.737            40.356                Irkutsk          1261.125
       431   06 Jun 2027 11:34:17.103   06 Jun 2027 11:34:19.541             2.438                Irkutsk            76.187
       432   06 Jun 2027 11:34:51.609   06 Jun 2027 11:35:52.992            61.383                Irkutsk          1918.219
       433   06 Jun 2027 11:36:05.229   06 Jun 2027 11:36:06.453             1.224                Norilsk            38.250
       434   06 Jun 2027 12:10:51.086   06 Jun 2027 12:12:11.996            80.910            RioGallegos          2528.437
       435   06 Jun 2027 12:46:45.369   06 Jun 2027 12:47:52.214            66.845                Sumatra          2088.906
       436   06 Jun 2027 12:55:29.111   06 Jun 2027 12:55:59.355            30.244                Sumatra           945.125
       437   06 Jun 2027 12:59:13.285   06 Jun 2027 13:00:46.831            93.546                Irkutsk          2923.313
       438   06 Jun 2027 13:01:46.174   06 Jun 2027 13:03:23.843            97.669                Irkutsk          3052.156
       439   06 Jun 2027 13:47:55.696   06 Jun 2027 13:49:02.114            66.418            RioGallegos          2075.562
       440   06 Jun 2027 13:53:00.370   06 Jun 2027 13:53:17.126            16.756            RioGallegos           523.625
       441   06 Jun 2027 13:55:47.680   06 Jun 2027 13:57:53.207           125.527            RioGallegos          3922.719
       442   06 Jun 2027 14:22:11.024   06 Jun 2027 14:27:40.679           329.655                Sumatra         10301.719
       443   06 Jun 2027 14:37:24.840   06 Jun 2027 14:43:29.946           365.106                Irkutsk         11409.563
       444   06 Jun 2027 16:08:09.868   06 Jun 2027 16:13:30.436           320.568                  Delhi         10017.750
       445   06 Jun 2027 16:18:05.362   06 Jun 2027 16:21:54.595           229.233                Novosib          7163.531
       446   06 Jun 2027 18:00:39.476   06 Jun 2027 18:02:13.519            94.043                Norilsk          2938.844
       447   06 Jun 2027 18:03:02.670   06 Jun 2027 18:03:26.574            23.904                Norilsk           747.000
       448   06 Jun 2027 19:29:39.767   06 Jun 2027 19:36:48.467           428.700                 Moscow         13396.875
       449   06 Jun 2027 20:40:20.205   06 Jun 2027 20:41:38.136            77.931               CapeTown          2435.344
       450   06 Jun 2027 20:44:09.730   06 Jun 2027 20:45:23.998            74.268               CapeTown          2320.875
       451   06 Jun 2027 21:12:36.956   06 Jun 2027 21:17:47.972           311.016              Murmansk1          9719.250
       452   06 Jun 2027 22:56:12.044   06 Jun 2027 22:57:27.698            75.654                Anadyr2          2364.187
       453   06 Jun 2027 22:58:27.711   06 Jun 2027 22:59:42.980            75.269               Magadan1          2352.156
       454   06 Jun 2027 22:59:42.980   06 Jun 2027 22:59:50.151             7.171               Magadan2           224.094
       455   06 Jun 2027 23:00:11.395   06 Jun 2027 23:01:32.721            81.326               Magadan1          2541.438
       456   06 Jun 2027 23:03:05.631   06 Jun 2027 23:03:35.824            30.193               Magadan1           943.531
       457   06 Jun 2027 23:04:52.916   06 Jun 2027 23:05:05.764            12.848               Magadan2           401.500
       458   06 Jun 2027 23:07:48.249   06 Jun 2027 23:08:06.645            18.396               Magadan1           574.875
       459   06 Jun 2027 23:51:05.296   06 Jun 2027 23:54:22.763           197.467            RioGallegos          6170.844
       460   06 Jun 2027 23:55:48.831   06 Jun 2027 23:56:05.632            16.801            RioGallegos           525.031
       461   06 Jun 2027 23:57:34.241   06 Jun 2027 23:57:55.139            20.898            RioGallegos           653.063
       462   06 Jun 2027 23:59:28.056   06 Jun 2027 23:59:47.072            19.016            RioGallegos           594.250
       463   07 Jun 2027 00:31:55.803   07 Jun 2027 00:33:04.692            68.889                Anadyr1          2152.781
       464   07 Jun 2027 00:34:01.130   07 Jun 2027 00:35:40.682            99.552                Norilsk          3111.000
       465   07 Jun 2027 00:37:25.179   07 Jun 2027 00:37:42.048            16.869                Norilsk           527.156
       466   07 Jun 2027 00:37:53.147   07 Jun 2027 00:38:03.345            10.198               Magadan1           318.687
       467   07 Jun 2027 00:38:10.684   07 Jun 2027 00:38:58.366            47.682               Magadan1          1490.062
       468   07 Jun 2027 00:39:02.277   07 Jun 2027 00:39:52.259            49.982                Irkutsk          1561.937
       469   07 Jun 2027 00:42:01.311   07 Jun 2027 00:43:04.090            62.779                Irkutsk          1961.844
       470   07 Jun 2027 00:45:02.982   07 Jun 2027 00:45:42.556            39.574                Irkutsk          1236.687
       471   07 Jun 2027 00:52:31.951   07 Jun 2027 00:55:43.829           191.878                Sumatra          5996.188
       472   07 Jun 2027 01:33:03.175   07 Jun 2027 01:33:05.159             1.984            RioGallegos            62.000
       473   07 Jun 2027 01:33:26.684   07 Jun 2027 01:34:29.022            62.338            RioGallegos          1948.062
       474   07 Jun 2027 02:07:56.493   07 Jun 2027 02:08:21.949            25.456                Anadyr2           795.500
       475   07 Jun 2027 02:08:56.845   07 Jun 2027 02:09:18.624            21.779                Anadyr1           680.594
       476   07 Jun 2027 02:09:56.079   07 Jun 2027 02:11:17.904            81.825                Norilsk          2557.031
       477   07 Jun 2027 02:11:18.191   07 Jun 2027 02:11:30.258            12.067                Norilsk           377.094
       478   07 Jun 2027 02:12:14.272   07 Jun 2027 02:12:34.172            19.900               Magadan2           621.875
       479   07 Jun 2027 02:13:48.766   07 Jun 2027 02:16:06.548           137.782                Irkutsk          4305.688
       480   07 Jun 2027 02:17:38.700   07 Jun 2027 02:17:47.350             8.650                Irkutsk           270.313
       481   07 Jun 2027 02:20:30.557   07 Jun 2027 02:21:27.432            56.875                Novosib          1777.344
       482   07 Jun 2027 02:27:03.127   07 Jun 2027 02:27:04.327             1.200                  Delhi            37.500
