uniorb/output/strategy_4/Drop/Drop_KinoSat_111510.txt

KinoSat_111510
-------------------------
    Access    *     Start Time (UTCG)     *     Stop Time (UTCG)  *   Duration (s)        *       Station  *  Data (Mbytes)
         1   01 Jun 2027 04:10:02.988   01 Jun 2027 04:10:09.469             6.481                 Moscow           202.531
         2   01 Jun 2027 04:10:10.353   01 Jun 2027 04:11:50.063            99.710                Novosib          3115.937
         3   01 Jun 2027 04:11:53.549   01 Jun 2027 04:12:37.150            43.601                Novosib          1362.531
         4   01 Jun 2027 04:13:04.118   01 Jun 2027 04:14:42.673            98.555              Murmansk1          3079.844
         5   01 Jun 2027 04:14:50.966   01 Jun 2027 04:18:17.812           206.846                 Moscow          6463.938
         6   01 Jun 2027 04:42:01.141   01 Jun 2027 04:42:09.678             8.537               CapeTown           266.781
         7   01 Jun 2027 05:32:56.463   01 Jun 2027 05:33:54.739            58.276               Magadan1          1821.125
         8   01 Jun 2027 05:34:14.751   01 Jun 2027 05:34:39.562            24.811               Magadan1           775.344
         9   01 Jun 2027 05:36:33.405   01 Jun 2027 05:36:40.137             6.732               Magadan1           210.375
        10   01 Jun 2027 05:37:05.967   01 Jun 2027 05:37:17.567            11.600               Magadan1           362.500
        11   01 Jun 2027 05:44:54.895   01 Jun 2027 05:45:24.412            29.517              Murmansk1           922.406
        12   01 Jun 2027 05:45:24.412   01 Jun 2027 05:45:40.273            15.861              Murmansk2           495.656
        13   01 Jun 2027 05:48:33.662   01 Jun 2027 05:49:15.976            42.314                 Moscow          1322.312
        14   01 Jun 2027 05:50:21.343   01 Jun 2027 05:51:07.191            45.848              Murmansk1          1432.750
        15   01 Jun 2027 07:08:47.744   01 Jun 2027 07:10:26.195            98.451               Magadan2          3076.594
        16   01 Jun 2027 07:10:47.050   01 Jun 2027 07:13:30.260           163.210               Magadan1          5100.313
        17   01 Jun 2027 07:14:07.802   01 Jun 2027 07:14:29.156            21.354               Magadan1           667.312
        18   01 Jun 2027 07:18:42.370   01 Jun 2027 07:18:54.173            11.803                 Moscow           368.844
        19   01 Jun 2027 08:42:50.857   01 Jun 2027 08:44:27.937            97.080               Magadan1          3033.750
        20   01 Jun 2027 08:44:27.937   01 Jun 2027 08:44:58.796            30.859               Magadan2           964.344
        21   01 Jun 2027 08:45:15.477   01 Jun 2027 08:49:01.574           226.097                Anadyr2          7065.531
        22   01 Jun 2027 09:25:39.617   01 Jun 2027 09:25:51.003            11.386            RioGallegos           355.812
        23   01 Jun 2027 10:20:49.776   01 Jun 2027 10:24:51.158           241.382               Magadan1          7543.188
        24   01 Jun 2027 10:25:12.480   01 Jun 2027 10:26:01.202            48.722                Irkutsk          1522.562
        25   01 Jun 2027 10:26:23.306   01 Jun 2027 10:27:35.537            72.231                Novosib          2257.219
        26   01 Jun 2027 11:01:13.101   01 Jun 2027 11:05:34.421           261.320            RioGallegos          8166.250
        27   01 Jun 2027 11:35:51.385   01 Jun 2027 11:38:12.052           140.667                Sumatra          4395.844
        28   01 Jun 2027 11:56:53.616   01 Jun 2027 11:57:52.107            58.491                Novosib          1827.844
        29   01 Jun 2027 11:57:58.384   01 Jun 2027 11:58:43.477            45.093                Novosib          1409.156
        30   01 Jun 2027 11:59:01.305   01 Jun 2027 12:00:14.335            73.030                Irkutsk          2282.188
        31   01 Jun 2027 12:00:33.740   01 Jun 2027 12:01:57.363            83.623                Irkutsk          2613.219
        32   01 Jun 2027 12:05:30.538   01 Jun 2027 12:05:57.498            26.960                Norilsk           842.500
        33   01 Jun 2027 12:07:09.366   01 Jun 2027 12:07:15.977             6.611                Norilsk           206.594
        34   01 Jun 2027 12:08:03.765   01 Jun 2027 12:08:50.753            46.988              Murmansk2          1468.375
        35   01 Jun 2027 12:08:50.753   01 Jun 2027 12:09:22.444            31.691              Murmansk1           990.344
        36   01 Jun 2027 12:44:53.679   01 Jun 2027 12:47:24.324           150.645            RioGallegos          4707.656
        37   01 Jun 2027 13:28:04.114   01 Jun 2027 13:30:11.171           127.057                Novosib          3970.531
        38   01 Jun 2027 13:30:20.967   01 Jun 2027 13:32:37.816           136.849                  Delhi          4276.531
        39   01 Jun 2027 13:34:10.470   01 Jun 2027 13:34:45.571            35.101                Novosib          1096.906
        40   01 Jun 2027 13:35:50.922   01 Jun 2027 13:39:21.476           210.554                Novosib          6579.812
        41   01 Jun 2027 13:42:05.768   01 Jun 2027 13:42:49.118            43.350              Murmansk2          1354.687
        42   01 Jun 2027 13:43:15.984   01 Jun 2027 13:43:15.988             0.004                Norilsk             0.125
        43   01 Jun 2027 13:43:17.088   01 Jun 2027 13:44:09.151            52.063              Murmansk2          1626.969
        44   01 Jun 2027 15:05:36.291   01 Jun 2027 15:06:43.418            67.127                 Moscow          2097.719
        45   01 Jun 2027 15:07:46.019   01 Jun 2027 15:08:16.988            30.969                 Moscow           967.781
        46   01 Jun 2027 15:09:14.416   01 Jun 2027 15:10:06.407            51.991                 Moscow          1624.719
        47   01 Jun 2027 15:10:23.547   01 Jun 2027 15:11:29.432            65.885                 Moscow          2058.906
        48   01 Jun 2027 15:12:04.966   01 Jun 2027 15:13:37.820            92.854                Norilsk          2901.687
        49   01 Jun 2027 15:15:20.981   01 Jun 2027 15:17:45.748           144.767                Norilsk          4523.969
        50   01 Jun 2027 16:22:52.918   01 Jun 2027 16:23:15.421            22.503               CapeTown           703.219
        51   01 Jun 2027 16:23:40.557   01 Jun 2027 16:24:04.302            23.745               CapeTown           742.031
        52   01 Jun 2027 16:24:23.746   01 Jun 2027 16:24:57.719            33.973               CapeTown          1061.656
        53   01 Jun 2027 16:26:56.338   01 Jun 2027 16:28:06.673            70.335               CapeTown          2197.969
        54   01 Jun 2027 16:46:37.062   01 Jun 2027 16:46:59.320            22.258                 Moscow           695.563
        55   01 Jun 2027 16:48:21.252   01 Jun 2027 16:49:18.929            57.677                 Moscow          1802.406
        56   01 Jun 2027 16:51:54.748   01 Jun 2027 16:52:33.516            38.768                 Moscow          1211.500
        57   01 Jun 2027 16:54:15.231   01 Jun 2027 16:54:36.805            21.574              Murmansk2           674.188
        58   01 Jun 2027 16:56:00.796   01 Jun 2027 16:56:49.527            48.731              Murmansk1          1522.844
        59   01 Jun 2027 16:58:55.919   01 Jun 2027 16:59:19.192            23.273                Anadyr2           727.281
        60   01 Jun 2027 17:00:00.780   01 Jun 2027 17:00:18.791            18.011                Anadyr2           562.844
        61   01 Jun 2027 17:00:35.299   01 Jun 2027 17:01:05.222            29.923                Anadyr1           935.094
        62   01 Jun 2027 17:03:26.217   01 Jun 2027 17:03:30.255             4.038                Anadyr1           126.187
        63   01 Jun 2027 17:04:03.080   01 Jun 2027 17:04:07.397             4.317                Anadyr1           134.906
        64   01 Jun 2027 17:05:45.852   01 Jun 2027 17:06:09.207            23.355                Anadyr2           729.844
        65   01 Jun 2027 17:07:08.417   01 Jun 2027 17:07:38.509            30.092                Anadyr2           940.375
        66   01 Jun 2027 18:00:00.865   01 Jun 2027 18:02:03.989           123.124               CapeTown          3847.625
        67   01 Jun 2027 18:24:27.039   01 Jun 2027 18:25:30.540            63.501              Murmansk2          1984.406
        68   01 Jun 2027 18:26:23.482   01 Jun 2027 18:28:41.432           137.950              Murmansk1          4310.937
        69   01 Jun 2027 18:37:50.413   01 Jun 2027 18:38:19.335            28.922               Magadan1           903.812
        70   01 Jun 2027 18:38:34.338   01 Jun 2027 18:38:52.935            18.597               Magadan1           581.156
        71   01 Jun 2027 18:39:49.316   01 Jun 2027 18:39:50.206             0.890               Magadan2            27.812
        72   01 Jun 2027 18:40:49.060   01 Jun 2027 18:41:04.717            15.657               Magadan1           489.281
        73   01 Jun 2027 18:42:04.200   01 Jun 2027 18:42:34.084            29.884               Magadan2           933.875
        74   01 Jun 2027 18:42:54.126   01 Jun 2027 18:43:10.068            15.942               Magadan2           498.187
        75   01 Jun 2027 20:10:26.251   01 Jun 2027 20:12:05.444            99.193                Anadyr1          3099.781
        76   01 Jun 2027 20:12:30.695   01 Jun 2027 20:14:10.672            99.977                Anadyr1          3124.281
        77   01 Jun 2027 20:14:14.655   01 Jun 2027 20:16:07.910           113.255               Magadan1          3539.219
        78   01 Jun 2027 20:16:07.910   01 Jun 2027 20:16:27.508            19.598               Magadan2           612.438
        79   01 Jun 2027 20:16:41.373   01 Jun 2027 20:17:12.977            31.604               Magadan1           987.625
        80   01 Jun 2027 20:17:28.540   01 Jun 2027 20:17:40.931            12.391                Anadyr2           387.219
        81   01 Jun 2027 20:17:41.372   01 Jun 2027 20:18:07.628            26.256               Magadan1           820.500
        82   01 Jun 2027 20:18:54.260   01 Jun 2027 20:19:13.651            19.391               Magadan1           605.969
        83   01 Jun 2027 20:20:45.778   01 Jun 2027 20:20:56.724            10.946               Magadan2           342.062
        84   01 Jun 2027 20:21:05.246   01 Jun 2027 20:21:15.161             9.915               Magadan2           309.844
        85   01 Jun 2027 20:21:40.109   01 Jun 2027 20:22:47.243            67.134               Magadan2          2097.937
        86   01 Jun 2027 21:07:44.222   01 Jun 2027 21:09:27.628           103.406            RioGallegos          3231.438
        87   01 Jun 2027 21:46:17.349   01 Jun 2027 21:48:35.748           138.399                Anadyr1          4324.969
        88   01 Jun 2027 21:48:39.102   01 Jun 2027 21:49:12.068            32.966               Magadan1          1030.188
        89   01 Jun 2027 21:49:20.991   01 Jun 2027 21:49:43.810            22.819                Norilsk           713.094
        90   01 Jun 2027 21:49:48.035   01 Jun 2027 21:50:00.879            12.844               Magadan1           401.375
        91   01 Jun 2027 21:50:09.455   01 Jun 2027 21:50:44.477            35.022                Norilsk          1094.437
        92   01 Jun 2027 21:51:17.690   01 Jun 2027 21:51:46.323            28.633               Magadan2           894.781
        93   01 Jun 2027 21:52:44.763   01 Jun 2027 21:53:03.363            18.600               Magadan1           581.250
        94   01 Jun 2027 21:53:41.345   01 Jun 2027 21:54:00.492            19.147                Irkutsk           598.344
        95   01 Jun 2027 21:54:21.001   01 Jun 2027 21:54:59.898            38.897                Irkutsk          1215.531
        96   01 Jun 2027 21:56:30.381   01 Jun 2027 21:56:34.708             4.327                Irkutsk           135.219
        97   01 Jun 2027 21:59:07.946   01 Jun 2027 21:59:58.920            50.974                Irkutsk          1592.937
        98   01 Jun 2027 22:09:16.821   01 Jun 2027 22:10:46.064            89.243                Sumatra          2788.844
        99   01 Jun 2027 22:14:30.896   01 Jun 2027 22:16:07.141            96.245                Sumatra          3007.656
       100   01 Jun 2027 23:21:39.476   01 Jun 2027 23:22:08.236            28.760                Anadyr2           898.750
       101   01 Jun 2027 23:22:22.582   01 Jun 2027 23:22:33.599            11.017                Anadyr1           344.281
       102   01 Jun 2027 23:23:41.091   01 Jun 2027 23:24:45.142            64.051                Anadyr2          2001.594
       103   01 Jun 2027 23:24:45.604   01 Jun 2027 23:26:51.162           125.558               Magadan2          3923.687
       104   01 Jun 2027 23:27:31.146   01 Jun 2027 23:27:58.609            27.463               Magadan2           858.219
       105   01 Jun 2027 23:28:07.294   01 Jun 2027 23:29:14.431            67.137                Irkutsk          2098.031
       106   01 Jun 2027 23:30:27.334   01 Jun 2027 23:30:53.667            26.333                Novosib           822.906
       107   01 Jun 2027 23:32:26.965   01 Jun 2027 23:33:19.071            52.106                Novosib          1628.313
       108   01 Jun 2027 23:43:39.887   01 Jun 2027 23:44:27.930            48.043                Sumatra          1501.344
       109   01 Jun 2027 23:46:59.020   01 Jun 2027 23:47:45.323            46.303                Sumatra          1446.969
       110   02 Jun 2027 00:16:07.741   02 Jun 2027 00:16:43.738            35.997            RioGallegos          1124.906
       111   02 Jun 2027 00:20:00.785   02 Jun 2027 00:20:17.467            16.682            RioGallegos           521.313
       112   02 Jun 2027 00:23:32.287   02 Jun 2027 00:23:58.802            26.515            RioGallegos           828.594
       113   02 Jun 2027 00:27:44.141   02 Jun 2027 00:27:48.288             4.147            RioGallegos           129.594
       114   02 Jun 2027 00:27:52.535   02 Jun 2027 00:28:09.513            16.978            RioGallegos           530.563
       115   02 Jun 2027 00:55:55.468   02 Jun 2027 00:56:44.780            49.312                Anadyr1          1541.000
       116   02 Jun 2027 00:57:10.852   02 Jun 2027 00:57:34.286            23.434                Anadyr2           732.313
       117   02 Jun 2027 00:57:58.479   02 Jun 2027 00:58:08.240             9.761                Anadyr2           305.031
       118   02 Jun 2027 00:58:20.371   02 Jun 2027 00:58:59.216            38.845                Anadyr2          1213.906
       119   02 Jun 2027 01:00:09.946   02 Jun 2027 01:02:12.057           122.111                Norilsk          3815.969
       120   02 Jun 2027 01:03:22.061   02 Jun 2027 01:06:14.696           172.635              Murmansk1          5394.844
       121   02 Jun 2027 01:11:03.493   02 Jun 2027 01:11:05.974             2.481                Irkutsk            77.531
       122   02 Jun 2027 01:11:22.065   02 Jun 2027 01:12:01.639            39.574                  Delhi          1236.688
       123   02 Jun 2027 01:19:03.672   02 Jun 2027 01:19:34.768            31.096                  Delhi           971.750
       124   02 Jun 2027 01:52:59.971   02 Jun 2027 01:53:52.872            52.901            RioGallegos          1653.156
       125   02 Jun 2027 01:54:37.347   02 Jun 2027 01:56:04.788            87.441            RioGallegos          2732.531
       126   02 Jun 2027 01:59:51.113   02 Jun 2027 02:00:05.591            14.478            RioGallegos           452.437
       127   02 Jun 2027 02:00:54.524   02 Jun 2027 02:00:56.773             2.249            RioGallegos            70.281
       128   02 Jun 2027 02:29:38.713   02 Jun 2027 02:30:09.027            30.314                Anadyr2           947.313
       129   02 Jun 2027 02:31:07.415   02 Jun 2027 02:31:19.707            12.292                Anadyr2           384.125
       130   02 Jun 2027 02:31:41.803   02 Jun 2027 02:31:55.531            13.728                Anadyr2           429.000
       131   02 Jun 2027 02:32:06.290   02 Jun 2027 02:32:20.768            14.478                Anadyr2           452.437
       132   02 Jun 2027 02:34:59.273   02 Jun 2027 02:35:18.012            18.739                Anadyr1           585.594
       133   02 Jun 2027 02:35:25.298   02 Jun 2027 02:36:03.046            37.748               Magadan1          1179.625
       134   02 Jun 2027 02:36:04.148   02 Jun 2027 02:36:16.709            12.561               Magadan2           392.531
       135   02 Jun 2027 02:36:44.041   02 Jun 2027 02:37:10.893            26.852                Norilsk           839.125
       136   02 Jun 2027 02:38:21.392   02 Jun 2027 02:40:02.671           101.279              Murmansk1          3164.969
       137   02 Jun 2027 02:40:07.560   02 Jun 2027 02:41:02.663            55.103                Novosib          1721.969
       138   02 Jun 2027 02:41:14.839   02 Jun 2027 02:42:38.749            83.910                Irkutsk          2622.187
       139   02 Jun 2027 02:48:42.975   02 Jun 2027 02:49:28.862            45.887                  Delhi          1433.969
       140   02 Jun 2027 04:20:49.867   02 Jun 2027 04:22:12.016            82.149                Norilsk          2567.156
       141   02 Jun 2027 04:22:52.522   02 Jun 2027 04:23:32.029            39.507                Norilsk          1234.594
       142   02 Jun 2027 04:23:42.965   02 Jun 2027 04:23:51.791             8.826              Murmansk2           275.813
       143   02 Jun 2027 04:24:00.495   02 Jun 2027 04:25:08.416            67.921              Murmansk2          2122.531
       144   02 Jun 2027 04:25:08.416   02 Jun 2027 04:25:52.860            44.444              Murmansk1          1388.875
       145   02 Jun 2027 05:45:49.333   02 Jun 2027 05:47:17.939            88.606                Anadyr1          2768.938
       146   02 Jun 2027 05:48:18.540   02 Jun 2027 05:49:19.035            60.495                Anadyr2          1890.469
       147   02 Jun 2027 05:50:37.013   02 Jun 2027 05:51:02.883            25.870                Anadyr1           808.437
       148   02 Jun 2027 07:23:44.580   02 Jun 2027 07:24:29.104            44.524                Anadyr2          1391.375
       149   02 Jun 2027 07:24:29.104   02 Jun 2027 07:26:51.768           142.664                Anadyr1          4458.250
       150   02 Jun 2027 08:56:23.683   02 Jun 2027 08:59:34.092           190.409               Magadan2          5950.281
       151   02 Jun 2027 08:59:48.334   02 Jun 2027 09:00:52.899            64.565               Magadan2          2017.656
       152   02 Jun 2027 09:00:59.958   02 Jun 2027 09:01:39.086            39.128                Anadyr2          1222.750
       153   02 Jun 2027 10:31:58.445   02 Jun 2027 10:32:48.370            49.925               Magadan2          1560.156
       154   02 Jun 2027 10:33:38.800   02 Jun 2027 10:33:44.428             5.628                Norilsk           175.875
       155   02 Jun 2027 10:34:23.501   02 Jun 2027 10:34:33.931            10.430                Irkutsk           325.938
       156   02 Jun 2027 10:34:43.399   02 Jun 2027 10:35:05.902            22.503                Irkutsk           703.219
       157   02 Jun 2027 10:35:25.097   02 Jun 2027 10:35:47.625            22.528               Magadan1           704.000
       158   02 Jun 2027 10:36:12.824   02 Jun 2027 10:36:18.707             5.883                Irkutsk           183.844
       159   02 Jun 2027 10:36:19.327   02 Jun 2027 10:36:27.103             7.776                Norilsk           243.000
       160   02 Jun 2027 10:37:09.281   02 Jun 2027 10:37:29.117            19.836                Irkutsk           619.875
       161   02 Jun 2027 10:37:36.650   02 Jun 2027 10:37:46.159             9.509                Irkutsk           297.156
       162   02 Jun 2027 10:37:47.569   02 Jun 2027 10:37:52.180             4.611                Novosib           144.094
       163   02 Jun 2027 10:38:01.820   02 Jun 2027 10:38:22.454            20.634                Irkutsk           644.812
       164   02 Jun 2027 11:13:27.633   02 Jun 2027 11:14:12.432            44.799            RioGallegos          1399.969
       165   02 Jun 2027 11:22:03.779   02 Jun 2027 11:22:51.475            47.696            RioGallegos          1490.500
       166   02 Jun 2027 11:47:56.479   02 Jun 2027 11:48:58.983            62.504                Sumatra          1953.250
       167   02 Jun 2027 12:05:43.027   02 Jun 2027 12:05:49.452             6.425                Novosib           200.781
       168   02 Jun 2027 12:06:45.474   02 Jun 2027 12:07:40.984            55.510                Irkutsk          1734.687
       169   02 Jun 2027 12:15:00.696   02 Jun 2027 12:15:17.514            16.818                Norilsk           525.563
       170   02 Jun 2027 12:18:01.002   02 Jun 2027 12:19:09.470            68.468                Norilsk          2139.625
       171   02 Jun 2027 12:55:25.905   02 Jun 2027 12:56:04.519            38.614            RioGallegos          1206.687
       172   02 Jun 2027 12:56:31.171   02 Jun 2027 12:58:06.221            95.050            RioGallegos          2970.312
       173   02 Jun 2027 13:40:31.481   02 Jun 2027 13:41:45.768            74.287                Novosib          2321.469
       174   02 Jun 2027 13:42:14.811   02 Jun 2027 13:42:53.839            39.028                Novosib          1219.625
       175   02 Jun 2027 13:44:11.580   02 Jun 2027 13:45:37.914            86.334                Novosib          2697.938
       176   02 Jun 2027 13:53:06.722   02 Jun 2027 13:53:32.350            25.628                Norilsk           800.875
       177   02 Jun 2027 13:54:24.082   02 Jun 2027 13:55:11.574            47.492                Norilsk          1484.125
       178   02 Jun 2027 15:16:29.122   02 Jun 2027 15:20:11.369           222.247                 Moscow          6945.219
       179   02 Jun 2027 15:23:08.677   02 Jun 2027 15:23:17.048             8.371              Murmansk1           261.594
       180   02 Jun 2027 15:23:27.421   02 Jun 2027 15:23:56.822            29.401              Murmansk2           918.781
       181   02 Jun 2027 15:24:51.973   02 Jun 2027 15:27:18.974           147.001                Norilsk          4593.781
       182   02 Jun 2027 15:28:11.621   02 Jun 2027 15:28:28.933            17.312                Norilsk           541.000
       183   02 Jun 2027 15:29:28.570   02 Jun 2027 15:29:34.830             6.260                Norilsk           195.625
       184   02 Jun 2027 16:31:39.630   02 Jun 2027 16:32:08.340            28.710               CapeTown           897.188
       185   02 Jun 2027 16:34:49.462   02 Jun 2027 16:34:59.318             9.856               CapeTown           308.000
       186   02 Jun 2027 16:37:01.710   02 Jun 2027 16:37:29.405            27.695               CapeTown           865.469
       187   02 Jun 2027 16:40:01.403   02 Jun 2027 16:40:28.699            27.296               CapeTown           853.000
       188   02 Jun 2027 16:54:27.325   02 Jun 2027 16:55:34.529            67.204                 Moscow          2100.125
       189   02 Jun 2027 16:57:30.629   02 Jun 2027 16:58:24.005            53.376              Murmansk1          1668.000
       190   02 Jun 2027 17:00:47.834   02 Jun 2027 17:01:19.870            32.036              Murmansk2          1001.125
       191   02 Jun 2027 17:06:40.721   02 Jun 2027 17:07:06.618            25.897              Murmansk2           809.281
       192   02 Jun 2027 17:10:51.956   02 Jun 2027 17:12:06.154            74.198                Anadyr2          2318.688
       193   02 Jun 2027 17:15:26.075   02 Jun 2027 17:15:54.781            28.706                Anadyr2           897.063
       194   02 Jun 2027 17:19:33.275   02 Jun 2027 17:19:45.758            12.483                Anadyr2           390.094
       195   02 Jun 2027 18:06:07.386   02 Jun 2027 18:06:59.768            52.382               CapeTown          1636.938
       196   02 Jun 2027 18:11:12.584   02 Jun 2027 18:11:35.843            23.259               CapeTown           726.844
       197   02 Jun 2027 18:16:35.014   02 Jun 2027 18:16:47.179            12.165               CapeTown           380.156
       198   02 Jun 2027 18:16:56.232   02 Jun 2027 18:17:35.676            39.444               CapeTown          1232.625
       199   02 Jun 2027 18:37:08.577   02 Jun 2027 18:38:53.522           104.945              Murmansk1          3279.531
       200   02 Jun 2027 18:39:13.085   02 Jun 2027 18:40:53.617           100.532              Murmansk2          3141.625
       201   02 Jun 2027 18:40:59.288   02 Jun 2027 18:42:27.774            88.486              Murmansk1          2765.188
       202   02 Jun 2027 18:51:56.322   02 Jun 2027 18:52:57.747            61.425               Magadan1          1919.531
       203   02 Jun 2027 20:22:27.850   02 Jun 2027 20:24:05.558            97.708                Anadyr2          3053.375
       204   02 Jun 2027 20:24:32.467   02 Jun 2027 20:25:34.793            62.326                Anadyr1          1947.687
       205   02 Jun 2027 20:25:44.827   02 Jun 2027 20:28:44.530           179.703               Magadan1          5615.719
       206   02 Jun 2027 20:30:16.181   02 Jun 2027 20:30:47.548            31.367               Magadan2           980.219
       207   02 Jun 2027 20:32:32.846   02 Jun 2027 20:32:51.056            18.210               Magadan1           569.063
       208   02 Jun 2027 20:36:06.882   02 Jun 2027 20:36:27.013            20.131               Magadan2           629.094
       209   02 Jun 2027 21:18:32.571   02 Jun 2027 21:21:05.355           152.784            RioGallegos          4774.500
       210   02 Jun 2027 21:23:18.782   02 Jun 2027 21:23:53.508            34.726            RioGallegos          1085.187
       211   02 Jun 2027 21:58:16.938   02 Jun 2027 21:59:49.319            92.381                Anadyr1          2886.906
       212   02 Jun 2027 22:00:04.431   02 Jun 2027 22:00:22.306            17.875                Anadyr1           558.594
       213   02 Jun 2027 22:00:24.791   02 Jun 2027 22:01:57.408            92.617                Norilsk          2894.281
       214   02 Jun 2027 22:02:38.477   02 Jun 2027 22:03:03.024            24.547               Magadan2           767.094
       215   02 Jun 2027 22:03:08.138   02 Jun 2027 22:03:13.633             5.495               Magadan1           171.719
       216   02 Jun 2027 22:03:24.249   02 Jun 2027 22:03:46.738            22.489                Norilsk           702.781
       217   02 Jun 2027 22:04:09.643   02 Jun 2027 22:04:46.289            36.646               Magadan2          1145.188
       218   02 Jun 2027 22:07:17.695   02 Jun 2027 22:08:03.070            45.375                Irkutsk          1417.969
       219   02 Jun 2027 22:20:12.644   02 Jun 2027 22:22:30.034           137.390                Sumatra          4293.437
       220   02 Jun 2027 22:26:19.979   02 Jun 2027 22:27:59.972            99.993                Sumatra          3124.781
       221   02 Jun 2027 23:33:32.818   02 Jun 2027 23:33:48.249            15.431                Anadyr1           482.219
       222   02 Jun 2027 23:36:11.472   02 Jun 2027 23:37:57.308           105.836                Norilsk          3307.375
       223   02 Jun 2027 23:38:19.033   02 Jun 2027 23:38:33.930            14.897               Magadan2           465.531
       224   02 Jun 2027 23:40:06.451   02 Jun 2027 23:42:27.676           141.225                Irkutsk          4413.281
       225   02 Jun 2027 23:49:49.784   02 Jun 2027 23:50:15.751            25.967                Novosib           811.469
       226   02 Jun 2027 23:50:35.477   02 Jun 2027 23:50:55.386            19.909                Novosib           622.156
       227   02 Jun 2027 23:51:51.782   02 Jun 2027 23:52:26.553            34.771                  Delhi          1086.594
       228   02 Jun 2027 23:53:22.299   02 Jun 2027 23:55:20.512           118.213                  Delhi          3694.156
       229   03 Jun 2027 01:07:39.059   03 Jun 2027 01:08:55.582            76.523                Anadyr1          2391.344
       230   03 Jun 2027 01:09:09.624   03 Jun 2027 01:09:34.330            24.706                Anadyr1           772.062
       231   03 Jun 2027 01:12:47.921   03 Jun 2027 01:14:15.244            87.323               Magadan1          2728.844
       232   03 Jun 2027 01:14:22.897   03 Jun 2027 01:14:38.274            15.377               Magadan1           480.531
       233   03 Jun 2027 01:15:05.002   03 Jun 2027 01:18:07.959           182.957              Murmansk2          5717.406
       234   03 Jun 2027 01:23:13.584   03 Jun 2027 01:23:37.182            23.598                Irkutsk           737.437
       235   03 Jun 2027 01:23:49.051   03 Jun 2027 01:23:53.032             3.981                Irkutsk           124.406
       236   03 Jun 2027 01:23:53.840   03 Jun 2027 01:25:00.611            66.771                  Delhi          2086.594
       237   03 Jun 2027 02:05:17.532   03 Jun 2027 02:07:20.780           123.248            RioGallegos          3851.500
       238   03 Jun 2027 02:08:09.698   03 Jun 2027 02:10:05.828           116.130            RioGallegos          3629.063
       239   03 Jun 2027 02:47:00.143   03 Jun 2027 02:47:26.041            25.898               Magadan1           809.312
       240   03 Jun 2027 02:48:07.560   03 Jun 2027 02:48:11.694             4.134                Norilsk           129.187
       241   03 Jun 2027 02:49:12.189   03 Jun 2027 02:49:31.502            19.313               Magadan2           603.531
       242   03 Jun 2027 02:50:21.801   03 Jun 2027 02:50:30.685             8.884              Murmansk1           277.625
       243   03 Jun 2027 02:50:30.685   03 Jun 2027 02:51:48.246            77.561              Murmansk2          2423.781
       244   03 Jun 2027 02:52:01.470   03 Jun 2027 02:52:03.439             1.969              Murmansk2            61.531
       245   03 Jun 2027 02:52:06.515   03 Jun 2027 02:52:11.697             5.182                Novosib           161.937
       246   03 Jun 2027 02:52:19.005   03 Jun 2027 02:53:31.992            72.987              Murmansk1          2280.844
       247   03 Jun 2027 02:56:57.681   03 Jun 2027 02:57:46.174            48.493                Irkutsk          1515.406
       248   03 Jun 2027 04:34:41.080   03 Jun 2027 04:35:21.218            40.138                Norilsk          1254.312
       249   03 Jun 2027 04:36:00.165   03 Jun 2027 04:37:36.997            96.832              Murmansk1          3026.000
       250   03 Jun 2027 04:37:36.997   03 Jun 2027 04:37:57.016            20.019              Murmansk2           625.594
       251   03 Jun 2027 04:38:34.428   03 Jun 2027 04:39:06.600            32.172                 Moscow          1005.375
       252   03 Jun 2027 04:53:24.342   03 Jun 2027 04:56:02.221           157.879               CapeTown          4933.719
       253   03 Jun 2027 05:56:40.813   03 Jun 2027 05:58:13.791            92.978                Anadyr1          2905.562
       254   03 Jun 2027 05:58:35.468   03 Jun 2027 05:59:08.262            32.794               Magadan2          1024.812
       255   03 Jun 2027 05:59:29.006   03 Jun 2027 06:00:31.421            62.415               Magadan2          1950.469
       256   03 Jun 2027 07:34:13.655   03 Jun 2027 07:35:11.589            57.934                Anadyr2          1810.438
       257   03 Jun 2027 07:35:22.245   03 Jun 2027 07:36:32.530            70.285               Magadan2          2196.406
       258   03 Jun 2027 08:20:55.084   03 Jun 2027 08:21:39.482            44.398            RioGallegos          1387.438
       259   03 Jun 2027 09:08:17.873   03 Jun 2027 09:08:22.397             4.524               Magadan1           141.375
       260   03 Jun 2027 09:08:54.009   03 Jun 2027 09:09:03.270             9.261               Magadan1           289.406
       261   03 Jun 2027 09:10:21.242   03 Jun 2027 09:11:55.494            94.252                Anadyr1          2945.375
       262   03 Jun 2027 09:12:54.099   03 Jun 2027 09:12:56.529             2.430               Magadan1            75.938
       263   03 Jun 2027 09:13:09.153   03 Jun 2027 09:13:49.343            40.190               Magadan1          1255.938
       264   03 Jun 2027 09:14:06.213   03 Jun 2027 09:14:20.592            14.379                Novosib           449.344
       265   03 Jun 2027 09:14:44.318   03 Jun 2027 09:14:50.811             6.493                Norilsk           202.906
       266   03 Jun 2027 09:49:17.568   03 Jun 2027 09:50:15.773            58.205            RioGallegos          1818.906
       267   03 Jun 2027 09:52:23.458   03 Jun 2027 09:52:49.005            25.547            RioGallegos           798.344
       268   03 Jun 2027 10:25:48.821   03 Jun 2027 10:27:16.585            87.764                Sumatra          2742.625
       269   03 Jun 2027 10:44:40.069   03 Jun 2027 10:44:51.752            11.683                Norilsk           365.094
       270   03 Jun 2027 10:45:04.643   03 Jun 2027 10:45:40.889            36.246                Irkutsk          1132.688
       271   03 Jun 2027 10:45:45.653   03 Jun 2027 10:46:08.418            22.765                Norilsk           711.406
       272   03 Jun 2027 10:46:11.004   03 Jun 2027 10:46:58.370            47.366                Norilsk          1480.187
       273   03 Jun 2027 10:47:06.045   03 Jun 2027 10:48:10.708            64.663                Irkutsk          2020.719
       274   03 Jun 2027 10:48:25.883   03 Jun 2027 10:48:33.593             7.710                Irkutsk           240.938
       275   03 Jun 2027 10:48:48.325   03 Jun 2027 10:49:34.236            45.911                Irkutsk          1434.719
       276   03 Jun 2027 10:49:41.046   03 Jun 2027 10:49:57.541            16.495                Norilsk           515.469
       277   03 Jun 2027 10:49:58.816   03 Jun 2027 10:50:52.281            53.465                Norilsk          1670.781
       278   03 Jun 2027 11:27:57.266   03 Jun 2027 11:28:10.353            13.087            RioGallegos           408.969
       279   03 Jun 2027 11:34:33.571   03 Jun 2027 11:35:17.088            43.517            RioGallegos          1359.906
       280   03 Jun 2027 12:00:07.540   03 Jun 2027 12:00:32.317            24.777                Sumatra           774.281
       281   03 Jun 2027 12:05:42.504   03 Jun 2027 12:05:45.174             2.670                Sumatra            83.437
       282   03 Jun 2027 12:13:34.941   03 Jun 2027 12:14:47.484            72.543                  Delhi          2266.969
       283   03 Jun 2027 12:14:59.247   03 Jun 2027 12:15:48.033            48.786                Novosib          1524.563
       284   03 Jun 2027 12:19:40.868   03 Jun 2027 12:19:42.604             1.736                Norilsk            54.250
       285   03 Jun 2027 12:20:27.634   03 Jun 2027 12:20:34.947             7.313                Norilsk           228.531
       286   03 Jun 2027 12:25:42.627   03 Jun 2027 12:26:12.341            29.714                Norilsk           928.563
       287   03 Jun 2027 12:32:52.970   03 Jun 2027 12:33:17.300            24.330              Murmansk2           760.313
       288   03 Jun 2027 13:44:49.293   03 Jun 2027 13:45:56.504            67.211                  Delhi          2100.344
       289   03 Jun 2027 13:48:54.262   03 Jun 2027 13:49:56.550            62.288                  Delhi          1946.500
       290   03 Jun 2027 13:52:59.415   03 Jun 2027 13:54:46.655           107.240                  Delhi          3351.250
       291   03 Jun 2027 13:54:56.249   03 Jun 2027 13:56:09.819            73.570                Novosib          2299.062
       292   03 Jun 2027 13:56:15.570   03 Jun 2027 13:56:20.228             4.658              Murmansk1           145.563
       293   03 Jun 2027 13:56:47.722   03 Jun 2027 13:58:09.644            81.922                Novosib          2560.062
       294   03 Jun 2027 14:04:47.169   03 Jun 2027 14:05:05.284            18.115                Norilsk           566.094
       295   03 Jun 2027 15:28:33.846   03 Jun 2027 15:32:37.911           244.065                 Moscow          7627.031
       296   03 Jun 2027 15:33:14.833   03 Jun 2027 15:33:35.060            20.227              Murmansk1           632.094
       297   03 Jun 2027 15:34:01.695   03 Jun 2027 15:34:40.958            39.263              Murmansk2          1226.969
       298   03 Jun 2027 15:37:45.038   03 Jun 2027 15:40:56.761           191.723                Norilsk          5991.344
       299   03 Jun 2027 16:46:05.570   03 Jun 2027 16:46:41.018            35.448               CapeTown          1107.750
       300   03 Jun 2027 16:53:31.246   03 Jun 2027 16:53:41.719            10.473               CapeTown           327.281
       301   03 Jun 2027 16:54:24.665   03 Jun 2027 16:54:26.418             1.753               CapeTown            54.781
       302   03 Jun 2027 17:07:04.651   03 Jun 2027 17:08:30.791            86.140                 Moscow          2691.875
       303   03 Jun 2027 17:09:38.198   03 Jun 2027 17:10:01.501            23.303                 Moscow           728.219
       304   03 Jun 2027 17:11:16.828   03 Jun 2027 17:12:45.121            88.293              Murmansk2          2759.156
       305   03 Jun 2027 17:22:49.225   03 Jun 2027 17:23:40.271            51.046                Anadyr1          1595.187
       306   03 Jun 2027 17:24:02.442   03 Jun 2027 17:24:19.953            17.511                Anadyr1           547.219
       307   03 Jun 2027 17:27:44.985   03 Jun 2027 17:27:53.834             8.849                Anadyr1           276.531
       308   03 Jun 2027 17:28:23.259   03 Jun 2027 17:28:45.134            21.875                Anadyr2           683.594
       309   03 Jun 2027 18:18:19.194   03 Jun 2027 18:19:11.542            52.348               CapeTown          1635.875
       310   03 Jun 2027 18:22:21.537   03 Jun 2027 18:22:43.747            22.210               CapeTown           694.062
       311   03 Jun 2027 18:27:57.483   03 Jun 2027 18:28:05.588             8.105               CapeTown           253.281
       312   03 Jun 2027 18:29:20.762   03 Jun 2027 18:29:38.415            17.653               CapeTown           551.656
       313   03 Jun 2027 18:49:54.717   03 Jun 2027 18:53:56.357           241.640              Murmansk2          7551.250
       314   03 Jun 2027 18:53:56.357   03 Jun 2027 18:54:27.702            31.345              Murmansk1           979.531
       315   03 Jun 2027 19:01:26.201   03 Jun 2027 19:01:50.833            24.632               Magadan1           769.750
       316   03 Jun 2027 19:02:06.415   03 Jun 2027 19:02:15.777             9.362               Magadan1           292.562
       317   03 Jun 2027 19:03:59.852   03 Jun 2027 19:04:45.604            45.752               Magadan2          1429.750
       318   03 Jun 2027 19:07:47.297   03 Jun 2027 19:07:52.825             5.528               Magadan1           172.750
       319   03 Jun 2027 19:09:35.445   03 Jun 2027 19:10:17.365            41.920               Magadan1          1310.000
       320   03 Jun 2027 20:34:29.350   03 Jun 2027 20:36:34.267           124.917                Anadyr2          3903.656
       321   03 Jun 2027 20:36:35.470   03 Jun 2027 20:37:22.292            46.822                Anadyr1          1463.188
       322   03 Jun 2027 20:37:44.469   03 Jun 2027 20:37:48.915             4.446                Anadyr1           138.937
       323   03 Jun 2027 20:37:57.964   03 Jun 2027 20:38:28.260            30.296               Magadan1           946.750
       324   03 Jun 2027 20:38:32.542   03 Jun 2027 20:39:54.036            81.494               Magadan1          2546.688
       325   03 Jun 2027 20:39:54.036   03 Jun 2027 20:40:40.766            46.730               Magadan2          1460.312
       326   03 Jun 2027 20:41:07.587   03 Jun 2027 20:41:22.388            14.801               Magadan2           462.531
       327   03 Jun 2027 20:41:56.446   03 Jun 2027 20:42:22.970            26.524               Magadan2           828.875
       328   03 Jun 2027 21:29:55.302   03 Jun 2027 21:32:49.160           173.858            RioGallegos          5433.062
       329   03 Jun 2027 21:35:13.903   03 Jun 2027 21:35:53.981            40.078            RioGallegos          1252.438
       330   03 Jun 2027 21:36:21.204   03 Jun 2027 21:36:54.946            33.742            RioGallegos          1054.437
       331   03 Jun 2027 22:10:31.206   03 Jun 2027 22:11:10.037            38.831                Anadyr1          1213.469
       332   03 Jun 2027 22:11:32.789   03 Jun 2027 22:12:28.952            56.163                Anadyr1          1755.094
       333   03 Jun 2027 22:12:37.898   03 Jun 2027 22:13:16.949            39.051                Norilsk          1220.344
       334   03 Jun 2027 22:14:07.354   03 Jun 2027 22:14:34.426            27.072               Magadan2           846.000
       335   03 Jun 2027 22:15:00.641   03 Jun 2027 22:15:19.420            18.779               Magadan2           586.844
       336   03 Jun 2027 22:15:26.782   03 Jun 2027 22:15:30.507             3.725               Magadan1           116.406
       337   03 Jun 2027 22:15:32.954   03 Jun 2027 22:15:56.992            24.038                Norilsk           751.188
       338   03 Jun 2027 22:17:01.945   03 Jun 2027 22:17:55.634            53.689                Irkutsk          1677.781
       339   03 Jun 2027 22:22:50.212   03 Jun 2027 22:23:22.515            32.303                Irkutsk          1009.469
       340   03 Jun 2027 22:31:28.726   03 Jun 2027 22:34:09.989           161.263                Sumatra          5039.469
       341   03 Jun 2027 23:45:24.977   03 Jun 2027 23:47:43.013           138.036                Anadyr1          4313.625
       342   03 Jun 2027 23:48:13.449   03 Jun 2027 23:49:30.726            77.277                Norilsk          2414.906
       343   03 Jun 2027 23:49:43.822   03 Jun 2027 23:49:59.342            15.520                Norilsk           485.000
       344   03 Jun 2027 23:50:27.749   03 Jun 2027 23:51:28.332            60.583               Magadan2          1893.219
       345   03 Jun 2027 23:52:35.889   03 Jun 2027 23:53:27.947            52.058                Novosib          1626.813
       346   03 Jun 2027 23:54:51.537   03 Jun 2027 23:54:59.504             7.967                Novosib           248.969
       347   03 Jun 2027 23:55:07.994   03 Jun 2027 23:55:41.793            33.799                Novosib          1056.219
       348   04 Jun 2027 00:01:34.929   04 Jun 2027 00:02:02.022            27.093                  Delhi           846.656
       349   04 Jun 2027 00:04:52.064   04 Jun 2027 00:06:29.838            97.774                  Delhi          3055.438
       350   04 Jun 2027 00:44:15.421   04 Jun 2027 00:45:27.233            71.812            RioGallegos          2244.125
       351   04 Jun 2027 01:19:41.188   04 Jun 2027 01:20:44.510            63.322                Anadyr1          1978.812
       352   04 Jun 2027 01:21:34.700   04 Jun 2027 01:21:49.973            15.273                Anadyr1           477.281
       353   04 Jun 2027 01:24:14.169   04 Jun 2027 01:26:06.774           112.605                Norilsk          3518.906
       354   04 Jun 2027 01:26:54.584   04 Jun 2027 01:28:10.746            76.162              Murmansk1          2380.062
       355   04 Jun 2027 01:28:12.318   04 Jun 2027 01:29:51.418            99.100                Novosib          3096.875
       356   04 Jun 2027 01:33:50.602   04 Jun 2027 01:34:58.583            67.981                Novosib          2124.406
       357   04 Jun 2027 01:41:55.152   04 Jun 2027 01:43:37.506           102.354                  Delhi          3198.562
       358   04 Jun 2027 02:17:40.438   04 Jun 2027 02:18:21.337            40.899            RioGallegos          1278.094
       359   04 Jun 2027 02:21:28.558   04 Jun 2027 02:22:07.488            38.930            RioGallegos          1216.563
       360   04 Jun 2027 02:52:38.529   04 Jun 2027 02:53:02.574            24.045                Anadyr1           751.406
       361   04 Jun 2027 02:53:29.489   04 Jun 2027 02:53:45.231            15.742                Anadyr1           491.937
       362   04 Jun 2027 02:56:01.257   04 Jun 2027 02:56:07.974             6.717                Anadyr1           209.906
       363   04 Jun 2027 02:58:31.846   04 Jun 2027 02:59:19.054            47.208               Magadan1          1475.250
       364   04 Jun 2027 03:00:08.051   04 Jun 2027 03:00:14.175             6.124                Norilsk           191.375
       365   04 Jun 2027 03:07:19.963   04 Jun 2027 03:07:59.713            39.750                Irkutsk          1242.188
       366   04 Jun 2027 03:08:13.550   04 Jun 2027 03:09:07.292            53.742                Irkutsk          1679.438
       367   04 Jun 2027 03:09:31.429   04 Jun 2027 03:10:35.143            63.714                 Moscow          1991.063
       368   04 Jun 2027 03:10:40.915   04 Jun 2027 03:11:09.243            28.328                 Moscow           885.250
       369   04 Jun 2027 03:11:11.107   04 Jun 2027 03:11:38.780            27.673              Murmansk2           864.781
       370   04 Jun 2027 03:11:50.536   04 Jun 2027 03:12:06.539            16.003                Novosib           500.094
       371   04 Jun 2027 03:12:14.908   04 Jun 2027 03:13:36.603            81.695                Novosib          2552.969
       372   04 Jun 2027 04:26:38.610   04 Jun 2027 04:27:56.801            78.191                Anadyr2          2443.469
       373   04 Jun 2027 04:48:25.137   04 Jun 2027 04:49:09.267            44.130                 Moscow          1379.062
       374   04 Jun 2027 05:05:29.836   04 Jun 2027 05:07:48.002           138.166               CapeTown          4317.688
       375   04 Jun 2027 06:02:16.714   04 Jun 2027 06:03:09.722            53.008                Anadyr1          1656.500
       376   04 Jun 2027 06:03:09.722   04 Jun 2027 06:04:15.924            66.202                Anadyr2          2068.812
       377   04 Jun 2027 06:08:01.737   04 Jun 2027 06:10:09.425           127.688                Anadyr1          3990.250
       378   04 Jun 2027 06:10:28.648   04 Jun 2027 06:11:34.522            65.874               Magadan2          2058.562
       379   04 Jun 2027 06:11:57.329   04 Jun 2027 06:12:35.342            38.013                Anadyr1          1187.906
       380   04 Jun 2027 07:44:49.210   04 Jun 2027 07:45:06.982            17.772                Anadyr1           555.375
       381   04 Jun 2027 07:45:26.699   04 Jun 2027 07:46:25.150            58.451                Anadyr1          1826.594
       382   04 Jun 2027 07:46:58.624   04 Jun 2027 07:47:06.629             8.005               Magadan1           250.156
       383   04 Jun 2027 07:47:11.218   04 Jun 2027 07:47:47.600            36.382                Anadyr2          1136.938
       384   04 Jun 2027 07:47:47.600   04 Jun 2027 07:48:14.208            26.608                Anadyr1           831.500
       385   04 Jun 2027 08:31:47.786   04 Jun 2027 08:32:11.382            23.596            RioGallegos           737.375
       386   04 Jun 2027 09:20:10.044   04 Jun 2027 09:20:27.013            16.969               Magadan1           530.281
       387   04 Jun 2027 09:20:42.844   04 Jun 2027 09:21:05.069            22.225               Magadan2           694.531
       388   04 Jun 2027 09:21:48.727   04 Jun 2027 09:22:23.443            34.716               Magadan1          1084.875
       389   04 Jun 2027 09:22:43.246   04 Jun 2027 09:23:20.271            37.025               Magadan1          1157.031
       390   04 Jun 2027 09:23:27.084   04 Jun 2027 09:24:54.859            87.775               Magadan1          2742.969
       391   04 Jun 2027 09:25:25.969   04 Jun 2027 09:25:35.812             9.843               Magadan2           307.594
       392   04 Jun 2027 09:26:04.200   04 Jun 2027 09:26:14.829            10.629               Magadan1           332.156
       393   04 Jun 2027 09:27:57.703   04 Jun 2027 09:28:00.033             2.330                Norilsk            72.812
       394   04 Jun 2027 10:01:11.365   04 Jun 2027 10:03:04.674           113.309            RioGallegos          3540.906
       395   04 Jun 2027 10:37:11.674   04 Jun 2027 10:37:45.545            33.871                Sumatra          1058.469
       396   04 Jun 2027 10:56:31.432   04 Jun 2027 10:57:27.936            56.504                Irkutsk          1765.750
       397   04 Jun 2027 10:58:07.645   04 Jun 2027 10:58:40.679            33.034                Irkutsk          1032.312
       398   04 Jun 2027 10:59:09.453   04 Jun 2027 11:00:07.248            57.795                Irkutsk          1806.094
       399   04 Jun 2027 11:00:16.355   04 Jun 2027 11:00:18.190             1.835                Norilsk            57.344
       400   04 Jun 2027 11:00:32.144   04 Jun 2027 11:01:25.405            53.261                Irkutsk          1664.406
       401   04 Jun 2027 11:01:31.928   04 Jun 2027 11:01:42.529            10.601                Norilsk           331.281
       402   04 Jun 2027 11:01:50.985   04 Jun 2027 11:01:52.356             1.371                Novosib            42.844
       403   04 Jun 2027 11:01:54.242   04 Jun 2027 11:02:25.317            31.075                Irkutsk           971.094
       404   04 Jun 2027 11:38:09.770   04 Jun 2027 11:38:29.787            20.017            RioGallegos           625.531
       405   04 Jun 2027 11:39:04.956   04 Jun 2027 11:39:14.741             9.785            RioGallegos           305.781
       406   04 Jun 2027 11:40:16.543   04 Jun 2027 11:41:08.746            52.203            RioGallegos          1631.344
       407   04 Jun 2027 12:12:25.310   04 Jun 2027 12:12:56.857            31.547                Sumatra           985.844
       408   04 Jun 2027 12:17:07.319   04 Jun 2027 12:17:09.125             1.806                Sumatra            56.437
       409   04 Jun 2027 12:20:38.215   04 Jun 2027 12:21:02.509            24.294                  Delhi           759.188
       410   04 Jun 2027 12:27:04.613   04 Jun 2027 12:28:00.635            56.022                Novosib          1750.687
       411   04 Jun 2027 12:28:04.235   04 Jun 2027 12:28:05.285             1.050                Irkutsk            32.812
       412   04 Jun 2027 12:28:27.486   04 Jun 2027 12:28:52.628            25.142                Novosib           785.688
       413   04 Jun 2027 12:30:03.864   04 Jun 2027 12:30:17.875            14.011                Novosib           437.844
       414   04 Jun 2027 12:32:32.968   04 Jun 2027 12:33:34.262            61.294                Norilsk          1915.438
       415   04 Jun 2027 13:57:19.245   04 Jun 2027 14:00:35.736           196.491                  Delhi          6140.344
       416   04 Jun 2027 14:05:42.773   04 Jun 2027 14:08:06.905           144.132                Novosib          4504.125
       417   04 Jun 2027 14:08:11.452   04 Jun 2027 14:08:19.470             8.018              Murmansk1           250.563
       418   04 Jun 2027 14:08:25.488   04 Jun 2027 14:10:15.273           109.785                Novosib          3430.781
       419   04 Jun 2027 14:13:44.168   04 Jun 2027 14:14:13.977            29.809                Norilsk           931.531
       420   04 Jun 2027 15:40:41.661   04 Jun 2027 15:42:39.468           117.807                 Moscow          3681.469
       421   04 Jun 2027 15:44:12.984   04 Jun 2027 15:45:31.030            78.046              Murmansk1          2438.937
       422   04 Jun 2027 15:45:36.522   04 Jun 2027 15:46:03.260            26.738              Murmansk2           835.562
       423   04 Jun 2027 15:47:08.392   04 Jun 2027 15:48:08.890            60.498              Murmansk1          1890.563
       424   04 Jun 2027 15:50:48.234   04 Jun 2027 15:52:12.250            84.016                Norilsk          2625.500
       425   04 Jun 2027 15:53:22.237   04 Jun 2027 15:54:17.844            55.607                Norilsk          1737.719
       426   04 Jun 2027 16:54:15.291   04 Jun 2027 16:54:50.032            34.741               CapeTown          1085.656
       427   04 Jun 2027 16:56:55.671   04 Jun 2027 16:57:02.005             6.334               CapeTown           197.937
       428   04 Jun 2027 17:00:24.451   04 Jun 2027 17:00:24.697             0.246               CapeTown             7.688
       429   04 Jun 2027 17:02:15.625   04 Jun 2027 17:03:16.064            60.439               CapeTown          1888.719
       430   04 Jun 2027 17:20:38.679   04 Jun 2027 17:21:31.108            52.429                 Moscow          1638.406
       431   04 Jun 2027 17:22:06.789   04 Jun 2027 17:22:49.779            42.990              Murmansk2          1343.438
       432   04 Jun 2027 17:23:46.038   04 Jun 2027 17:24:37.373            51.335                 Moscow          1604.219
       433   04 Jun 2027 17:31:10.939   04 Jun 2027 17:31:56.075            45.136              Murmansk1          1410.500
       434   04 Jun 2027 17:34:47.447   04 Jun 2027 17:35:13.891            26.444                Anadyr1           826.375
       435   04 Jun 2027 17:35:55.663   04 Jun 2027 17:36:03.219             7.556                Anadyr1           236.125
       436   04 Jun 2027 17:36:12.446   04 Jun 2027 17:36:20.939             8.493                Anadyr1           265.406
       437   04 Jun 2027 17:38:13.930   04 Jun 2027 17:39:03.916            49.986                Anadyr2          1562.062
       438   04 Jun 2027 18:30:34.816   04 Jun 2027 18:31:25.938            51.122               CapeTown          1597.563
       439   04 Jun 2027 18:34:23.719   04 Jun 2027 18:35:13.056            49.337               CapeTown          1541.781
       440   04 Jun 2027 19:02:46.956   04 Jun 2027 19:07:05.488           258.532              Murmansk1          8079.125
       441   04 Jun 2027 19:13:18.607   04 Jun 2027 19:13:56.663            38.056               Magadan1          1189.250
       442   04 Jun 2027 19:14:15.089   04 Jun 2027 19:14:34.820            19.731               Magadan2           616.594
       443   04 Jun 2027 19:17:22.636   04 Jun 2027 19:18:36.812            74.176               Magadan1          2318.000
       444   04 Jun 2027 20:46:30.710   04 Jun 2027 20:48:36.073           125.363                Anadyr2          3917.594
       445   04 Jun 2027 20:48:47.026   04 Jun 2027 20:52:01.799           194.773               Magadan2          6086.656
       446   04 Jun 2027 20:52:01.799   04 Jun 2027 20:52:30.754            28.955               Magadan1           904.844
       447   04 Jun 2027 20:53:34.893   04 Jun 2027 20:53:47.076            12.183               Magadan2           380.719
       448   04 Jun 2027 20:55:11.381   04 Jun 2027 20:55:48.812            37.431               Magadan2          1169.719
       449   04 Jun 2027 21:41:30.487   04 Jun 2027 21:43:53.054           142.567            RioGallegos          4455.219
       450   04 Jun 2027 21:44:19.894   04 Jun 2027 21:44:37.118            17.224            RioGallegos           538.250
       451   04 Jun 2027 21:46:44.672   04 Jun 2027 21:47:05.843            21.171            RioGallegos           661.594
       452   04 Jun 2027 21:48:01.647   04 Jun 2027 21:48:05.656             4.009            RioGallegos           125.281
       453   04 Jun 2027 22:22:14.550   04 Jun 2027 22:22:33.096            18.546                Anadyr2           579.562
       454   04 Jun 2027 22:23:51.899   04 Jun 2027 22:24:04.053            12.154                Anadyr2           379.813
       455   04 Jun 2027 22:24:22.070   04 Jun 2027 22:25:57.511            95.441                Norilsk          2982.531
       456   04 Jun 2027 22:26:19.239   04 Jun 2027 22:26:37.272            18.033               Magadan2           563.531
       457   04 Jun 2027 22:26:55.145   04 Jun 2027 22:28:03.837            68.692                Norilsk          2146.625
       458   04 Jun 2027 22:28:07.418   04 Jun 2027 22:28:15.156             7.738               Magadan1           241.812
       459   04 Jun 2027 22:28:49.701   04 Jun 2027 22:31:10.346           140.645                Irkutsk          4395.156
       460   04 Jun 2027 22:42:57.196   04 Jun 2027 22:44:15.783            78.587                Sumatra          2455.844
       461   04 Jun 2027 22:46:39.020   04 Jun 2027 22:48:35.085           116.065                Sumatra          3627.031
       462   04 Jun 2027 23:57:15.882   04 Jun 2027 23:57:55.994            40.112                Anadyr2          1253.500
       463   04 Jun 2027 23:59:35.970   04 Jun 2027 23:59:43.647             7.677                Anadyr1           239.906
       464   05 Jun 2027 00:00:15.548   05 Jun 2027 00:02:01.313           105.765                Norilsk          3305.156
       465   05 Jun 2027 00:03:58.914   05 Jun 2027 00:04:07.037             8.123               Magadan1           253.844
       466   05 Jun 2027 00:04:07.742   05 Jun 2027 00:06:20.028           132.286                Irkutsk          4133.937
       467   05 Jun 2027 00:11:42.563   05 Jun 2027 00:11:47.016             4.453                Novosib           139.156
       468   05 Jun 2027 00:12:19.984   05 Jun 2027 00:12:54.515            34.531                Novosib          1079.094
       469   05 Jun 2027 00:12:55.428   05 Jun 2027 00:15:43.472           168.044                  Delhi          5251.375
       470   05 Jun 2027 01:00:26.201   05 Jun 2027 01:00:32.137             5.936            RioGallegos           185.500
       471   05 Jun 2027 01:01:46.120   05 Jun 2027 01:01:56.678            10.558            RioGallegos           329.938
       472   05 Jun 2027 01:31:03.750   05 Jun 2027 01:31:38.846            35.096                Anadyr1          1096.750
       473   05 Jun 2027 01:32:14.638   05 Jun 2027 01:33:12.795            58.157                Anadyr2          1817.406
       474   05 Jun 2027 01:33:12.795   05 Jun 2027 01:33:23.690            10.895                Anadyr1           340.469
       475   05 Jun 2027 01:33:35.339   05 Jun 2027 01:33:41.500             6.161                Anadyr1           192.531
       476   05 Jun 2027 01:36:44.024   05 Jun 2027 01:37:06.299            22.275               Magadan2           696.094
       477   05 Jun 2027 01:37:06.299   05 Jun 2027 01:38:36.537            90.238               Magadan1          2819.938
       478   05 Jun 2027 01:38:47.813   05 Jun 2027 01:40:11.108            83.295              Murmansk2          2602.969
       479   05 Jun 2027 01:40:14.112   05 Jun 2027 01:41:01.428            47.316              Murmansk1          1478.625
       480   05 Jun 2027 01:43:20.622   05 Jun 2027 01:43:41.397            20.775                Novosib           649.219
       481   05 Jun 2027 01:45:56.569   05 Jun 2027 01:46:01.037             4.468              Murmansk1           139.625
       482   05 Jun 2027 01:46:33.947   05 Jun 2027 01:47:23.306            49.359                Irkutsk          1542.469
