uniorb/output/strategy_4/Drop/Drop_KinoSat_110201.txt

KinoSat_110201
-------------------------
    Access    *     Start Time (UTCG)     *     Stop Time (UTCG)  *   Duration (s)        *       Station  *  Data (Mbytes)
         1   01 Jun 2027 03:04:28.931   01 Jun 2027 03:04:44.483            15.552               Magadan1          1944.000
         2   01 Jun 2027 03:04:53.043   01 Jun 2027 03:05:37.230            44.187               Magadan1          5523.375
         3   01 Jun 2027 03:06:10.503   01 Jun 2027 03:07:21.090            70.587               Magadan2          8823.375
         4   01 Jun 2027 03:07:42.902   01 Jun 2027 03:08:35.747            52.845               Magadan1          6605.625
         5   01 Jun 2027 03:08:41.671   01 Jun 2027 03:08:56.296            14.625               Magadan2          1828.125
         6   01 Jun 2027 03:09:05.916   01 Jun 2027 03:09:15.695             9.779                Irkutsk          1222.375
         7   01 Jun 2027 03:09:22.119   01 Jun 2027 03:10:15.053            52.934                Novosib          6616.750
         8   01 Jun 2027 03:10:31.949   01 Jun 2027 03:10:34.036             2.087              Murmansk1           260.875
         9   01 Jun 2027 03:10:42.698   01 Jun 2027 03:11:16.529            33.831                Novosib          4228.875
        10   01 Jun 2027 03:11:18.661   01 Jun 2027 03:11:22.595             3.934              Murmansk1           491.750
        11   01 Jun 2027 03:45:37.567   01 Jun 2027 03:48:30.795           173.228            RioGallegos         21653.500
        12   01 Jun 2027 04:20:54.098   01 Jun 2027 04:25:26.990           272.892                Sumatra         19193.375
        13   01 Jun 2027 04:42:42.089   01 Jun 2027 04:43:00.239            18.150                Irkutsk          2268.750
        14   01 Jun 2027 04:43:24.698   01 Jun 2027 04:44:20.593            55.895                Novosib          6986.875
        15   01 Jun 2027 04:44:23.145   01 Jun 2027 04:44:31.014             7.869              Murmansk1           983.625
        16   01 Jun 2027 04:44:36.154   01 Jun 2027 04:45:16.659            40.505              Murmansk1          5063.125
        17   01 Jun 2027 04:45:38.035   01 Jun 2027 04:46:01.032            22.997              Murmansk2          2874.625
        18   01 Jun 2027 04:46:06.027   01 Jun 2027 04:46:53.942            47.915              Murmansk1          5989.375
        19   01 Jun 2027 05:25:01.642   01 Jun 2027 05:25:35.617            33.975            RioGallegos          4246.875
        20   01 Jun 2027 05:57:59.243   01 Jun 2027 06:00:32.594           153.351                Sumatra         19168.875
        21   01 Jun 2027 06:04:46.901   01 Jun 2027 06:06:10.948            84.047                  Delhi         10505.875
        22   01 Jun 2027 06:21:32.699   01 Jun 2027 06:22:47.328            74.629                Norilsk          9328.625
        23   01 Jun 2027 07:43:29.730   01 Jun 2027 07:44:03.932            34.202                  Delhi          4275.250
        24   01 Jun 2027 07:48:11.072   01 Jun 2027 07:49:01.930            50.858                  Delhi          6357.250
        25   01 Jun 2027 07:56:53.852   01 Jun 2027 07:57:50.428            56.576                Novosib          7072.000
        26   01 Jun 2027 07:57:52.237   01 Jun 2027 07:58:54.564            62.327              Murmansk1          7790.875
        27   01 Jun 2027 07:59:02.234   01 Jun 2027 08:00:31.320            89.086              Murmansk2         11135.750
        28   01 Jun 2027 09:05:36.025   01 Jun 2027 09:08:09.276           153.251               CapeTown         19156.375
        29   01 Jun 2027 09:49:20.026   01 Jun 2027 09:50:29.826            69.800                Anadyr1          8725.000
        30   01 Jun 2027 11:19:15.525   01 Jun 2027 11:19:57.988            42.463                Anadyr2          5307.875
        31   01 Jun 2027 11:22:37.743   01 Jun 2027 11:24:02.745            85.002                Anadyr1         10625.250
        32   01 Jun 2027 12:57:38.303   01 Jun 2027 12:59:16.818            98.515               Magadan1         12314.375
        33   01 Jun 2027 12:59:17.980   01 Jun 2027 13:02:17.024           179.044               Magadan2         22380.500
        34   01 Jun 2027 15:25:28.627   01 Jun 2027 15:28:39.209           190.582            RioGallegos         23822.750
        35   01 Jun 2027 16:13:02.891   01 Jun 2027 16:15:32.475           149.584                Irkutsk         18698.000
        36   01 Jun 2027 16:26:47.447   01 Jun 2027 16:29:30.692           163.245                Sumatra         20405.625
        37   01 Jun 2027 17:48:49.240   01 Jun 2027 17:50:18.492            89.252                Novosib         11156.500
        38   01 Jun 2027 17:56:35.776   01 Jun 2027 18:00:49.087           253.311                  Delhi         31663.875
        39   01 Jun 2027 19:32:14.373   01 Jun 2027 19:32:23.003             8.630                  Delhi           410.625
        40   02 Jun 2027 03:22:44.635   02 Jun 2027 03:22:58.240            13.605                Irkutsk          1700.625
        41   02 Jun 2027 03:23:05.895   02 Jun 2027 03:24:09.861            63.966                Novosib          7995.750
        42   02 Jun 2027 03:24:09.904   02 Jun 2027 03:26:49.801           159.897                Norilsk         19987.125
        43   02 Jun 2027 04:32:42.339   02 Jun 2027 04:35:36.548           174.209                Sumatra         21776.125
        44   02 Jun 2027 04:55:39.393   02 Jun 2027 04:56:01.825            22.432                Irkutsk          2804.000
        45   02 Jun 2027 04:56:10.459   02 Jun 2027 04:58:19.212           128.753                Irkutsk         16094.125
        46   02 Jun 2027 04:59:06.957   02 Jun 2027 05:00:21.478            74.521                 Moscow          9315.125
        47   02 Jun 2027 05:00:22.473   02 Jun 2027 05:00:30.672             8.199                Novosib          1024.875
        48   02 Jun 2027 05:00:40.162   02 Jun 2027 05:03:56.758           196.596                Norilsk         24574.500
        49   02 Jun 2027 05:04:18.591   02 Jun 2027 05:06:15.579           116.988              Murmansk2         14623.500
        50   02 Jun 2027 06:24:10.066   02 Jun 2027 06:25:35.122            85.056                Novosib         10632.000
        51   02 Jun 2027 06:26:22.466   02 Jun 2027 06:28:48.201           145.735                  Delhi         18216.875
        52   02 Jun 2027 06:34:47.408   02 Jun 2027 06:37:45.724           178.316                 Moscow         22289.500
        53   02 Jun 2027 06:38:05.390   02 Jun 2027 06:41:42.100           216.710              Murmansk2         27088.750
        54   02 Jun 2027 08:10:00.002   02 Jun 2027 08:10:41.654            41.652                 Moscow          5206.500
        55   02 Jun 2027 08:11:40.245   02 Jun 2027 08:15:43.435           243.190                Norilsk         30398.750
        56   02 Jun 2027 08:15:47.741   02 Jun 2027 08:17:32.506           104.765              Murmansk2         13095.625
        57   02 Jun 2027 09:22:05.929   02 Jun 2027 09:24:57.902           171.973               CapeTown         21496.625
        58   02 Jun 2027 09:44:04.782   02 Jun 2027 09:45:16.691            71.909              Murmansk2          8988.625
        59   02 Jun 2027 09:45:36.957   02 Jun 2027 09:49:42.059           245.102                 Moscow         30637.750
        60   02 Jun 2027 09:49:55.904   02 Jun 2027 09:52:09.648           133.744              Murmansk2         16718.000
        61   02 Jun 2027 09:52:09.648   02 Jun 2027 09:53:30.630            80.982              Murmansk1         10122.750
        62   02 Jun 2027 09:55:55.540   02 Jun 2027 10:04:09.695           494.155                Anadyr2         61769.375
        63   02 Jun 2027 10:58:21.059   02 Jun 2027 11:03:22.109           301.050               CapeTown         37631.250
        64   02 Jun 2027 11:20:05.529   02 Jun 2027 11:26:14.489           368.960              Murmansk1         46120.000
        65   02 Jun 2027 11:31:15.306   02 Jun 2027 11:31:50.944            35.638                Anadyr1          4454.750
        66   02 Jun 2027 11:33:40.832   02 Jun 2027 11:34:09.768            28.936                Anadyr2          3617.000
        67   02 Jun 2027 13:09:35.146   02 Jun 2027 13:14:16.899           281.753               Magadan2         35219.125
        68   02 Jun 2027 15:37:18.620   02 Jun 2027 15:42:53.441           334.821            RioGallegos         41852.625
        69   02 Jun 2027 16:38:38.705   02 Jun 2027 16:42:50.274           251.569                Sumatra         31446.125
        70   02 Jun 2027 18:08:21.610   02 Jun 2027 18:12:51.298           269.688                  Delhi         33711.000
        71   02 Jun 2027 21:14:15.983   02 Jun 2027 21:15:16.346            60.363                 Moscow          7545.375
        72   02 Jun 2027 21:38:21.594   02 Jun 2027 21:41:10.635           169.041               CapeTown         21130.125
        73   02 Jun 2027 21:49:02.604   02 Jun 2027 21:50:50.581           107.977               CapeTown          9953.250
        74   03 Jun 2027 03:35:06.774   03 Jun 2027 03:39:17.018           250.244              Murmansk1         31280.500
        75   03 Jun 2027 04:44:36.496   03 Jun 2027 04:47:43.744           187.248                Sumatra         23406.000
        76   03 Jun 2027 05:11:02.494   03 Jun 2027 05:12:47.515           105.021                 Moscow         13127.625
        77   03 Jun 2027 05:12:48.572   03 Jun 2027 05:15:58.564           189.992                Norilsk         23749.000
        78   03 Jun 2027 05:16:20.723   03 Jun 2027 05:18:11.270           110.547              Murmansk2         13818.375
        79   03 Jun 2027 06:36:44.855   03 Jun 2027 06:41:28.314           283.459                  Delhi         35432.375
        80   03 Jun 2027 06:41:28.971   03 Jun 2027 06:41:49.259            20.288                 Moscow          2536.000
        81   03 Jun 2027 06:42:01.240   03 Jun 2027 06:42:15.131            13.891              Murmansk1          1736.375
        82   03 Jun 2027 06:46:47.879   03 Jun 2027 06:48:10.244            82.365                Novosib         10295.625
        83   03 Jun 2027 06:48:10.720   03 Jun 2027 06:49:51.572           100.852                 Moscow         12606.500
        84   03 Jun 2027 06:49:59.656   03 Jun 2027 06:53:41.822           222.166              Murmansk2         27770.750
        85   03 Jun 2027 08:15:17.762   03 Jun 2027 08:16:26.379            68.617                 Moscow          8577.125
        86   03 Jun 2027 08:23:33.722   03 Jun 2027 08:27:40.169           246.447                Norilsk         30805.875
        87   03 Jun 2027 08:28:01.622   03 Jun 2027 08:29:33.999            92.377              Murmansk1         11547.125
        88   03 Jun 2027 09:34:25.693   03 Jun 2027 09:37:47.289           201.596               CapeTown         25199.500
        89   03 Jun 2027 09:52:37.202   03 Jun 2027 09:53:51.599            74.397                 Moscow          9299.625
        90   03 Jun 2027 09:55:56.410   03 Jun 2027 09:57:54.035           117.625              Murmansk1         14703.125
        91   03 Jun 2027 09:58:18.433   03 Jun 2027 09:59:39.505            81.072                 Moscow         10134.000
        92   03 Jun 2027 10:00:46.031   03 Jun 2027 10:05:32.045           286.014              Murmansk2         35751.750
        93   03 Jun 2027 10:07:47.541   03 Jun 2027 10:16:49.172           541.631                Anadyr1         67703.875
        94   03 Jun 2027 11:10:33.925   03 Jun 2027 11:15:15.644           281.719               CapeTown         35214.875
        95   03 Jun 2027 11:36:00.680   03 Jun 2027 11:37:50.410           109.730              Murmansk2         13716.250
        96   03 Jun 2027 11:37:50.410   03 Jun 2027 11:41:15.813           205.403              Murmansk1         25675.375
        97   03 Jun 2027 11:45:56.429   03 Jun 2027 11:55:41.643           585.214                Anadyr1         73151.750
        98   03 Jun 2027 13:19:09.374   03 Jun 2027 13:20:11.804            62.430                Anadyr1          7803.750
        99   03 Jun 2027 13:21:32.968   03 Jun 2027 13:26:17.278           284.310               Magadan2         35538.750
       100   03 Jun 2027 13:33:42.913   03 Jun 2027 13:33:47.454             4.541               Magadan2           567.625
       101   03 Jun 2027 15:07:56.125   03 Jun 2027 15:09:16.771            80.646                Irkutsk         10080.750
       102   03 Jun 2027 15:19:39.675   03 Jun 2027 15:23:20.786           221.111                Sumatra         27638.875
       103   03 Jun 2027 15:49:11.146   03 Jun 2027 15:51:53.418           162.272            RioGallegos         20284.000
       104   03 Jun 2027 16:37:59.592   03 Jun 2027 16:38:29.325            29.733                Novosib          3716.625
       105   03 Jun 2027 16:45:15.113   03 Jun 2027 16:46:22.601            67.488                Novosib          8436.000
       106   03 Jun 2027 16:51:03.071   03 Jun 2027 16:53:30.049           146.978                Sumatra         18372.250
       107   03 Jun 2027 18:17:32.341   03 Jun 2027 18:17:47.377            15.036                Novosib          1879.500
       108   03 Jun 2027 18:20:12.030   03 Jun 2027 18:22:59.298           167.268                  Delhi         20908.500
       109   03 Jun 2027 18:28:27.365   03 Jun 2027 18:29:41.733            74.368                  Delhi          9296.000
       110   03 Jun 2027 21:33:36.063   03 Jun 2027 21:34:20.135            44.072                 Moscow          5509.000
       111   03 Jun 2027 21:50:12.405   03 Jun 2027 21:53:17.147           184.742               CapeTown         23092.750
       112   03 Jun 2027 22:01:41.972   03 Jun 2027 22:02:19.822            37.850               CapeTown          2124.250
       113   04 Jun 2027 03:47:11.080   04 Jun 2027 03:51:34.873           263.793                Norilsk         32974.125
       114   04 Jun 2027 04:56:36.272   04 Jun 2027 04:59:01.764           145.492                Sumatra         18186.500
       115   04 Jun 2027 05:23:13.660   04 Jun 2027 05:28:00.439           286.779                Norilsk         35847.375
       116   04 Jun 2027 05:28:11.969   04 Jun 2027 05:30:07.608           115.639              Murmansk1         14454.875
       117   04 Jun 2027 06:48:50.295   04 Jun 2027 06:53:20.916           270.621                  Delhi         33827.625
       118   04 Jun 2027 06:53:24.061   04 Jun 2027 06:54:15.614            51.553                 Moscow          6444.125
       119   04 Jun 2027 06:58:50.976   04 Jun 2027 07:00:04.159            73.183                Novosib          9147.875
       120   04 Jun 2027 07:00:09.823   04 Jun 2027 07:03:59.523           229.700                Norilsk         28712.500
       121   04 Jun 2027 07:04:01.339   04 Jun 2027 07:05:41.875           100.536              Murmansk2         12567.000
       122   04 Jun 2027 08:28:31.284   04 Jun 2027 08:30:17.215           105.931                 Moscow         13241.375
       123   04 Jun 2027 08:34:47.788   04 Jun 2027 08:38:06.249           198.461                 Moscow         24807.625
       124   04 Jun 2027 08:38:15.302   04 Jun 2027 08:41:35.587           200.285              Murmansk2         25035.625
       125   04 Jun 2027 09:41:40.079   04 Jun 2027 09:50:24.124           524.045               CapeTown         65505.625
       126   04 Jun 2027 10:07:57.794   04 Jun 2027 10:09:41.570           103.776              Murmansk2         12972.000
       127   04 Jun 2027 10:09:42.054   04 Jun 2027 10:11:55.806           133.752                 Moscow         16719.000
       128   04 Jun 2027 10:12:47.682   04 Jun 2027 10:17:33.281           285.599              Murmansk1         35699.875
       129   04 Jun 2027 10:19:41.707   04 Jun 2027 10:29:24.103           582.396                Anadyr1         72799.500
       130   04 Jun 2027 11:22:41.314   04 Jun 2027 11:27:04.157           262.843               CapeTown         32855.375
       131   04 Jun 2027 11:59:30.810   04 Jun 2027 12:00:18.481            47.671               Magadan2          5958.875
       132   04 Jun 2027 12:02:38.515   04 Jun 2027 12:02:43.955             5.440               Magadan1           680.000
       133   04 Jun 2027 13:33:31.600   04 Jun 2027 13:36:15.905           164.305               Magadan2         20538.125
       134   04 Jun 2027 13:43:05.525   04 Jun 2027 13:43:48.495            42.970               Magadan2          5371.250
       135   04 Jun 2027 15:19:21.576   04 Jun 2027 15:22:18.668           177.092                Irkutsk         22136.500
       136   04 Jun 2027 15:29:52.944   04 Jun 2027 15:32:04.824           131.880                Sumatra         16485.000
       137   04 Jun 2027 15:34:13.287   04 Jun 2027 15:37:00.594           167.307                Sumatra         20913.375
       138   04 Jun 2027 16:50:24.459   04 Jun 2027 16:51:44.803            80.344                Novosib         10043.000
       139   04 Jun 2027 17:01:35.580   04 Jun 2027 17:02:49.499            73.919                  Delhi          9239.875
       140   04 Jun 2027 17:09:25.787   04 Jun 2027 17:10:25.600            59.813                Sumatra          7476.625
       141   04 Jun 2027 18:29:34.234   04 Jun 2027 18:29:43.521             9.287                Novosib          1160.875
       142   04 Jun 2027 18:32:06.367   04 Jun 2027 18:34:52.112           165.745                  Delhi         20718.125
       143   04 Jun 2027 18:42:04.533   04 Jun 2027 18:43:46.556           102.023                  Delhi         12752.875
       144   04 Jun 2027 20:03:02.998   04 Jun 2027 20:05:13.719           130.721                 Moscow         16340.125
       145   04 Jun 2027 21:47:49.896   04 Jun 2027 21:49:55.422           125.526                 Moscow         13627.375
       146   05 Jun 2027 03:59:03.515   05 Jun 2027 04:03:27.535           264.020                Norilsk         33002.500
       147   05 Jun 2027 05:08:41.667   05 Jun 2027 05:10:18.219            96.552                Sumatra         12069.000
       148   05 Jun 2027 05:18:02.727   05 Jun 2027 05:19:25.485            82.758                  Delhi         10344.750
       149   05 Jun 2027 05:34:53.417   05 Jun 2027 05:36:35.658           102.241                Novosib         12780.125
       150   05 Jun 2027 05:36:42.906   05 Jun 2027 05:37:18.386            35.480                 Moscow          4435.000
       151   05 Jun 2027 05:37:39.200   05 Jun 2027 05:42:04.546           265.346              Murmansk1         33168.250
       152   05 Jun 2027 07:00:52.427   05 Jun 2027 07:05:09.324           256.897                  Delhi         32112.125
       153   05 Jun 2027 07:05:16.390   05 Jun 2027 07:05:49.986            33.596                 Moscow          4199.500
       154   05 Jun 2027 07:11:11.334   05 Jun 2027 07:14:01.604           170.270                 Moscow         21283.750
       155   05 Jun 2027 07:14:09.150   05 Jun 2027 07:17:42.222           213.072              Murmansk2         26634.000
       156   05 Jun 2027 08:40:31.901   05 Jun 2027 08:42:37.069           125.168                 Moscow         15646.000
       157   05 Jun 2027 08:45:47.596   05 Jun 2027 08:50:06.827           259.231                 Moscow         32403.875
       158   05 Jun 2027 08:50:15.978   05 Jun 2027 08:53:37.242           201.264              Murmansk1         25158.000
       159   05 Jun 2027 09:55:27.209   05 Jun 2027 10:02:51.862           444.653               CapeTown         55581.625
       160   05 Jun 2027 10:20:09.554   05 Jun 2027 10:21:09.891            60.337              Murmansk2          7542.125
       161   05 Jun 2027 10:21:09.891   05 Jun 2027 10:23:31.664           141.773              Murmansk1         17721.625
       162   05 Jun 2027 10:24:49.269   05 Jun 2027 10:26:57.881           128.612              Murmansk2         16076.500
       163   05 Jun 2027 10:26:57.881   05 Jun 2027 10:29:34.295           156.414              Murmansk1         19551.750
       164   05 Jun 2027 10:31:56.141   05 Jun 2027 10:39:25.554           449.413                Anadyr1         56176.625
       165   05 Jun 2027 12:11:18.417   05 Jun 2027 12:14:04.170           165.753               Magadan2         20719.125
       166   05 Jun 2027 12:14:04.170   05 Jun 2027 12:14:39.515            35.345               Magadan1          4418.125
       167   05 Jun 2027 13:45:30.919   05 Jun 2027 13:46:21.368            50.449               Magadan1          6306.125
       168   05 Jun 2027 13:49:28.870   05 Jun 2027 13:50:19.256            50.386               Magadan1          6298.250
       169   05 Jun 2027 14:43:26.451   05 Jun 2027 14:45:17.774           111.323            RioGallegos         13915.375
       170   05 Jun 2027 15:26:02.578   05 Jun 2027 15:26:55.332            52.754                Irkutsk          6594.250
       171   05 Jun 2027 15:32:00.551   05 Jun 2027 15:32:46.711            46.160                Irkutsk          5770.000
       172   05 Jun 2027 15:40:51.854   05 Jun 2027 15:43:49.381           177.527                Sumatra         22190.875
       173   05 Jun 2027 15:46:30.618   05 Jun 2027 15:49:51.441           200.823                Sumatra         25102.875
       174   05 Jun 2027 17:10:56.613   05 Jun 2027 17:11:42.483            45.870                Novosib          5733.750
       175   05 Jun 2027 17:13:38.053   05 Jun 2027 17:17:25.131           227.078                  Delhi         28384.750
       176   05 Jun 2027 18:44:04.237   05 Jun 2027 18:46:03.816           119.579                  Delhi         14947.375
       177   05 Jun 2027 20:14:52.906   05 Jun 2027 20:18:21.884           208.978                 Moscow         24843.000
       178   06 Jun 2027 04:10:54.212   06 Jun 2027 04:11:08.584            14.372                Irkutsk          1796.500
       179   06 Jun 2027 04:11:10.146   06 Jun 2027 04:12:15.776            65.630              Murmansk1          8203.750
       180   06 Jun 2027 04:12:15.776   06 Jun 2027 04:12:36.817            21.041              Murmansk2          2630.125
       181   06 Jun 2027 05:20:53.030   06 Jun 2027 05:21:46.772            53.742                Sumatra          6717.750
       182   06 Jun 2027 05:29:38.486   06 Jun 2027 05:31:43.101           124.615                  Delhi         15576.875
       183   06 Jun 2027 05:36:59.011   06 Jun 2027 05:38:58.225           119.214                  Delhi         14901.750
       184   06 Jun 2027 05:46:46.120   06 Jun 2027 05:49:29.381           163.261                 Moscow         20407.625
       185   06 Jun 2027 05:49:34.368   06 Jun 2027 05:54:02.053           267.685              Murmansk1         33460.625
       186   06 Jun 2027 07:12:51.275   06 Jun 2027 07:13:51.212            59.937                  Delhi          7492.125
       187   06 Jun 2027 07:15:07.255   06 Jun 2027 07:17:37.702           150.447                Novosib         18805.875
       188   06 Jun 2027 07:22:38.096   06 Jun 2027 07:26:05.867           207.771                 Moscow         25971.375
       189   06 Jun 2027 07:26:08.259   06 Jun 2027 07:29:42.843           214.584              Murmansk1         26823.000
       190   06 Jun 2027 08:52:32.340   06 Jun 2027 08:53:45.887            73.547                 Moscow          9193.375
       191   06 Jun 2027 08:57:23.556   06 Jun 2027 09:02:06.696           283.140                 Moscow         35392.500
       192   06 Jun 2027 09:02:26.097   06 Jun 2027 09:05:38.939           192.842              Murmansk2         24105.250
       193   06 Jun 2027 09:09:51.591   06 Jun 2027 09:12:13.434           141.843                Anadyr2         17730.375
       194   06 Jun 2027 10:08:31.060   06 Jun 2027 10:15:12.293           401.233               CapeTown         50154.125
       195   06 Jun 2027 10:33:44.999   06 Jun 2027 10:35:32.844           107.845                 Moscow         13480.625
       196   06 Jun 2027 10:36:50.760   06 Jun 2027 10:37:50.425            59.665              Murmansk1          7458.125
       197   06 Jun 2027 10:43:34.441   06 Jun 2027 10:44:26.417            51.976                Anadyr1          6497.000
       198   06 Jun 2027 12:22:11.055   06 Jun 2027 12:26:05.419           234.364               Magadan2         29295.500
       199   06 Jun 2027 13:57:30.817   06 Jun 2027 13:58:06.530            35.713               Magadan2          4464.125
       200   06 Jun 2027 14:00:38.864   06 Jun 2027 14:02:20.743           101.879               Magadan1         12734.875
       201   06 Jun 2027 14:54:48.174   06 Jun 2027 14:55:41.742            53.568            RioGallegos          6696.000
       202   06 Jun 2027 15:37:46.117   06 Jun 2027 15:39:33.179           107.062                Irkutsk         13382.750
       203   06 Jun 2027 15:41:59.110   06 Jun 2027 15:43:51.096           111.986                Irkutsk         13998.250
       204   06 Jun 2027 15:52:09.455   06 Jun 2027 15:55:40.198           210.743                Sumatra         26342.875
       205   06 Jun 2027 17:13:20.383   06 Jun 2027 17:14:14.563            54.180                Novosib          6772.500
       206   06 Jun 2027 17:17:03.018   06 Jun 2027 17:17:47.724            44.706                Novosib          5588.250
       207   06 Jun 2027 17:22:15.710   06 Jun 2027 17:25:23.519           187.809                  Delhi         23476.125
       208   06 Jun 2027 18:56:05.423   06 Jun 2027 18:57:28.965            83.542                  Delhi         10442.750
       209   06 Jun 2027 18:59:16.531   06 Jun 2027 19:01:06.096           109.565                  Delhi         13695.625
       210   06 Jun 2027 20:26:45.294   06 Jun 2027 20:28:09.139            83.845                 Moscow         10480.625
       211   06 Jun 2027 21:59:08.476   06 Jun 2027 21:59:15.107             6.631              Murmansk1           828.875
       212   06 Jun 2027 22:02:16.778   06 Jun 2027 22:02:43.578            26.800                 Moscow          3350.000
       213   06 Jun 2027 22:04:49.949   06 Jun 2027 22:05:35.306            45.357                 Moscow          1751.125
       214   07 Jun 2027 04:23:05.900   07 Jun 2027 04:23:26.572            20.672              Murmansk1          2584.000
       215   07 Jun 2027 05:33:11.117   07 Jun 2027 05:35:15.108           123.991                Sumatra         15498.875
       216   07 Jun 2027 05:37:20.624   07 Jun 2027 05:37:30.706            10.082                Sumatra          1260.250
       217   07 Jun 2027 05:41:20.571   07 Jun 2027 05:43:56.056           155.485                  Delhi         19435.625
       218   07 Jun 2027 05:58:48.243   07 Jun 2027 06:00:35.809           107.566                Novosib         13445.750
       219   07 Jun 2027 06:01:05.652   07 Jun 2027 06:01:38.744            33.092                 Moscow          4136.500
       220   07 Jun 2027 06:02:00.535   07 Jun 2027 06:06:00.083           239.548              Murmansk1         29943.500
       221   07 Jun 2027 07:24:46.671   07 Jun 2027 07:28:29.690           223.019                  Delhi         27877.375
       222   07 Jun 2027 07:28:29.959   07 Jun 2027 07:30:22.598           112.639                Novosib         14079.875
       223   07 Jun 2027 07:34:31.605   07 Jun 2027 07:38:09.652           218.047                 Moscow         27255.875
       224   07 Jun 2027 07:38:26.236   07 Jun 2027 07:41:43.690           197.454              Murmansk2         24681.750
       225   07 Jun 2027 09:04:32.059   07 Jun 2027 09:07:16.936           164.877                 Moscow         20609.625
       226   07 Jun 2027 09:08:15.593   07 Jun 2027 09:09:51.494            95.901              Murmansk2         11987.625
       227   07 Jun 2027 09:10:06.740   07 Jun 2027 09:14:05.769           239.029                 Moscow         29878.625
       228   07 Jun 2027 09:14:16.281   07 Jun 2027 09:15:43.555            87.274              Murmansk1         10909.250
       229   07 Jun 2027 11:03:16.579   07 Jun 2027 11:03:33.195            16.616                Anadyr2          2077.000
       230   07 Jun 2027 11:04:48.820   07 Jun 2027 11:05:05.775            16.955                Anadyr2          2119.375
       231   07 Jun 2027 12:34:03.256   07 Jun 2027 12:38:34.084           270.828               Magadan1         33853.500
       232   07 Jun 2027 14:19:06.346   07 Jun 2027 14:19:32.675            26.329               Magadan2          3291.125
       233   07 Jun 2027 15:02:14.229   07 Jun 2027 15:02:52.100            37.871            RioGallegos          4733.875
       234   07 Jun 2027 15:05:31.207   07 Jun 2027 15:06:12.615            41.408            RioGallegos          5176.000
       235   07 Jun 2027 15:08:08.491   07 Jun 2027 15:09:12.994            64.503            RioGallegos          8062.875
       236   07 Jun 2027 15:49:33.806   07 Jun 2027 15:50:19.299            45.493                Irkutsk          5686.625
       237   07 Jun 2027 15:52:53.006   07 Jun 2027 15:53:55.495            62.489                Irkutsk          7811.125
       238   07 Jun 2027 15:56:39.325   07 Jun 2027 15:59:00.717           141.392                Irkutsk         17674.000
       239   07 Jun 2027 16:03:38.825   07 Jun 2027 16:05:04.694            85.869                Sumatra         10733.625
       240   07 Jun 2027 16:07:13.402   07 Jun 2027 16:07:36.774            23.372                Sumatra          2921.500
       241   07 Jun 2027 17:25:13.208   07 Jun 2027 17:29:46.056           272.848                Novosib         34106.000
       242   07 Jun 2027 17:33:37.305   07 Jun 2027 17:37:13.640           216.335                  Delhi         27041.875
       243   07 Jun 2027 20:38:39.605   07 Jun 2027 20:40:41.641           122.036                 Moscow         15254.500
       244   07 Jun 2027 20:43:57.968   07 Jun 2027 20:46:22.999           145.031                 Moscow          8174.000
       245   08 Jun 2027 05:47:21.729   08 Jun 2027 05:49:36.306           134.577                Sumatra         16822.125
       246   08 Jun 2027 06:11:14.322   08 Jun 2027 06:13:46.912           152.590                 Moscow         19073.750
       247   08 Jun 2027 06:14:00.360   08 Jun 2027 06:17:58.595           238.235              Murmansk1         29779.375
       248   08 Jun 2027 07:36:38.299   08 Jun 2027 07:37:06.817            28.518                  Delhi          3564.750
       249   08 Jun 2027 07:39:19.446   08 Jun 2027 07:41:55.766           156.320                Novosib         19540.000
       250   08 Jun 2027 07:42:07.669   08 Jun 2027 07:42:40.660            32.991              Murmansk2          4123.875
       251   08 Jun 2027 07:47:14.007   08 Jun 2027 07:50:12.957           178.950                 Moscow         22368.750
       252   08 Jun 2027 07:50:28.055   08 Jun 2027 07:53:44.745           196.690              Murmansk1         24586.250
       253   08 Jun 2027 08:57:19.037   08 Jun 2027 08:57:48.197            29.160               CapeTown          3645.000
       254   08 Jun 2027 09:16:30.958   08 Jun 2027 09:17:08.531            37.573                 Moscow          4696.625
       255   08 Jun 2027 09:20:16.730   08 Jun 2027 09:21:46.104            89.374              Murmansk2         11171.750
       256   08 Jun 2027 09:22:13.988   08 Jun 2027 09:26:03.922           229.934                 Moscow         28741.750
       257   08 Jun 2027 09:26:04.304   08 Jun 2027 09:28:47.231           162.927              Murmansk1         20365.875
       258   08 Jun 2027 09:28:47.231   08 Jun 2027 09:29:42.322            55.091              Murmansk2          6886.375
       259   08 Jun 2027 09:32:37.082   08 Jun 2027 09:38:48.170           371.088                Anadyr2         46386.000
       260   08 Jun 2027 11:07:47.868   08 Jun 2027 11:08:22.183            34.315                Anadyr1          4289.375
       261   08 Jun 2027 12:45:57.401   08 Jun 2027 12:52:20.470           383.069               Magadan2         47883.625
       262   08 Jun 2027 15:13:56.478   08 Jun 2027 15:18:07.043           250.565            RioGallegos         31320.625
       263   08 Jun 2027 16:02:50.694   08 Jun 2027 16:05:51.039           180.345                Irkutsk         22543.125
       264   08 Jun 2027 16:15:16.900   08 Jun 2027 16:17:29.129           132.229                Sumatra         16528.625
       265   08 Jun 2027 17:37:07.866   08 Jun 2027 17:39:08.772           120.906                Novosib         15113.250
       266   08 Jun 2027 17:45:10.044   08 Jun 2027 17:49:07.723           237.679                  Delhi         29709.875
       267   08 Jun 2027 20:50:35.459   08 Jun 2027 20:52:08.825            93.366                 Moscow         11670.750
       268   08 Jun 2027 21:15:10.136   08 Jun 2027 21:15:18.005             7.869               CapeTown           983.625
       269   08 Jun 2027 22:53:07.132   08 Jun 2027 22:55:03.354           116.222               CapeTown          6576.875
       270   09 Jun 2027 03:11:30.140   09 Jun 2027 03:15:12.972           222.832                Norilsk         27854.000
       271   09 Jun 2027 04:21:08.667   09 Jun 2027 04:25:42.141           273.474                Sumatra         34184.250
       272   09 Jun 2027 04:46:55.749   09 Jun 2027 04:48:42.818           107.069                Novosib         13383.625
       273   09 Jun 2027 04:48:50.284   09 Jun 2027 04:52:09.892           199.608                Norilsk         24951.000
       274   09 Jun 2027 04:52:11.763   09 Jun 2027 04:54:35.286           143.523              Murmansk1         17940.375
       275   09 Jun 2027 06:12:09.841   09 Jun 2027 06:18:06.286           356.445                Novosib         44555.625
       276   09 Jun 2027 06:18:22.019   09 Jun 2027 06:19:57.456            95.437                 Moscow         11929.625
       277   09 Jun 2027 06:22:48.205   09 Jun 2027 06:25:54.152           185.947                 Moscow         23243.375
       278   09 Jun 2027 06:25:58.778   09 Jun 2027 06:29:57.551           238.773              Murmansk1         29846.625
       279   09 Jun 2027 07:50:41.827   09 Jun 2027 07:54:14.718           212.891                 Moscow         26611.375
       280   09 Jun 2027 07:58:15.147   09 Jun 2027 07:58:43.031            27.884                Novosib          3485.500
       281   09 Jun 2027 07:59:44.774   09 Jun 2027 08:02:14.558           149.784                Norilsk         18723.000
       282   09 Jun 2027 08:02:24.793   09 Jun 2027 08:05:45.980           201.187              Murmansk2         25148.375
       283   09 Jun 2027 09:09:54.626   09 Jun 2027 09:12:03.917           129.291               CapeTown         16161.375
       284   09 Jun 2027 09:28:28.909   09 Jun 2027 09:28:58.591            29.682                 Moscow          3710.250
       285   09 Jun 2027 09:32:18.018   09 Jun 2027 09:34:13.231           115.213              Murmansk1         14401.625
       286   09 Jun 2027 09:34:21.431   09 Jun 2027 09:38:01.007           219.576                 Moscow         27447.000
       287   09 Jun 2027 09:38:06.262   09 Jun 2027 09:40:37.251           150.989              Murmansk1         18873.625
       288   09 Jun 2027 09:40:37.251   09 Jun 2027 09:41:43.951            66.700              Murmansk2          8337.500
       289   09 Jun 2027 09:44:21.224   09 Jun 2027 09:51:40.355           439.131                Anadyr1         54891.375
       290   09 Jun 2027 11:21:37.832   09 Jun 2027 11:22:51.129            73.297                Anadyr1          9162.125
       291   09 Jun 2027 12:57:53.057   09 Jun 2027 13:02:31.992           278.935               Magadan2         34866.875
       292   09 Jun 2027 15:25:43.242   09 Jun 2027 15:30:03.155           259.913            RioGallegos         32489.125
       293   09 Jun 2027 16:13:17.606   09 Jun 2027 16:15:16.587           118.981                Irkutsk         14872.625
       294   09 Jun 2027 16:27:02.071   09 Jun 2027 16:29:45.741           163.670                Sumatra         20458.750
       295   09 Jun 2027 16:34:38.835   09 Jun 2027 16:36:29.220           110.385                Sumatra         13798.125
       296   09 Jun 2027 17:56:50.308   09 Jun 2027 18:01:04.924           254.616                  Delhi         31827.000
       297   09 Jun 2027 20:59:11.193   09 Jun 2027 20:59:29.123            17.930              Murmansk2          2241.250
       298   09 Jun 2027 21:02:32.584   09 Jun 2027 21:03:46.751            74.167                 Moscow          9270.875
       299   09 Jun 2027 21:05:13.461   09 Jun 2027 21:07:16.568           123.107                 Moscow         15388.375
       300   10 Jun 2027 03:23:22.166   10 Jun 2027 03:24:24.787            62.621                Novosib          7827.625
       301   10 Jun 2027 03:24:28.035   10 Jun 2027 03:28:17.274           229.239                Norilsk         28654.875
       302   10 Jun 2027 03:28:35.185   10 Jun 2027 03:29:14.672            39.487              Murmansk2          4935.875
       303   10 Jun 2027 04:32:57.015   10 Jun 2027 04:35:51.544           174.529                Sumatra         21816.125
       304   10 Jun 2027 04:58:51.743   10 Jun 2027 05:00:45.537           113.794                Novosib         14224.250
       305   10 Jun 2027 05:00:55.080   10 Jun 2027 05:04:11.614           196.534                Norilsk         24566.750
       306   10 Jun 2027 05:04:35.928   10 Jun 2027 05:06:30.315           114.387              Murmansk2         14298.375
       307   10 Jun 2027 06:24:34.188   10 Jun 2027 06:29:46.828           312.640                  Delhi         39080.000
       308   10 Jun 2027 06:29:48.685   10 Jun 2027 06:30:48.223            59.538                 Moscow          7442.250
       309   10 Jun 2027 06:35:03.708   10 Jun 2027 06:38:00.638           176.930                 Moscow         22116.250
       310   10 Jun 2027 06:38:19.938   10 Jun 2027 06:41:56.912           216.974              Murmansk2         27121.750
       311   10 Jun 2027 08:10:16.273   10 Jun 2027 08:10:59.618            43.345                 Moscow          5418.125
       312   10 Jun 2027 08:11:46.603   10 Jun 2027 08:15:58.238           251.635                Norilsk         31454.375
       313   10 Jun 2027 08:16:02.993   10 Jun 2027 08:17:47.353           104.360              Murmansk2         13045.000
       314   10 Jun 2027 09:22:21.394   10 Jun 2027 09:25:13.712           172.318               CapeTown         21539.750
       315   10 Jun 2027 09:44:19.440   10 Jun 2027 09:46:01.901           102.461              Murmansk1         12807.625
       316   10 Jun 2027 09:46:27.640   10 Jun 2027 09:49:56.806           209.166                 Moscow         26145.750
       317   10 Jun 2027 09:50:13.648   10 Jun 2027 09:52:26.544           132.896              Murmansk2         16612.000
       318   10 Jun 2027 09:52:26.544   10 Jun 2027 09:53:45.487            78.943              Murmansk1          9867.875
       319   10 Jun 2027 09:56:10.184   10 Jun 2027 10:04:25.251           495.067                Anadyr2         61883.375
       320   10 Jun 2027 10:58:35.993   10 Jun 2027 11:03:36.869           300.876               CapeTown         37609.500
       321   10 Jun 2027 11:24:54.814   10 Jun 2027 11:29:33.075           278.261              Murmansk2         34782.625
       322   10 Jun 2027 11:31:30.124   10 Jun 2027 11:41:04.759           574.635                Anadyr2         71829.375
       323   10 Jun 2027 13:09:49.918   10 Jun 2027 13:14:31.880           281.962               Magadan1         35245.250
       324   10 Jun 2027 15:37:33.289   10 Jun 2027 15:43:07.852           334.563            RioGallegos         41820.375
       325   10 Jun 2027 16:25:12.556   10 Jun 2027 16:27:02.917           110.361                Irkutsk         13795.125
       326   10 Jun 2027 16:38:53.430   10 Jun 2027 16:41:55.826           182.396                Sumatra         22799.500
       327   10 Jun 2027 18:03:45.832   10 Jun 2027 18:05:46.017           120.185                Novosib         15023.125
       328   10 Jun 2027 18:08:36.229   10 Jun 2027 18:10:56.853           140.624                  Delhi         17578.000
       329   10 Jun 2027 19:39:49.068   10 Jun 2027 19:40:10.206            21.138                 Moscow          2642.250
       330   10 Jun 2027 19:47:07.114   10 Jun 2027 19:47:31.303            24.189                 Moscow          3023.625
       331   10 Jun 2027 21:17:26.086   10 Jun 2027 21:19:17.785           111.699                 Moscow         13962.375
       332   10 Jun 2027 21:38:36.224   10 Jun 2027 21:38:55.359            19.135               CapeTown          2391.875
       333   10 Jun 2027 21:41:25.592   10 Jun 2027 21:42:38.731            73.139               CapeTown          9142.375
       334   10 Jun 2027 21:49:17.842   10 Jun 2027 21:51:05.495           107.653               CapeTown         10352.501
       335   11 Jun 2027 03:35:23.792   11 Jun 2027 03:39:33.442           249.650              Murmansk2         31206.250
       336   11 Jun 2027 04:44:51.270   11 Jun 2027 04:47:58.641           187.371                Sumatra         23421.375
       337   11 Jun 2027 05:10:58.564   11 Jun 2027 05:11:05.195             6.631                Novosib           828.875
       338   11 Jun 2027 05:11:18.718   11 Jun 2027 05:13:02.653           103.935                 Moscow         12991.875
       339   11 Jun 2027 05:13:03.261   11 Jun 2027 05:16:13.423           190.162                Norilsk         23770.250
       340   11 Jun 2027 05:16:38.058   11 Jun 2027 05:18:26.018           107.960              Murmansk2         13495.000
       341   11 Jun 2027 06:36:59.664   11 Jun 2027 06:41:43.047           283.383                  Delhi         35422.875
       342   11 Jun 2027 06:41:46.343   11 Jun 2027 06:42:04.728            18.385                 Moscow          2298.125
       343   11 Jun 2027 06:42:16.824   11 Jun 2027 06:42:29.714            12.890              Murmansk2          1611.250
       344   11 Jun 2027 06:47:02.337   11 Jun 2027 06:48:24.988            82.651                Novosib         10331.375
       345   11 Jun 2027 06:48:26.634   11 Jun 2027 06:50:06.477            99.843                 Moscow         12480.375
       346   11 Jun 2027 06:50:14.211   11 Jun 2027 06:53:56.641           222.430              Murmansk1         27803.750
       347   11 Jun 2027 08:23:48.357   11 Jun 2027 08:27:54.949           246.592                Norilsk         30824.000
       348   11 Jun 2027 08:28:18.649   11 Jun 2027 08:29:48.851            90.202              Murmansk2         11275.250
       349   11 Jun 2027 09:34:41.018   11 Jun 2027 09:38:02.834           201.816               CapeTown         25227.000
       350   11 Jun 2027 09:53:23.164   11 Jun 2027 09:54:05.925            42.761                 Moscow          5345.125
       351   11 Jun 2027 09:56:11.266   11 Jun 2027 09:57:25.374            74.108              Murmansk2          9263.500
       352   11 Jun 2027 09:57:25.374   11 Jun 2027 09:58:10.658            45.284              Murmansk1          5660.500
       353   11 Jun 2027 09:58:32.753   11 Jun 2027 09:59:56.309            83.556                 Moscow         10444.500
       354   11 Jun 2027 10:01:00.766   11 Jun 2027 10:03:52.456           171.690              Murmansk2         21461.250
       355   11 Jun 2027 10:03:52.456   11 Jun 2027 10:05:46.900           114.444              Murmansk1         14305.500
       356   11 Jun 2027 10:08:02.233   11 Jun 2027 10:17:04.640           542.407                Anadyr1         67800.875
       357   11 Jun 2027 11:10:48.782   11 Jun 2027 11:15:30.319           281.537               CapeTown         35192.125
       358   11 Jun 2027 11:36:23.633   11 Jun 2027 11:41:30.609           306.976              Murmansk2         38372.000
       359   11 Jun 2027 11:46:11.499   11 Jun 2027 11:55:56.683           585.184                Anadyr2         73148.000
       360   11 Jun 2027 13:19:24.223   11 Jun 2027 13:22:46.478           202.255                Anadyr2         25281.875
       361   11 Jun 2027 13:23:04.360   11 Jun 2027 13:28:01.986           297.626               Magadan1         37203.250
       362   11 Jun 2027 13:29:46.841   11 Jun 2027 13:31:21.139            94.298               Magadan1         11787.250
       363   11 Jun 2027 15:19:51.676   11 Jun 2027 15:23:38.292           226.616                Sumatra         28327.000
       364   11 Jun 2027 15:49:25.855   11 Jun 2027 15:51:24.488           118.633            RioGallegos         14829.125
       365   11 Jun 2027 16:38:14.061   11 Jun 2027 16:38:53.350            39.289                Novosib          4911.125
       366   11 Jun 2027 16:50:50.512   11 Jun 2027 16:53:43.910           173.398                Sumatra         21674.750
       367   11 Jun 2027 18:16:12.897   11 Jun 2027 18:17:47.359            94.462                Novosib         11807.750
       368   11 Jun 2027 18:20:26.724   11 Jun 2027 18:23:14.371           167.647                  Delhi         20955.875
       369   11 Jun 2027 19:51:30.967   11 Jun 2027 19:53:22.665           111.698                 Moscow         13962.250
       370   11 Jun 2027 21:30:40.144   11 Jun 2027 21:31:19.575            39.431                 Moscow          4928.875
       371   11 Jun 2027 21:50:27.120   11 Jun 2027 21:53:32.056           184.936               CapeTown         19227.875
       372   12 Jun 2027 03:47:27.482   12 Jun 2027 03:51:51.005           263.523                Norilsk         32940.375
       373   12 Jun 2027 04:56:51.139   12 Jun 2027 04:59:15.761           144.622                Sumatra         18077.750
       374   12 Jun 2027 05:23:28.392   12 Jun 2027 05:28:15.299           286.907                Norilsk         35863.375
       375   12 Jun 2027 05:28:27.275   12 Jun 2027 05:30:22.369           115.094              Murmansk2         14386.750
       376   12 Jun 2027 06:49:05.057   12 Jun 2027 06:53:35.585           270.528                  Delhi         33816.000
       377   12 Jun 2027 06:53:41.189   12 Jun 2027 06:54:33.405            52.216                 Moscow          6527.000
       378   12 Jun 2027 06:59:05.227   12 Jun 2027 07:00:18.873            73.646                Novosib          9205.750
       379   12 Jun 2027 07:00:25.387   12 Jun 2027 07:04:14.378           228.991                Norilsk         28623.875
       380   12 Jun 2027 07:04:15.832   12 Jun 2027 07:05:56.701           100.869              Murmansk1         12608.625
       381   12 Jun 2027 08:28:45.981   12 Jun 2027 08:30:31.815           105.834                 Moscow         13229.250
       382   12 Jun 2027 08:35:02.660   12 Jun 2027 08:38:21.090           198.430                 Moscow         24803.750
       383   12 Jun 2027 08:38:33.279   12 Jun 2027 08:41:50.442           197.163              Murmansk1         24645.375
       384   12 Jun 2027 09:41:57.112   12 Jun 2027 09:50:39.498           522.386               CapeTown         65298.250
       385   12 Jun 2027 10:08:12.648   12 Jun 2027 10:09:37.826            85.178              Murmansk2         10647.250
       386   12 Jun 2027 10:09:37.826   12 Jun 2027 10:11:54.667           136.841              Murmansk1         17105.125
       387   12 Jun 2027 10:13:02.417   12 Jun 2027 10:15:49.563           167.146              Murmansk1         20893.250
       388   12 Jun 2027 10:15:49.563   12 Jun 2027 10:17:48.133           118.570              Murmansk2         14821.250
       389   12 Jun 2027 10:19:56.434   12 Jun 2027 10:29:39.497           583.063                Anadyr1         72882.875
       390   12 Jun 2027 11:22:56.090   12 Jun 2027 11:27:18.741           262.651               CapeTown         32831.375
       391   12 Jun 2027 11:49:23.972   12 Jun 2027 11:49:53.772            29.800              Murmansk1          3725.000
       392   12 Jun 2027 11:59:47.681   12 Jun 2027 12:00:40.595            52.914               Magadan2          6614.250
       393   12 Jun 2027 12:02:53.771   12 Jun 2027 12:02:58.816             5.045               Magadan1           630.625
       394   12 Jun 2027 12:04:05.749   12 Jun 2027 12:05:25.893            80.144               Magadan1         10018.000
       395   12 Jun 2027 13:33:46.403   12 Jun 2027 13:33:57.338            10.935               Magadan1          1366.875
       396   12 Jun 2027 13:33:57.338   12 Jun 2027 13:34:37.244            39.906               Magadan2          4988.250
       397   12 Jun 2027 13:40:28.360   12 Jun 2027 13:41:51.735            83.375               Magadan1         10421.875
       398   12 Jun 2027 15:19:35.230   12 Jun 2027 15:22:34.429           179.199                Irkutsk         22399.875
       399   12 Jun 2027 15:30:06.484   12 Jun 2027 15:32:19.412           132.928                Sumatra         16616.000
       400   12 Jun 2027 15:34:28.705   12 Jun 2027 15:37:16.580           167.875                Sumatra         20984.375
       401   12 Jun 2027 16:49:57.110   12 Jun 2027 16:52:11.493           134.383                Novosib         16797.875
       402   12 Jun 2027 17:01:43.034   12 Jun 2027 17:02:12.859            29.825                  Delhi          3728.125
       403   12 Jun 2027 17:02:56.634   12 Jun 2027 17:03:11.945            15.311                  Delhi          1913.875
       404   12 Jun 2027 17:10:40.493   12 Jun 2027 17:13:52.167           191.674                Sumatra         23959.250
       405   12 Jun 2027 18:32:21.125   12 Jun 2027 18:35:06.004           164.879                  Delhi         20609.875
       406   12 Jun 2027 20:03:17.614   12 Jun 2027 20:05:29.573           131.959                 Moscow         16494.875
       407   12 Jun 2027 21:46:08.264   12 Jun 2027 21:46:30.914            22.650                 Moscow          2831.250
       408   12 Jun 2027 22:02:22.987   12 Jun 2027 22:04:28.792           125.805               CapeTown          8695.000
       409   13 Jun 2027 03:59:18.294   13 Jun 2027 04:00:42.011            83.717                Novosib         10464.625
       410   13 Jun 2027 04:00:43.405   13 Jun 2027 04:03:13.091           149.686              Murmansk2         18710.750
       411   13 Jun 2027 05:08:56.640   13 Jun 2027 05:10:32.398            95.758                Sumatra         11969.750
       412   13 Jun 2027 05:11:55.884   13 Jun 2027 05:13:50.952           115.068                Sumatra         14383.500
       413   13 Jun 2027 05:19:40.649   13 Jun 2027 05:22:03.141           142.492                  Delhi         17811.500
       414   13 Jun 2027 05:33:46.546   13 Jun 2027 05:34:19.157            32.611                 Moscow          4076.375
       415   13 Jun 2027 05:35:07.521   13 Jun 2027 05:36:50.498           102.977                Novosib         12872.125
       416   13 Jun 2027 05:36:57.235   13 Jun 2027 05:37:33.395            36.160                 Moscow          4520.000
       417   13 Jun 2027 05:37:53.832   13 Jun 2027 05:42:19.318           265.486              Murmansk1         33185.750
       418   13 Jun 2027 07:01:07.143   13 Jun 2027 07:05:23.917           256.774                  Delhi         32096.750
       419   13 Jun 2027 07:05:33.277   13 Jun 2027 07:06:38.194            64.917                 Moscow          8114.625
       420   13 Jun 2027 07:11:28.847   13 Jun 2027 07:14:16.500           167.653                 Moscow         20956.625
       421   13 Jun 2027 07:14:25.670   13 Jun 2027 07:17:57.054           211.384              Murmansk1         26423.000
       422   13 Jun 2027 08:40:46.741   13 Jun 2027 08:42:52.387           125.646                 Moscow         15705.750
       423   13 Jun 2027 08:46:02.502   13 Jun 2027 08:50:21.658           259.156                 Moscow         32394.500
       424   13 Jun 2027 08:50:29.062   13 Jun 2027 08:53:52.099           203.037              Murmansk1         25379.625
       425   13 Jun 2027 09:55:43.014   13 Jun 2027 10:03:07.094           444.080               CapeTown         55510.000
       426   13 Jun 2027 10:20:24.214   13 Jun 2027 10:21:45.491            81.277              Murmansk2         10159.625
       427   13 Jun 2027 10:21:45.491   13 Jun 2027 10:23:48.546           123.055              Murmansk1         15381.875
       428   13 Jun 2027 10:25:04.002   13 Jun 2027 10:29:45.889           281.887              Murmansk1         35235.875
       429   13 Jun 2027 10:32:51.320   13 Jun 2027 10:33:45.259            53.939                Anadyr2          6742.375
       430   13 Jun 2027 10:36:23.943   13 Jun 2027 10:36:31.451             7.508                Anadyr1           938.500
       431   13 Jun 2027 12:11:34.899   13 Jun 2027 12:14:17.617           162.718               Magadan2         20339.750
       432   13 Jun 2027 13:45:45.735   13 Jun 2027 13:46:28.031            42.296               Magadan2          5287.000
       433   13 Jun 2027 13:49:44.162   13 Jun 2027 13:50:34.268            50.106               Magadan1          6263.250
       434   13 Jun 2027 13:53:54.087   13 Jun 2027 13:55:20.137            86.050               Magadan2         10756.250
       435   13 Jun 2027 15:26:17.066   13 Jun 2027 15:27:26.787            69.721                Irkutsk          8715.125
       436   13 Jun 2027 15:32:16.039   13 Jun 2027 15:33:00.266            44.227                Irkutsk          5528.375
       437   13 Jun 2027 15:41:05.828   13 Jun 2027 15:46:45.888           340.060                Sumatra         42507.500
       438   13 Jun 2027 17:01:44.534   13 Jun 2027 17:04:14.625           150.091                Novosib         18761.375
       439   13 Jun 2027 17:11:27.816   13 Jun 2027 17:13:52.671           144.855                  Delhi         18106.875
       440   13 Jun 2027 17:15:31.094   13 Jun 2027 17:17:41.473           130.379                  Delhi         16297.375
       441   13 Jun 2027 18:44:59.391   13 Jun 2027 18:46:17.966            78.575                  Delhi          9821.875
       442   13 Jun 2027 20:15:07.574   13 Jun 2027 20:18:37.438           209.864                 Moscow         15594.750
