uniorb/output/strategy_4/Drop/Drop_KinoSat_110908.txt

KinoSat_110908
-------------------------
    Access    *     Start Time (UTCG)     *     Stop Time (UTCG)  *   Duration (s)        *       Station  *  Data (Mbytes)
         1   01 Jun 2027 03:02:47.840   01 Jun 2027 03:03:27.938            40.098                Anadyr2          1253.062
         2   01 Jun 2027 03:03:51.803   01 Jun 2027 03:04:13.851            22.048                Anadyr2           689.000
         3   01 Jun 2027 03:04:13.851   01 Jun 2027 03:05:15.437            61.586                Anadyr1          1924.562
         4   01 Jun 2027 03:05:23.284   01 Jun 2027 03:05:39.257            15.973                Anadyr2           499.156
         5   01 Jun 2027 03:06:54.669   01 Jun 2027 03:07:14.108            19.439                Anadyr2           607.469
         6   01 Jun 2027 04:37:57.811   01 Jun 2027 04:38:02.266             4.455               Magadan1           139.219
         7   01 Jun 2027 04:38:13.295   01 Jun 2027 04:40:40.623           147.328               Magadan2          4604.000
         8   01 Jun 2027 04:40:52.644   01 Jun 2027 04:40:59.121             6.477               Magadan1           202.406
         9   01 Jun 2027 04:41:05.519   01 Jun 2027 04:43:09.770           124.251                Anadyr1          3882.844
        10   01 Jun 2027 04:43:12.972   01 Jun 2027 04:43:37.438            24.466               Magadan1           764.562
        11   01 Jun 2027 04:44:20.712   01 Jun 2027 04:44:23.145             2.433              Murmansk1            76.031
        12   01 Jun 2027 04:44:31.014   01 Jun 2027 04:44:36.154             5.140              Murmansk1           160.625
        13   01 Jun 2027 04:44:40.673   01 Jun 2027 04:44:58.744            18.071               Magadan1           564.719
        14   01 Jun 2027 04:46:29.890   01 Jun 2027 04:47:09.719            39.829                Norilsk          1244.656
        15   01 Jun 2027 06:12:41.550   01 Jun 2027 06:14:58.854           137.304               Magadan1          4290.750
        16   01 Jun 2027 06:15:03.252   01 Jun 2027 06:15:27.437            24.185               Magadan2           755.781
        17   01 Jun 2027 06:15:39.793   01 Jun 2027 06:16:07.617            27.824                Anadyr1           869.500
        18   01 Jun 2027 06:16:07.617   01 Jun 2027 06:17:23.410            75.793                Anadyr2          2368.531
        19   01 Jun 2027 06:17:26.981   01 Jun 2027 06:17:52.109            25.128                Novosib           785.250
        20   01 Jun 2027 06:17:58.414   01 Jun 2027 06:18:20.760            22.346                Anadyr1           698.313
        21   01 Jun 2027 06:18:24.744   01 Jun 2027 06:20:07.179           102.435                Anadyr2          3201.094
        22   01 Jun 2027 06:20:09.030   01 Jun 2027 06:20:28.780            19.750              Murmansk2           617.188
        23   01 Jun 2027 06:20:34.120   01 Jun 2027 06:22:01.105            86.985              Murmansk1          2718.281
        24   01 Jun 2027 06:58:32.763   01 Jun 2027 06:58:44.462            11.699            RioGallegos           365.594
        25   01 Jun 2027 07:50:31.349   01 Jun 2027 07:52:25.893           114.544                Irkutsk          3579.500
        26   01 Jun 2027 07:53:24.212   01 Jun 2027 07:53:45.997            21.785               Magadan1           680.781
        27   01 Jun 2027 07:53:47.791   01 Jun 2027 07:54:33.379            45.588                Novosib          1424.625
        28   01 Jun 2027 07:54:57.863   01 Jun 2027 07:58:22.954           205.091                Norilsk          6409.094
        29   01 Jun 2027 07:58:54.564   01 Jun 2027 08:00:46.569           112.005              Murmansk2          3500.156
        30   01 Jun 2027 08:31:40.508   01 Jun 2027 08:33:01.250            80.742            RioGallegos          2523.188
        31   01 Jun 2027 08:34:28.874   01 Jun 2027 08:34:49.395            20.521            RioGallegos           641.281
        32   01 Jun 2027 08:35:18.369   01 Jun 2027 08:36:17.751            59.382            RioGallegos          1855.687
        33   01 Jun 2027 09:06:13.800   01 Jun 2027 09:06:18.694             4.894                Sumatra           152.938
        34   01 Jun 2027 09:09:20.661   01 Jun 2027 09:10:23.972            63.311                Sumatra          1978.469
        35   01 Jun 2027 09:15:58.157   01 Jun 2027 09:16:47.069            48.912                  Delhi          1528.500
        36   01 Jun 2027 09:16:47.378   01 Jun 2027 09:17:43.575            56.197                  Delhi          1756.156
        37   01 Jun 2027 09:28:31.502   01 Jun 2027 09:30:29.695           118.193                Irkutsk          3693.531
        38   01 Jun 2027 09:31:08.956   01 Jun 2027 09:32:14.129            65.173                Irkutsk          2036.656
        39   01 Jun 2027 09:33:11.918   01 Jun 2027 09:33:32.378            20.460                 Moscow           639.375
        40   01 Jun 2027 10:12:43.327   01 Jun 2027 10:13:00.144            16.817            RioGallegos           525.531
        41   01 Jun 2027 10:14:56.082   01 Jun 2027 10:15:33.634            37.552            RioGallegos          1173.500
        42   01 Jun 2027 10:50:39.610   01 Jun 2027 10:52:21.830           102.220                  Delhi          3194.375
        43   01 Jun 2027 10:55:13.205   01 Jun 2027 10:55:50.838            37.633                  Delhi          1176.031
        44   01 Jun 2027 10:58:30.938   01 Jun 2027 10:59:13.014            42.076                  Delhi          1314.875
        45   01 Jun 2027 11:05:41.161   01 Jun 2027 11:05:55.773            14.612                Norilsk           456.625
        46   01 Jun 2027 11:05:56.512   01 Jun 2027 11:07:57.876           121.364                Novosib          3792.625
        47   01 Jun 2027 11:08:21.973   01 Jun 2027 11:08:37.825            15.852              Murmansk1           495.375
        48   01 Jun 2027 11:08:55.023   01 Jun 2027 11:09:46.007            50.984              Murmansk1          1593.250
        49   01 Jun 2027 11:11:10.485   01 Jun 2027 11:11:18.058             7.573              Murmansk1           236.656
        50   01 Jun 2027 11:11:22.635   01 Jun 2027 11:11:40.727            18.092              Murmansk1           565.375
        51   01 Jun 2027 12:34:48.570   01 Jun 2027 12:38:07.512           198.942                 Moscow          6216.938
        52   01 Jun 2027 12:38:17.367   01 Jun 2027 12:42:36.975           259.608              Murmansk1          8112.750
        53   01 Jun 2027 12:42:46.432   01 Jun 2027 12:43:18.300            31.868              Murmansk2           995.875
        54   01 Jun 2027 12:51:08.835   01 Jun 2027 12:51:12.434             3.599              Murmansk2           112.469
        55   01 Jun 2027 13:49:08.991   01 Jun 2027 13:52:56.207           227.216               CapeTown          7100.500
        56   01 Jun 2027 13:54:12.188   01 Jun 2027 13:55:37.794            85.606               CapeTown          2675.188
        57   01 Jun 2027 14:12:31.586   01 Jun 2027 14:12:45.381            13.795                 Moscow           431.094
        58   01 Jun 2027 14:15:32.381   01 Jun 2027 14:17:25.843           113.462              Murmansk1          3545.687
        59   01 Jun 2027 14:29:16.101   01 Jun 2027 14:31:54.759           158.658                Anadyr1          4958.063
        60   01 Jun 2027 14:34:53.452   01 Jun 2027 14:35:46.370            52.918                Anadyr1          1653.687
        61   01 Jun 2027 15:24:22.864   01 Jun 2027 15:26:02.646            99.782               CapeTown          3118.188
        62   01 Jun 2027 15:55:08.965   01 Jun 2027 15:56:56.542           107.577              Murmansk1          3361.781
        63   01 Jun 2027 15:57:57.647   01 Jun 2027 15:58:59.710            62.063              Murmansk1          1939.469
        64   01 Jun 2027 16:04:52.437   01 Jun 2027 16:05:28.663            36.226                Anadyr1          1132.062
        65   01 Jun 2027 16:05:28.663   01 Jun 2027 16:05:29.001             0.338                Anadyr2            10.563
        66   01 Jun 2027 16:06:36.470   01 Jun 2027 16:06:39.945             3.475                Anadyr2           108.594
        67   01 Jun 2027 16:06:52.700   01 Jun 2027 16:07:49.681            56.981                Anadyr1          1780.656
        68   01 Jun 2027 16:08:05.928   01 Jun 2027 16:11:18.732           192.804               Magadan2          6025.125
        69   01 Jun 2027 16:11:18.732   01 Jun 2027 16:12:19.174            60.442               Magadan1          1888.812
        70   01 Jun 2027 17:40:47.448   01 Jun 2027 17:42:29.066           101.618                Anadyr1          3175.563
        71   01 Jun 2027 17:42:36.208   01 Jun 2027 17:44:24.477           108.269                Anadyr2          3383.406
        72   01 Jun 2027 17:45:03.172   01 Jun 2027 17:45:06.735             3.563               Magadan1           111.344
        73   01 Jun 2027 17:45:16.163   01 Jun 2027 17:45:30.096            13.933               Magadan1           435.406
        74   01 Jun 2027 17:45:30.096   01 Jun 2027 17:45:57.198            27.102               Magadan2           846.938
        75   01 Jun 2027 17:46:12.615   01 Jun 2027 17:46:40.058            27.443               Magadan1           857.594
        76   01 Jun 2027 17:46:59.238   01 Jun 2027 17:49:05.599           126.361               Magadan2          3948.781
        77   01 Jun 2027 18:37:26.975   01 Jun 2027 18:39:47.971           140.996            RioGallegos          4406.125
        78   01 Jun 2027 19:16:36.952   01 Jun 2027 19:16:37.020             0.068                Anadyr2             2.125
        79   01 Jun 2027 19:18:19.039   01 Jun 2027 19:18:24.264             5.225                Anadyr1           163.281
        80   01 Jun 2027 19:18:49.516   01 Jun 2027 19:22:45.098           235.582                Norilsk          7361.938
        81   01 Jun 2027 19:23:52.138   01 Jun 2027 19:27:09.309           197.171                Irkutsk          6161.594
        82   01 Jun 2027 19:29:44.566   01 Jun 2027 19:30:37.533            52.967                Irkutsk          1655.219
        83   01 Jun 2027 19:39:04.026   01 Jun 2027 19:41:11.624           127.598                Sumatra          3987.437
        84   01 Jun 2027 19:44:37.173   01 Jun 2027 19:46:35.996           118.823                Sumatra          3713.219
        85   01 Jun 2027 20:58:27.749   01 Jun 2027 21:00:13.422           105.673                Irkutsk          3302.281
        86   01 Jun 2027 21:00:45.999   01 Jun 2027 21:02:49.503           123.504                Novosib          3859.500
        87   01 Jun 2027 21:09:53.240   01 Jun 2027 21:11:09.038            75.798                  Delhi          2368.688
        88   01 Jun 2027 21:13:14.135   01 Jun 2027 21:13:49.637            35.502                  Delhi          1109.438
        89   01 Jun 2027 22:27:59.534   01 Jun 2027 22:28:05.896             6.362                Anadyr1           198.813
        90   01 Jun 2027 22:30:49.724   01 Jun 2027 22:32:10.910            81.186                Norilsk          2537.063
        91   01 Jun 2027 22:32:18.068   01 Jun 2027 22:32:40.686            22.618               Magadan1           706.812
        92   01 Jun 2027 22:33:05.348   01 Jun 2027 22:34:17.056            71.708               Magadan1          2240.875
        93   01 Jun 2027 22:34:20.368   01 Jun 2027 22:36:04.995           104.627                Novosib          3269.594
        94   01 Jun 2027 22:36:27.936   01 Jun 2027 22:38:23.969           116.033              Murmansk1          3626.031
        95   01 Jun 2027 22:50:05.858   01 Jun 2027 22:51:02.685            56.827                  Delhi          1775.844
        96   01 Jun 2027 23:59:25.298   01 Jun 2027 23:59:31.530             6.232                Anadyr1           194.750
        97   02 Jun 2027 00:02:07.965   02 Jun 2027 00:02:15.537             7.572                Anadyr2           236.625
        98   02 Jun 2027 00:03:41.370   02 Jun 2027 00:04:09.171            27.801                Anadyr2           868.781
        99   02 Jun 2027 00:05:01.888   02 Jun 2027 00:05:17.250            15.362                Anadyr2           480.062
       100   02 Jun 2027 00:05:26.294   02 Jun 2027 00:05:39.501            13.207                Anadyr2           412.719
       101   02 Jun 2027 00:06:05.282   02 Jun 2027 00:06:58.679            53.397               Magadan1          1668.656
       102   02 Jun 2027 00:07:39.618   02 Jun 2027 00:08:14.993            35.375               Magadan1          1105.469
       103   02 Jun 2027 00:08:43.465   02 Jun 2027 00:10:37.849           114.384              Murmansk1          3574.500
       104   02 Jun 2027 00:10:46.016   02 Jun 2027 00:12:46.362           120.346              Murmansk2          3760.813
       105   02 Jun 2027 00:12:52.438   02 Jun 2027 00:14:19.585            87.147                 Moscow          2723.344
       106   02 Jun 2027 00:20:31.604   02 Jun 2027 00:20:49.575            17.971                 Moscow           561.594
       107   02 Jun 2027 00:22:02.184   02 Jun 2027 00:22:29.246            27.062                 Moscow           845.688
       108   02 Jun 2027 00:38:57.343   02 Jun 2027 00:41:08.034           130.691               CapeTown          4084.094
       109   02 Jun 2027 00:42:27.128   02 Jun 2027 00:43:36.909            69.781               CapeTown          2180.656
       110   02 Jun 2027 01:37:11.156   02 Jun 2027 01:37:38.190            27.034               Magadan2           844.813
       111   02 Jun 2027 01:37:52.141   02 Jun 2027 01:38:24.996            32.855               Magadan1          1026.719
       112   02 Jun 2027 01:44:13.665   02 Jun 2027 01:44:23.789            10.124               Magadan2           316.375
       113   02 Jun 2027 01:44:37.855   02 Jun 2027 01:46:18.579           100.724              Murmansk2          3147.625
       114   02 Jun 2027 01:46:51.150   02 Jun 2027 01:47:16.580            25.430              Murmansk1           794.687
       115   02 Jun 2027 01:47:58.105   02 Jun 2027 01:48:18.079            19.974              Murmansk1           624.187
       116   02 Jun 2027 01:51:19.237   02 Jun 2027 01:51:54.000            34.763              Murmansk1          1086.344
       117   02 Jun 2027 01:53:00.674   02 Jun 2027 01:53:30.388            29.714                 Moscow           928.562
       118   02 Jun 2027 01:58:32.454   02 Jun 2027 01:58:48.479            16.025                 Moscow           500.781
       119   02 Jun 2027 02:14:57.774   02 Jun 2027 02:15:47.490            49.716               CapeTown          1553.625
       120   02 Jun 2027 02:19:07.396   02 Jun 2027 02:20:29.036            81.640               CapeTown          2551.250
       121   02 Jun 2027 03:14:28.251   02 Jun 2027 03:14:51.506            23.255               Magadan2           726.719
       122   02 Jun 2027 03:15:13.663   02 Jun 2027 03:18:40.664           207.001               Magadan2          6468.781
       123   02 Jun 2027 03:18:44.378   02 Jun 2027 03:19:05.532            21.154                Anadyr1           661.063
       124   02 Jun 2027 03:20:01.355   02 Jun 2027 03:21:19.933            78.578                Anadyr2          2455.562
       125   02 Jun 2027 04:52:58.931   02 Jun 2027 04:53:45.871            46.940                Anadyr2          1466.875
       126   02 Jun 2027 04:53:53.814   02 Jun 2027 04:55:11.070            77.256                Anadyr2          2414.250
       127   02 Jun 2027 04:55:21.640   02 Jun 2027 04:55:34.431            12.791                Anadyr2           399.719
       128   02 Jun 2027 06:28:09.797   02 Jun 2027 06:28:35.032            25.235                Anadyr1           788.594
       129   02 Jun 2027 06:28:35.032   02 Jun 2027 06:31:43.257           188.225                Anadyr2          5882.031
       130   02 Jun 2027 06:32:32.703   02 Jun 2027 06:32:41.319             8.616               Magadan1           269.250
       131   02 Jun 2027 08:03:49.761   02 Jun 2027 08:05:00.129            70.368               Magadan1          2199.000
       132   02 Jun 2027 08:06:14.611   02 Jun 2027 08:06:39.792            25.181                Irkutsk           786.906
       133   02 Jun 2027 08:06:44.737   02 Jun 2027 08:08:44.026           119.289                Irkutsk          3727.781
       134   02 Jun 2027 08:43:56.787   02 Jun 2027 08:44:34.854            38.067            RioGallegos          1189.594
       135   02 Jun 2027 08:47:24.647   02 Jun 2027 08:47:48.645            23.998            RioGallegos           749.937
       136   02 Jun 2027 08:48:10.421   02 Jun 2027 08:48:19.354             8.933            RioGallegos           279.156
       137   02 Jun 2027 08:48:24.770   02 Jun 2027 08:49:08.216            43.446            RioGallegos          1357.688
       138   02 Jun 2027 08:53:38.665   02 Jun 2027 08:53:47.391             8.726            RioGallegos           272.687
       139   02 Jun 2027 09:18:21.336   02 Jun 2027 09:19:46.600            85.264                Sumatra          2664.500
       140   02 Jun 2027 09:22:45.380   02 Jun 2027 09:23:20.676            35.296                Sumatra          1103.000
       141   02 Jun 2027 09:26:43.352   02 Jun 2027 09:27:00.197            16.845                Sumatra           526.406
       142   02 Jun 2027 09:27:51.773   02 Jun 2027 09:28:06.249            14.476                Sumatra           452.375
       143   02 Jun 2027 09:39:02.540   02 Jun 2027 09:39:58.915            56.375                Novosib          1761.719
       144   02 Jun 2027 09:40:28.072   02 Jun 2027 09:40:36.714             8.642                Irkutsk           270.062
       145   02 Jun 2027 09:40:37.881   02 Jun 2027 09:41:33.605            55.724                Irkutsk          1741.375
       146   02 Jun 2027 09:42:12.719   02 Jun 2027 09:42:26.066            13.347                Novosib           417.094
       147   02 Jun 2027 09:42:31.941   02 Jun 2027 09:42:35.898             3.957                Novosib           123.656
       148   02 Jun 2027 09:42:55.328   02 Jun 2027 09:43:02.381             7.053                Novosib           220.406
       149   02 Jun 2027 09:43:06.370   02 Jun 2027 09:43:12.606             6.236                Irkutsk           194.875
       150   02 Jun 2027 09:43:19.043   02 Jun 2027 09:44:05.690            46.647                Irkutsk          1457.719
       151   02 Jun 2027 09:44:38.004   02 Jun 2027 09:44:51.772            13.768                Novosib           430.250
       152   02 Jun 2027 11:02:57.445   02 Jun 2027 11:06:21.550           204.105                  Delhi          6378.281
       153   02 Jun 2027 11:17:52.574   02 Jun 2027 11:18:13.054            20.480                Novosib           640.000
       154   02 Jun 2027 11:18:20.808   02 Jun 2027 11:18:33.436            12.628                Norilsk           394.625
       155   02 Jun 2027 11:18:34.627   02 Jun 2027 11:18:48.480            13.853                Novosib           432.906
       156   02 Jun 2027 11:19:22.124   02 Jun 2027 11:19:38.412            16.288                Norilsk           509.000
       157   02 Jun 2027 11:19:57.815   02 Jun 2027 11:20:00.772             2.957                Norilsk            92.406
       158   02 Jun 2027 11:20:05.325   02 Jun 2027 11:20:07.096             1.771                Novosib            55.344
       159   02 Jun 2027 11:21:03.460   02 Jun 2027 11:21:09.413             5.953                Novosib           186.031
       160   02 Jun 2027 12:46:51.555   02 Jun 2027 12:51:04.327           252.772                 Moscow          7899.125
       161   02 Jun 2027 12:51:07.125   02 Jun 2027 12:51:59.800            52.675              Murmansk2          1646.094
       162   02 Jun 2027 12:52:17.841   02 Jun 2027 12:53:37.230            79.389              Murmansk1          2480.906
       163   02 Jun 2027 14:00:52.460   02 Jun 2027 14:04:29.767           217.307               CapeTown          6790.844
       164   02 Jun 2027 14:27:52.514   02 Jun 2027 14:31:17.317           204.803              Murmansk2          6400.094
       165   02 Jun 2027 14:41:12.377   02 Jun 2027 14:43:31.045           138.668                Anadyr1          4333.375
       166   02 Jun 2027 14:49:03.758   02 Jun 2027 14:49:50.125            46.367                Anadyr2          1448.969
       167   02 Jun 2027 16:07:52.561   02 Jun 2027 16:09:31.186            98.625              Murmansk1          3082.031
       168   02 Jun 2027 16:10:57.703   02 Jun 2027 16:11:55.934            58.231              Murmansk2          1819.719
       169   02 Jun 2027 16:16:53.325   02 Jun 2027 16:17:19.875            26.550                Anadyr1           829.688
       170   02 Jun 2027 16:18:32.443   02 Jun 2027 16:19:50.874            78.431                Anadyr2          2450.969
       171   02 Jun 2027 16:19:53.421   02 Jun 2027 16:23:52.393           238.972               Magadan2          7467.875
       172   02 Jun 2027 16:26:31.466   02 Jun 2027 16:27:32.067            60.601               Magadan2          1893.781
       173   02 Jun 2027 17:52:48.721   02 Jun 2027 17:54:27.649            98.928                Anadyr2          3091.500
       174   02 Jun 2027 17:55:07.045   02 Jun 2027 17:57:02.047           115.002               Magadan1          3593.812
       175   02 Jun 2027 18:00:57.370   02 Jun 2027 18:01:45.686            48.316               Magadan2          1509.875
       176   02 Jun 2027 18:48:36.009   02 Jun 2027 18:51:31.172           175.163            RioGallegos          5473.844
       177   02 Jun 2027 18:55:07.677   02 Jun 2027 18:55:20.135            12.458            RioGallegos           389.312
       178   02 Jun 2027 19:28:36.031   02 Jun 2027 19:28:38.664             2.633                Anadyr2            82.281
       179   02 Jun 2027 19:29:56.115   02 Jun 2027 19:30:25.020            28.905                Anadyr1           903.281
       180   02 Jun 2027 19:30:46.444   02 Jun 2027 19:34:34.433           227.989                Norilsk          7124.656
       181   02 Jun 2027 19:35:32.141   02 Jun 2027 19:35:53.955            21.814                Irkutsk           681.688
       182   02 Jun 2027 19:36:55.904   02 Jun 2027 19:37:27.268            31.364                Irkutsk           980.125
       183   02 Jun 2027 19:37:37.878   02 Jun 2027 19:38:53.849            75.971                Norilsk          2374.094
       184   02 Jun 2027 19:39:34.844   02 Jun 2027 19:40:33.184            58.340                Irkutsk          1823.125
       185   02 Jun 2027 19:41:51.950   02 Jun 2027 19:41:55.335             3.385                Irkutsk           105.781
       186   02 Jun 2027 19:50:11.023   02 Jun 2027 19:51:01.029            50.006                Sumatra          1562.688
       187   02 Jun 2027 19:51:22.733   02 Jun 2027 19:54:09.846           167.113                Sumatra          5222.281
       188   02 Jun 2027 19:55:10.084   02 Jun 2027 19:56:35.051            84.967                Sumatra          2655.219
       189   02 Jun 2027 21:12:00.715   02 Jun 2027 21:12:44.194            43.479                Novosib          1358.719
       190   02 Jun 2027 21:19:37.229   02 Jun 2027 21:20:57.354            80.125                Novosib          2503.906
       191   02 Jun 2027 21:21:08.551   02 Jun 2027 21:22:43.348            94.797                  Delhi          2962.406
       192   02 Jun 2027 22:42:33.730   02 Jun 2027 22:43:05.570            31.840                Norilsk           995.000
       193   02 Jun 2027 22:43:16.944   02 Jun 2027 22:43:30.937            13.993                Norilsk           437.281
       194   02 Jun 2027 22:44:00.821   02 Jun 2027 22:44:12.909            12.088               Magadan2           377.750
       195   02 Jun 2027 22:44:22.352   02 Jun 2027 22:44:44.277            21.925               Magadan2           685.156
       196   02 Jun 2027 22:45:23.425   02 Jun 2027 22:49:05.757           222.332              Murmansk1          6947.875
       197   02 Jun 2027 22:49:55.204   02 Jun 2027 22:51:19.507            84.303              Murmansk2          2634.469
       198   02 Jun 2027 23:03:16.715   02 Jun 2027 23:03:33.474            16.759                  Delhi           523.719
       199   03 Jun 2027 00:11:07.310   03 Jun 2027 00:11:17.921            10.611                Anadyr2           331.594
       200   03 Jun 2027 00:14:02.050   03 Jun 2027 00:14:15.234            13.184                Anadyr2           412.000
       201   03 Jun 2027 00:14:56.672   03 Jun 2027 00:15:49.553            52.881                Anadyr2          1652.531
       202   03 Jun 2027 00:17:03.034   03 Jun 2027 00:17:52.796            49.762               Magadan2          1555.063
       203   03 Jun 2027 00:17:57.267   03 Jun 2027 00:18:31.986            34.719               Magadan2          1084.969
       204   03 Jun 2027 00:18:37.869   03 Jun 2027 00:18:50.102            12.233               Magadan1           382.281
       205   03 Jun 2027 00:19:38.257   03 Jun 2027 00:20:09.444            31.187               Magadan1           974.594
       206   03 Jun 2027 00:20:43.746   03 Jun 2027 00:23:41.943           178.197              Murmansk1          5568.656
       207   03 Jun 2027 00:23:41.943   03 Jun 2027 00:24:47.506            65.563              Murmansk2          2048.844
       208   03 Jun 2027 00:25:41.164   03 Jun 2027 00:26:23.540            42.376                 Moscow          1324.250
       209   03 Jun 2027 00:30:13.361   03 Jun 2027 00:30:24.312            10.951                 Moscow           342.219
       210   03 Jun 2027 00:50:09.661   03 Jun 2027 00:51:54.686           105.025               CapeTown          3282.031
       211   03 Jun 2027 00:52:32.601   03 Jun 2027 00:52:43.499            10.898               CapeTown           340.562
       212   03 Jun 2027 00:53:51.921   03 Jun 2027 00:53:59.647             7.726               CapeTown           241.437
       213   03 Jun 2027 00:54:43.280   03 Jun 2027 00:55:58.896            75.616               CapeTown          2363.000
       214   03 Jun 2027 01:49:03.705   03 Jun 2027 01:49:37.558            33.853               Magadan2          1057.906
       215   03 Jun 2027 01:49:54.018   03 Jun 2027 01:49:57.259             3.241               Magadan2           101.281
       216   03 Jun 2027 01:50:27.653   03 Jun 2027 01:51:14.723            47.070               Magadan2          1470.937
       217   03 Jun 2027 01:56:39.587   03 Jun 2027 01:58:10.573            90.986              Murmansk2          2843.313
       218   03 Jun 2027 01:58:42.607   03 Jun 2027 01:59:00.010            17.403              Murmansk1           543.844
       219   03 Jun 2027 01:59:16.743   03 Jun 2027 01:59:39.277            22.534                Novosib           704.188
       220   03 Jun 2027 01:59:52.194   03 Jun 2027 02:00:54.263            62.069                 Moscow          1939.656
       221   03 Jun 2027 02:23:46.703   03 Jun 2027 02:24:41.100            54.397               CapeTown          1699.906
       222   03 Jun 2027 02:30:42.634   03 Jun 2027 02:32:24.979           102.345               CapeTown          3198.281
       223   03 Jun 2027 03:26:29.581   03 Jun 2027 03:30:00.360           210.779               Magadan2          6586.844
       224   03 Jun 2027 03:30:00.360   03 Jun 2027 03:30:23.819            23.459               Magadan1           733.094
       225   03 Jun 2027 05:03:48.082   03 Jun 2027 05:04:52.331            64.249                Irkutsk          2007.781
       226   03 Jun 2027 05:05:07.606   03 Jun 2027 05:05:33.032            25.426                Irkutsk           794.562
       227   03 Jun 2027 05:06:14.158   03 Jun 2027 05:06:19.816             5.658                Irkutsk           176.812
       228   03 Jun 2027 06:39:35.151   03 Jun 2027 06:40:50.601            75.450               Magadan1          2357.813
       229   03 Jun 2027 06:40:55.105   03 Jun 2027 06:41:11.340            16.235               Magadan2           507.344
       230   03 Jun 2027 06:41:25.534   03 Jun 2027 06:42:12.039            46.505                Anadyr1          1453.281
       231   03 Jun 2027 06:42:31.681   03 Jun 2027 06:42:56.484            24.803                Anadyr2           775.094
       232   03 Jun 2027 06:43:05.238   03 Jun 2027 06:43:30.864            25.626               Magadan1           800.813
       233   03 Jun 2027 06:43:46.409   03 Jun 2027 06:44:19.807            33.398               Magadan1          1043.687
       234   03 Jun 2027 06:47:33.849   03 Jun 2027 06:47:38.042             4.193                Norilsk           131.031
       235   03 Jun 2027 08:02:44.181   03 Jun 2027 08:03:09.929            25.748                Sumatra           804.625
       236   03 Jun 2027 08:15:11.188   03 Jun 2027 08:15:40.142            28.954                Irkutsk           904.813
       237   03 Jun 2027 08:16:06.756   03 Jun 2027 08:16:15.386             8.630                Norilsk           269.687
       238   03 Jun 2027 08:16:20.526   03 Jun 2027 08:16:50.945            30.419                Norilsk           950.594
       239   03 Jun 2027 08:17:01.150   03 Jun 2027 08:17:27.619            26.469                Irkutsk           827.156
       240   03 Jun 2027 08:17:51.777   03 Jun 2027 08:17:51.904             0.127                Norilsk             3.969
       241   03 Jun 2027 08:19:08.838   03 Jun 2027 08:19:32.996            24.158                Irkutsk           754.938
       242   03 Jun 2027 08:20:29.275   03 Jun 2027 08:20:32.534             3.259              Murmansk2           101.844
       243   03 Jun 2027 08:56:17.441   03 Jun 2027 08:57:04.839            47.398            RioGallegos          1481.188
       244   03 Jun 2027 09:00:00.824   03 Jun 2027 09:00:20.013            19.189            RioGallegos           599.656
       245   03 Jun 2027 09:04:03.777   03 Jun 2027 09:04:19.283            15.506            RioGallegos           484.562
       246   03 Jun 2027 09:30:35.061   03 Jun 2027 09:32:07.265            92.204                Sumatra          2881.375
       247   03 Jun 2027 09:53:55.609   03 Jun 2027 09:54:07.938            12.329                Novosib           385.281
       248   03 Jun 2027 09:54:09.558   03 Jun 2027 09:54:09.887             0.329                Norilsk            10.281
       249   03 Jun 2027 09:54:14.653   03 Jun 2027 09:54:55.750            41.097                Novosib          1284.281
       250   03 Jun 2027 09:55:01.333   03 Jun 2027 09:55:19.606            18.273                Novosib           571.031
       251   03 Jun 2027 09:55:35.055   03 Jun 2027 09:55:42.186             7.131                Irkutsk           222.844
       252   03 Jun 2027 09:55:59.285   03 Jun 2027 09:56:32.959            33.674                Novosib          1052.312
       253   03 Jun 2027 11:15:22.575   03 Jun 2027 11:17:02.445            99.870                  Delhi          3120.937
       254   03 Jun 2027 11:18:55.388   03 Jun 2027 11:19:22.059            26.671                  Delhi           833.469
       255   03 Jun 2027 11:19:44.979   03 Jun 2027 11:20:20.126            35.147                  Delhi          1098.344
       256   03 Jun 2027 11:28:13.605   03 Jun 2027 11:28:19.686             6.081                Novosib           190.031
       257   03 Jun 2027 11:29:47.122   03 Jun 2027 11:30:08.354            21.232                Novosib           663.500
       258   03 Jun 2027 11:32:01.536   03 Jun 2027 11:32:03.792             2.256                Norilsk            70.500
       259   03 Jun 2027 11:32:10.949   03 Jun 2027 11:33:16.956            66.007                Novosib          2062.719
       260   03 Jun 2027 12:59:55.528   03 Jun 2027 13:00:29.235            33.707                 Moscow          1053.344
       261   03 Jun 2027 13:01:44.145   03 Jun 2027 13:02:11.177            27.032                 Moscow           844.750
       262   03 Jun 2027 13:02:29.125   03 Jun 2027 13:05:12.911           163.786              Murmansk1          5118.312
       263   03 Jun 2027 13:05:37.061   03 Jun 2027 13:06:33.984            56.923              Murmansk1          1778.844
       264   03 Jun 2027 13:08:37.878   03 Jun 2027 13:09:18.153            40.275                Norilsk          1258.594
       265   03 Jun 2027 13:19:03.301   03 Jun 2027 13:20:11.804            68.503                Anadyr2          2140.719
       266   03 Jun 2027 13:21:18.008   03 Jun 2027 13:21:56.340            38.332                Anadyr1          1197.875
       267   03 Jun 2027 14:12:40.654   03 Jun 2027 14:13:46.177            65.523               CapeTown          2047.594
       268   03 Jun 2027 14:14:09.345   03 Jun 2027 14:15:05.998            56.653               CapeTown          1770.406
       269   03 Jun 2027 14:40:14.888   03 Jun 2027 14:40:39.631            24.743              Murmansk1           773.219
       270   03 Jun 2027 14:41:29.127   03 Jun 2027 14:43:19.046           109.919              Murmansk1          3434.969
       271   03 Jun 2027 14:53:09.763   03 Jun 2027 14:55:19.776           130.013                Anadyr2          4062.906
       272   03 Jun 2027 14:59:54.560   03 Jun 2027 15:00:21.065            26.505                Anadyr2           828.281
       273   03 Jun 2027 15:49:09.226   03 Jun 2027 15:49:22.728            13.502               CapeTown           421.938
       274   03 Jun 2027 15:53:33.140   03 Jun 2027 15:53:50.319            17.179               CapeTown           536.844
       275   03 Jun 2027 15:54:02.692   03 Jun 2027 15:54:29.804            27.112               CapeTown           847.250
       276   03 Jun 2027 16:20:41.479   03 Jun 2027 16:22:08.616            87.137              Murmansk2          2723.031
       277   03 Jun 2027 16:22:54.498   03 Jun 2027 16:23:55.904            61.406              Murmansk2          1918.937
       278   03 Jun 2027 16:28:54.406   03 Jun 2027 16:30:39.150           104.744                Anadyr1          3273.250
       279   03 Jun 2027 16:31:44.114   03 Jun 2027 16:36:08.467           264.353               Magadan2          8261.031
       280   03 Jun 2027 18:04:49.872   03 Jun 2027 18:07:32.954           163.082                Anadyr2          5096.312
       281   03 Jun 2027 18:08:06.099   03 Jun 2027 18:08:29.747            23.648                Anadyr2           739.000
       282   03 Jun 2027 18:08:58.581   03 Jun 2027 18:09:28.694            30.113               Magadan1           941.031
       283   03 Jun 2027 18:09:35.944   03 Jun 2027 18:10:07.536            31.592               Magadan1           987.250
       284   03 Jun 2027 18:11:02.915   03 Jun 2027 18:12:46.983           104.068               Magadan1          3252.125
       285   03 Jun 2027 19:00:04.941   03 Jun 2027 19:03:18.613           193.672            RioGallegos          6052.250
       286   03 Jun 2027 19:40:34.585   03 Jun 2027 19:40:59.949            25.364                Anadyr2           792.625
       287   03 Jun 2027 19:41:45.997   03 Jun 2027 19:42:40.041            54.044                Anadyr2          1688.875
       288   03 Jun 2027 19:42:44.631   03 Jun 2027 19:43:05.674            21.043                Norilsk           657.594
       289   03 Jun 2027 19:43:26.886   03 Jun 2027 19:46:45.000           198.114                Norilsk          6191.062
       290   03 Jun 2027 19:47:32.334   03 Jun 2027 19:48:05.250            32.916                Irkutsk          1028.625
       291   03 Jun 2027 19:49:00.934   03 Jun 2027 19:49:29.528            28.594                Irkutsk           893.562
       292   03 Jun 2027 19:49:41.216   03 Jun 2027 19:50:53.955            72.739                Irkutsk          2273.094
       293   03 Jun 2027 20:01:33.409   03 Jun 2027 20:02:10.169            36.760                Sumatra          1148.750
       294   03 Jun 2027 20:02:20.266   03 Jun 2027 20:04:37.441           137.175                Sumatra          4286.719
       295   03 Jun 2027 20:07:25.433   03 Jun 2027 20:08:17.065            51.632                Sumatra          1613.500
       296   03 Jun 2027 21:22:27.384   03 Jun 2027 21:23:10.573            43.189                Irkutsk          1349.656
       297   03 Jun 2027 21:23:21.621   03 Jun 2027 21:24:12.403            50.782                Novosib          1586.937
       298   03 Jun 2027 21:25:14.292   03 Jun 2027 21:25:49.543            35.251                Novosib          1101.594
       299   03 Jun 2027 21:31:36.256   03 Jun 2027 21:34:24.754           168.498                  Delhi          5265.563
       300   03 Jun 2027 21:38:05.114   03 Jun 2027 21:39:17.755            72.641                  Delhi          2270.031
       301   03 Jun 2027 22:55:41.846   03 Jun 2027 22:55:43.651             1.805                Norilsk            56.406
       302   03 Jun 2027 22:56:02.118   03 Jun 2027 22:56:05.479             3.361               Magadan1           105.031
       303   03 Jun 2027 22:56:05.629   03 Jun 2027 22:56:14.967             9.338                Norilsk           291.813
       304   03 Jun 2027 22:57:14.175   03 Jun 2027 23:02:06.532           292.357              Murmansk2          9136.156
       305   03 Jun 2027 23:02:17.945   03 Jun 2027 23:03:46.810            88.865              Murmansk2          2777.031
       306   04 Jun 2027 00:22:58.908   04 Jun 2027 00:22:59.606             0.698                Anadyr2            21.813
       307   04 Jun 2027 00:28:31.626   04 Jun 2027 00:28:49.674            18.048                Anadyr1           564.000
       308   04 Jun 2027 00:29:35.661   04 Jun 2027 00:31:01.673            86.012               Magadan1          2687.875
       309   04 Jun 2027 00:31:41.044   04 Jun 2027 00:32:16.638            35.594               Magadan2          1112.313
       310   04 Jun 2027 00:32:44.412   04 Jun 2027 00:34:32.647           108.235              Murmansk1          3382.344
       311   04 Jun 2027 00:35:04.665   04 Jun 2027 00:35:43.603            38.938              Murmansk2          1216.812
       312   04 Jun 2027 00:36:19.232   04 Jun 2027 00:36:55.924            36.692                 Moscow          1146.625
       313   04 Jun 2027 00:37:50.404   04 Jun 2027 00:38:27.974            37.570                 Moscow          1174.063
       314   04 Jun 2027 00:38:52.616   04 Jun 2027 00:39:00.122             7.506                 Moscow           234.562
       315   04 Jun 2027 00:40:12.009   04 Jun 2027 00:40:29.250            17.241                 Moscow           538.781
       316   04 Jun 2027 00:43:22.322   04 Jun 2027 00:44:14.336            52.014                 Moscow          1625.438
       317   04 Jun 2027 01:01:31.976   04 Jun 2027 01:02:57.750            85.774               CapeTown          2680.437
       318   04 Jun 2027 01:06:55.486   04 Jun 2027 01:08:07.276            71.790               CapeTown          2243.437
       319   04 Jun 2027 01:59:17.303   04 Jun 2027 01:59:37.211            19.908                Anadyr2           622.125
       320   04 Jun 2027 02:01:03.109   04 Jun 2027 02:01:49.505            46.396               Magadan1          1449.875
       321   04 Jun 2027 02:02:30.246   04 Jun 2027 02:02:57.011            26.765               Magadan2           836.406
       322   04 Jun 2027 02:05:35.823   04 Jun 2027 02:06:05.555            29.732               Magadan1           929.125
       323   04 Jun 2027 02:08:41.319   04 Jun 2027 02:10:05.340            84.021              Murmansk1          2625.656
       324   04 Jun 2027 02:10:05.340   04 Jun 2027 02:10:54.964            49.624              Murmansk2          1550.750
       325   04 Jun 2027 02:11:32.355   04 Jun 2027 02:11:45.544            13.189                Novosib           412.156
       326   04 Jun 2027 02:12:27.720   04 Jun 2027 02:12:38.818            11.098                 Moscow           346.812
       327   04 Jun 2027 02:15:30.499   04 Jun 2027 02:15:54.033            23.534                Novosib           735.438
       328   04 Jun 2027 02:19:54.425   04 Jun 2027 02:20:38.124            43.699                 Moscow          1365.594
       329   04 Jun 2027 02:36:48.379   04 Jun 2027 02:37:46.941            58.562               CapeTown          1830.063
       330   04 Jun 2027 03:32:59.490   04 Jun 2027 03:33:10.092            10.602                Anadyr2           331.313
       331   04 Jun 2027 03:34:12.826   04 Jun 2027 03:34:35.899            23.073               Magadan2           721.031
       332   04 Jun 2027 03:37:57.608   04 Jun 2027 03:38:08.369            10.761                Anadyr1           336.281
       333   04 Jun 2027 03:38:30.571   04 Jun 2027 03:41:00.087           149.516               Magadan2          4672.375
       334   04 Jun 2027 03:41:27.551   04 Jun 2027 03:43:18.048           110.497                Anadyr2          3453.031
       335   04 Jun 2027 03:43:18.048   04 Jun 2027 03:43:48.061            30.013                Anadyr1           937.906
       336   04 Jun 2027 03:43:48.700   04 Jun 2027 03:44:17.713            29.013               Magadan2           906.656
       337   04 Jun 2027 03:45:21.436   04 Jun 2027 03:45:26.235             4.799                Anadyr1           149.969
       338   04 Jun 2027 05:18:35.241   04 Jun 2027 05:19:04.832            29.591                Irkutsk           924.719
       339   04 Jun 2027 05:19:13.159   04 Jun 2027 05:21:05.857           112.698                Anadyr2          3521.813
       340   04 Jun 2027 06:51:04.181   04 Jun 2027 06:51:16.414            12.233               Magadan2           382.281
       341   04 Jun 2027 06:51:38.529   04 Jun 2027 06:52:14.973            36.444                Novosib          1138.875
       342   04 Jun 2027 06:52:48.130   04 Jun 2027 06:52:55.665             7.535               Magadan1           235.469
       343   04 Jun 2027 06:52:58.200   04 Jun 2027 06:53:08.219            10.019               Magadan1           313.094
       344   04 Jun 2027 06:53:27.508   04 Jun 2027 06:53:35.788             8.280               Magadan2           258.750
       345   04 Jun 2027 06:53:35.788   04 Jun 2027 06:54:49.991            74.203               Magadan1          2318.844
       346   04 Jun 2027 06:55:08.400   04 Jun 2027 06:56:01.275            52.875               Magadan2          1652.344
       347   04 Jun 2027 06:56:09.039   04 Jun 2027 06:56:14.948             5.909               Magadan2           184.656
       348   04 Jun 2027 06:59:35.531   04 Jun 2027 07:00:09.823            34.292                Norilsk          1071.625
       349   04 Jun 2027 08:14:42.395   04 Jun 2027 08:16:34.237           111.842                Sumatra          3495.062
       350   04 Jun 2027 08:28:47.141   04 Jun 2027 08:29:14.427            27.286                Irkutsk           852.688
       351   04 Jun 2027 08:29:25.469   04 Jun 2027 08:29:32.412             6.943                Irkutsk           216.969
       352   04 Jun 2027 08:31:02.514   04 Jun 2027 08:31:23.771            21.257                Irkutsk           664.281
       353   04 Jun 2027 08:31:39.355   04 Jun 2027 08:32:06.045            26.690                Irkutsk           834.062
       354   04 Jun 2027 09:08:42.978   04 Jun 2027 09:09:11.775            28.797            RioGallegos           899.906
       355   04 Jun 2027 09:10:13.072   04 Jun 2027 09:11:08.325            55.253            RioGallegos          1726.656
       356   04 Jun 2027 09:42:55.962   04 Jun 2027 09:44:00.948            64.986                Sumatra          2030.813
       357   04 Jun 2027 10:05:22.053   04 Jun 2027 10:05:28.024             5.971                Novosib           186.594
       358   04 Jun 2027 10:05:58.051   04 Jun 2027 10:06:16.010            17.959                Novosib           561.219
       359   04 Jun 2027 10:07:05.107   04 Jun 2027 10:07:43.485            38.378                Norilsk          1199.313
       360   04 Jun 2027 10:08:02.968   04 Jun 2027 10:08:15.398            12.430                Novosib           388.438
       361   04 Jun 2027 11:27:56.724   04 Jun 2027 11:28:42.453            45.729                  Delhi          1429.031
       362   04 Jun 2027 11:28:42.616   04 Jun 2027 11:30:36.289           113.673                  Delhi          3552.281
       363   04 Jun 2027 11:41:40.856   04 Jun 2027 11:41:58.906            18.050                Novosib           564.062
       364   04 Jun 2027 11:44:02.577   04 Jun 2027 11:44:29.149            26.572                Norilsk           830.375
       365   04 Jun 2027 13:11:06.664   04 Jun 2027 13:12:11.762            65.098                 Moscow          2034.313
       366   04 Jun 2027 13:13:39.813   04 Jun 2027 13:13:49.978            10.165                 Moscow           317.656
       367   04 Jun 2027 13:14:08.095   04 Jun 2027 13:15:14.273            66.178                 Moscow          2068.062
       368   04 Jun 2027 13:15:23.615   04 Jun 2027 13:16:12.297            48.682              Murmansk1          1521.312
       369   04 Jun 2027 13:17:00.156   04 Jun 2027 13:17:37.244            37.088              Murmansk1          1159.000
       370   04 Jun 2027 13:17:41.718   04 Jun 2027 13:18:28.891            47.173              Murmansk1          1474.156
       371   04 Jun 2027 13:19:22.322   04 Jun 2027 13:19:39.803            17.481              Murmansk2           546.281
       372   04 Jun 2027 13:21:53.075   04 Jun 2027 13:23:24.109            91.034                Norilsk          2844.813
       373   04 Jun 2027 13:30:27.267   04 Jun 2027 13:33:43.301           196.034                Anadyr1          6126.062
       374   04 Jun 2027 14:50:34.753   04 Jun 2027 14:50:37.306             2.553                 Moscow            79.781
       375   04 Jun 2027 14:52:39.622   04 Jun 2027 14:52:54.683            15.061              Murmansk2           470.656
       376   04 Jun 2027 14:53:30.943   04 Jun 2027 14:54:08.719            37.776              Murmansk1          1180.500
       377   04 Jun 2027 14:55:20.689   04 Jun 2027 14:55:53.117            32.428              Murmansk2          1013.375
       378   04 Jun 2027 14:57:17.215   04 Jun 2027 14:57:33.711            16.496              Murmansk1           515.500
       379   04 Jun 2027 14:58:04.417   04 Jun 2027 14:59:14.829            70.412              Murmansk2          2200.375
       380   04 Jun 2027 15:05:08.020   04 Jun 2027 15:06:04.262            56.242                Anadyr2          1757.563
       381   04 Jun 2027 15:06:04.262   04 Jun 2027 15:07:18.294            74.032                Anadyr1          2313.500
       382   04 Jun 2027 15:12:22.400   04 Jun 2027 15:12:28.359             5.959                Anadyr1           186.219
       383   04 Jun 2027 15:14:22.972   04 Jun 2027 15:14:41.635            18.663                Anadyr1           583.219
       384   04 Jun 2027 15:15:40.485   04 Jun 2027 15:16:10.188            29.703                Anadyr2           928.219
       385   04 Jun 2027 16:10:49.388   04 Jun 2027 16:10:59.317             9.929               CapeTown           310.281
       386   04 Jun 2027 16:33:38.082   04 Jun 2027 16:36:51.649           193.567              Murmansk2          6048.969
       387   04 Jun 2027 16:40:55.621   04 Jun 2027 16:41:08.630            13.009                Anadyr2           406.531
       388   04 Jun 2027 16:41:09.032   04 Jun 2027 16:42:39.414            90.382                Anadyr1          2824.437
       389   04 Jun 2027 16:43:05.322   04 Jun 2027 16:43:52.858            47.536                Anadyr2          1485.500
       390   04 Jun 2027 16:44:16.775   04 Jun 2027 16:46:20.650           123.875               Magadan1          3871.094
       391   04 Jun 2027 16:50:15.367   04 Jun 2027 16:51:30.201            74.834               Magadan2          2338.562
       392   04 Jun 2027 18:16:50.866   04 Jun 2027 18:19:34.001           163.135                Anadyr1          5097.969
       393   04 Jun 2027 18:19:57.271   04 Jun 2027 18:21:53.337           116.066               Magadan2          3627.063
       394   04 Jun 2027 18:22:24.477   04 Jun 2027 18:22:47.165            22.688               Magadan1           709.000
       395   04 Jun 2027 18:27:49.145   04 Jun 2027 18:27:59.734            10.589               Magadan1           330.906
       396   04 Jun 2027 19:11:43.297   04 Jun 2027 19:15:09.167           205.870            RioGallegos          6433.438
       397   04 Jun 2027 19:16:40.833   04 Jun 2027 19:18:01.420            80.587            RioGallegos          2518.344
       398   04 Jun 2027 19:54:15.253   04 Jun 2027 19:54:25.682            10.429                Anadyr2           325.906
       399   04 Jun 2027 19:54:43.746   04 Jun 2027 19:56:51.082           127.336                Norilsk          3979.250
       400   04 Jun 2027 19:56:59.870   04 Jun 2027 19:58:45.675           105.805                Norilsk          3306.406
       401   04 Jun 2027 19:59:06.338   04 Jun 2027 20:00:07.795            61.457                Irkutsk          1920.531
       402   04 Jun 2027 20:01:06.795   04 Jun 2027 20:01:58.626            51.831                Irkutsk          1619.719
       403   04 Jun 2027 20:13:06.214   04 Jun 2027 20:16:29.869           203.655                Sumatra          6364.219
       404   04 Jun 2027 20:19:20.987   04 Jun 2027 20:19:21.637             0.650                Sumatra            20.313
       405   04 Jun 2027 21:34:47.303   04 Jun 2027 21:35:08.150            20.847                Novosib           651.469
       406   04 Jun 2027 21:35:37.585   04 Jun 2027 21:36:29.943            52.358                Novosib          1636.187
       407   04 Jun 2027 21:36:58.173   04 Jun 2027 21:37:23.989            25.816                Novosib           806.750
       408   04 Jun 2027 21:37:28.540   04 Jun 2027 21:38:54.812            86.272                Novosib          2696.000
       409   04 Jun 2027 21:43:02.555   04 Jun 2027 21:44:51.521           108.966                  Delhi          3405.188
       410   04 Jun 2027 21:47:45.455   04 Jun 2027 21:48:37.945            52.490                  Delhi          1640.313
       411   04 Jun 2027 23:06:37.090   04 Jun 2027 23:08:17.001            99.911                Norilsk          3122.219
       412   04 Jun 2027 23:08:50.363   04 Jun 2027 23:08:53.768             3.405               Magadan2           106.406
       413   04 Jun 2027 23:09:08.006   04 Jun 2027 23:13:00.932           232.926              Murmansk2          7278.938
       414   04 Jun 2027 23:13:39.015   04 Jun 2027 23:15:47.103           128.088              Murmansk1          4002.750
       415   04 Jun 2027 23:16:30.454   04 Jun 2027 23:17:23.805            53.351                 Moscow          1667.219
       416   05 Jun 2027 00:40:03.352   05 Jun 2027 00:41:26.210            82.858               Magadan2          2589.313
       417   05 Jun 2027 00:41:46.701   05 Jun 2027 00:42:03.945            17.244               Magadan2           538.875
       418   05 Jun 2027 00:42:39.262   05 Jun 2027 00:43:42.611            63.349               Magadan2          1979.656
       419   05 Jun 2027 00:44:45.393   05 Jun 2027 00:46:24.876            99.483              Murmansk1          3108.844
       420   05 Jun 2027 00:46:24.876   05 Jun 2027 00:46:34.779             9.903              Murmansk2           309.469
       421   05 Jun 2027 00:46:43.608   05 Jun 2027 00:47:05.530            21.922              Murmansk2           685.063
       422   05 Jun 2027 00:48:14.178   05 Jun 2027 00:48:36.953            22.775                 Moscow           711.719
       423   05 Jun 2027 00:49:38.585   05 Jun 2027 00:49:56.505            17.920                 Moscow           560.000
       424   05 Jun 2027 00:50:19.376   05 Jun 2027 00:50:32.919            13.543                 Moscow           423.219
       425   05 Jun 2027 00:53:46.588   05 Jun 2027 00:54:10.268            23.680                 Moscow           740.000
       426   05 Jun 2027 01:13:02.048   05 Jun 2027 01:14:21.174            79.126               CapeTown          2472.687
       427   05 Jun 2027 01:19:24.332   05 Jun 2027 01:19:38.566            14.234               CapeTown           444.813
       428   05 Jun 2027 01:23:21.025   05 Jun 2027 01:23:51.079            30.054               CapeTown           939.187
       429   05 Jun 2027 02:08:48.957   05 Jun 2027 02:09:40.792            51.835                Anadyr1          1619.844
       430   05 Jun 2027 02:10:37.022   05 Jun 2027 02:11:08.143            31.121                Anadyr2           972.531
       431   05 Jun 2027 02:11:45.545   05 Jun 2027 02:12:52.340            66.795               Magadan1          2087.344
       432   05 Jun 2027 02:13:03.504   05 Jun 2027 02:13:17.638            14.134               Magadan1           441.687
       433   05 Jun 2027 02:17:05.329   05 Jun 2027 02:18:00.542            55.213               Magadan1          1725.406
       434   05 Jun 2027 02:20:43.015   05 Jun 2027 02:21:09.350            26.335              Murmansk1           822.969
       435   05 Jun 2027 02:21:09.350   05 Jun 2027 02:21:59.386            50.036              Murmansk2          1563.625
       436   05 Jun 2027 02:23:54.090   05 Jun 2027 02:24:35.226            41.136                Novosib          1285.500
       437   05 Jun 2027 02:25:44.947   05 Jun 2027 02:25:54.753             9.806                Novosib           306.437
       438   05 Jun 2027 02:29:43.032   05 Jun 2027 02:30:37.248            54.216                 Moscow          1694.250
       439   05 Jun 2027 02:48:30.920   05 Jun 2027 02:49:00.989            30.069               CapeTown           939.656
       440   05 Jun 2027 02:52:40.775   05 Jun 2027 02:52:54.560            13.785               CapeTown           430.781
       441   05 Jun 2027 02:57:57.129   05 Jun 2027 02:58:14.896            17.767               CapeTown           555.219
       442   05 Jun 2027 03:50:31.178   05 Jun 2027 03:50:53.093            21.915               Magadan1           684.844
       443   05 Jun 2027 03:50:57.919   05 Jun 2027 03:52:58.523           120.604               Magadan2          3768.875
       444   05 Jun 2027 03:53:00.886   05 Jun 2027 03:53:20.111            19.225               Magadan2           600.781
       445   05 Jun 2027 03:53:28.845   05 Jun 2027 03:56:57.850           209.005                Anadyr2          6531.406
       446   05 Jun 2027 05:29:33.917   05 Jun 2027 05:30:01.706            27.789                Anadyr1           868.406
       447   05 Jun 2027 05:30:30.982   05 Jun 2027 05:33:01.722           150.740                Anadyr1          4710.625
       448   05 Jun 2027 07:04:39.780   05 Jun 2027 07:04:42.054             2.274               Magadan2            71.063
       449   05 Jun 2027 07:04:44.595   05 Jun 2027 07:05:01.445            16.850               Magadan1           526.563
       450   05 Jun 2027 07:05:10.583   05 Jun 2027 07:05:36.071            25.488               Magadan1           796.500
       451   05 Jun 2027 07:05:36.071   05 Jun 2027 07:06:49.981            73.910               Magadan2          2309.688
       452   05 Jun 2027 07:07:11.472   05 Jun 2027 07:08:19.324            67.852               Magadan1          2120.375
       453   05 Jun 2027 07:08:42.482   05 Jun 2027 07:09:46.816            64.334              Murmansk1          2010.438
       454   05 Jun 2027 08:29:35.153   05 Jun 2027 08:30:51.736            76.583                Sumatra          2393.219
       455   05 Jun 2027 08:41:01.781   05 Jun 2027 08:41:40.623            38.842                Irkutsk          1213.812
       456   05 Jun 2027 08:42:32.624   05 Jun 2027 08:42:54.008            21.384                Irkutsk           668.250
       457   05 Jun 2027 08:43:11.166   05 Jun 2027 08:43:55.808            44.642                Norilsk          1395.063
       458   05 Jun 2027 08:44:15.167   05 Jun 2027 08:44:35.755            20.588                Norilsk           643.375
       459   05 Jun 2027 09:21:14.137   05 Jun 2027 09:21:22.362             8.225            RioGallegos           257.031
       460   05 Jun 2027 09:22:03.530   05 Jun 2027 09:22:31.546            28.016            RioGallegos           875.500
       461   05 Jun 2027 09:24:56.986   05 Jun 2027 09:25:16.166            19.180            RioGallegos           599.375
       462   05 Jun 2027 09:55:25.901   05 Jun 2027 09:56:00.286            34.385                Sumatra          1074.531
       463   05 Jun 2027 09:57:47.848   05 Jun 2027 09:58:43.836            55.988                Sumatra          1749.625
       464   05 Jun 2027 10:11:04.879   05 Jun 2027 10:11:39.900            35.021                  Delhi          1094.406
       465   05 Jun 2027 10:17:03.225   05 Jun 2027 10:17:20.482            17.257                Novosib           539.281
       466   05 Jun 2027 10:18:16.737   05 Jun 2027 10:19:22.915            66.178                Novosib          2068.062
       467   05 Jun 2027 10:19:44.320   05 Jun 2027 10:19:56.885            12.565                Novosib           392.656
       468   05 Jun 2027 10:19:58.124   05 Jun 2027 10:20:06.161             8.037                Novosib           251.156
       469   05 Jun 2027 10:20:17.126   05 Jun 2027 10:20:36.514            19.388                Novosib           605.875
       470   05 Jun 2027 11:41:03.841   05 Jun 2027 11:42:23.084            79.243                  Delhi          2476.344
       471   05 Jun 2027 11:43:17.545   05 Jun 2027 11:44:18.240            60.695                  Delhi          1896.719
       472   05 Jun 2027 11:53:25.666   05 Jun 2027 11:53:30.041             4.375                Novosib           136.719
       473   05 Jun 2027 11:53:45.087   05 Jun 2027 11:53:50.386             5.299                Novosib           165.594
       474   05 Jun 2027 11:57:29.504   05 Jun 2027 11:57:42.046            12.542                Norilsk           391.938
       475   05 Jun 2027 13:04:22.154   05 Jun 2027 13:05:52.242            90.088               CapeTown          2815.250
       476   05 Jun 2027 13:06:36.696   05 Jun 2027 13:07:27.300            50.604               CapeTown          1581.375
       477   05 Jun 2027 13:23:19.091   05 Jun 2027 13:24:36.206            77.115                 Moscow          2409.844
       478   05 Jun 2027 13:26:47.779   05 Jun 2027 13:28:24.059            96.280              Murmansk2          3008.750
       479   05 Jun 2027 13:28:47.454   05 Jun 2027 13:29:13.530            26.076              Murmansk2           814.875
       480   05 Jun 2027 13:30:24.523   05 Jun 2027 13:31:23.932            59.409              Murmansk2          1856.531
       481   05 Jun 2027 13:33:48.905   05 Jun 2027 13:34:03.753            14.848              Murmansk2           464.000
       482   05 Jun 2027 13:35:19.128   05 Jun 2027 13:35:21.223             2.095              Murmansk2            65.469
