uniorb/output/strategy_4/Drop/Drop_KinoSat_111307.txt

KinoSat_111307
-------------------------
    Access    *     Start Time (UTCG)     *     Stop Time (UTCG)  *   Duration (s)        *       Station  *  Data (Mbytes)
         1   01 Jun 2027 03:09:22.474   01 Jun 2027 03:09:35.336            12.862              Murmansk2           401.938
         2   01 Jun 2027 03:09:45.218   01 Jun 2027 03:10:50.603            65.385                 Moscow          2043.281
         3   01 Jun 2027 03:10:55.043   01 Jun 2027 03:11:04.398             9.355                 Moscow           292.344
         4   01 Jun 2027 03:11:08.389   01 Jun 2027 03:12:07.537            59.148                Norilsk          1848.375
         5   01 Jun 2027 03:12:10.684   01 Jun 2027 03:13:55.010           104.326              Murmansk1          3260.188
         6   01 Jun 2027 03:14:10.127   01 Jun 2027 03:14:53.540            43.413              Murmansk1          1356.656
         7   01 Jun 2027 03:15:27.008   01 Jun 2027 03:18:32.837           185.829                 Moscow          5807.156
         8   01 Jun 2027 03:29:59.323   01 Jun 2027 03:32:47.829           168.506               CapeTown          5265.813
         9   01 Jun 2027 03:34:25.529   01 Jun 2027 03:35:28.148            62.619               CapeTown          1956.844
        10   01 Jun 2027 04:33:58.580   01 Jun 2027 04:37:58.174           239.594                Anadyr2          7487.313
        11   01 Jun 2027 04:38:39.359   01 Jun 2027 04:39:22.195            42.836                Anadyr1          1338.625
        12   01 Jun 2027 04:45:16.659   01 Jun 2027 04:45:38.035            21.376              Murmansk2           668.000
        13   01 Jun 2027 04:45:38.035   01 Jun 2027 04:46:06.027            27.992              Murmansk1           874.750
        14   01 Jun 2027 04:46:09.682   01 Jun 2027 04:46:29.890            20.208                Norilsk           631.500
        15   01 Jun 2027 04:47:43.386   01 Jun 2027 04:48:04.631            21.245              Murmansk2           663.906
        16   01 Jun 2027 06:09:11.582   01 Jun 2027 06:12:41.550           209.968               Magadan2          6561.500
        17   01 Jun 2027 06:13:05.453   01 Jun 2027 06:14:16.271            70.818                Anadyr1          2213.063
        18   01 Jun 2027 07:44:25.118   01 Jun 2027 07:46:40.625           135.507                Irkutsk          4234.594
        19   01 Jun 2027 07:47:05.440   01 Jun 2027 07:49:57.850           172.410                Irkutsk          5387.813
        20   01 Jun 2027 07:50:05.024   01 Jun 2027 07:50:29.926            24.902                Anadyr1           778.188
        21   01 Jun 2027 07:50:44.629   01 Jun 2027 07:52:04.868            80.239                Norilsk          2507.469
        22   01 Jun 2027 07:52:35.665   01 Jun 2027 07:53:13.320            37.655              Murmansk2          1176.719
        23   01 Jun 2027 07:54:11.071   01 Jun 2027 07:54:37.646            26.575                Norilsk           830.469
        24   01 Jun 2027 07:55:47.934   01 Jun 2027 07:56:13.750            25.816              Murmansk1           806.750
        25   01 Jun 2027 08:26:15.815   01 Jun 2027 08:26:44.548            28.733            RioGallegos           897.906
        26   01 Jun 2027 08:27:20.179   01 Jun 2027 08:27:43.234            23.055            RioGallegos           720.469
        27   01 Jun 2027 08:28:25.978   01 Jun 2027 08:28:46.572            20.594            RioGallegos           643.563
        28   01 Jun 2027 09:21:21.723   01 Jun 2027 09:25:00.055           218.332               Magadan2          6822.875
        29   01 Jun 2027 09:25:00.055   01 Jun 2027 09:25:34.290            34.235               Magadan1          1069.844
        30   01 Jun 2027 09:27:10.010   01 Jun 2027 09:27:52.892            42.882                Novosib          1340.062
        31   01 Jun 2027 10:39:21.247   01 Jun 2027 10:40:07.399            46.152                Sumatra          1442.250
        32   01 Jun 2027 10:58:22.689   01 Jun 2027 11:00:21.675           118.986                Novosib          3718.313
        33   01 Jun 2027 11:00:22.254   01 Jun 2027 11:00:58.358            36.104                Irkutsk          1128.250
        34   01 Jun 2027 11:01:27.762   01 Jun 2027 11:02:24.070            56.308                Irkutsk          1759.625
        35   01 Jun 2027 11:02:25.194   01 Jun 2027 11:03:13.363            48.169                 Moscow          1505.281
        36   01 Jun 2027 11:03:33.471   01 Jun 2027 11:04:10.368            36.897                Novosib          1153.031
        37   01 Jun 2027 11:04:13.430   01 Jun 2027 11:05:41.161            87.731                Norilsk          2741.594
        38   01 Jun 2027 11:40:58.107   01 Jun 2027 11:41:33.509            35.402            RioGallegos          1106.313
        39   01 Jun 2027 11:44:39.092   01 Jun 2027 11:45:29.853            50.761            RioGallegos          1586.281
        40   01 Jun 2027 12:16:09.652   01 Jun 2027 12:16:19.540             9.888                Sumatra           309.000
        41   01 Jun 2027 12:16:47.318   01 Jun 2027 12:17:33.083            45.765                Sumatra          1430.156
        42   01 Jun 2027 12:19:17.198   01 Jun 2027 12:19:27.925            10.727                Sumatra           335.219
        43   01 Jun 2027 12:22:52.959   01 Jun 2027 12:23:10.781            17.822                  Delhi           556.937
        44   01 Jun 2027 12:23:34.788   01 Jun 2027 12:24:43.810            69.022                  Delhi          2156.938
        45   01 Jun 2027 12:28:06.180   01 Jun 2027 12:29:23.242            77.062                Novosib          2408.188
        46   01 Jun 2027 12:30:50.716   01 Jun 2027 12:30:59.030             8.314                 Moscow           259.813
        47   01 Jun 2027 12:32:10.078   01 Jun 2027 12:33:48.812            98.734                Norilsk          3085.438
        48   01 Jun 2027 12:34:00.720   01 Jun 2027 12:34:17.576            16.856                Norilsk           526.750
        49   01 Jun 2027 12:35:51.976   01 Jun 2027 12:36:04.350            12.374                Norilsk           386.687
        50   01 Jun 2027 12:36:40.452   01 Jun 2027 12:37:03.276            22.824                Norilsk           713.250
        51   01 Jun 2027 12:37:36.923   01 Jun 2027 12:37:59.596            22.673              Murmansk1           708.531
        52   01 Jun 2027 14:04:50.621   01 Jun 2027 14:08:37.328           226.707                 Moscow          7084.594
        53   01 Jun 2027 14:08:45.240   01 Jun 2027 14:10:52.962           127.722              Murmansk2          3991.313
        54   01 Jun 2027 14:11:50.176   01 Jun 2027 14:13:24.859            94.683                Norilsk          2958.844
        55   01 Jun 2027 14:15:23.682   01 Jun 2027 14:16:01.502            37.820                Norilsk          1181.875
        56   01 Jun 2027 14:16:26.017   01 Jun 2027 14:16:42.628            16.611                Norilsk           519.094
        57   01 Jun 2027 15:19:42.806   01 Jun 2027 15:22:37.299           174.493               CapeTown          5452.906
        58   01 Jun 2027 15:41:54.852   01 Jun 2027 15:42:17.822            22.970                 Moscow           717.813
        59   01 Jun 2027 15:44:56.277   01 Jun 2027 15:45:57.093            60.816                 Moscow          1900.500
        60   01 Jun 2027 15:46:46.537   01 Jun 2027 15:49:26.169           159.632              Murmansk2          4988.500
        61   01 Jun 2027 15:59:23.882   01 Jun 2027 15:59:52.959            29.077                Anadyr2           908.656
        62   01 Jun 2027 16:03:15.785   01 Jun 2027 16:03:31.080            15.295                Anadyr1           477.969
        63   01 Jun 2027 16:08:23.659   01 Jun 2027 16:08:27.389             3.730                Anadyr1           116.563
        64   01 Jun 2027 16:54:16.033   01 Jun 2027 16:56:31.392           135.359               CapeTown          4229.969
        65   01 Jun 2027 17:24:16.326   01 Jun 2027 17:25:18.319            61.993              Murmansk2          1937.281
        66   01 Jun 2027 17:25:35.401   01 Jun 2027 17:26:57.675            82.274              Murmansk1          2571.062
        67   01 Jun 2027 17:27:41.349   01 Jun 2027 17:29:16.703            95.354              Murmansk1          2979.813
        68   01 Jun 2027 17:34:52.685   01 Jun 2027 17:35:46.348            53.663                Anadyr1          1676.969
        69   01 Jun 2027 17:38:29.536   01 Jun 2027 17:38:36.501             6.965                Anadyr1           217.656
        70   01 Jun 2027 17:39:36.051   01 Jun 2027 17:40:54.481            78.430               Magadan2          2450.938
        71   01 Jun 2027 17:40:54.481   01 Jun 2027 17:41:37.953            43.472               Magadan1          1358.500
        72   01 Jun 2027 17:43:55.732   01 Jun 2027 17:45:03.172            67.440               Magadan1          2107.500
        73   01 Jun 2027 19:10:47.096   01 Jun 2027 19:12:41.732           114.636                Anadyr1          3582.375
        74   01 Jun 2027 19:12:52.280   01 Jun 2027 19:14:51.165           118.885                Anadyr2          3715.156
        75   01 Jun 2027 19:15:11.057   01 Jun 2027 19:17:00.542           109.485               Magadan1          3421.406
        76   01 Jun 2027 19:17:00.542   01 Jun 2027 19:18:18.738            78.196               Magadan2          2443.625
        77   01 Jun 2027 20:46:39.413   01 Jun 2027 20:48:48.308           128.895                Anadyr2          4027.969
        78   01 Jun 2027 20:48:48.468   01 Jun 2027 20:50:16.228            87.760                Anadyr1          2742.500
        79   01 Jun 2027 20:50:18.024   01 Jun 2027 20:52:48.825           150.801               Magadan2          4712.531
        80   01 Jun 2027 20:53:14.841   01 Jun 2027 20:54:00.359            45.518                Norilsk          1422.437
        81   01 Jun 2027 20:54:32.151   01 Jun 2027 20:55:23.572            51.421                Norilsk          1606.906
        82   01 Jun 2027 20:56:11.688   01 Jun 2027 20:57:06.890            55.202                Irkutsk          1725.063
        83   01 Jun 2027 21:00:13.422   01 Jun 2027 21:00:33.100            19.678                Irkutsk           614.938
        84   01 Jun 2027 21:11:18.613   01 Jun 2027 21:12:16.836            58.223                Sumatra          1819.469
        85   01 Jun 2027 21:13:09.989   01 Jun 2027 21:14:28.175            78.186                Sumatra          2443.313
        86   01 Jun 2027 22:22:06.256   01 Jun 2027 22:23:00.452            54.196                Anadyr2          1693.625
        87   01 Jun 2027 22:23:09.947   01 Jun 2027 22:24:31.608            81.661                Anadyr1          2551.906
        88   01 Jun 2027 22:24:57.784   01 Jun 2027 22:26:30.975            93.191                Norilsk          2912.219
        89   01 Jun 2027 22:28:31.587   01 Jun 2027 22:29:44.657            73.070                Irkutsk          2283.438
        90   01 Jun 2027 22:29:55.588   01 Jun 2027 22:30:20.066            24.478                Novosib           764.938
        91   01 Jun 2027 22:32:07.246   01 Jun 2027 22:32:24.458            17.212                Novosib           537.875
        92   01 Jun 2027 22:32:43.216   01 Jun 2027 22:33:06.286            23.070                Novosib           720.937
        93   01 Jun 2027 22:42:13.326   01 Jun 2027 22:42:56.752            43.426                Sumatra          1357.062
        94   01 Jun 2027 22:46:13.638   01 Jun 2027 22:46:40.087            26.449                Sumatra           826.531
        95   01 Jun 2027 22:48:54.605   01 Jun 2027 22:50:56.538           121.933                Sumatra          3810.406
        96   01 Jun 2027 23:57:12.936   01 Jun 2027 23:57:44.025            31.089                Anadyr2           971.531
        97   01 Jun 2027 23:58:54.503   01 Jun 2027 23:59:08.810            14.307                Anadyr1           447.094
        98   01 Jun 2027 23:59:17.689   01 Jun 2027 23:59:25.298             7.609                Anadyr1           237.781
        99   02 Jun 2027 00:00:30.500   02 Jun 2027 00:00:48.925            18.425                Norilsk           575.781
       100   02 Jun 2027 00:01:08.257   02 Jun 2027 00:02:26.373            78.116               Magadan2          2441.125
       101   02 Jun 2027 00:03:28.667   02 Jun 2027 00:03:37.931             9.264               Magadan1           289.500
       102   02 Jun 2027 00:04:09.229   02 Jun 2027 00:04:51.648            42.419               Magadan2          1325.594
       103   02 Jun 2027 00:04:56.350   02 Jun 2027 00:06:30.159            93.809              Murmansk1          2931.531
       104   02 Jun 2027 00:11:49.489   02 Jun 2027 00:13:24.687            95.198                  Delhi          2974.938
       105   02 Jun 2027 00:14:50.763   02 Jun 2027 00:15:07.194            16.431                  Delhi           513.469
       106   02 Jun 2027 00:19:25.926   02 Jun 2027 00:19:58.390            32.464                  Delhi          1014.500
       107   02 Jun 2027 00:22:11.739   02 Jun 2027 00:24:20.033           128.294                  Delhi          4009.187
       108   02 Jun 2027 01:29:52.898   02 Jun 2027 01:30:03.024            10.126                Anadyr2           316.437
       109   02 Jun 2027 01:30:33.512   02 Jun 2027 01:31:15.232            41.720                Anadyr2          1303.750
       110   02 Jun 2027 01:32:09.071   02 Jun 2027 01:32:28.592            19.521                Anadyr1           610.031
       111   02 Jun 2027 01:32:50.490   02 Jun 2027 01:32:52.755             2.265                Anadyr1            70.781
       112   02 Jun 2027 01:33:04.800   02 Jun 2027 01:33:12.322             7.522                Anadyr2           235.063
       113   02 Jun 2027 01:35:31.663   02 Jun 2027 01:35:59.981            28.318                Anadyr1           884.937
       114   02 Jun 2027 01:36:04.509   02 Jun 2027 01:37:52.141           107.632               Magadan1          3363.500
       115   02 Jun 2027 01:37:52.141   02 Jun 2027 01:38:24.996            32.855               Magadan2          1026.719
       116   02 Jun 2027 01:38:44.424   02 Jun 2027 01:39:07.956            23.532              Murmansk1           735.375
       117   02 Jun 2027 01:40:04.886   02 Jun 2027 01:41:10.412            65.526              Murmansk1          2047.687
       118   02 Jun 2027 01:41:50.895   02 Jun 2027 01:41:58.938             8.043                Novosib           251.344
       119   02 Jun 2027 01:42:29.668   02 Jun 2027 01:43:05.593            35.925              Murmansk2          1122.656
       120   02 Jun 2027 01:46:20.545   02 Jun 2027 01:46:48.621            28.076                 Moscow           877.375
       121   02 Jun 2027 01:50:08.650   02 Jun 2027 01:51:12.508            63.858                  Delhi          1995.563
       122   02 Jun 2027 01:58:09.414   02 Jun 2027 01:58:22.882            13.468                  Delhi           420.875
       123   02 Jun 2027 02:16:05.935   02 Jun 2027 02:16:09.243             3.308               CapeTown           103.375
       124   02 Jun 2027 03:03:29.190   02 Jun 2027 03:04:30.421            61.231                Anadyr2          1913.469
       125   02 Jun 2027 03:05:05.332   02 Jun 2027 03:05:21.856            16.524                Anadyr2           516.375
       126   02 Jun 2027 03:08:35.208   02 Jun 2027 03:09:04.438            29.230               Magadan1           913.438
       127   02 Jun 2027 03:21:15.632   02 Jun 2027 03:21:43.302            27.670                Norilsk           864.688
       128   02 Jun 2027 03:22:08.633   02 Jun 2027 03:22:22.372            13.739                Norilsk           429.344
       129   02 Jun 2027 03:22:39.644   02 Jun 2027 03:23:44.882            65.238              Murmansk1          2038.687
       130   02 Jun 2027 03:23:52.563   02 Jun 2027 03:25:06.457            73.894              Murmansk1          2309.187
       131   02 Jun 2027 03:25:29.856   02 Jun 2027 03:27:47.810           137.954                 Moscow          4311.062
       132   02 Jun 2027 03:28:14.711   02 Jun 2027 03:28:39.118            24.407                 Moscow           762.719
       133   02 Jun 2027 03:41:50.172   02 Jun 2027 03:44:52.101           181.929               CapeTown          5685.281
       134   02 Jun 2027 04:38:27.312   02 Jun 2027 04:39:50.097            82.785                Anadyr1          2587.031
       135   02 Jun 2027 04:45:20.278   02 Jun 2027 04:45:31.919            11.641               Magadan2           363.781
       136   02 Jun 2027 04:45:35.612   02 Jun 2027 04:49:25.299           229.687                Anadyr1          7177.719
       137   02 Jun 2027 06:23:09.475   02 Jun 2027 06:27:00.903           231.428               Magadan2          7232.125
       138   02 Jun 2027 07:55:48.613   02 Jun 2027 07:56:40.415            51.802                Anadyr2          1618.812
       139   02 Jun 2027 07:56:52.023   02 Jun 2027 07:57:09.208            17.185               Magadan2           537.031
       140   02 Jun 2027 07:57:31.216   02 Jun 2027 08:00:15.857           164.641               Magadan1          5145.031
       141   02 Jun 2027 08:00:24.130   02 Jun 2027 08:00:25.894             1.764               Magadan2            55.125
       142   02 Jun 2027 08:00:34.416   02 Jun 2027 08:01:51.499            77.083               Magadan2          2408.844
       143   02 Jun 2027 08:02:09.861   02 Jun 2027 08:02:16.885             7.024                Anadyr1           219.500
       144   02 Jun 2027 09:17:22.552   02 Jun 2027 09:17:34.853            12.301                Sumatra           384.406
       145   02 Jun 2027 09:17:47.466   02 Jun 2027 09:18:21.336            33.870                Sumatra          1058.437
       146   02 Jun 2027 09:32:07.418   02 Jun 2027 09:32:32.994            25.576                Irkutsk           799.250
       147   02 Jun 2027 09:33:20.753   02 Jun 2027 09:34:14.762            54.009               Magadan2          1687.781
       148   02 Jun 2027 09:34:38.116   02 Jun 2027 09:34:51.637            13.521                Irkutsk           422.531
       149   02 Jun 2027 09:35:28.733   02 Jun 2027 09:35:36.210             7.477               Magadan1           233.656
       150   02 Jun 2027 09:36:38.901   02 Jun 2027 09:36:43.434             4.533                Irkutsk           141.656
       151   02 Jun 2027 09:37:47.161   02 Jun 2027 09:38:00.353            13.192                Irkutsk           412.250
       152   02 Jun 2027 09:38:02.691   02 Jun 2027 09:38:05.559             2.868                Irkutsk            89.625
       153   02 Jun 2027 09:38:14.392   02 Jun 2027 09:38:31.947            17.555                Novosib           548.594
       154   02 Jun 2027 09:38:46.203   02 Jun 2027 09:39:00.837            14.634                Norilsk           457.313
       155   02 Jun 2027 10:13:36.910   02 Jun 2027 10:14:54.229            77.319            RioGallegos          2416.219
       156   02 Jun 2027 10:48:13.990   02 Jun 2027 10:48:31.640            17.650                Sumatra           551.562
       157   02 Jun 2027 10:50:18.702   02 Jun 2027 10:50:58.487            39.785                Sumatra          1243.281
       158   02 Jun 2027 10:58:12.423   02 Jun 2027 10:58:24.102            11.679                  Delhi           364.969
       159   02 Jun 2027 11:08:07.908   02 Jun 2027 11:08:32.765            24.857                  Delhi           776.781
       160   02 Jun 2027 11:09:12.146   02 Jun 2027 11:09:35.035            22.889                Irkutsk           715.281
       161   02 Jun 2027 11:09:42.130   02 Jun 2027 11:10:46.868            64.738                Irkutsk          2023.063
       162   02 Jun 2027 11:10:53.503   02 Jun 2027 11:11:24.435            30.932                Irkutsk           966.625
       163   02 Jun 2027 11:11:55.518   02 Jun 2027 11:12:01.697             6.179                Novosib           193.094
       164   02 Jun 2027 11:12:09.631   02 Jun 2027 11:12:28.448            18.817                Irkutsk           588.031
       165   02 Jun 2027 11:12:53.478   02 Jun 2027 11:13:16.822            23.344                Novosib           729.500
       166   02 Jun 2027 11:13:24.375   02 Jun 2027 11:13:51.254            26.879                Norilsk           839.969
       167   02 Jun 2027 11:14:09.402   02 Jun 2027 11:14:21.743            12.341                Novosib           385.656
       168   02 Jun 2027 11:14:29.107   02 Jun 2027 11:15:23.794            54.687                Novosib          1708.969
       169   02 Jun 2027 11:54:08.932   02 Jun 2027 11:54:39.417            30.485            RioGallegos           952.656
       170   02 Jun 2027 12:33:30.375   02 Jun 2027 12:34:00.227            29.852                  Delhi           932.875
       171   02 Jun 2027 12:34:41.350   02 Jun 2027 12:35:30.607            49.257                  Delhi          1539.281
       172   02 Jun 2027 12:40:29.410   02 Jun 2027 12:41:32.295            62.885                Novosib          1965.156
       173   02 Jun 2027 12:42:13.062   02 Jun 2027 12:42:51.696            38.634                Novosib          1207.313
       174   02 Jun 2027 12:44:31.408   02 Jun 2027 12:45:25.298            53.890                Norilsk          1684.063
       175   02 Jun 2027 12:45:31.055   02 Jun 2027 12:46:02.435            31.380                Norilsk           980.625
       176   02 Jun 2027 12:47:50.237   02 Jun 2027 12:48:06.579            16.342                Norilsk           510.688
       177   02 Jun 2027 12:51:52.271   02 Jun 2027 12:52:03.316            11.045                Norilsk           345.156
       178   02 Jun 2027 14:16:49.741   02 Jun 2027 14:20:01.136           191.395                 Moscow          5981.094
       179   02 Jun 2027 14:20:08.543   02 Jun 2027 14:20:43.503            34.960                 Moscow          1092.500
       180   02 Jun 2027 14:21:40.106   02 Jun 2027 14:23:06.794            86.688              Murmansk1          2709.000
       181   02 Jun 2027 14:23:37.620   02 Jun 2027 14:24:03.605            25.985              Murmansk1           812.031
       182   02 Jun 2027 14:24:09.890   02 Jun 2027 14:24:15.052             5.162              Murmansk1           161.313
       183   02 Jun 2027 14:24:33.176   02 Jun 2027 14:26:09.652            96.476                Norilsk          3014.875
       184   02 Jun 2027 14:28:10.187   02 Jun 2027 14:29:20.050            69.863                Norilsk          2183.219
       185   02 Jun 2027 15:31:17.460   02 Jun 2027 15:34:25.785           188.325               CapeTown          5885.156
       186   02 Jun 2027 15:57:26.698   02 Jun 2027 15:57:42.916            16.218              Murmansk1           506.813
       187   02 Jun 2027 15:58:40.813   02 Jun 2027 15:58:41.798             0.985              Murmansk2            30.781
       188   02 Jun 2027 15:59:36.114   02 Jun 2027 15:59:55.490            19.376              Murmansk1           605.500
       189   02 Jun 2027 16:01:24.903   02 Jun 2027 16:01:45.602            20.699              Murmansk2           646.844
       190   02 Jun 2027 16:11:18.351   02 Jun 2027 16:13:01.546           103.195                Anadyr2          3224.844
       191   02 Jun 2027 16:13:41.869   02 Jun 2027 16:14:03.414            21.545                Anadyr2           673.281
       192   02 Jun 2027 16:20:38.489   02 Jun 2027 16:20:44.904             6.415                Anadyr1           200.469
       193   02 Jun 2027 16:20:44.904   02 Jun 2027 16:20:57.768            12.864                Anadyr2           402.000
       194   02 Jun 2027 17:06:21.823   02 Jun 2027 17:07:35.130            73.307               CapeTown          2290.844
       195   02 Jun 2027 17:36:54.410   02 Jun 2027 17:39:52.796           178.386              Murmansk1          5574.562
       196   02 Jun 2027 17:41:15.894   02 Jun 2027 17:41:38.038            22.144              Murmansk2           692.000
       197   02 Jun 2027 17:41:38.038   02 Jun 2027 17:41:57.399            19.361              Murmansk1           605.031
       198   02 Jun 2027 17:46:53.415   02 Jun 2027 17:47:17.398            23.983                Anadyr2           749.469
       199   02 Jun 2027 17:47:29.678   02 Jun 2027 17:47:53.064            23.386                Anadyr1           730.813
       200   02 Jun 2027 17:50:05.106   02 Jun 2027 17:50:18.459            13.353                Anadyr1           417.281
       201   02 Jun 2027 17:51:05.395   02 Jun 2027 17:51:14.339             8.944                Anadyr2           279.500
       202   02 Jun 2027 17:51:29.584   02 Jun 2027 17:52:51.131            81.547               Magadan1          2548.344
       203   02 Jun 2027 17:52:51.131   02 Jun 2027 17:52:57.025             5.894               Magadan2           184.188
       204   02 Jun 2027 17:53:34.697   02 Jun 2027 17:55:07.045            92.348               Magadan1          2885.875
       205   02 Jun 2027 19:22:48.648   02 Jun 2027 19:24:41.936           113.288                Anadyr1          3540.250
       206   02 Jun 2027 19:24:53.871   02 Jun 2027 19:26:33.170            99.299                Anadyr2          3103.094
       207   02 Jun 2027 19:26:45.503   02 Jun 2027 19:28:00.318            74.815               Magadan1          2337.969
       208   02 Jun 2027 19:28:04.297   02 Jun 2027 19:28:24.691            20.394               Magadan1           637.312
       209   02 Jun 2027 19:30:54.053   02 Jun 2027 19:31:19.218            25.165               Magadan1           786.406
       210   02 Jun 2027 19:33:26.833   02 Jun 2027 19:33:31.419             4.586               Magadan2           143.313
       211   02 Jun 2027 19:33:48.167   02 Jun 2027 19:33:56.322             8.155               Magadan2           254.844
       212   02 Jun 2027 19:36:26.277   02 Jun 2027 19:36:34.799             8.522               Magadan1           266.313
       213   02 Jun 2027 20:19:56.662   02 Jun 2027 20:21:48.846           112.184            RioGallegos          3505.750
       214   02 Jun 2027 20:58:39.279   02 Jun 2027 20:59:06.802            27.523                Anadyr1           860.094
       215   02 Jun 2027 21:00:03.683   02 Jun 2027 21:00:55.320            51.637                Anadyr2          1613.656
       216   02 Jun 2027 21:01:01.553   02 Jun 2027 21:01:33.452            31.899               Magadan2           996.844
       217   02 Jun 2027 21:01:40.070   02 Jun 2027 21:02:06.280            26.210               Magadan1           819.062
       218   02 Jun 2027 21:02:16.178   02 Jun 2027 21:02:20.757             4.579                Anadyr2           143.094
       219   02 Jun 2027 21:02:29.023   02 Jun 2027 21:02:46.270            17.247               Magadan2           538.969
       220   02 Jun 2027 21:02:46.270   02 Jun 2027 21:03:20.080            33.810               Magadan1          1056.563
       221   02 Jun 2027 21:03:30.635   02 Jun 2027 21:03:56.738            26.103                Norilsk           815.719
       222   02 Jun 2027 21:04:08.068   02 Jun 2027 21:04:28.709            20.641               Magadan1           645.031
       223   02 Jun 2027 21:04:48.482   02 Jun 2027 21:05:52.710            64.228               Magadan1          2007.125
       224   02 Jun 2027 21:06:01.573   02 Jun 2027 21:08:12.953           131.380                Irkutsk          4105.625
       225   02 Jun 2027 21:11:54.423   02 Jun 2027 21:12:27.243            32.820                Irkutsk          1025.625
       226   02 Jun 2027 21:21:30.808   02 Jun 2027 21:23:17.797           106.989                Sumatra          3343.406
       227   02 Jun 2027 21:24:27.378   02 Jun 2027 21:26:12.634           105.256                Sumatra          3289.250
       228   02 Jun 2027 22:36:32.546   02 Jun 2027 22:37:13.080            40.534                Norilsk          1266.687
       229   02 Jun 2027 22:37:35.128   02 Jun 2027 22:38:02.028            26.900                Norilsk           840.625
       230   02 Jun 2027 22:38:29.184   02 Jun 2027 22:38:32.965             3.781                Norilsk           118.156
       231   02 Jun 2027 22:40:29.591   02 Jun 2027 22:41:43.756            74.165                Irkutsk          2317.656
       232   02 Jun 2027 22:42:05.325   02 Jun 2027 22:42:25.836            20.511                Novosib           640.969
       233   02 Jun 2027 22:44:30.375   02 Jun 2027 22:44:38.725             8.350                Novosib           260.937
       234   02 Jun 2027 22:49:38.123   02 Jun 2027 22:50:09.544            31.421                Novosib           981.906
       235   02 Jun 2027 22:53:09.733   02 Jun 2027 22:54:29.901            80.168                  Delhi          2505.250
       236   02 Jun 2027 22:59:04.287   02 Jun 2027 23:00:06.643            62.356                Sumatra          1948.625
       237   03 Jun 2027 00:09:11.730   03 Jun 2027 00:10:41.103            89.373                Anadyr2          2792.906
       238   03 Jun 2027 00:12:32.592   03 Jun 2027 00:12:50.019            17.427                Norilsk           544.594
       239   03 Jun 2027 00:13:08.974   03 Jun 2027 00:15:00.004           111.030               Magadan1          3469.687
       240   03 Jun 2027 00:15:43.914   03 Jun 2027 00:18:05.311           141.397              Murmansk1          4418.656
       241   03 Jun 2027 00:18:31.760   03 Jun 2027 00:19:23.233            51.473              Murmansk1          1608.531
       242   03 Jun 2027 00:23:44.041   03 Jun 2027 00:24:18.190            34.149                  Delhi          1067.156
       243   03 Jun 2027 00:27:28.942   03 Jun 2027 00:29:29.427           120.485                  Delhi          3765.156
       244   03 Jun 2027 01:12:05.699   03 Jun 2027 01:12:32.913            27.214            RioGallegos           850.438
       245   03 Jun 2027 01:41:34.269   03 Jun 2027 01:41:53.599            19.330                Anadyr1           604.062
       246   03 Jun 2027 01:42:15.299   03 Jun 2027 01:42:23.290             7.991                Anadyr1           249.719
       247   03 Jun 2027 01:42:43.754   03 Jun 2027 01:43:14.144            30.390                Anadyr2           949.687
       248   03 Jun 2027 01:43:45.825   03 Jun 2027 01:44:11.207            25.382                Anadyr1           793.187
       249   03 Jun 2027 01:44:13.762   03 Jun 2027 01:44:35.460            21.698                Anadyr1           678.063
       250   03 Jun 2027 01:47:19.040   03 Jun 2027 01:47:27.778             8.738                Anadyr2           273.063
       251   03 Jun 2027 01:47:36.591   03 Jun 2027 01:47:43.258             6.667                Anadyr1           208.344
       252   03 Jun 2027 01:48:22.086   03 Jun 2027 01:49:37.558            75.472               Magadan1          2358.500
       253   03 Jun 2027 01:49:37.558   03 Jun 2027 01:49:54.018            16.460               Magadan2           514.375
       254   03 Jun 2027 01:49:57.259   03 Jun 2027 01:50:27.653            30.394               Magadan2           949.813
       255   03 Jun 2027 01:50:44.224   03 Jun 2027 01:51:09.623            25.399              Murmansk2           793.719
       256   03 Jun 2027 01:51:12.602   03 Jun 2027 01:52:39.297            86.695              Murmansk1          2709.219
       257   03 Jun 2027 01:54:39.852   03 Jun 2027 01:55:22.541            42.689                 Moscow          1334.031
       258   03 Jun 2027 01:58:06.314   03 Jun 2027 01:58:20.369            14.055                 Moscow           439.219
       259   03 Jun 2027 02:01:09.199   03 Jun 2027 02:01:52.834            43.635                  Delhi          1363.594
       260   03 Jun 2027 02:21:20.329   03 Jun 2027 02:22:55.845            95.516               CapeTown          2984.875
       261   03 Jun 2027 03:36:14.677   03 Jun 2027 03:36:57.040            42.363                 Moscow          1323.844
       262   03 Jun 2027 03:37:32.769   03 Jun 2027 03:42:45.807           313.038                 Moscow          9782.437
       263   03 Jun 2027 03:53:46.039   03 Jun 2027 03:56:42.256           176.217               CapeTown          5506.781
       264   03 Jun 2027 03:58:37.565   03 Jun 2027 03:59:47.069            69.504               CapeTown          2172.000
       265   03 Jun 2027 04:00:40.700   03 Jun 2027 04:01:16.134            35.434               CapeTown          1107.313
       266   03 Jun 2027 04:02:12.647   03 Jun 2027 04:03:16.823            64.176               CapeTown          2005.500
       267   03 Jun 2027 04:04:02.428   03 Jun 2027 04:04:57.458            55.030               CapeTown          1719.688
       268   03 Jun 2027 04:06:00.940   03 Jun 2027 04:06:34.252            33.312               CapeTown          1041.000
       269   03 Jun 2027 04:50:29.412   03 Jun 2027 04:51:48.399            78.987                Anadyr1          2468.344
       270   03 Jun 2027 04:52:06.837   03 Jun 2027 04:52:43.166            36.329                Anadyr2          1135.281
       271   03 Jun 2027 04:56:07.572   03 Jun 2027 04:56:37.551            29.979               Magadan2           936.844
       272   03 Jun 2027 04:56:44.409   03 Jun 2027 04:57:22.124            37.715               Magadan2          1178.594
       273   03 Jun 2027 04:57:36.888   03 Jun 2027 05:03:14.458           337.570                Anadyr1         10549.062
       274   03 Jun 2027 06:33:56.259   03 Jun 2027 06:34:32.368            36.109                Anadyr1          1128.406
       275   03 Jun 2027 06:34:55.550   03 Jun 2027 06:35:06.031            10.481               Magadan1           327.531
       276   03 Jun 2027 06:35:16.079   03 Jun 2027 06:35:17.640             1.561               Magadan2            48.781
       277   03 Jun 2027 06:35:17.640   03 Jun 2027 06:35:21.920             4.280               Magadan1           133.750
       278   03 Jun 2027 06:35:23.892   03 Jun 2027 06:35:43.134            19.242               Magadan2           601.313
       279   03 Jun 2027 06:35:51.733   03 Jun 2027 06:36:23.113            31.380                Anadyr2           980.625
       280   03 Jun 2027 06:36:23.113   03 Jun 2027 06:36:56.696            33.583                Anadyr1          1049.469
       281   03 Jun 2027 08:07:27.288   03 Jun 2027 08:07:48.213            20.925               Magadan1           653.906
       282   03 Jun 2027 08:08:28.331   03 Jun 2027 08:08:41.451            13.120               Magadan2           410.000
       283   03 Jun 2027 08:08:47.384   03 Jun 2027 08:08:55.710             8.326               Magadan2           260.188
       284   03 Jun 2027 08:09:33.403   03 Jun 2027 08:10:01.762            28.359               Magadan1           886.219
       285   03 Jun 2027 08:11:07.673   03 Jun 2027 08:11:25.817            18.144               Magadan1           567.000
       286   03 Jun 2027 08:11:47.839   03 Jun 2027 08:12:41.143            53.304                Anadyr2          1665.750
       287   03 Jun 2027 08:12:55.640   03 Jun 2027 08:13:15.379            19.739                Anadyr1           616.844
       288   03 Jun 2027 08:13:19.358   03 Jun 2027 08:14:01.240            41.882               Magadan2          1308.813
       289   03 Jun 2027 08:14:50.007   03 Jun 2027 08:15:17.770            27.763                Norilsk           867.594
       290   03 Jun 2027 08:49:47.985   03 Jun 2027 08:50:17.032            29.047            RioGallegos           907.719
       291   03 Jun 2027 08:50:29.323   03 Jun 2027 08:50:45.107            15.784            RioGallegos           493.250
       292   03 Jun 2027 08:55:44.186   03 Jun 2027 08:56:01.003            16.817            RioGallegos           525.531
       293   03 Jun 2027 09:26:57.059   03 Jun 2027 09:28:04.100            67.041                Sumatra          2095.031
       294   03 Jun 2027 09:34:59.527   03 Jun 2027 09:35:08.432             8.905                Sumatra           278.281
       295   03 Jun 2027 09:47:28.005   03 Jun 2027 09:48:42.028            74.023                Irkutsk          2313.219
       296   03 Jun 2027 09:48:46.755   03 Jun 2027 09:48:55.029             8.274                Irkutsk           258.563
       297   03 Jun 2027 09:49:45.039   03 Jun 2027 09:50:07.399            22.360                Irkutsk           698.750
       298   03 Jun 2027 09:50:15.162   03 Jun 2027 09:50:16.504             1.342                Irkutsk            41.938
       299   03 Jun 2027 09:50:23.839   03 Jun 2027 09:50:44.983            21.144                Irkutsk           660.750
       300   03 Jun 2027 10:26:41.661   03 Jun 2027 10:27:26.473            44.812            RioGallegos          1400.375
       301   03 Jun 2027 10:28:45.557   03 Jun 2027 10:28:51.525             5.968            RioGallegos           186.500
       302   03 Jun 2027 11:00:19.593   03 Jun 2027 11:00:31.622            12.029                Sumatra           375.906
       303   03 Jun 2027 11:00:42.660   03 Jun 2027 11:02:41.054           118.394                Sumatra          3699.812
       304   03 Jun 2027 11:21:15.329   03 Jun 2027 11:21:45.082            29.753                Irkutsk           929.781
       305   03 Jun 2027 11:22:32.257   03 Jun 2027 11:23:32.344            60.087                Novosib          1877.719
       306   03 Jun 2027 11:24:00.117   03 Jun 2027 11:24:56.158            56.041                Irkutsk          1751.281
       307   03 Jun 2027 11:25:01.600   03 Jun 2027 11:25:46.115            44.515                Irkutsk          1391.094
       308   03 Jun 2027 11:25:53.334   03 Jun 2027 11:26:13.197            19.863                Norilsk           620.719
       309   03 Jun 2027 11:26:26.486   03 Jun 2027 11:27:04.592            38.106                Novosib          1190.812
       310   03 Jun 2027 12:08:11.907   03 Jun 2027 12:10:10.054           118.147            RioGallegos          3692.094
       311   03 Jun 2027 12:44:51.753   03 Jun 2027 12:45:26.265            34.512                  Delhi          1078.500
       312   03 Jun 2027 12:52:57.231   03 Jun 2027 12:53:44.661            47.430                Novosib          1482.188
       313   03 Jun 2027 12:56:33.377   03 Jun 2027 12:57:25.562            52.185                Novosib          1630.781
       314   03 Jun 2027 12:57:46.724   03 Jun 2027 12:58:16.484            29.760                Norilsk           930.000
       315   03 Jun 2027 12:59:47.265   03 Jun 2027 13:00:08.763            21.498                Norilsk           671.812
       316   03 Jun 2027 13:00:44.094   03 Jun 2027 13:01:49.875            65.781                Norilsk          2055.656
       317   03 Jun 2027 14:28:51.746   03 Jun 2027 14:31:11.314           139.568                 Moscow          4361.500
       318   03 Jun 2027 14:32:15.798   03 Jun 2027 14:32:52.829            37.031                 Moscow          1157.219
       319   03 Jun 2027 14:33:43.218   03 Jun 2027 14:35:24.116           100.898              Murmansk1          3153.062
       320   03 Jun 2027 14:35:58.246   03 Jun 2027 14:36:03.697             5.451              Murmansk2           170.344
       321   03 Jun 2027 14:37:20.814   03 Jun 2027 14:38:11.356            50.542                Norilsk          1579.437
       322   03 Jun 2027 14:38:28.424   03 Jun 2027 14:39:39.323            70.899                Norilsk          2215.594
       323   03 Jun 2027 15:42:59.069   03 Jun 2027 15:45:28.215           149.146               CapeTown          4660.813
       324   03 Jun 2027 16:08:27.755   03 Jun 2027 16:08:31.386             3.631                 Moscow           113.469
       325   03 Jun 2027 16:09:46.157   03 Jun 2027 16:10:53.532            67.375              Murmansk2          2105.469
       326   03 Jun 2027 16:11:57.324   03 Jun 2027 16:13:22.680            85.356              Murmansk1          2667.375
       327   03 Jun 2027 16:23:14.388   03 Jun 2027 16:25:17.181           122.793                Anadyr2          3837.281
       328   03 Jun 2027 16:29:08.194   03 Jun 2027 16:29:13.325             5.131                Anadyr2           160.344
       329   03 Jun 2027 16:31:51.949   03 Jun 2027 16:32:07.915            15.966                Anadyr2           498.937
       330   03 Jun 2027 17:18:30.548   03 Jun 2027 17:20:09.920            99.372               CapeTown          3105.375
       331   03 Jun 2027 17:49:36.392   03 Jun 2027 17:53:14.208           217.816              Murmansk2          6806.750
       332   03 Jun 2027 17:53:40.243   03 Jun 2027 17:54:25.039            44.796              Murmansk2          1399.875
       333   03 Jun 2027 17:59:12.177   03 Jun 2027 17:59:25.316            13.139                Anadyr2           410.594
       334   03 Jun 2027 18:01:58.110   03 Jun 2027 18:03:20.916            82.806               Magadan1          2587.688
       335   03 Jun 2027 18:04:38.200   03 Jun 2027 18:04:54.831            16.631               Magadan1           519.719
       336   03 Jun 2027 18:05:51.736   03 Jun 2027 18:05:54.156             2.420               Magadan2            75.625
       337   03 Jun 2027 19:34:50.127   03 Jun 2027 19:36:55.537           125.410                Anadyr1          3919.062
       338   03 Jun 2027 19:36:58.443   03 Jun 2027 19:37:53.179            54.736                Anadyr2          1710.500
       339   03 Jun 2027 19:38:14.259   03 Jun 2027 19:38:33.799            19.540                Anadyr2           610.625
       340   03 Jun 2027 19:38:47.695   03 Jun 2027 19:40:53.544           125.849               Magadan2          3932.781
       341   03 Jun 2027 19:42:00.904   03 Jun 2027 19:42:15.794            14.890               Magadan1           465.312
       342   03 Jun 2027 19:42:47.608   03 Jun 2027 19:44:10.549            82.941               Magadan1          2591.906
       343   03 Jun 2027 20:30:51.031   03 Jun 2027 20:33:27.694           156.663            RioGallegos          4895.719
       344   03 Jun 2027 20:36:19.189   03 Jun 2027 20:36:43.240            24.051            RioGallegos           751.594
       345   03 Jun 2027 21:10:38.709   03 Jun 2027 21:11:08.665            29.956                Anadyr2           936.125
       346   03 Jun 2027 21:11:51.073   03 Jun 2027 21:11:57.097             6.024                Anadyr2           188.250
       347   03 Jun 2027 21:12:04.522   03 Jun 2027 21:12:10.125             5.603                Anadyr2           175.094
       348   03 Jun 2027 21:12:21.079   03 Jun 2027 21:12:56.972            35.893                Anadyr2          1121.656
       349   03 Jun 2027 21:13:03.959   03 Jun 2027 21:15:08.219           124.260               Magadan2          3883.125
       350   03 Jun 2027 21:15:19.882   03 Jun 2027 21:16:27.047            67.165                Norilsk          2098.906
       351   03 Jun 2027 21:17:39.324   03 Jun 2027 21:18:33.147            53.823                Irkutsk          1681.969
       352   03 Jun 2027 21:20:11.059   03 Jun 2027 21:20:47.245            36.186                Irkutsk          1130.812
       353   03 Jun 2027 21:21:55.209   03 Jun 2027 21:22:27.384            32.175                Irkutsk          1005.469
       354   03 Jun 2027 21:23:54.469   03 Jun 2027 21:24:09.850            15.381                Irkutsk           480.656
       355   03 Jun 2027 21:32:29.568   03 Jun 2027 21:34:51.008           141.440                Sumatra          4420.000
       356   03 Jun 2027 22:46:49.624   03 Jun 2027 22:47:01.932            12.308                Anadyr1           384.625
       357   03 Jun 2027 22:48:34.254   03 Jun 2027 22:50:23.512           109.258                Norilsk          3414.312
       358   03 Jun 2027 22:50:31.211   03 Jun 2027 22:50:34.938             3.727                Norilsk           116.469
       359   03 Jun 2027 22:50:43.115   03 Jun 2027 22:51:10.227            27.112               Magadan2           847.250
       360   03 Jun 2027 22:52:28.741   03 Jun 2027 22:53:39.726            70.985                Irkutsk          2218.281
       361   03 Jun 2027 22:53:47.956   03 Jun 2027 22:56:03.573           135.617                Novosib          4238.031
       362   03 Jun 2027 23:02:50.938   03 Jun 2027 23:04:46.825           115.887                  Delhi          3621.469
       363   04 Jun 2027 00:19:58.828   04 Jun 2027 00:20:14.238            15.410                Anadyr2           481.562
       364   04 Jun 2027 00:20:19.706   04 Jun 2027 00:21:09.779            50.073                Anadyr2          1564.781
       365   04 Jun 2027 00:22:14.325   04 Jun 2027 00:22:30.540            16.215                Anadyr1           506.719
       366   04 Jun 2027 00:22:31.079   04 Jun 2027 00:22:37.568             6.489                Anadyr2           202.781
       367   04 Jun 2027 00:22:49.976   04 Jun 2027 00:22:58.908             8.932                Anadyr2           279.125
       368   04 Jun 2027 00:24:34.630   04 Jun 2027 00:26:35.042           120.412                Norilsk          3762.875
       369   04 Jun 2027 00:27:27.302   04 Jun 2027 00:29:51.223           143.921              Murmansk2          4497.531
       370   04 Jun 2027 00:30:33.282   04 Jun 2027 00:31:24.819            51.537              Murmansk2          1610.531
       371   04 Jun 2027 00:31:59.785   04 Jun 2027 00:32:44.412            44.627              Murmansk1          1394.594
       372   04 Jun 2027 00:44:35.254   04 Jun 2027 00:44:46.893            11.639                  Delhi           363.719
       373   04 Jun 2027 01:17:40.934   04 Jun 2027 01:18:37.402            56.468            RioGallegos          1764.625
       374   04 Jun 2027 01:19:54.317   04 Jun 2027 01:19:57.226             2.909            RioGallegos            90.906
       375   04 Jun 2027 01:20:42.731   04 Jun 2027 01:21:32.546            49.815            RioGallegos          1556.719
       376   04 Jun 2027 01:53:16.087   04 Jun 2027 01:53:42.841            26.754                Anadyr1           836.063
       377   04 Jun 2027 01:54:56.296   04 Jun 2027 01:55:57.287            60.991                Anadyr2          1905.969
       378   04 Jun 2027 01:59:01.171   04 Jun 2027 01:59:29.332            28.161                Anadyr1           880.031
       379   04 Jun 2027 02:00:04.842   04 Jun 2027 02:00:07.353             2.511               Magadan2            78.469
       380   04 Jun 2027 02:00:12.795   04 Jun 2027 02:01:03.109            50.314               Magadan1          1572.313
       381   04 Jun 2027 02:01:55.643   04 Jun 2027 02:02:30.246            34.603               Magadan2          1081.344
       382   04 Jun 2027 02:02:44.550   04 Jun 2027 02:03:11.232            26.682              Murmansk1           833.813
       383   04 Jun 2027 02:03:42.102   04 Jun 2027 02:04:40.999            58.897              Murmansk1          1840.531
       384   04 Jun 2027 02:05:29.472   04 Jun 2027 02:05:57.006            27.534                Novosib           860.437
       385   04 Jun 2027 02:06:02.334   04 Jun 2027 02:06:59.158            56.824                Irkutsk          1775.750
       386   04 Jun 2027 02:12:06.313   04 Jun 2027 02:12:10.022             3.709                 Moscow           115.906
       387   04 Jun 2027 02:12:38.818   04 Jun 2027 02:13:05.131            26.313                 Moscow           822.281
       388   04 Jun 2027 02:13:40.876   04 Jun 2027 02:14:05.305            24.429                  Delhi           763.406
       389   04 Jun 2027 02:18:54.260   04 Jun 2027 02:19:01.077             6.817                  Delhi           213.031
       390   04 Jun 2027 02:32:27.780   04 Jun 2027 02:33:05.886            38.106               CapeTown          1190.812
       391   04 Jun 2027 02:40:33.834   04 Jun 2027 02:40:49.165            15.331               CapeTown           479.094
       392   04 Jun 2027 03:29:02.624   04 Jun 2027 03:29:55.446            52.822                Anadyr2          1650.687
       393   04 Jun 2027 03:37:33.025   04 Jun 2027 03:37:51.966            18.941                Anadyr2           591.906
       394   04 Jun 2027 03:48:16.356   04 Jun 2027 03:49:22.179            65.823              Murmansk1          2056.969
       395   04 Jun 2027 03:49:41.463   04 Jun 2027 03:49:58.207            16.744              Murmansk1           523.250
       396   04 Jun 2027 03:50:14.048   04 Jun 2027 03:51:26.011            71.963              Murmansk2          2248.844
       397   04 Jun 2027 03:51:28.984   04 Jun 2027 03:53:37.772           128.788                 Moscow          4024.625
       398   04 Jun 2027 05:09:16.092   04 Jun 2027 05:15:02.032           345.940               Magadan2         10810.625
       399   04 Jun 2027 05:15:22.253   04 Jun 2027 05:15:26.673             4.420                Anadyr1           138.125
       400   04 Jun 2027 06:45:28.603   04 Jun 2027 06:45:57.955            29.352                Anadyr1           917.250
       401   04 Jun 2027 06:46:02.331   04 Jun 2027 06:46:14.727            12.396               Magadan2           387.375
       402   04 Jun 2027 06:46:41.961   04 Jun 2027 06:47:32.735            50.774                Anadyr2          1586.687
       403   04 Jun 2027 06:47:44.750   04 Jun 2027 06:49:01.981            77.231               Magadan1          2413.469
       404   04 Jun 2027 06:50:25.989   04 Jun 2027 06:50:27.296             1.307                Anadyr1            40.844
       405   04 Jun 2027 08:19:29.900   04 Jun 2027 08:20:21.580            51.680               Magadan1          1615.000
       406   04 Jun 2027 08:20:32.284   04 Jun 2027 08:20:41.116             8.832               Magadan2           276.000
       407   04 Jun 2027 08:20:45.630   04 Jun 2027 08:21:35.313            49.683               Magadan2          1552.594
       408   04 Jun 2027 08:21:43.306   04 Jun 2027 08:22:40.560            57.254                Anadyr1          1789.188
       409   04 Jun 2027 08:23:06.324   04 Jun 2027 08:23:28.743            22.419               Magadan1           700.594
       410   04 Jun 2027 08:23:48.945   04 Jun 2027 08:25:12.889            83.944                Anadyr1          2623.250
       411   04 Jun 2027 08:25:20.366   04 Jun 2027 08:25:54.870            34.504               Magadan2          1078.250
       412   04 Jun 2027 08:26:13.861   04 Jun 2027 08:26:33.292            19.431               Magadan1           607.219
       413   04 Jun 2027 08:28:08.007   04 Jun 2027 08:28:18.197            10.190                Norilsk           318.438
       414   04 Jun 2027 09:01:38.880   04 Jun 2027 09:02:28.791            49.911            RioGallegos          1559.719
       415   04 Jun 2027 09:06:31.022   04 Jun 2027 09:07:10.112            39.090            RioGallegos          1221.562
       416   04 Jun 2027 09:38:06.609   04 Jun 2027 09:38:19.933            13.324                Sumatra           416.375
       417   04 Jun 2027 09:41:36.372   04 Jun 2027 09:42:49.258            72.886                Sumatra          2277.688
       418   04 Jun 2027 09:57:28.425   04 Jun 2027 09:57:48.370            19.945                Novosib           623.281
       419   04 Jun 2027 09:58:04.766   04 Jun 2027 09:58:15.800            11.034                Irkutsk           344.812
       420   04 Jun 2027 09:58:17.272   04 Jun 2027 09:58:30.835            13.563                Irkutsk           423.844
       421   04 Jun 2027 09:58:57.213   04 Jun 2027 09:58:57.653             0.440                Novosib            13.750
       422   04 Jun 2027 09:58:59.534   04 Jun 2027 09:59:28.438            28.904                Irkutsk           903.250
       423   04 Jun 2027 10:00:39.421   04 Jun 2027 10:00:53.603            14.182                Irkutsk           443.187
       424   04 Jun 2027 10:01:15.786   04 Jun 2027 10:01:55.808            40.022                Irkutsk          1250.687
       425   04 Jun 2027 10:02:20.487   04 Jun 2027 10:02:39.510            19.023                Novosib           594.469
       426   04 Jun 2027 10:38:10.950   04 Jun 2027 10:38:22.777            11.827            RioGallegos           369.594
       427   04 Jun 2027 10:39:30.770   04 Jun 2027 10:40:12.476            41.706            RioGallegos          1303.312
       428   04 Jun 2027 11:12:31.198   04 Jun 2027 11:14:30.196           118.998                Sumatra          3718.687
       429   04 Jun 2027 11:35:39.602   04 Jun 2027 11:35:46.264             6.662                Novosib           208.187
       430   04 Jun 2027 11:35:51.066   04 Jun 2027 11:36:13.756            22.690                Novosib           709.062
       431   04 Jun 2027 11:36:29.760   04 Jun 2027 11:37:00.499            30.739                Novosib           960.594
       432   04 Jun 2027 11:37:11.344   04 Jun 2027 11:37:55.386            44.042                Norilsk          1376.312
       433   04 Jun 2027 11:38:00.876   04 Jun 2027 11:38:01.424             0.548                Irkutsk            17.125
       434   04 Jun 2027 11:38:04.231   04 Jun 2027 11:38:30.735            26.504                Novosib           828.250
       435   04 Jun 2027 12:57:14.256   04 Jun 2027 12:59:02.321           108.065                  Delhi          3377.031
       436   04 Jun 2027 13:01:19.091   04 Jun 2027 13:01:47.088            27.997                  Delhi           874.906
       437   04 Jun 2027 13:01:59.828   04 Jun 2027 13:02:31.188            31.360                  Delhi           980.000
       438   04 Jun 2027 13:05:30.326   04 Jun 2027 13:06:00.549            30.223                Novosib           944.469
       439   04 Jun 2027 13:06:57.748   04 Jun 2027 13:07:29.087            31.339                Novosib           979.344
       440   04 Jun 2027 13:08:32.120   04 Jun 2027 13:09:08.535            36.415                Novosib          1137.969
       441   04 Jun 2027 13:09:20.602   04 Jun 2027 13:10:05.159            44.557                Norilsk          1392.406
       442   04 Jun 2027 13:13:50.017   04 Jun 2027 13:14:13.756            23.739                Norilsk           741.844
       443   04 Jun 2027 14:40:56.734   04 Jun 2027 14:44:10.539           193.805                 Moscow          6056.406
       444   04 Jun 2027 14:44:28.161   04 Jun 2027 14:47:41.299           193.138              Murmansk1          6035.563
       445   04 Jun 2027 14:50:14.896   04 Jun 2027 14:51:35.453            80.557                Norilsk          2517.406
       446   04 Jun 2027 15:01:23.332   04 Jun 2027 15:01:47.969            24.637                Anadyr2           769.906
       447   04 Jun 2027 15:02:08.489   04 Jun 2027 15:02:20.170            11.681                Anadyr2           365.031
       448   04 Jun 2027 15:02:46.796   04 Jun 2027 15:03:08.286            21.490                Anadyr2           671.562
       449   04 Jun 2027 15:54:45.860   04 Jun 2027 15:55:17.826            31.966               CapeTown           998.937
       450   04 Jun 2027 15:56:28.149   04 Jun 2027 15:56:29.987             1.838               CapeTown            57.437
       451   04 Jun 2027 15:58:13.745   04 Jun 2027 15:58:24.280            10.535               CapeTown           329.219
       452   04 Jun 2027 16:02:11.292   04 Jun 2027 16:04:12.749           121.457               CapeTown          3795.531
       453   04 Jun 2027 16:22:07.832   04 Jun 2027 16:22:27.683            19.851              Murmansk1           620.344
       454   04 Jun 2027 16:25:19.182   04 Jun 2027 16:25:44.710            25.528              Murmansk1           797.750
       455   04 Jun 2027 16:26:21.852   04 Jun 2027 16:26:53.494            31.642              Murmansk1           988.812
       456   04 Jun 2027 16:31:35.189   04 Jun 2027 16:32:01.124            25.935              Murmansk1           810.469
       457   04 Jun 2027 16:35:11.633   04 Jun 2027 16:35:24.875            13.242                Anadyr2           413.812
       458   04 Jun 2027 16:35:32.393   04 Jun 2027 16:37:07.635            95.242                Anadyr1          2976.312
       459   04 Jun 2027 16:40:30.459   04 Jun 2027 16:40:48.367            17.908                Anadyr1           559.625
       460   04 Jun 2027 16:44:29.974   04 Jun 2027 16:44:31.745             1.771                Anadyr2            55.344
       461   04 Jun 2027 17:30:42.559   04 Jun 2027 17:31:43.075            60.516               CapeTown          1891.125
       462   04 Jun 2027 17:34:49.798   04 Jun 2027 17:35:12.873            23.075               CapeTown           721.094
       463   04 Jun 2027 17:41:26.206   04 Jun 2027 17:42:01.633            35.427               CapeTown          1107.094
       464   04 Jun 2027 18:02:23.132   04 Jun 2027 18:05:11.359           168.227              Murmansk1          5257.094
       465   04 Jun 2027 18:05:11.359   04 Jun 2027 18:07:04.798           113.439              Murmansk2          3544.969
       466   04 Jun 2027 18:13:48.035   04 Jun 2027 18:15:10.101            82.066               Magadan2          2564.562
       467   04 Jun 2027 18:16:56.041   04 Jun 2027 18:17:02.308             6.267               Magadan2           195.844
       468   04 Jun 2027 18:18:40.523   04 Jun 2027 18:19:57.271            76.748               Magadan2          2398.375
       469   04 Jun 2027 19:46:51.503   04 Jun 2027 19:49:50.135           178.632                Anadyr2          5582.250
       470   04 Jun 2027 19:50:27.393   04 Jun 2027 19:52:54.680           147.287               Magadan1          4602.719
       471   04 Jun 2027 19:56:14.282   04 Jun 2027 19:56:28.503            14.221               Magadan2           444.406
       472   04 Jun 2027 19:59:53.817   04 Jun 2027 19:59:57.790             3.973               Magadan2           124.156
       473   04 Jun 2027 20:01:46.543   04 Jun 2027 20:01:57.590            11.047               Magadan1           345.219
       474   04 Jun 2027 20:42:15.237   04 Jun 2027 20:45:12.195           176.958            RioGallegos          5529.937
       475   04 Jun 2027 20:47:42.703   04 Jun 2027 20:48:10.501            27.798            RioGallegos           868.687
       476   04 Jun 2027 21:22:37.640   04 Jun 2027 21:23:10.498            32.858                Anadyr2          1026.812
       477   04 Jun 2027 21:24:45.719   04 Jun 2027 21:28:28.826           223.107                Norilsk          6972.094
       478   04 Jun 2027 21:29:23.177   04 Jun 2027 21:30:31.790            68.613                Irkutsk          2144.156
       479   04 Jun 2027 21:32:06.054   04 Jun 2027 21:32:43.251            37.197                Irkutsk          1162.406
       480   04 Jun 2027 21:43:47.198   04 Jun 2027 21:45:05.244            78.046                Sumatra          2438.938
       481   04 Jun 2027 21:48:28.757   04 Jun 2027 21:49:59.922            91.165                Sumatra          2848.906
       482   04 Jun 2027 22:58:51.619   04 Jun 2027 22:59:02.201            10.582                Anadyr1           330.688
