uniorb/output/strategy_4/Drop/Drop_KinoSat_110401.txt

KinoSat_110401
-------------------------
    Access    *     Start Time (UTCG)     *     Stop Time (UTCG)  *   Duration (s)        *       Station  *  Data (Mbytes)
         1   01 Jun 2027 04:32:18.998   01 Jun 2027 04:32:34.500            15.502                Irkutsk          1937.750
         2   01 Jun 2027 04:32:41.139   01 Jun 2027 04:35:17.263           156.124                Irkutsk         19515.500
         3   01 Jun 2027 04:35:54.977   01 Jun 2027 04:36:10.886            15.909               Magadan2          1988.625
         4   01 Jun 2027 04:36:10.886   01 Jun 2027 04:36:29.467            18.581               Magadan1          2322.625
         5   01 Jun 2027 04:36:34.856   01 Jun 2027 04:36:40.207             5.351              Murmansk1           668.875
         6   01 Jun 2027 04:36:48.528   01 Jun 2027 04:37:19.215            30.687                Irkutsk          3835.875
         7   01 Jun 2027 04:37:23.983   01 Jun 2027 04:37:34.423            10.440                Norilsk          1305.000
         8   01 Jun 2027 04:38:10.155   01 Jun 2027 04:38:18.880             8.725                Novosib          1090.625
         9   01 Jun 2027 05:12:10.904   01 Jun 2027 05:13:30.619            79.715            RioGallegos          9964.375
        10   01 Jun 2027 05:47:17.456   01 Jun 2027 05:47:24.563             7.107                Sumatra           888.375
        11   01 Jun 2027 05:48:56.928   01 Jun 2027 05:50:03.705            66.777                Sumatra          8347.125
        12   01 Jun 2027 05:59:03.074   01 Jun 2027 06:00:11.412            68.338                  Delhi          8542.250
        13   01 Jun 2027 06:09:41.910   01 Jun 2027 06:11:57.484           135.574                Irkutsk         16946.750
        14   01 Jun 2027 06:12:28.728   01 Jun 2027 06:13:39.604            70.876                Novosib          8859.500
        15   01 Jun 2027 07:31:16.709   01 Jun 2027 07:32:54.728            98.019                  Delhi         12252.375
        16   01 Jun 2027 07:48:07.939   01 Jun 2027 07:48:28.415            20.476                Norilsk          2559.500
        17   01 Jun 2027 07:48:36.556   01 Jun 2027 07:49:26.066            49.510              Murmansk2          6188.750
        18   01 Jun 2027 07:49:35.263   01 Jun 2027 07:50:47.360            72.097                Novosib          9012.125
        19   01 Jun 2027 09:11:51.450   01 Jun 2027 09:13:10.548            79.098                  Delhi          9887.250
        20   01 Jun 2027 09:21:54.063   01 Jun 2027 09:23:36.119           102.056                Novosib         12757.000
        21   01 Jun 2027 09:23:53.643   01 Jun 2027 09:24:34.323            40.680                Novosib          5085.000
        22   01 Jun 2027 09:24:59.392   01 Jun 2027 09:28:33.839           214.447                 Moscow         26805.875
        23   01 Jun 2027 09:28:41.824   01 Jun 2027 09:32:03.362           201.538              Murmansk1         25192.250
        24   01 Jun 2027 10:31:30.694   01 Jun 2027 10:36:07.514           276.820               CapeTown         34602.500
        25   01 Jun 2027 10:38:35.547   01 Jun 2027 10:39:06.036            30.489               CapeTown          3811.125
        26   01 Jun 2027 11:10:30.941   01 Jun 2027 11:15:08.293           277.352                Anadyr1         34669.000
        27   01 Jun 2027 12:50:12.643   01 Jun 2027 12:54:48.202           275.559               Magadan2         34444.875
        28   01 Jun 2027 14:24:07.690   01 Jun 2027 14:27:02.086           174.396               Magadan1         21799.500
        29   01 Jun 2027 16:07:10.077   01 Jun 2027 16:09:22.801           132.724                Irkutsk         16590.500
        30   01 Jun 2027 16:51:53.563   01 Jun 2027 16:54:26.249           152.686            RioGallegos         19085.750
        31   01 Jun 2027 16:56:04.352   01 Jun 2027 16:56:17.629            13.277            RioGallegos          1659.625
        32   01 Jun 2027 17:39:30.991   01 Jun 2027 17:41:46.441           135.450                Irkutsk         16931.250
        33   01 Jun 2027 17:42:19.475   01 Jun 2027 17:43:55.959            96.484                Irkutsk         12060.500
        34   01 Jun 2027 17:47:06.045   01 Jun 2027 17:47:36.986            30.941                Novosib          3867.625
        35   01 Jun 2027 17:54:40.954   01 Jun 2027 17:56:09.160            88.206                Sumatra         11025.750
        36   01 Jun 2027 19:22:57.801   01 Jun 2027 19:27:09.288           251.487                  Delhi         22976.625
        37   02 Jun 2027 03:11:45.296   02 Jun 2027 03:12:46.370            61.074                Anadyr2          7634.250
        38   02 Jun 2027 03:12:59.726   02 Jun 2027 03:13:16.318            16.592                Anadyr1          2074.000
        39   02 Jun 2027 04:44:45.183   02 Jun 2027 04:45:20.278            35.095               Magadan2          4386.875
        40   02 Jun 2027 04:45:31.919   02 Jun 2027 04:46:21.219            49.300               Magadan2          6162.500
        41   02 Jun 2027 04:46:24.360   02 Jun 2027 04:49:05.351           160.991                Irkutsk         20123.875
        42   02 Jun 2027 04:49:34.253   02 Jun 2027 04:51:01.710            87.457                Norilsk         10932.125
        43   02 Jun 2027 04:51:21.281   02 Jun 2027 04:54:38.289           197.008              Murmansk1         24626.000
        44   02 Jun 2027 05:24:16.787   02 Jun 2027 05:24:38.452            21.665            RioGallegos          2708.125
        45   02 Jun 2027 05:25:17.278   02 Jun 2027 05:25:58.636            41.358            RioGallegos          5169.750
        46   02 Jun 2027 05:59:09.410   02 Jun 2027 06:00:34.027            84.617                Sumatra         10577.125
        47   02 Jun 2027 06:10:04.231   02 Jun 2027 06:12:27.535           143.304                  Delhi         17913.000
        48   02 Jun 2027 06:25:00.435   02 Jun 2027 06:27:11.110           130.675                 Moscow         16334.375
        49   02 Jun 2027 06:27:15.305   02 Jun 2027 06:29:51.969           156.664                Norilsk         19583.000
        50   02 Jun 2027 06:30:03.486   02 Jun 2027 06:32:44.289           160.803              Murmansk1         20100.375
        51   02 Jun 2027 07:03:31.975   02 Jun 2027 07:06:48.796           196.821            RioGallegos         24602.625
        52   02 Jun 2027 07:38:17.114   02 Jun 2027 07:41:00.296           163.182                Sumatra         20397.750
        53   02 Jun 2027 07:43:06.643   02 Jun 2027 07:43:39.059            32.416                Sumatra          4052.000
        54   02 Jun 2027 07:44:18.166   02 Jun 2027 07:46:09.677           111.511                  Delhi         13938.875
        55   02 Jun 2027 07:50:52.887   02 Jun 2027 07:51:06.425            13.538                Novosib          1692.250
        56   02 Jun 2027 07:53:12.129   02 Jun 2027 07:56:13.173           181.044                Novosib         22630.500
        57   02 Jun 2027 07:56:29.858   02 Jun 2027 07:57:41.464            71.606                Irkutsk          8950.750
        58   02 Jun 2027 08:00:58.892   02 Jun 2027 08:04:20.936           202.044                 Moscow         25255.500
        59   02 Jun 2027 08:04:35.534   02 Jun 2027 08:06:09.477            93.943              Murmansk2         11742.875
        60   02 Jun 2027 09:38:16.478   02 Jun 2027 09:44:04.782           348.304              Murmansk2         43538.000
        61   02 Jun 2027 10:42:49.315   02 Jun 2027 10:52:00.031           550.716               CapeTown         68839.500
        62   02 Jun 2027 11:04:40.384   02 Jun 2027 11:14:34.463           594.079                 Moscow         74259.875
        63   02 Jun 2027 11:14:38.523   02 Jun 2027 11:20:02.811           324.288              Murmansk2         40536.000
        64   02 Jun 2027 11:22:21.855   02 Jun 2027 11:31:06.084           524.229                Anadyr1         65528.625
        65   02 Jun 2027 12:17:08.341   02 Jun 2027 12:18:23.670            75.329               CapeTown          9416.125
        66   02 Jun 2027 13:01:36.441   02 Jun 2027 13:05:14.266           217.825               Magadan2         27228.125
        67   02 Jun 2027 14:36:06.953   02 Jun 2027 14:37:29.475            82.522               Magadan1         10315.250
        68   02 Jun 2027 16:17:47.031   02 Jun 2027 16:23:14.035           327.004                Irkutsk         40875.500
        69   02 Jun 2027 17:06:27.754   02 Jun 2027 17:06:35.270             7.516            RioGallegos           939.500
        70   02 Jun 2027 17:52:39.213   02 Jun 2027 17:56:23.719           224.506                Novosib         28063.250
        71   02 Jun 2027 17:57:26.668   02 Jun 2027 17:59:12.338           105.670                Novosib         13208.750
        72   02 Jun 2027 19:34:46.557   02 Jun 2027 19:36:52.100           125.543                  Delhi         15692.875
        73   02 Jun 2027 21:01:39.730   02 Jun 2027 21:03:00.913            81.183              Murmansk2         10147.875
        74   02 Jun 2027 21:05:54.187   02 Jun 2027 21:07:26.921            92.734                 Moscow         11591.750
        75   02 Jun 2027 21:34:36.217   02 Jun 2027 21:35:05.389            29.172               CapeTown          3646.500
        76   02 Jun 2027 21:35:34.712   02 Jun 2027 21:36:33.411            58.699               CapeTown          7337.375
        77   03 Jun 2027 03:24:18.335   03 Jun 2027 03:24:42.385            24.050                Norilsk          3006.250
        78   03 Jun 2027 03:25:38.520   03 Jun 2027 03:25:41.255             2.735               Magadan2           341.875
        79   03 Jun 2027 03:25:41.814   03 Jun 2027 03:30:54.534           312.720                Norilsk         39090.000
        80   03 Jun 2027 03:31:10.244   03 Jun 2027 03:35:06.774           236.530              Murmansk2         29566.250
        81   03 Jun 2027 03:35:06.774   03 Jun 2027 03:35:32.919            26.145              Murmansk1          3268.125
        82   03 Jun 2027 04:00:59.043   03 Jun 2027 04:03:16.528           137.485            RioGallegos         17185.625
        83   03 Jun 2027 04:39:52.155   03 Jun 2027 04:40:06.227            14.072                Sumatra          1759.000
        84   03 Jun 2027 04:42:01.405   03 Jun 2027 04:42:41.561            40.156                Sumatra          5019.500
        85   03 Jun 2027 05:01:36.579   03 Jun 2027 05:06:34.593           298.014                Norilsk         37251.750
        86   03 Jun 2027 05:06:44.752   03 Jun 2027 05:09:46.022           181.270              Murmansk1         22658.750
        87   03 Jun 2027 05:36:26.237   03 Jun 2027 05:40:46.863           260.626            RioGallegos         32578.250
        88   03 Jun 2027 05:44:18.075   03 Jun 2027 05:44:34.273            16.198            RioGallegos          2024.750
        89   03 Jun 2027 05:45:16.050   03 Jun 2027 05:45:43.844            27.794            RioGallegos          3474.250
        90   03 Jun 2027 05:45:57.994   03 Jun 2027 05:46:11.035            13.041            RioGallegos          1630.125
        91   03 Jun 2027 06:11:07.052   03 Jun 2027 06:13:34.205           147.153                Sumatra         18394.125
        92   03 Jun 2027 06:21:19.665   03 Jun 2027 06:23:47.699           148.034                  Delhi         18504.250
        93   03 Jun 2027 06:25:21.995   03 Jun 2027 06:29:51.940           269.945                Irkutsk         33743.125
        94   03 Jun 2027 06:36:52.579   03 Jun 2027 06:37:28.529            35.950              Murmansk1          4493.750
        95   03 Jun 2027 06:37:43.559   03 Jun 2027 06:41:47.827           244.268                Norilsk         30533.500
        96   03 Jun 2027 06:42:01.240   03 Jun 2027 06:42:15.131            13.891              Murmansk2          1736.375
        97   03 Jun 2027 06:42:15.131   03 Jun 2027 06:44:40.365           145.234              Murmansk1         18154.250
        98   03 Jun 2027 07:16:35.253   03 Jun 2027 07:19:23.781           168.528            RioGallegos         21066.000
        99   03 Jun 2027 07:55:25.664   03 Jun 2027 07:59:52.964           267.300                  Delhi         33412.500
       100   03 Jun 2027 08:03:14.383   03 Jun 2027 08:04:23.591            69.208                Novosib          8651.000
       101   03 Jun 2027 08:05:07.867   03 Jun 2027 08:09:10.065           242.198                Novosib         30274.750
       102   03 Jun 2027 08:13:09.767   03 Jun 2027 08:16:26.379           196.612                 Moscow         24576.500
       103   03 Jun 2027 08:16:36.867   03 Jun 2027 08:20:13.208           216.341              Murmansk2         27042.625
       104   03 Jun 2027 09:48:36.661   03 Jun 2027 09:54:08.254           331.593                Norilsk         41449.125
       105   03 Jun 2027 09:54:33.132   03 Jun 2027 09:56:06.306            93.174              Murmansk2         11646.750
       106   03 Jun 2027 10:54:20.413   03 Jun 2027 11:03:37.681           557.268               CapeTown         69658.500
       107   03 Jun 2027 11:17:05.307   03 Jun 2027 11:27:03.188           597.881                 Moscow         74735.125
       108   03 Jun 2027 11:27:05.646   03 Jun 2027 11:31:27.851           262.205              Murmansk1         32775.625
       109   03 Jun 2027 11:31:27.851   03 Jun 2027 11:32:04.079            36.228              Murmansk2          4528.500
       110   03 Jun 2027 11:34:15.234   03 Jun 2027 11:40:03.869           348.635                Anadyr2         43579.375
       111   03 Jun 2027 11:41:41.444   03 Jun 2027 11:43:15.482            94.038                Anadyr1         11754.750
       112   03 Jun 2027 12:29:12.784   03 Jun 2027 12:31:04.386           111.602               CapeTown         13950.250
       113   03 Jun 2027 12:35:44.071   03 Jun 2027 12:36:17.971            33.900               CapeTown          4237.500
       114   03 Jun 2027 12:37:25.498   03 Jun 2027 12:38:52.889            87.391               CapeTown         10923.875
       115   03 Jun 2027 13:13:13.707   03 Jun 2027 13:17:06.923           233.216               Magadan1         29152.000
       116   03 Jun 2027 15:44:13.205   03 Jun 2027 15:44:37.809            24.604            RioGallegos          3075.500
       117   03 Jun 2027 16:29:07.654   03 Jun 2027 16:35:19.522           371.868                Irkutsk         46483.500
       118   03 Jun 2027 16:44:55.758   03 Jun 2027 16:46:14.748            78.990                Sumatra          9873.750
       119   03 Jun 2027 16:48:33.969   03 Jun 2027 16:50:35.688           121.719                Sumatra         15214.875
       120   03 Jun 2027 18:05:59.156   03 Jun 2027 18:07:56.733           117.577                Novosib         14697.125
       121   03 Jun 2027 21:13:38.980   03 Jun 2027 21:15:58.460           139.480              Murmansk1         17435.000
       122   03 Jun 2027 21:17:39.127   03 Jun 2027 21:19:53.116           133.989                 Moscow         16748.625
       123   03 Jun 2027 21:26:15.069   03 Jun 2027 21:27:04.413            49.344                 Moscow          6168.000
       124   03 Jun 2027 21:44:36.546   03 Jun 2027 21:45:27.276            50.730               CapeTown          6341.250
       125   03 Jun 2027 21:47:55.617   03 Jun 2027 21:48:31.329            35.712               CapeTown          4464.000
       126   04 Jun 2027 03:36:31.013   04 Jun 2027 03:36:49.900            18.887                Norilsk          2360.875
       127   04 Jun 2027 03:37:42.125   04 Jun 2027 03:42:52.449           310.324                Norilsk         38790.500
       128   04 Jun 2027 03:43:05.200   04 Jun 2027 03:47:20.063           254.863              Murmansk1         31857.875
       129   04 Jun 2027 04:50:15.368   04 Jun 2027 04:52:25.136           129.768                Sumatra         16221.000
       130   04 Jun 2027 05:13:37.939   04 Jun 2027 05:18:35.375           297.436                Norilsk         37179.500
       131   04 Jun 2027 05:18:46.884   04 Jun 2027 05:21:37.073           170.189              Murmansk2         21273.625
       132   04 Jun 2027 05:48:39.481   04 Jun 2027 05:52:00.255           200.774            RioGallegos         25096.750
       133   04 Jun 2027 06:23:10.276   04 Jun 2027 06:26:14.693           184.417                Sumatra         23052.125
       134   04 Jun 2027 06:33:48.803   04 Jun 2027 06:36:11.448           142.645                  Delhi         17830.625
       135   04 Jun 2027 06:37:43.747   04 Jun 2027 06:42:02.959           259.212                Irkutsk         32401.500
       136   04 Jun 2027 06:49:27.347   04 Jun 2027 06:56:37.055           429.708              Murmansk1         53713.500
       137   04 Jun 2027 07:30:08.875   04 Jun 2027 07:32:06.530           117.655            RioGallegos         14706.875
       138   04 Jun 2027 08:07:38.705   04 Jun 2027 08:14:04.470           385.765                  Delhi         48220.625
       139   04 Jun 2027 08:15:40.256   04 Jun 2027 08:20:27.158           286.902                Novosib         35862.750
       140   04 Jun 2027 08:25:05.917   04 Jun 2027 08:32:13.418           427.501              Murmansk2         53437.625
       141   04 Jun 2027 09:51:44.151   04 Jun 2027 09:52:48.316            64.165                 Moscow          8020.625
       142   04 Jun 2027 09:55:59.784   04 Jun 2027 09:56:56.585            56.801              Murmansk1          7100.125
       143   04 Jun 2027 10:00:14.353   04 Jun 2027 10:08:07.906           473.553              Murmansk1         59194.125
       144   04 Jun 2027 11:07:15.154   04 Jun 2027 11:12:21.551           306.397               CapeTown         38299.625
       145   04 Jun 2027 11:29:35.064   04 Jun 2027 11:33:34.060           238.996                 Moscow         29874.500
       146   04 Jun 2027 11:33:50.936   04 Jun 2027 11:39:46.488           355.552              Murmansk2         44444.000
       147   04 Jun 2027 11:39:46.488   04 Jun 2027 11:43:27.332           220.844              Murmansk1         27605.500
       148   04 Jun 2027 11:46:10.404   04 Jun 2027 11:51:34.858           324.454                Anadyr1         40556.750
       149   04 Jun 2027 11:55:15.990   04 Jun 2027 11:56:15.032            59.042                Anadyr2          7380.250
       150   04 Jun 2027 12:41:51.760   04 Jun 2027 12:42:05.323            13.563               CapeTown          1695.375
       151   04 Jun 2027 12:44:03.366   04 Jun 2027 12:44:39.544            36.178               CapeTown          4522.250
       152   04 Jun 2027 12:45:28.644   04 Jun 2027 12:46:14.384            45.740               CapeTown          5717.500
       153   04 Jun 2027 12:46:50.283   04 Jun 2027 12:47:12.268            21.985               CapeTown          2748.125
       154   04 Jun 2027 12:47:57.161   04 Jun 2027 12:48:59.657            62.496               CapeTown          7812.000
       155   04 Jun 2027 13:24:57.789   04 Jun 2027 13:30:17.994           320.205               Magadan1         40025.625
       156   04 Jun 2027 15:54:06.288   04 Jun 2027 15:56:58.289           172.001            RioGallegos         21500.125
       157   04 Jun 2027 16:40:41.779   04 Jun 2027 16:44:03.525           201.746                Irkutsk         25218.250
       158   04 Jun 2027 16:46:01.953   04 Jun 2027 16:47:21.703            79.750                Irkutsk          9968.750
       159   04 Jun 2027 16:55:43.471   04 Jun 2027 16:58:18.029           154.558                Sumatra         19319.750
       160   04 Jun 2027 18:19:58.175   04 Jun 2027 18:22:03.255           125.080                Novosib         15635.000
       161   04 Jun 2027 18:26:18.743   04 Jun 2027 18:28:10.121           111.378                  Delhi         13922.250
       162   04 Jun 2027 21:31:49.817   04 Jun 2027 21:36:05.317           255.500                 Moscow         31937.500
       163   04 Jun 2027 21:55:43.599   04 Jun 2027 21:57:39.057           115.458               CapeTown         14432.250
       164   05 Jun 2027 03:49:42.961   05 Jun 2027 03:55:56.221           373.260              Murmansk1         46657.500
       165   05 Jun 2027 03:55:56.221   05 Jun 2027 03:57:50.783           114.562              Murmansk2         14320.250
       166   05 Jun 2027 05:01:17.240   05 Jun 2027 05:04:10.539           173.299                Sumatra         21662.375
       167   05 Jun 2027 05:25:31.575   05 Jun 2027 05:25:39.447             7.872                Irkutsk           984.000
       168   05 Jun 2027 05:25:49.789   05 Jun 2027 05:30:42.125           292.336              Murmansk2         36542.000
       169   05 Jun 2027 05:30:42.125   05 Jun 2027 05:33:28.859           166.734              Murmansk1         20841.750
       170   05 Jun 2027 06:00:56.808   05 Jun 2027 06:03:06.324           129.516            RioGallegos         16189.500
       171   05 Jun 2027 06:35:19.279   05 Jun 2027 06:38:07.025           167.746                Sumatra         20968.250
       172   05 Jun 2027 06:50:10.373   05 Jun 2027 06:54:17.758           247.385                Irkutsk         30923.125
       173   05 Jun 2027 06:54:34.857   05 Jun 2027 06:55:18.013            43.156                Novosib          5394.500
       174   05 Jun 2027 07:01:27.146   05 Jun 2027 07:06:34.800           307.654                Norilsk         38456.750
       175   05 Jun 2027 07:06:45.353   05 Jun 2027 07:08:34.323           108.970              Murmansk1         13621.250
       176   05 Jun 2027 08:19:58.250   05 Jun 2027 08:27:57.342           479.092                  Delhi         59886.500
       177   05 Jun 2027 08:28:11.100   05 Jun 2027 08:32:00.807           229.707                Novosib         28713.375
       178   05 Jun 2027 08:32:04.738   05 Jun 2027 08:32:29.336            24.598                Norilsk          3074.750
       179   05 Jun 2027 08:37:00.662   05 Jun 2027 08:42:25.095           324.433              Murmansk1         40554.125
       180   05 Jun 2027 08:42:25.464   05 Jun 2027 08:42:32.190             6.726                Norilsk           840.750
       181   05 Jun 2027 08:44:01.399   05 Jun 2027 08:44:13.907            12.508              Murmansk1          1563.500
       182   05 Jun 2027 10:03:47.868   05 Jun 2027 10:05:15.982            88.114                 Moscow         11014.250
       183   05 Jun 2027 10:06:24.471   05 Jun 2027 10:06:33.780             9.309                 Moscow          1163.625
       184   05 Jun 2027 10:07:03.534   05 Jun 2027 10:07:38.551            35.017                 Moscow          4377.125
       185   05 Jun 2027 10:07:56.501   05 Jun 2027 10:09:10.379            73.878              Murmansk1          9234.750
       186   05 Jun 2027 10:11:53.788   05 Jun 2027 10:16:38.103           284.315                 Moscow         35539.375
       187   05 Jun 2027 10:17:29.360   05 Jun 2027 10:20:09.554           160.194              Murmansk2         20024.250
       188   05 Jun 2027 11:23:12.211   05 Jun 2027 11:23:45.402            33.191               CapeTown          4148.875
       189   05 Jun 2027 11:42:10.463   05 Jun 2027 11:45:56.182           225.719                 Moscow         28214.875
       190   05 Jun 2027 11:45:57.011   05 Jun 2027 11:54:29.530           512.519              Murmansk1         64064.875
       191   05 Jun 2027 11:54:29.530   05 Jun 2027 11:55:02.415            32.885              Murmansk2          4110.625
       192   05 Jun 2027 11:58:06.913   05 Jun 2027 11:58:46.566            39.653                Anadyr1          4956.625
       193   05 Jun 2027 11:59:47.857   05 Jun 2027 12:02:21.265           153.408                Anadyr2         19176.000
       194   05 Jun 2027 12:02:21.265   05 Jun 2027 12:02:35.320            14.055                Anadyr1          1756.875
       195   05 Jun 2027 12:04:47.104   05 Jun 2027 12:05:51.919            64.815                Anadyr1          8101.875
       196   05 Jun 2027 12:07:16.766   05 Jun 2027 12:07:39.417            22.651                Anadyr1          2831.375
       197   05 Jun 2027 13:36:46.122   05 Jun 2027 13:40:57.336           251.214               Magadan1         31401.750
       198   05 Jun 2027 16:05:22.267   05 Jun 2027 16:08:45.852           203.585            RioGallegos         25448.125
       199   05 Jun 2027 16:11:27.004   05 Jun 2027 16:12:31.541            64.537            RioGallegos          8067.125
       200   05 Jun 2027 16:54:11.228   05 Jun 2027 16:58:26.698           255.470                Irkutsk         31933.750
       201   05 Jun 2027 17:06:55.213   05 Jun 2027 17:10:04.637           189.424                Sumatra         23678.000
       202   05 Jun 2027 17:11:44.686   05 Jun 2027 17:12:53.564            68.878                Sumatra          8609.750
       203   05 Jun 2027 18:37:06.106   05 Jun 2027 18:39:51.761           165.655                  Delhi         20706.875
       204   05 Jun 2027 18:41:43.358   05 Jun 2027 18:42:11.316            27.958                  Delhi          3494.750
       205   05 Jun 2027 21:39:49.339   05 Jun 2027 21:42:46.859           177.520              Murmansk1         22190.000
       206   05 Jun 2027 21:43:56.429   05 Jun 2027 21:45:32.902            96.473                 Moscow         12059.125
       207   05 Jun 2027 22:07:46.757   05 Jun 2027 22:09:28.380           101.623               CapeTown         10430.998
       208   06 Jun 2027 04:01:45.938   06 Jun 2027 04:05:50.706           244.768                Norilsk         30596.000
       209   06 Jun 2027 05:12:36.520   06 Jun 2027 05:13:17.238            40.718                Sumatra          5089.750
       210   06 Jun 2027 05:13:54.407   06 Jun 2027 05:16:00.239           125.832                Sumatra         15729.000
       211   06 Jun 2027 05:37:37.910   06 Jun 2027 05:45:21.402           463.492              Murmansk1         57936.500
       212   06 Jun 2027 06:13:18.616   06 Jun 2027 06:13:33.194            14.578            RioGallegos          1822.250
       213   06 Jun 2027 06:14:44.402   06 Jun 2027 06:15:13.383            28.981            RioGallegos          3622.625
       214   06 Jun 2027 06:17:09.117   06 Jun 2027 06:17:37.944            28.827            RioGallegos          3603.375
       215   06 Jun 2027 06:47:34.650   06 Jun 2027 06:49:53.293           138.643                Sumatra         17330.375
       216   06 Jun 2027 06:50:36.482   06 Jun 2027 06:52:15.001            98.519                Sumatra         12314.875
       217   06 Jun 2027 06:55:57.923   06 Jun 2027 06:58:07.749           129.826                  Delhi         16228.250
       218   06 Jun 2027 07:02:18.230   06 Jun 2027 07:03:28.517            70.287                Novosib          8785.875
       219   06 Jun 2027 07:04:38.034   06 Jun 2027 07:06:36.654           118.620                Irkutsk         14827.500
       220   06 Jun 2027 07:06:56.969   06 Jun 2027 07:07:34.154            37.185                Novosib          4648.125
       221   06 Jun 2027 07:12:54.516   06 Jun 2027 07:13:00.099             5.583              Murmansk1           697.875
       222   06 Jun 2027 07:13:00.099   06 Jun 2027 07:14:07.588            67.489              Murmansk2          8436.125
       223   06 Jun 2027 07:14:19.588   06 Jun 2027 07:15:07.255            47.667                Novosib          5958.375
       224   06 Jun 2027 07:15:10.874   06 Jun 2027 07:16:06.874            56.000                 Moscow          7000.000
       225   06 Jun 2027 07:16:14.514   06 Jun 2027 07:18:36.686           142.172                Norilsk         17771.500
       226   06 Jun 2027 08:32:25.432   06 Jun 2027 08:36:37.047           251.615                  Delhi         31451.875
       227   06 Jun 2027 08:38:47.905   06 Jun 2027 08:40:13.113            85.208                  Delhi         10651.000
       228   06 Jun 2027 08:40:47.800   06 Jun 2027 08:44:30.502           222.702                Novosib         27837.750
       229   06 Jun 2027 08:49:18.751   06 Jun 2027 08:52:39.612           200.861                 Moscow         25107.625
       230   06 Jun 2027 08:52:41.871   06 Jun 2027 08:56:14.642           212.771              Murmansk1         26596.375
       231   06 Jun 2027 10:19:03.496   06 Jun 2027 10:21:20.433           136.937                 Moscow         17117.125
       232   06 Jun 2027 10:21:24.286   06 Jun 2027 10:24:25.074           180.788              Murmansk1         22598.500
       233   06 Jun 2027 10:24:49.035   06 Jun 2027 10:25:22.076            33.041              Murmansk2          4130.125
       234   06 Jun 2027 10:25:50.908   06 Jun 2027 10:29:32.722           221.814                Norilsk         27726.750
       235   06 Jun 2027 10:35:47.489   06 Jun 2027 10:39:13.331           205.842                Anadyr2         25730.250
       236   06 Jun 2027 11:57:16.187   06 Jun 2027 11:59:11.293           115.106              Murmansk1         14388.250
       237   06 Jun 2027 11:59:11.293   06 Jun 2027 12:01:00.583           109.290              Murmansk2         13661.250
       238   06 Jun 2027 12:01:17.643   06 Jun 2027 12:01:26.364             8.721              Murmansk2          1090.125
       239   06 Jun 2027 12:01:48.907   06 Jun 2027 12:02:23.927            35.020              Murmansk2          4377.500
       240   06 Jun 2027 12:03:04.374   06 Jun 2027 12:03:33.516            29.142              Murmansk2          3642.750
       241   06 Jun 2027 12:03:36.436   06 Jun 2027 12:04:28.413            51.977              Murmansk1          6497.125
       242   06 Jun 2027 12:04:29.305   06 Jun 2027 12:04:53.641            24.336              Murmansk1          3042.000
       243   06 Jun 2027 12:10:04.460   06 Jun 2027 12:11:14.659            70.199                Anadyr2          8774.875
       244   06 Jun 2027 12:17:04.619   06 Jun 2027 12:17:52.875            48.256                Anadyr1          6032.000
       245   06 Jun 2027 13:48:37.390   06 Jun 2027 13:52:45.031           247.641               Magadan2         30955.125
       246   06 Jun 2027 13:56:04.764   06 Jun 2027 13:57:30.817            86.053               Magadan2         10756.625
       247   06 Jun 2027 16:16:54.049   06 Jun 2027 16:20:36.492           222.443            RioGallegos         27805.375
       248   06 Jun 2027 16:23:28.785   06 Jun 2027 16:24:04.384            35.599            RioGallegos          4449.875
       249   06 Jun 2027 17:07:33.232   06 Jun 2027 17:08:16.689            43.457                Irkutsk          5432.125
       250   06 Jun 2027 17:12:50.902   06 Jun 2027 17:14:38.907           108.005                Irkutsk         13500.625
       251   06 Jun 2027 17:20:00.362   06 Jun 2027 17:23:04.851           184.489                Sumatra         23061.125
       252   06 Jun 2027 17:23:57.199   06 Jun 2027 17:25:02.267            65.068                Sumatra          8133.500
       253   06 Jun 2027 18:41:04.673   06 Jun 2027 18:42:26.653            81.980                Novosib         10247.500
       254   06 Jun 2027 18:48:21.663   06 Jun 2027 18:51:38.761           197.098                  Delhi         24637.250
       255   06 Jun 2027 21:52:43.204   06 Jun 2027 21:52:44.585             1.381              Murmansk1           172.625
       256   06 Jun 2027 21:53:12.936   06 Jun 2027 21:54:56.806           103.870                 Moscow         12983.750
       257   06 Jun 2027 21:57:35.524   06 Jun 2027 21:58:42.223            66.699                 Moscow          8337.375
       258   06 Jun 2027 21:59:08.476   06 Jun 2027 21:59:15.107             6.631              Murmansk1           828.875
       259   06 Jun 2027 22:02:16.778   06 Jun 2027 22:02:43.578            26.800                 Moscow          3350.000
       260   06 Jun 2027 22:18:18.511   06 Jun 2027 22:19:09.943            51.432               CapeTown          6360.125
       261   07 Jun 2027 05:24:07.046   07 Jun 2027 05:25:39.430            92.384                Sumatra         11548.000
       262   07 Jun 2027 05:30:29.494   07 Jun 2027 05:30:59.490            29.996                Sumatra          3749.500
       263   07 Jun 2027 05:49:33.555   07 Jun 2027 05:51:09.583            96.028                Novosib         12003.500
       264   07 Jun 2027 05:51:17.371   07 Jun 2027 05:54:38.966           201.595                Norilsk         25199.375
       265   07 Jun 2027 05:54:53.150   07 Jun 2027 05:56:06.208            73.058              Murmansk1          9132.250
       266   07 Jun 2027 06:25:45.464   07 Jun 2027 06:27:24.773            99.309            RioGallegos         12413.625
       267   07 Jun 2027 06:28:14.383   07 Jun 2027 06:29:14.486            60.103            RioGallegos          7512.875
       268   07 Jun 2027 06:29:48.501   07 Jun 2027 06:29:52.598             4.097            RioGallegos           512.125
       269   07 Jun 2027 06:35:38.103   07 Jun 2027 06:35:45.602             7.499            RioGallegos           937.375
       270   07 Jun 2027 06:59:57.554   07 Jun 2027 07:04:20.227           262.673                Sumatra         32834.125
       271   07 Jun 2027 07:07:43.615   07 Jun 2027 07:08:07.172            23.557                  Delhi          2944.625
       272   07 Jun 2027 07:08:41.547   07 Jun 2027 07:09:54.259            72.712                  Delhi          9089.000
       273   07 Jun 2027 07:14:25.612   07 Jun 2027 07:15:11.678            46.066                Novosib          5758.250
       274   07 Jun 2027 07:15:21.723   07 Jun 2027 07:19:00.066           218.343                Irkutsk         27292.875
       275   07 Jun 2027 07:19:33.475   07 Jun 2027 07:20:42.618            69.143                 Moscow          8642.875
       276   07 Jun 2027 07:25:28.628   07 Jun 2027 07:28:15.393           166.765                 Moscow         20845.625
       277   07 Jun 2027 07:28:19.012   07 Jun 2027 07:30:09.877           110.865                Norilsk         13858.125
       278   07 Jun 2027 07:30:12.075   07 Jun 2027 07:31:16.634            64.559              Murmansk1          8069.875
       279   07 Jun 2027 07:32:08.479   07 Jun 2027 07:32:30.437            21.958              Murmansk1          2744.750
       280   07 Jun 2027 08:45:02.256   07 Jun 2027 08:48:52.297           230.041                  Delhi         28755.125
       281   07 Jun 2027 08:51:53.944   07 Jun 2027 08:52:24.550            30.606                  Delhi          3825.750
       282   07 Jun 2027 08:53:31.787   07 Jun 2027 08:56:41.578           189.791                Novosib         23723.875
       283   07 Jun 2027 09:01:33.862   07 Jun 2027 09:01:50.530            16.668                Novosib          2083.500
       284   07 Jun 2027 09:01:55.046   07 Jun 2027 09:08:15.593           380.547              Murmansk2         47568.375
       285   07 Jun 2027 10:31:35.009   07 Jun 2027 10:31:53.966            18.957              Murmansk1          2369.625
       286   07 Jun 2027 10:31:53.966   07 Jun 2027 10:34:18.003           144.037              Murmansk2         18004.625
       287   07 Jun 2027 10:36:02.857   07 Jun 2027 10:36:22.813            19.956              Murmansk2          2494.500
       288   07 Jun 2027 10:38:06.399   07 Jun 2027 10:38:55.516            49.117              Murmansk2          6139.625
       289   07 Jun 2027 10:39:16.516   07 Jun 2027 10:41:17.895           121.379              Murmansk2         15172.375
       290   07 Jun 2027 10:47:16.732   07 Jun 2027 10:52:56.659           339.927                Anadyr2         42490.875
       291   07 Jun 2027 12:09:41.496   07 Jun 2027 12:11:12.893            91.397              Murmansk1         11424.625
       292   07 Jun 2027 12:11:12.893   07 Jun 2027 12:15:02.482           229.589              Murmansk2         28698.625
       293   07 Jun 2027 12:15:25.012   07 Jun 2027 12:16:23.900            58.888              Murmansk2          7361.000
       294   07 Jun 2027 12:16:47.845   07 Jun 2027 12:17:48.591            60.746              Murmansk2          7593.250
       295   07 Jun 2027 12:24:00.566   07 Jun 2027 12:26:34.711           154.145                Anadyr1         19268.125
       296   07 Jun 2027 14:00:30.817   07 Jun 2027 14:02:56.300           145.483               Magadan1         18185.375
       297   07 Jun 2027 14:03:06.036   07 Jun 2027 14:04:46.578           100.542               Magadan2         12567.750
       298   07 Jun 2027 16:28:34.020   07 Jun 2027 16:34:55.372           381.352            RioGallegos         47669.000
       299   07 Jun 2027 17:18:33.725   07 Jun 2027 17:19:46.105            72.380                Irkutsk          9047.500
       300   07 Jun 2027 17:29:55.594   07 Jun 2027 17:33:55.599           240.005                Sumatra         30000.625
       301   07 Jun 2027 18:51:41.053   07 Jun 2027 18:53:31.102           110.049                Novosib         13756.125
       302   07 Jun 2027 18:59:50.718   07 Jun 2027 19:03:30.154           219.436                  Delhi         27429.500
       303   07 Jun 2027 20:31:50.695   07 Jun 2027 20:33:42.312           111.617                 Moscow         13952.125
       304   07 Jun 2027 22:08:00.694   07 Jun 2027 22:09:34.795            94.101                 Moscow          7105.875
       305   08 Jun 2027 04:21:09.590   08 Jun 2027 04:21:34.854            25.264                Irkutsk          3158.000
       306   08 Jun 2027 05:35:46.027   08 Jun 2027 05:37:36.476           110.449                Sumatra         13806.125
       307   08 Jun 2027 05:39:29.100   08 Jun 2027 05:39:56.847            27.747                Sumatra          3468.375
       308   08 Jun 2027 05:50:28.065   08 Jun 2027 05:51:23.257            55.192                  Delhi          6899.000
       309   08 Jun 2027 06:01:35.034   08 Jun 2027 06:03:12.938            97.904                Novosib         12238.000
       310   08 Jun 2027 06:03:17.254   08 Jun 2027 06:06:32.063           194.809                Norilsk         24351.125
       311   08 Jun 2027 06:06:55.097   08 Jun 2027 06:09:08.707           133.610              Murmansk1         16701.250
       312   08 Jun 2027 06:38:18.175   08 Jun 2027 06:41:18.969           180.794            RioGallegos         22599.250
       313   08 Jun 2027 06:42:10.237   08 Jun 2027 06:42:11.461             1.224            RioGallegos           153.000
       314   08 Jun 2027 06:45:34.250   08 Jun 2027 06:46:15.232            40.982            RioGallegos          5122.750
       315   08 Jun 2027 07:12:30.198   08 Jun 2027 07:16:31.400           241.202                Sumatra         30150.250
       316   08 Jun 2027 07:20:39.660   08 Jun 2027 07:21:35.273            55.613                  Delhi          6951.625
       317   08 Jun 2027 07:26:36.191   08 Jun 2027 07:27:55.970            79.779                Novosib          9972.375
       318   08 Jun 2027 07:28:09.659   08 Jun 2027 07:33:30.958           321.299                Irkutsk         40162.375
       319   08 Jun 2027 07:37:21.211   08 Jun 2027 07:40:22.908           181.697                 Moscow         22712.125
       320   08 Jun 2027 07:40:32.225   08 Jun 2027 07:43:41.175           188.950              Murmansk2         23618.750
       321   08 Jun 2027 07:44:09.369   08 Jun 2027 07:44:29.200            19.831              Murmansk1          2478.875
       322   08 Jun 2027 08:57:52.638   08 Jun 2027 08:58:09.883            17.245                  Delhi          2155.625
       323   08 Jun 2027 08:59:16.212   08 Jun 2027 09:01:14.391           118.179                  Delhi         14772.375
       324   08 Jun 2027 09:06:25.701   08 Jun 2027 09:08:45.401           139.700                Novosib         17462.500
       325   08 Jun 2027 09:13:02.299   08 Jun 2027 09:13:19.939            17.640                Novosib          2205.000
       326   08 Jun 2027 09:14:04.757   08 Jun 2027 09:18:31.707           266.950                Norilsk         33368.750
       327   08 Jun 2027 09:19:20.328   08 Jun 2027 09:20:16.730            56.402              Murmansk1          7050.250
       328   08 Jun 2027 10:43:15.418   08 Jun 2027 10:43:46.512            31.094                 Moscow          3886.750
       329   08 Jun 2027 10:43:54.831   08 Jun 2027 10:48:28.834           274.003              Murmansk2         34250.375
       330   08 Jun 2027 10:49:16.002   08 Jun 2027 10:50:04.917            48.915              Murmansk1          6114.375
       331   08 Jun 2027 10:52:05.450   08 Jun 2027 10:53:31.142            85.692              Murmansk1         10711.500
       332   08 Jun 2027 10:58:58.116   08 Jun 2027 11:05:52.488           414.372                Anadyr2         51796.500
       333   08 Jun 2027 12:20:50.182   08 Jun 2027 12:23:03.459           133.277                 Moscow         16659.625
       334   08 Jun 2027 12:34:01.871   08 Jun 2027 12:36:01.402           119.531                Anadyr2         14941.375
       335   08 Jun 2027 12:37:12.258   08 Jun 2027 12:38:35.979            83.721                Anadyr2         10465.125
       336   08 Jun 2027 12:40:11.886   08 Jun 2027 12:40:39.891            28.005               Magadan1          3500.625
       337   08 Jun 2027 14:12:25.899   08 Jun 2027 14:14:21.579           115.680               Magadan2         14460.000
       338   08 Jun 2027 14:15:12.795   08 Jun 2027 14:16:48.397            95.602               Magadan1         11950.250
       339   08 Jun 2027 16:40:19.209   08 Jun 2027 16:46:18.482           359.273            RioGallegos         44909.125
       340   08 Jun 2027 17:29:38.509   08 Jun 2027 17:32:11.517           153.008                Irkutsk         19126.000
       341   08 Jun 2027 17:32:59.065   08 Jun 2027 17:34:34.194            95.129                Novosib         11891.125
       342   08 Jun 2027 17:41:38.187   08 Jun 2027 17:43:24.924           106.737                Sumatra         13342.125
       343   08 Jun 2027 17:45:59.502   08 Jun 2027 17:47:49.073           109.571                Sumatra         13696.375
       344   08 Jun 2027 19:11:28.376   08 Jun 2027 19:12:51.680            83.304                  Delhi         10413.000
       345   08 Jun 2027 19:13:35.302   08 Jun 2027 19:15:25.345           110.043                  Delhi         13755.375
       346   08 Jun 2027 20:41:47.422   08 Jun 2027 20:42:26.091            38.669              Murmansk1          4833.625
       347   08 Jun 2027 20:42:59.210   08 Jun 2027 20:45:41.539           162.329                 Moscow         11613.000
       348   09 Jun 2027 04:37:49.145   09 Jun 2027 04:41:31.809           222.664                Norilsk         27833.000
       349   09 Jun 2027 05:47:31.954   09 Jun 2027 05:47:52.636            20.682                Sumatra          2585.250
       350   09 Jun 2027 05:48:39.924   09 Jun 2027 05:50:18.504            98.580                Sumatra         12322.500
       351   09 Jun 2027 05:59:16.856   09 Jun 2027 06:00:26.667            69.811                  Delhi          8726.375
       352   09 Jun 2027 06:13:37.274   09 Jun 2027 06:18:12.860           275.586                Norilsk         34448.250
       353   09 Jun 2027 06:18:20.844   09 Jun 2027 06:18:51.059            30.215              Murmansk2          3776.875
       354   09 Jun 2027 06:18:51.059   09 Jun 2027 06:20:44.092           113.033              Murmansk1         14129.125
       355   09 Jun 2027 06:50:58.032   09 Jun 2027 06:54:34.981           216.949            RioGallegos         27118.625
       356   09 Jun 2027 07:25:17.335   09 Jun 2027 07:28:49.264           211.929                Sumatra         26491.125
       357   09 Jun 2027 07:31:31.339   09 Jun 2027 07:33:07.879            96.540                  Delhi         12067.500
       358   09 Jun 2027 07:38:50.163   09 Jun 2027 07:41:55.711           185.548                Novosib         23193.500
       359   09 Jun 2027 07:42:49.782   09 Jun 2027 07:43:29.670            39.888                 Moscow          4986.000
       360   09 Jun 2027 07:44:06.352   09 Jun 2027 07:44:11.711             5.359                Irkutsk           669.875
       361   09 Jun 2027 07:44:16.180   09 Jun 2027 07:44:32.342            16.162              Murmansk2          2020.250
       362   09 Jun 2027 07:44:52.466   09 Jun 2027 07:45:01.785             9.319                Norilsk          1164.875
       363   09 Jun 2027 07:49:31.068   09 Jun 2027 07:49:45.204            14.136                Norilsk          1767.000
       364   09 Jun 2027 07:49:51.065   09 Jun 2027 07:51:01.958            70.893                Novosib          8861.625
       365   09 Jun 2027 07:51:26.572   09 Jun 2027 07:54:02.057           155.485              Murmansk1         19435.625
       366   09 Jun 2027 09:11:06.778   09 Jun 2027 09:13:44.698           157.920                  Delhi         19740.000
       367   09 Jun 2027 09:16:36.561   09 Jun 2027 09:17:00.704            24.143                  Delhi          3017.875
       368   09 Jun 2027 09:26:05.342   09 Jun 2027 09:30:30.069           264.727                Norilsk         33090.875
       369   09 Jun 2027 09:31:10.998   09 Jun 2027 09:32:18.018            67.020              Murmansk1          8377.500
       370   09 Jun 2027 10:31:44.700   09 Jun 2027 10:39:21.500           456.800               CapeTown         57100.000
       371   09 Jun 2027 10:52:34.597   09 Jun 2027 11:02:25.346           590.749                 Moscow         73843.625
       372   09 Jun 2027 11:02:31.865   09 Jun 2027 11:08:16.038           344.173              Murmansk1         43021.625
       373   09 Jun 2027 11:10:45.444   09 Jun 2027 11:16:41.893           356.449                Anadyr2         44556.125
       374   09 Jun 2027 11:17:37.667   09 Jun 2027 11:18:39.883            62.216                Anadyr1          7777.000
       375   09 Jun 2027 12:05:21.280   09 Jun 2027 12:07:05.655           104.375               CapeTown         13046.875
       376   09 Jun 2027 12:08:34.920   09 Jun 2027 12:10:11.057            96.137               CapeTown         12017.125
       377   09 Jun 2027 12:12:42.694   09 Jun 2027 12:13:19.418            36.724               CapeTown          4590.500
       378   09 Jun 2027 12:34:30.303   09 Jun 2027 12:36:02.616            92.313                 Moscow         11539.125
       379   09 Jun 2027 12:50:26.672   09 Jun 2027 12:52:57.994           151.322               Magadan1         18915.250
       380   09 Jun 2027 14:24:22.290   09 Jun 2027 14:25:59.499            97.209               Magadan2         12151.125
       381   09 Jun 2027 14:27:16.961   09 Jun 2027 14:28:50.439            93.478               Magadan1         11684.750
       382   09 Jun 2027 16:07:22.675   09 Jun 2027 16:09:39.919           137.244                Irkutsk         17155.500
       383   09 Jun 2027 16:52:08.075   09 Jun 2027 16:54:41.128           153.053            RioGallegos         19131.625
       384   09 Jun 2027 16:56:19.426   09 Jun 2027 16:56:28.909             9.483            RioGallegos          1185.375
       385   09 Jun 2027 17:39:45.565   09 Jun 2027 17:42:01.339           135.774                Irkutsk         16971.750
       386   09 Jun 2027 17:44:10.729   09 Jun 2027 17:44:47.237            36.508                Novosib          4563.500
       387   09 Jun 2027 17:53:27.242   09 Jun 2027 17:54:27.718            60.476                Sumatra          7559.500
       388   09 Jun 2027 17:56:23.917   09 Jun 2027 17:57:36.118            72.201                Sumatra          9025.125
       389   09 Jun 2027 19:23:12.270   09 Jun 2027 19:27:24.001           251.731                  Delhi         31466.375
       390   09 Jun 2027 20:50:38.344   09 Jun 2027 20:51:36.544            58.200              Murmansk1          7275.000
       391   09 Jun 2027 20:54:29.191   09 Jun 2027 20:55:25.380            56.189                 Moscow          7023.625
       392   09 Jun 2027 22:54:11.892   09 Jun 2027 22:55:30.534            78.642               CapeTown          9830.250
       393   10 Jun 2027 03:12:10.780   10 Jun 2027 03:13:09.104            58.324                Novosib          7290.500
       394   10 Jun 2027 03:13:19.816   10 Jun 2027 03:13:57.542            37.726               Magadan2          4715.750
       395   10 Jun 2027 03:14:02.430   10 Jun 2027 03:15:56.257           113.827              Murmansk2         14228.375
       396   10 Jun 2027 04:49:49.254   10 Jun 2027 04:54:48.711           299.457                Norilsk         37432.125
       397   10 Jun 2027 04:54:59.982   10 Jun 2027 04:58:10.201           190.219              Murmansk1         23777.375
       398   10 Jun 2027 05:24:31.518   10 Jun 2027 05:28:33.357           241.839            RioGallegos         30229.875
       399   10 Jun 2027 05:28:51.889   10 Jun 2027 05:28:59.435             7.546            RioGallegos           943.250
       400   10 Jun 2027 05:29:30.675   10 Jun 2027 05:29:58.196            27.521            RioGallegos          3440.125
       401   10 Jun 2027 05:31:28.542   10 Jun 2027 05:32:47.558            79.016            RioGallegos          9877.000
       402   10 Jun 2027 05:33:24.549   10 Jun 2027 05:33:58.998            34.449            RioGallegos          4306.125
       403   10 Jun 2027 05:59:23.985   10 Jun 2027 06:00:49.677            85.692                Sumatra         10711.500
       404   10 Jun 2027 06:02:27.823   10 Jun 2027 06:02:57.291            29.468                Sumatra          3683.500
       405   10 Jun 2027 06:06:47.783   10 Jun 2027 06:08:56.251           128.468                Sumatra         16058.500
       406   10 Jun 2027 06:10:18.237   10 Jun 2027 06:12:42.926           144.689                  Delhi         18086.125
       407   10 Jun 2027 06:13:19.430   10 Jun 2027 06:17:59.153           279.723                Irkutsk         34965.375
       408   10 Jun 2027 06:25:40.535   10 Jun 2027 06:31:59.222           378.687              Murmansk1         47335.875
       409   10 Jun 2027 07:03:47.303   10 Jun 2027 07:07:03.796           196.493            RioGallegos         24561.625
       410   10 Jun 2027 07:11:16.083   10 Jun 2027 07:11:37.888            21.805            RioGallegos          2725.625
       411   10 Jun 2027 07:38:33.043   10 Jun 2027 07:41:15.285           162.242                Sumatra         20280.250
       412   10 Jun 2027 07:42:30.870   10 Jun 2027 07:43:23.075            52.205                Sumatra          6525.625
       413   10 Jun 2027 07:46:25.784   10 Jun 2027 07:46:37.652            11.868                  Delhi          1483.500
       414   10 Jun 2027 07:51:07.766   10 Jun 2027 07:57:21.472           373.706                Novosib         46713.250
       415   10 Jun 2027 08:01:16.763   10 Jun 2027 08:04:35.645           198.882                 Moscow         24860.250
       416   10 Jun 2027 08:04:50.369   10 Jun 2027 08:06:25.346            94.977              Murmansk1         11872.125
       417   10 Jun 2027 08:08:11.725   10 Jun 2027 08:08:27.940            16.215              Murmansk2          2026.875
       418   10 Jun 2027 09:27:59.984   10 Jun 2027 09:29:44.893           104.909                 Moscow         13113.625
       419   10 Jun 2027 09:38:05.468   10 Jun 2027 09:42:27.263           261.795                Norilsk         32724.375
       420   10 Jun 2027 09:43:00.858   10 Jun 2027 09:44:19.440            78.582              Murmansk2          9822.750
       421   10 Jun 2027 10:43:03.527   10 Jun 2027 10:52:14.343           550.816               CapeTown         68852.000
       422   10 Jun 2027 11:04:55.307   10 Jun 2027 11:14:49.427           594.120                 Moscow         74265.000
       423   10 Jun 2027 11:14:53.407   10 Jun 2027 11:20:17.468           324.061              Murmansk2         40507.625
       424   10 Jun 2027 11:22:36.395   10 Jun 2027 11:31:21.209           524.814                Anadyr1         65601.750
       425   10 Jun 2027 12:17:23.023   10 Jun 2027 12:22:27.095           304.072               CapeTown         38009.000
       426   10 Jun 2027 12:47:13.365   10 Jun 2027 12:49:53.587           160.222              Murmansk1         20027.750
       427   10 Jun 2027 13:01:50.731   10 Jun 2027 13:07:56.853           366.122               Magadan1         45765.250
       428   10 Jun 2027 16:18:01.034   10 Jun 2027 16:23:29.168           328.134                Irkutsk         41016.750
       429   10 Jun 2027 17:52:53.562   10 Jun 2027 17:56:10.895           197.333                Novosib         24666.625
       430   10 Jun 2027 19:35:01.082   10 Jun 2027 19:37:06.579           125.497                  Delhi         15687.125
       431   10 Jun 2027 19:37:39.638   10 Jun 2027 19:38:58.583            78.945                  Delhi          9868.125
       432   10 Jun 2027 21:01:54.354   10 Jun 2027 21:02:31.191            36.837              Murmansk2          4604.625
       433   10 Jun 2027 21:06:08.606   10 Jun 2027 21:09:42.261           213.655                 Moscow         26706.875
       434   11 Jun 2027 03:24:36.268   11 Jun 2027 03:24:56.862            20.594                Norilsk          2574.250
       435   11 Jun 2027 03:25:53.687   11 Jun 2027 03:25:55.869             2.182               Magadan2           272.750
       436   11 Jun 2027 03:25:56.819   11 Jun 2027 03:31:09.143           312.324                Norilsk         39040.500
       437   11 Jun 2027 03:31:24.824   11 Jun 2027 03:35:47.396           262.572              Murmansk1         32821.500
       438   11 Jun 2027 04:01:13.494   11 Jun 2027 04:03:31.371           137.877            RioGallegos         17234.625
       439   11 Jun 2027 04:40:05.037   11 Jun 2027 04:40:21.538            16.501                Sumatra          2062.625
       440   11 Jun 2027 04:42:16.569   11 Jun 2027 04:42:56.261            39.692                Sumatra          4961.500
       441   11 Jun 2027 05:01:51.307   11 Jun 2027 05:06:49.240           297.933                Norilsk         37241.625
       442   11 Jun 2027 05:07:02.087   11 Jun 2027 05:10:00.544           178.457              Murmansk2         22307.125
       443   11 Jun 2027 05:36:41.018   11 Jun 2027 05:41:30.154           289.136            RioGallegos         36142.000
       444   11 Jun 2027 05:44:48.901   11 Jun 2027 05:45:30.859            41.958            RioGallegos          5244.750
       445   11 Jun 2027 06:11:21.697   11 Jun 2027 06:13:50.347           148.650                Sumatra         18581.250
       446   11 Jun 2027 06:21:33.815   11 Jun 2027 06:24:04.313           150.498                  Delhi         18812.250
       447   11 Jun 2027 06:25:36.878   11 Jun 2027 06:30:06.668           269.790                Irkutsk         33723.750
       448   11 Jun 2027 06:37:09.520   11 Jun 2027 06:37:29.129            19.609              Murmansk2          2451.125
       449   11 Jun 2027 06:37:55.791   11 Jun 2027 06:39:45.608           109.817                 Moscow         13727.125
       450   11 Jun 2027 06:39:46.405   11 Jun 2027 06:44:54.958           308.553              Murmansk1         38569.125
       451   11 Jun 2027 07:16:50.815   11 Jun 2027 07:19:38.864           168.049            RioGallegos         21006.125
       452   11 Jun 2027 07:22:37.644   11 Jun 2027 07:23:02.726            25.082            RioGallegos          3135.250
       453   11 Jun 2027 07:55:40.429   11 Jun 2027 08:01:35.374           354.945                  Delhi         44368.125
       454   11 Jun 2027 08:03:29.318   11 Jun 2027 08:08:36.653           307.335                Novosib         38416.875
       455   11 Jun 2027 08:08:50.520   11 Jun 2027 08:09:33.116            42.596                Norilsk          5324.500
       456   11 Jun 2027 08:13:22.839   11 Jun 2027 08:18:44.930           322.091                Norilsk         40261.375
       457   11 Jun 2027 08:18:45.455   11 Jun 2027 08:20:27.848           102.393              Murmansk2         12799.125
       458   11 Jun 2027 09:49:04.251   11 Jun 2027 09:54:22.827           318.576                Norilsk         39822.000
       459   11 Jun 2027 09:54:50.015   11 Jun 2027 09:56:20.964            90.949              Murmansk1         11368.625
       460   11 Jun 2027 10:54:34.746   11 Jun 2027 11:03:52.081           557.335               CapeTown         69666.875
       461   11 Jun 2027 11:17:20.287   11 Jun 2027 11:27:18.219           597.932                 Moscow         74741.500
       462   11 Jun 2027 11:27:20.366   11 Jun 2027 11:32:18.733           298.367              Murmansk1         37295.875
       463   11 Jun 2027 11:34:29.801   11 Jun 2027 11:40:18.930           349.129                Anadyr1         43641.125
       464   11 Jun 2027 11:41:56.582   11 Jun 2027 11:43:57.694           121.112                Anadyr1         15139.000
       465   11 Jun 2027 12:36:33.379   11 Jun 2027 12:37:40.175            66.796               CapeTown          8349.500
       466   11 Jun 2027 12:59:50.093   11 Jun 2027 13:00:31.308            41.215              Murmansk2          5151.875
       467   11 Jun 2027 13:13:28.110   11 Jun 2027 13:16:57.419           209.309               Magadan2         26163.625
       468   11 Jun 2027 13:20:06.559   11 Jun 2027 13:21:11.293            64.734               Magadan2          8091.750
       469   11 Jun 2027 15:44:18.733   11 Jun 2027 15:45:01.996            43.263            RioGallegos          5407.875
       470   11 Jun 2027 16:29:21.904   11 Jun 2027 16:33:47.070           265.166                Irkutsk         33145.750
       471   11 Jun 2027 16:35:34.587   11 Jun 2027 16:36:43.811            69.224                Irkutsk          8653.000
       472   11 Jun 2027 16:45:09.241   11 Jun 2027 16:46:52.625           103.384                Sumatra         12923.000
       473   11 Jun 2027 16:48:31.135   11 Jun 2027 16:50:50.512           139.377                Sumatra         17422.125
       474   11 Jun 2027 18:06:14.223   11 Jun 2027 18:08:11.740           117.517                Novosib         14689.625
       475   11 Jun 2027 21:13:53.613   11 Jun 2027 21:15:26.868            93.255              Murmansk1         11656.875
       476   11 Jun 2027 21:17:53.604   11 Jun 2027 21:19:55.060           121.456                 Moscow         15182.000
       477   11 Jun 2027 21:20:08.704   11 Jun 2027 21:21:43.600            94.896                 Moscow         11862.000
       478   11 Jun 2027 21:25:01.874   11 Jun 2027 21:26:29.883            88.009                 Moscow         11001.125
       479   11 Jun 2027 21:48:10.579   11 Jun 2027 21:48:46.245            35.666               CapeTown          4458.250
       480   12 Jun 2027 03:36:45.493   12 Jun 2027 03:37:07.443            21.950                Norilsk          2743.750
       481   12 Jun 2027 03:37:58.023   12 Jun 2027 03:43:07.065           309.042                Norilsk         38630.250
       482   12 Jun 2027 03:43:07.370   12 Jun 2027 03:45:57.149           169.779              Murmansk1         21222.375
