uniorb/output/strategy_4/Drop/Drop_KinoSat_112004.txt

KinoSat_112004
-------------------------
    Access    *     Start Time (UTCG)     *     Stop Time (UTCG)  *   Duration (s)        *       Station  *  Data (Mbytes)
         1   01 Jun 2027 03:07:21.090   01 Jun 2027 03:07:42.902            21.812               Magadan2           681.625
         2   01 Jun 2027 03:07:58.223   01 Jun 2027 03:08:41.671            43.448               Magadan2          1357.750
         3   01 Jun 2027 03:08:41.859   01 Jun 2027 03:09:05.916            24.057                Irkutsk           751.781
         4   01 Jun 2027 03:09:15.695   01 Jun 2027 03:10:20.492            64.797                Irkutsk          2024.906
         5   01 Jun 2027 03:10:30.815   01 Jun 2027 03:11:08.389            37.574                Norilsk          1174.187
         6   01 Jun 2027 03:11:16.529   01 Jun 2027 03:12:02.781            46.252                Novosib          1445.375
         7   01 Jun 2027 03:12:07.537   01 Jun 2027 03:12:13.803             6.266                Norilsk           195.813
         8   01 Jun 2027 03:12:14.092   01 Jun 2027 03:12:36.341            22.249                Irkutsk           695.281
         9   01 Jun 2027 03:12:48.451   01 Jun 2027 03:14:18.940            90.489                Norilsk          2827.781
        10   01 Jun 2027 03:14:47.886   01 Jun 2027 03:16:18.133            90.247                  Delhi          2820.219
        11   01 Jun 2027 03:20:50.098   01 Jun 2027 03:21:08.849            18.751                  Delhi           585.969
        12   01 Jun 2027 03:56:14.464   01 Jun 2027 03:57:12.160            57.696            RioGallegos          1803.000
        13   01 Jun 2027 03:58:00.309   01 Jun 2027 04:00:01.085           120.776            RioGallegos          3774.250
        14   01 Jun 2027 04:45:24.001   01 Jun 2027 04:46:09.682            45.681                Norilsk          1427.531
        15   01 Jun 2027 04:46:27.377   01 Jun 2027 04:48:06.159            98.782                Novosib          3086.937
        16   01 Jun 2027 04:48:18.692   01 Jun 2027 04:49:45.213            86.521                Novosib          2703.781
        17   01 Jun 2027 04:49:51.921   01 Jun 2027 04:50:20.620            28.699                Irkutsk           896.844
        18   01 Jun 2027 04:50:24.695   01 Jun 2027 04:50:40.111            15.416              Murmansk2           481.750
        19   01 Jun 2027 04:50:44.199   01 Jun 2027 04:56:50.487           366.288                  Delhi         11446.500
        20   01 Jun 2027 06:24:17.861   01 Jun 2027 06:24:37.607            19.746                Novosib           617.062
        21   01 Jun 2027 06:24:40.637   01 Jun 2027 06:25:17.280            36.643                 Moscow          1145.094
        22   01 Jun 2027 06:25:24.808   01 Jun 2027 06:25:58.655            33.847                Norilsk          1057.719
        23   01 Jun 2027 06:26:02.298   01 Jun 2027 06:26:37.166            34.868                Novosib          1089.625
        24   01 Jun 2027 06:27:03.226   01 Jun 2027 06:29:12.255           129.029              Murmansk2          4032.156
        25   01 Jun 2027 06:29:27.384   01 Jun 2027 06:31:34.789           127.405                 Moscow          3981.406
        26   01 Jun 2027 06:43:48.046   01 Jun 2027 06:47:45.232           237.186               CapeTown          7412.063
        27   01 Jun 2027 06:50:35.290   01 Jun 2027 06:52:12.801            97.511               CapeTown          3047.219
        28   01 Jun 2027 07:47:05.865   01 Jun 2027 07:47:31.040            25.175                Anadyr1           786.719
        29   01 Jun 2027 07:47:44.931   01 Jun 2027 07:48:44.326            59.395                Anadyr2          1856.094
        30   01 Jun 2027 07:48:44.326   01 Jun 2027 07:50:05.024            80.698                Anadyr1          2521.812
        31   01 Jun 2027 07:50:29.926   01 Jun 2027 07:51:35.482            65.556                Anadyr1          2048.625
        32   01 Jun 2027 08:28:33.252   01 Jun 2027 08:30:34.646           121.394               CapeTown          3793.562
        33   01 Jun 2027 09:21:09.079   01 Jun 2027 09:22:29.747            80.668                Anadyr2          2520.875
        34   01 Jun 2027 09:24:19.271   01 Jun 2027 09:25:26.894            67.623                Anadyr1          2113.219
        35   01 Jun 2027 09:25:26.894   01 Jun 2027 09:28:33.025           186.131                Anadyr2          5816.594
        36   01 Jun 2027 10:56:18.785   01 Jun 2027 10:57:45.829            87.044               Magadan2          2720.125
        37   01 Jun 2027 10:57:54.323   01 Jun 2027 11:04:13.243           378.920                Anadyr1         11841.250
        38   01 Jun 2027 12:33:42.714   01 Jun 2027 12:38:57.385           314.671               Magadan2          9833.469
        39   01 Jun 2027 14:56:50.072   01 Jun 2027 15:01:16.037           265.965            RioGallegos          8311.406
        40   01 Jun 2027 17:27:14.801   01 Jun 2027 17:29:37.424           142.623                Norilsk          4456.969
        41   01 Jun 2027 20:39:11.688   01 Jun 2027 20:41:19.671           127.983              Murmansk2          3999.469
        42   01 Jun 2027 20:41:34.996   01 Jun 2027 20:42:22.990            47.994              Murmansk1          1499.813
        43   01 Jun 2027 20:43:49.835   01 Jun 2027 20:46:52.914           183.079              Murmansk2          5721.219
        44   02 Jun 2027 00:00:40.811   02 Jun 2027 00:01:50.787            69.976                Anadyr1          2186.750
        45   02 Jun 2027 00:02:37.392   02 Jun 2027 00:02:37.474             0.082                Anadyr2             2.563
        46   02 Jun 2027 00:02:46.682   02 Jun 2027 00:04:19.385            92.703                Norilsk          2896.969
        47   02 Jun 2027 00:05:11.058   02 Jun 2027 00:05:29.427            18.369               Magadan1           574.031
        48   02 Jun 2027 00:06:30.287   02 Jun 2027 00:06:36.611             6.324               Magadan2           197.625
        49   02 Jun 2027 00:06:57.121   02 Jun 2027 00:06:58.679             1.558               Magadan1            48.687
        50   02 Jun 2027 00:07:39.618   02 Jun 2027 00:08:09.761            30.143               Magadan2           941.969
        51   02 Jun 2027 00:09:43.577   02 Jun 2027 00:10:12.378            28.801                Irkutsk           900.031
        52   02 Jun 2027 00:22:58.790   02 Jun 2027 00:25:07.265           128.475                Sumatra          4014.844
        53   02 Jun 2027 00:30:58.575   02 Jun 2027 00:31:06.697             8.122                Sumatra           253.813
        54   02 Jun 2027 00:54:41.018   02 Jun 2027 00:56:22.668           101.650            RioGallegos          3176.562
        55   02 Jun 2027 01:01:40.422   02 Jun 2027 01:01:54.393            13.971            RioGallegos           436.594
        56   02 Jun 2027 01:35:59.981   02 Jun 2027 01:36:14.977            14.996                Anadyr1           468.625
        57   02 Jun 2027 01:36:51.022   02 Jun 2027 01:37:31.358            40.336                Anadyr1          1260.500
        58   02 Jun 2027 01:38:07.876   02 Jun 2027 01:38:24.479            16.603                Anadyr1           518.844
        59   02 Jun 2027 01:38:32.690   02 Jun 2027 01:40:36.645           123.955                Norilsk          3873.594
        60   02 Jun 2027 01:40:54.487   02 Jun 2027 01:41:20.872            26.385               Magadan2           824.531
        61   02 Jun 2027 01:42:17.615   02 Jun 2027 01:42:31.423            13.808               Magadan1           431.500
        62   02 Jun 2027 01:43:11.655   02 Jun 2027 01:44:57.252           105.597                Novosib          3299.906
        63   02 Jun 2027 01:45:37.885   02 Jun 2027 01:46:06.547            28.662                Novosib           895.688
        64   02 Jun 2027 01:46:10.960   02 Jun 2027 01:46:59.164            48.204                Novosib          1506.375
        65   02 Jun 2027 01:53:37.028   02 Jun 2027 01:53:46.929             9.901                  Delhi           309.406
        66   02 Jun 2027 01:53:51.063   02 Jun 2027 01:54:45.535            54.472                  Delhi          1702.250
        67   02 Jun 2027 01:56:45.725   02 Jun 2027 01:59:20.056           154.331                Sumatra          4822.844
        68   02 Jun 2027 02:04:50.050   02 Jun 2027 02:06:03.138            73.088                Sumatra          2284.000
        69   02 Jun 2027 03:18:59.795   02 Jun 2027 03:20:41.743           101.948               Magadan2          3185.875
        70   02 Jun 2027 03:20:41.743   02 Jun 2027 03:20:49.469             7.726               Magadan1           241.437
        71   02 Jun 2027 03:21:29.641   02 Jun 2027 03:22:44.635            74.994                Irkutsk          2343.562
        72   02 Jun 2027 03:22:58.240   02 Jun 2027 03:23:51.573            53.333                Irkutsk          1666.656
        73   02 Jun 2027 03:25:43.122   02 Jun 2027 03:31:07.387           324.265                  Delhi         10133.281
        74   02 Jun 2027 03:32:41.448   02 Jun 2027 03:35:17.154           155.706                  Delhi          4865.813
        75   02 Jun 2027 04:07:34.422   02 Jun 2027 04:12:38.968           304.546            RioGallegos          9517.063
        76   02 Jun 2027 04:13:09.830   02 Jun 2027 04:13:53.354            43.524            RioGallegos          1360.125
        77   02 Jun 2027 04:58:19.212   02 Jun 2027 04:58:49.921            30.709                Irkutsk           959.656
        78   02 Jun 2027 04:59:09.252   02 Jun 2027 05:01:29.674           140.422                Irkutsk          4388.188
        79   02 Jun 2027 05:03:19.422   02 Jun 2027 05:11:10.502           471.080                  Delhi         14721.250
        80   02 Jun 2027 06:37:48.691   02 Jun 2027 06:37:57.348             8.657                Novosib           270.531
        81   02 Jun 2027 06:42:51.535   02 Jun 2027 06:43:39.574            48.039                 Moscow          1501.219
        82   02 Jun 2027 07:59:08.303   02 Jun 2027 07:59:22.752            14.449               Magadan2           451.531
        83   02 Jun 2027 07:59:46.488   02 Jun 2027 08:02:08.986           142.498                Anadyr2          4453.062
        84   02 Jun 2027 09:35:45.697   02 Jun 2027 09:35:51.775             6.078                Anadyr2           189.938
        85   02 Jun 2027 09:36:56.802   02 Jun 2027 09:37:44.255            47.453               Magadan2          1482.906
        86   02 Jun 2027 09:39:12.111   02 Jun 2027 09:40:24.061            71.950               Magadan1          2248.438
        87   02 Jun 2027 10:24:31.608   02 Jun 2027 10:25:00.356            28.748            RioGallegos           898.375
        88   02 Jun 2027 11:07:59.391   02 Jun 2027 11:08:02.736             3.345               Magadan2           104.531
        89   02 Jun 2027 11:10:17.014   02 Jun 2027 11:10:46.625            29.611               Magadan2           925.344
        90   02 Jun 2027 11:10:53.573   02 Jun 2027 11:11:29.144            35.571               Magadan1          1111.594
        91   02 Jun 2027 11:12:33.837   02 Jun 2027 11:12:33.962             0.125                Norilsk             3.906
        92   02 Jun 2027 11:13:00.403   02 Jun 2027 11:13:01.325             0.922                Irkutsk            28.813
        93   02 Jun 2027 11:13:24.375   02 Jun 2027 11:13:51.254            26.879                Norilsk           839.969
        94   02 Jun 2027 11:14:01.517   02 Jun 2027 11:15:50.345           108.828                Anadyr2          3400.875
        95   02 Jun 2027 11:16:13.013   02 Jun 2027 11:16:14.138             1.125                Norilsk            35.156
        96   02 Jun 2027 11:16:31.904   02 Jun 2027 11:17:43.140            71.236                Norilsk          2226.125
        97   02 Jun 2027 11:51:44.201   02 Jun 2027 11:52:55.028            70.827            RioGallegos          2213.344
        98   02 Jun 2027 12:37:14.659   02 Jun 2027 12:37:18.366             3.707                Sumatra           115.844
        99   02 Jun 2027 12:39:54.916   02 Jun 2027 12:42:45.502           170.586                Irkutsk          5330.813
       100   02 Jun 2027 12:44:50.404   02 Jun 2027 12:45:25.298            34.894                Norilsk          1090.438
       101   02 Jun 2027 12:47:22.762   02 Jun 2027 12:49:56.933           154.171               Magadan1          4817.844
       102   02 Jun 2027 13:30:40.700   02 Jun 2027 13:32:57.255           136.555            RioGallegos          4267.344
       103   02 Jun 2027 14:02:25.213   02 Jun 2027 14:02:39.205            13.992                Sumatra           437.250
       104   02 Jun 2027 14:05:16.184   02 Jun 2027 14:07:10.690           114.506                Sumatra          3578.313
       105   02 Jun 2027 14:17:12.354   02 Jun 2027 14:18:29.372            77.018                Irkutsk          2406.812
       106   02 Jun 2027 14:22:03.765   02 Jun 2027 14:22:38.848            35.083                Irkutsk          1096.344
       107   02 Jun 2027 14:24:47.652   02 Jun 2027 14:26:42.019           114.367                Irkutsk          3573.969
       108   02 Jun 2027 15:47:02.184   02 Jun 2027 15:48:31.111            88.927                  Delhi          2778.969
       109   02 Jun 2027 15:52:20.276   02 Jun 2027 15:52:21.336             1.060                  Delhi            33.125
       110   02 Jun 2027 15:55:12.086   02 Jun 2027 15:56:54.787           102.701                Novosib          3209.406
       111   02 Jun 2027 15:59:06.395   02 Jun 2027 16:00:06.784            60.389                Norilsk          1887.156
       112   02 Jun 2027 16:00:36.498   02 Jun 2027 16:00:50.663            14.165                Novosib           442.656
       113   02 Jun 2027 16:02:01.410   02 Jun 2027 16:05:14.365           192.955                Novosib          6029.844
       114   02 Jun 2027 17:34:11.201   02 Jun 2027 17:34:32.896            21.695                 Moscow           677.969
       115   02 Jun 2027 17:35:19.934   02 Jun 2027 17:35:54.498            34.564              Murmansk1          1080.125
       116   02 Jun 2027 17:36:25.086   02 Jun 2027 17:36:54.410            29.324              Murmansk1           916.375
       117   02 Jun 2027 17:39:41.972   02 Jun 2027 17:42:57.491           195.519                Norilsk          6109.969
       118   02 Jun 2027 17:44:24.067   02 Jun 2027 17:45:08.389            44.322                Norilsk          1385.062
       119   02 Jun 2027 19:09:10.512   02 Jun 2027 19:11:52.347           161.835                 Moscow          5057.344
       120   02 Jun 2027 19:11:56.088   02 Jun 2027 19:12:23.411            27.323              Murmansk1           853.844
       121   02 Jun 2027 19:12:44.161   02 Jun 2027 19:13:40.089            55.928              Murmansk2          1747.750
       122   02 Jun 2027 19:14:33.941   02 Jun 2027 19:15:06.853            32.912                 Moscow          1028.500
       123   02 Jun 2027 20:20:37.296   02 Jun 2027 20:22:57.324           140.028               CapeTown          4375.875
       124   02 Jun 2027 20:27:17.386   02 Jun 2027 20:28:50.432            93.046               CapeTown          2907.688
       125   02 Jun 2027 20:51:55.759   02 Jun 2027 20:58:47.306           411.547              Murmansk2         12860.844
       126   02 Jun 2027 22:36:52.031   02 Jun 2027 22:40:09.205           197.174                Anadyr2          6161.688
       127   02 Jun 2027 22:40:09.263   02 Jun 2027 22:40:37.153            27.890               Magadan2           871.563
       128   02 Jun 2027 22:41:20.841   02 Jun 2027 22:41:49.599            28.758               Magadan1           898.688
       129   02 Jun 2027 22:42:13.155   02 Jun 2027 22:42:26.733            13.578               Magadan2           424.313
       130   02 Jun 2027 22:42:36.399   02 Jun 2027 22:42:54.938            18.539               Magadan1           579.344
       131   02 Jun 2027 22:43:22.120   02 Jun 2027 22:44:00.821            38.701               Magadan1          1209.406
       132   02 Jun 2027 22:46:52.703   02 Jun 2027 22:47:14.045            21.342               Magadan2           666.937
       133   02 Jun 2027 22:48:18.975   02 Jun 2027 22:48:24.479             5.504               Magadan1           172.000
       134   02 Jun 2027 23:32:29.578   02 Jun 2027 23:35:23.751           174.173            RioGallegos          5442.906
       135   02 Jun 2027 23:38:08.371   02 Jun 2027 23:38:46.252            37.881            RioGallegos          1183.781
       136   03 Jun 2027 00:12:40.367   03 Jun 2027 00:14:56.672           136.305                Anadyr1          4259.531
       137   03 Jun 2027 00:15:06.538   03 Jun 2027 00:16:49.410           102.872               Magadan2          3214.750
       138   03 Jun 2027 00:18:50.102   03 Jun 2027 00:19:00.464            10.362               Magadan2           323.812
       139   03 Jun 2027 00:19:29.861   03 Jun 2027 00:20:35.254            65.393                Irkutsk          2043.531
       140   03 Jun 2027 00:21:42.781   03 Jun 2027 00:23:38.597           115.816                Irkutsk          3619.250
       141   03 Jun 2027 00:34:07.844   03 Jun 2027 00:35:48.817           100.973                Sumatra          3155.406
       142   03 Jun 2027 00:38:39.297   03 Jun 2027 00:39:00.715            21.418                Sumatra           669.313
       143   03 Jun 2027 00:43:11.920   03 Jun 2027 00:43:12.603             0.683                Sumatra            21.344
       144   03 Jun 2027 01:08:00.657   03 Jun 2027 01:08:18.462            17.805            RioGallegos           556.406
       145   03 Jun 2027 01:10:28.862   03 Jun 2027 01:10:54.776            25.914            RioGallegos           809.813
       146   03 Jun 2027 01:14:21.470   03 Jun 2027 01:14:27.698             6.228            RioGallegos           194.625
       147   03 Jun 2027 01:14:57.418   03 Jun 2027 01:15:11.361            13.943            RioGallegos           435.719
       148   03 Jun 2027 01:19:03.335   03 Jun 2027 01:19:16.861            13.526            RioGallegos           422.688
       149   03 Jun 2027 01:47:52.832   03 Jun 2027 01:48:19.791            26.959                Anadyr2           842.469
       150   03 Jun 2027 01:48:46.146   03 Jun 2027 01:49:23.928            37.782                Anadyr2          1180.687
       151   03 Jun 2027 01:50:07.533   03 Jun 2027 01:50:26.064            18.531                Anadyr1           579.094
       152   03 Jun 2027 01:50:26.064   03 Jun 2027 01:50:47.618            21.554                Anadyr2           673.563
       153   03 Jun 2027 01:51:14.723   03 Jun 2027 01:51:25.309            10.586               Magadan2           330.812
       154   03 Jun 2027 01:51:27.265   03 Jun 2027 01:52:55.255            87.990               Magadan1          2749.688
       155   03 Jun 2027 01:54:29.286   03 Jun 2027 01:56:38.855           129.569                Irkutsk          4049.031
       156   03 Jun 2027 01:57:11.512   03 Jun 2027 01:57:35.631            24.119                Novosib           753.719
       157   03 Jun 2027 01:58:03.638   03 Jun 2027 01:58:57.312            53.674                Novosib          1677.312
       158   03 Jun 2027 02:07:26.671   03 Jun 2027 02:07:27.374             0.703                  Delhi            21.969
       159   03 Jun 2027 02:08:31.954   03 Jun 2027 02:11:10.782           158.828                Sumatra          4963.375
       160   03 Jun 2027 02:15:41.514   03 Jun 2027 02:18:20.350           158.836                Sumatra          4963.625
       161   03 Jun 2027 03:30:43.150   03 Jun 2027 03:30:55.851            12.701               Magadan1           396.906
       162   03 Jun 2027 03:31:10.752   03 Jun 2027 03:32:16.866            66.114               Magadan1          2066.062
       163   03 Jun 2027 03:35:25.649   03 Jun 2027 03:37:28.496           122.847                Irkutsk          3838.969
       164   03 Jun 2027 03:37:43.251   03 Jun 2027 03:40:37.745           174.494                  Delhi          5452.938
       165   03 Jun 2027 03:40:37.925   03 Jun 2027 03:43:07.751           149.826                Novosib          4682.062
       166   03 Jun 2027 03:47:26.240   03 Jun 2027 03:49:32.765           126.525                  Delhi          3953.906
       167   03 Jun 2027 04:19:55.507   03 Jun 2027 04:26:03.840           368.333            RioGallegos         11510.406
       168   03 Jun 2027 05:08:24.259   03 Jun 2027 05:09:56.303            92.044                Irkutsk          2876.375
       169   03 Jun 2027 05:10:45.940   03 Jun 2027 05:11:11.873            25.933                Irkutsk           810.406
       170   03 Jun 2027 05:11:32.170   03 Jun 2027 05:12:27.069            54.899                Irkutsk          1715.594
       171   03 Jun 2027 05:13:31.042   03 Jun 2027 05:14:29.984            58.942                Novosib          1841.937
       172   03 Jun 2027 05:14:47.246   03 Jun 2027 05:16:12.066            84.820                Novosib          2650.625
       173   03 Jun 2027 05:16:12.192   03 Jun 2027 05:21:57.663           345.471                  Delhi         10795.969
       174   03 Jun 2027 06:47:04.187   03 Jun 2027 06:47:08.454             4.267                 Moscow           133.344
       175   03 Jun 2027 06:47:33.849   03 Jun 2027 06:47:38.042             4.193                Norilsk           131.031
       176   03 Jun 2027 06:48:27.638   03 Jun 2027 06:48:40.964            13.326                Novosib           416.438
       177   03 Jun 2027 06:49:04.802   03 Jun 2027 06:49:35.080            30.278              Murmansk1           946.187
       178   03 Jun 2027 06:49:51.572   03 Jun 2027 06:50:44.062            52.490                 Moscow          1640.312
       179   03 Jun 2027 07:07:49.951   03 Jun 2027 07:11:00.559           190.608               CapeTown          5956.500
       180   03 Jun 2027 08:10:51.949   03 Jun 2027 08:12:41.143           109.194                Anadyr1          3412.313
       181   03 Jun 2027 08:12:56.271   03 Jun 2027 08:13:06.682            10.411               Magadan2           325.344
       182   03 Jun 2027 08:13:15.379   03 Jun 2027 08:13:25.325             9.946                Anadyr2           310.813
       183   03 Jun 2027 08:13:57.387   03 Jun 2027 08:14:16.792            19.405                Anadyr1           606.406
       184   03 Jun 2027 08:15:36.969   03 Jun 2027 08:16:57.093            80.124                Anadyr1          2503.875
       185   03 Jun 2027 09:47:24.580   03 Jun 2027 09:47:57.565            32.985               Magadan2          1030.781
       186   03 Jun 2027 09:48:25.653   03 Jun 2027 09:48:29.413             3.760               Magadan2           117.500
       187   03 Jun 2027 09:48:33.866   03 Jun 2027 09:49:47.254            73.388               Magadan2          2293.375
       188   03 Jun 2027 09:50:55.996   03 Jun 2027 09:52:19.416            83.420                Anadyr2          2606.875
       189   03 Jun 2027 11:18:21.222   03 Jun 2027 11:19:10.126            48.904               Magadan2          1528.250
       190   03 Jun 2027 11:20:57.455   03 Jun 2027 11:22:46.470           109.015               Magadan1          3406.719
       191   03 Jun 2027 11:22:46.470   03 Jun 2027 11:22:53.203             6.733               Magadan2           210.406
       192   03 Jun 2027 11:24:08.203   03 Jun 2027 11:24:22.754            14.551                Norilsk           454.719
       193   03 Jun 2027 11:24:24.796   03 Jun 2027 11:24:45.815            21.019                Anadyr2           656.844
       194   03 Jun 2027 11:24:55.529   03 Jun 2027 11:26:02.451            66.922               Magadan2          2091.312
       195   03 Jun 2027 11:26:02.451   03 Jun 2027 11:28:23.539           141.088               Magadan1          4409.000
       196   03 Jun 2027 11:28:39.538   03 Jun 2027 11:28:41.086             1.548               Magadan1            48.375
       197   03 Jun 2027 11:28:41.617   03 Jun 2027 11:28:54.684            13.067                Norilsk           408.344
       198   03 Jun 2027 12:03:36.742   03 Jun 2027 12:04:55.214            78.472            RioGallegos          2452.250
       199   03 Jun 2027 12:39:48.336   03 Jun 2027 12:39:53.292             4.956                Sumatra           154.875
       200   03 Jun 2027 12:40:07.279   03 Jun 2027 12:40:27.678            20.399                Sumatra           637.469
       201   03 Jun 2027 12:43:24.111   03 Jun 2027 12:44:51.783            87.672                Sumatra          2739.750
       202   03 Jun 2027 12:51:54.504   03 Jun 2027 12:53:15.650            81.146                Irkutsk          2535.813
       203   03 Jun 2027 12:56:49.429   03 Jun 2027 12:56:51.821             2.392                Norilsk            74.750
       204   03 Jun 2027 12:57:46.724   03 Jun 2027 12:58:16.484            29.760                Norilsk           930.000
       205   03 Jun 2027 13:00:06.935   03 Jun 2027 13:00:13.051             6.116                Irkutsk           191.125
       206   03 Jun 2027 13:01:49.875   03 Jun 2027 13:02:11.404            21.529                Norilsk           672.781
       207   03 Jun 2027 13:40:22.257   03 Jun 2027 13:41:06.036            43.779            RioGallegos          1368.094
       208   03 Jun 2027 13:41:50.632   03 Jun 2027 13:42:23.667            33.035            RioGallegos          1032.344
       209   03 Jun 2027 13:43:32.920   03 Jun 2027 13:45:14.371           101.451            RioGallegos          3170.344
       210   03 Jun 2027 13:48:50.996   03 Jun 2027 13:50:17.032            86.036            RioGallegos          2688.625
       211   03 Jun 2027 14:14:40.391   03 Jun 2027 14:16:03.464            83.073                Sumatra          2596.031
       212   03 Jun 2027 14:19:47.811   03 Jun 2027 14:19:49.945             2.134                Sumatra            66.688
       213   03 Jun 2027 14:29:44.174   03 Jun 2027 14:32:00.100           135.926                Irkutsk          4247.688
       214   03 Jun 2027 14:35:31.884   03 Jun 2027 14:36:30.620            58.736                Irkutsk          1835.500
       215   03 Jun 2027 14:38:15.154   03 Jun 2027 14:39:48.164            93.010                Irkutsk          2906.563
       216   03 Jun 2027 15:59:28.794   03 Jun 2027 16:05:20.750           351.956                  Delhi         10998.625
       217   03 Jun 2027 16:07:48.256   03 Jun 2027 16:11:04.684           196.428                Novosib          6138.375
       218   03 Jun 2027 16:12:28.675   03 Jun 2027 16:13:50.307            81.632                Novosib          2551.000
       219   03 Jun 2027 17:52:39.412   03 Jun 2027 17:56:42.462           243.050                Norilsk          7595.312
       220   03 Jun 2027 19:21:52.047   03 Jun 2027 19:28:21.754           389.707                 Moscow         12178.344
       221   03 Jun 2027 20:36:17.837   03 Jun 2027 20:37:43.074            85.237               CapeTown          2663.656
       222   03 Jun 2027 20:41:05.283   03 Jun 2027 20:42:40.261            94.978               CapeTown          2968.063
       223   03 Jun 2027 21:04:45.047   03 Jun 2027 21:10:38.588           353.541              Murmansk1         11048.156
       224   03 Jun 2027 22:48:53.702   03 Jun 2027 22:49:00.722             7.020                Anadyr2           219.375
       225   03 Jun 2027 22:49:04.674   03 Jun 2027 22:49:15.769            11.095                Anadyr2           346.719
       226   03 Jun 2027 22:49:32.175   03 Jun 2027 22:49:49.827            17.652                Anadyr2           551.625
       227   03 Jun 2027 22:50:10.431   03 Jun 2027 22:50:23.247            12.816                Anadyr2           400.500
       228   03 Jun 2027 22:51:09.621   03 Jun 2027 22:53:05.127           115.506               Magadan1          3609.563
       229   03 Jun 2027 22:53:21.815   03 Jun 2027 22:54:22.202            60.387               Magadan1          1887.094
       230   03 Jun 2027 22:56:02.118   03 Jun 2027 22:56:27.475            25.357               Magadan2           792.406
       231   03 Jun 2027 22:57:47.619   03 Jun 2027 22:58:08.590            20.971               Magadan1           655.344
       232   03 Jun 2027 23:44:01.142   03 Jun 2027 23:47:11.463           190.321            RioGallegos          5947.531
       233   03 Jun 2027 23:50:13.713   03 Jun 2027 23:50:40.538            26.825            RioGallegos           838.281
       234   03 Jun 2027 23:51:39.988   03 Jun 2027 23:52:09.347            29.359            RioGallegos           917.469
       235   04 Jun 2027 00:24:39.370   04 Jun 2027 00:26:01.948            82.578                Anadyr2          2580.562
       236   04 Jun 2027 00:26:43.842   04 Jun 2027 00:28:22.978            99.136                Norilsk          3098.000
       237   04 Jun 2027 00:29:35.661   04 Jun 2027 00:29:47.037            11.376               Magadan2           355.500
       238   04 Jun 2027 00:30:08.482   04 Jun 2027 00:30:35.308            26.826               Magadan2           838.312
       239   04 Jun 2027 00:30:52.698   04 Jun 2027 00:31:06.278            13.580               Magadan2           424.375
       240   04 Jun 2027 00:31:16.373   04 Jun 2027 00:32:34.851            78.478                Irkutsk          2452.437
       241   04 Jun 2027 00:33:35.515   04 Jun 2027 00:34:46.905            71.390                Irkutsk          2230.938
       242   04 Jun 2027 00:38:16.621   04 Jun 2027 00:38:26.079             9.458                Irkutsk           295.562
       243   04 Jun 2027 00:45:31.802   04 Jun 2027 00:46:26.796            54.994                Sumatra          1718.562
       244   04 Jun 2027 00:46:33.417   04 Jun 2027 00:48:32.075           118.658                Sumatra          3708.063
       245   04 Jun 2027 01:21:44.716   04 Jun 2027 01:22:24.794            40.078            RioGallegos          1252.438
       246   04 Jun 2027 01:30:21.680   04 Jun 2027 01:30:52.186            30.506            RioGallegos           953.312
       247   04 Jun 2027 01:59:55.469   04 Jun 2027 02:00:03.120             7.651                Anadyr2           239.094
       248   04 Jun 2027 02:00:09.198   04 Jun 2027 02:00:25.780            16.582                Anadyr2           518.187
       249   04 Jun 2027 02:01:13.667   04 Jun 2027 02:01:40.027            26.360                Anadyr1           823.750
       250   04 Jun 2027 02:01:40.027   04 Jun 2027 02:02:06.671            26.644                Anadyr2           832.625
       251   04 Jun 2027 02:02:37.195   04 Jun 2027 02:02:37.258             0.063                Norilsk             1.969
       252   04 Jun 2027 02:03:17.990   04 Jun 2027 02:04:16.709            58.719               Magadan2          1834.969
       253   04 Jun 2027 02:04:30.310   04 Jun 2027 02:04:41.188            10.878                Norilsk           339.937
       254   04 Jun 2027 02:04:56.635   04 Jun 2027 02:05:29.006            32.371               Magadan1          1011.594
       255   04 Jun 2027 02:06:30.301   04 Jun 2027 02:09:16.302           166.001                Irkutsk          5187.531
       256   04 Jun 2027 02:13:35.980   04 Jun 2027 02:14:47.603            71.623                Irkutsk          2238.219
       257   04 Jun 2027 02:20:50.692   04 Jun 2027 02:23:38.775           168.083                Sumatra          5252.594
       258   04 Jun 2027 02:25:11.031   04 Jun 2027 02:26:15.904            64.873                Sumatra          2027.281
       259   04 Jun 2027 03:01:28.753   04 Jun 2027 03:02:20.091            51.338            RioGallegos          1604.312
       260   04 Jun 2027 03:42:51.044   04 Jun 2027 03:43:44.890            53.846               Magadan2          1682.688
       261   04 Jun 2027 03:45:46.236   04 Jun 2027 03:46:02.381            16.145              Murmansk1           504.531
       262   04 Jun 2027 03:46:35.252   04 Jun 2027 03:47:20.063            44.811              Murmansk1          1400.344
       263   04 Jun 2027 03:48:16.356   04 Jun 2027 03:48:20.661             4.305              Murmansk1           134.531
       264   04 Jun 2027 03:48:21.943   04 Jun 2027 03:50:37.892           135.949                Novosib          4248.406
       265   04 Jun 2027 03:50:53.909   04 Jun 2027 03:53:29.060           155.151                Irkutsk          4848.469
       266   04 Jun 2027 03:53:59.059   04 Jun 2027 03:56:14.634           135.575                  Delhi          4236.719
       267   04 Jun 2027 03:56:49.405   04 Jun 2027 03:58:52.618           123.213                  Delhi          3850.406
       268   04 Jun 2027 04:32:24.776   04 Jun 2027 04:37:04.152           279.376            RioGallegos          8730.500
       269   04 Jun 2027 05:21:32.744   04 Jun 2027 05:22:40.322            67.578                Irkutsk          2111.813
       270   04 Jun 2027 05:24:02.653   04 Jun 2027 05:25:04.975            62.322                 Moscow          1947.563
       271   04 Jun 2027 05:25:16.854   04 Jun 2027 05:25:47.134            30.280                 Moscow           946.250
       272   04 Jun 2027 05:25:48.714   04 Jun 2027 05:27:33.036           104.322                Novosib          3260.063
       273   04 Jun 2027 05:30:19.703   04 Jun 2027 05:31:26.941            67.238                  Delhi          2101.188
       274   04 Jun 2027 07:01:03.396   04 Jun 2027 07:01:29.734            26.338              Murmansk1           823.063
       275   04 Jun 2027 07:01:40.083   04 Jun 2027 07:01:50.862            10.779                 Moscow           336.844
       276   04 Jun 2027 07:01:54.636   04 Jun 2027 07:02:03.828             9.192              Murmansk2           287.250
       277   04 Jun 2027 07:02:08.479   04 Jun 2027 07:02:41.552            33.073                 Moscow          1033.531
       278   04 Jun 2027 07:03:32.008   04 Jun 2027 07:03:53.597            21.589                 Moscow           674.656
       279   04 Jun 2027 07:07:31.855   04 Jun 2027 07:07:50.722            18.867                 Moscow           589.594
       280   04 Jun 2027 07:19:58.740   04 Jun 2027 07:20:07.909             9.169               CapeTown           286.531
       281   04 Jun 2027 07:22:18.476   04 Jun 2027 07:24:39.675           141.199               CapeTown          4412.469
       282   04 Jun 2027 08:23:28.743   04 Jun 2027 08:24:01.299            32.556               Magadan2          1017.375
       283   04 Jun 2027 08:24:06.401   04 Jun 2027 08:25:20.366            73.965               Magadan1          2311.406
       284   04 Jun 2027 08:25:34.798   04 Jun 2027 08:25:47.905            13.107                Anadyr2           409.594
       285   04 Jun 2027 08:27:37.109   04 Jun 2027 08:28:50.380            73.271                Anadyr2          2289.719
       286   04 Jun 2027 09:59:25.035   04 Jun 2027 10:00:31.041            66.006               Magadan1          2062.688
       287   04 Jun 2027 10:00:45.948   04 Jun 2027 10:00:51.765             5.817               Magadan2           181.781
       288   04 Jun 2027 10:01:36.356   04 Jun 2027 10:01:52.836            16.480               Magadan1           515.000
       289   04 Jun 2027 10:02:03.445   04 Jun 2027 10:02:44.492            41.047                Anadyr2          1282.719
       290   04 Jun 2027 10:04:02.010   04 Jun 2027 10:05:07.158            65.148               Magadan1          2035.875
       291   04 Jun 2027 11:30:32.084   04 Jun 2027 11:35:35.406           303.322               Magadan2          9478.813
       292   04 Jun 2027 11:37:01.862   04 Jun 2027 11:37:29.694            27.832                Irkutsk           869.750
       293   04 Jun 2027 11:37:39.932   04 Jun 2027 11:40:07.984           148.052               Magadan2          4626.625
       294   04 Jun 2027 11:40:48.099   04 Jun 2027 11:40:53.061             4.962                Norilsk           155.062
       295   04 Jun 2027 12:15:32.532   04 Jun 2027 12:16:54.272            81.740            RioGallegos          2554.375
       296   04 Jun 2027 12:26:56.680   04 Jun 2027 12:28:14.981            78.301            RioGallegos          2446.906
       297   04 Jun 2027 13:01:17.822   04 Jun 2027 13:02:30.411            72.589                Sumatra          2268.406
       298   04 Jun 2027 13:03:57.366   04 Jun 2027 13:05:12.233            74.867                Irkutsk          2339.594
       299   04 Jun 2027 13:07:14.212   04 Jun 2027 13:07:40.315            26.103                Irkutsk           815.719
       300   04 Jun 2027 13:14:13.756   04 Jun 2027 13:14:16.209             2.453                Norilsk            76.656
       301   04 Jun 2027 13:14:20.425   04 Jun 2027 13:14:42.641            22.216                Irkutsk           694.250
       302   04 Jun 2027 13:52:48.838   04 Jun 2027 13:54:12.003            83.165            RioGallegos          2598.906
       303   04 Jun 2027 13:57:36.972   04 Jun 2027 13:58:17.342            40.370            RioGallegos          1261.563
       304   04 Jun 2027 14:00:14.928   04 Jun 2027 14:02:48.097           153.169            RioGallegos          4786.531
       305   04 Jun 2027 14:27:03.067   04 Jun 2027 14:32:48.328           345.261                Sumatra         10789.406
       306   04 Jun 2027 14:42:22.631   04 Jun 2027 14:48:41.090           378.459                Irkutsk         11826.844
       307   04 Jun 2027 16:14:54.409   04 Jun 2027 16:18:55.794           241.385                  Delhi          7543.281
       308   04 Jun 2027 16:20:31.429   04 Jun 2027 16:27:11.515           400.086                Novosib         12502.688
       309   04 Jun 2027 18:08:15.388   04 Jun 2027 18:08:28.000            12.612                Norilsk           394.125
       310   04 Jun 2027 19:34:42.278   04 Jun 2027 19:35:00.113            17.835                 Moscow           557.344
       311   04 Jun 2027 19:35:27.325   04 Jun 2027 19:42:19.123           411.798                 Moscow         12868.688
       312   04 Jun 2027 20:47:22.049   04 Jun 2027 20:50:23.863           181.814               CapeTown          5681.687
       313   04 Jun 2027 21:17:41.755   04 Jun 2027 21:22:24.550           282.795              Murmansk2          8837.344
       314   04 Jun 2027 23:02:24.094   04 Jun 2027 23:03:10.283            46.189                Anadyr1          1443.406
       315   04 Jun 2027 23:03:10.837   04 Jun 2027 23:03:48.763            37.926               Magadan2          1185.188
       316   04 Jun 2027 23:04:12.746   04 Jun 2027 23:04:24.957            12.211                Norilsk           381.594
       317   04 Jun 2027 23:04:47.422   04 Jun 2027 23:04:57.057             9.635               Magadan1           301.094
       318   04 Jun 2027 23:06:06.715   04 Jun 2027 23:06:28.534            21.819               Magadan2           681.844
       319   04 Jun 2027 23:06:41.553   04 Jun 2027 23:06:53.912            12.359               Magadan2           386.219
       320   04 Jun 2027 23:08:14.902   04 Jun 2027 23:08:50.363            35.461               Magadan2          1108.156
       321   04 Jun 2027 23:14:14.524   04 Jun 2027 23:14:39.239            24.715               Magadan2           772.344
       322   04 Jun 2027 23:55:41.266   04 Jun 2027 23:58:52.687           191.421            RioGallegos          5981.906
       323   05 Jun 2027 00:02:48.923   05 Jun 2027 00:03:43.812            54.889            RioGallegos          1715.281
       324   05 Jun 2027 00:36:37.760   05 Jun 2027 00:38:00.899            83.139                Anadyr2          2598.094
       325   05 Jun 2027 00:38:43.822   05 Jun 2027 00:40:24.576           100.754                Norilsk          3148.562
       326   05 Jun 2027 00:41:10.568   05 Jun 2027 00:41:34.647            24.079               Magadan1           752.469
       327   05 Jun 2027 00:41:46.701   05 Jun 2027 00:42:03.945            17.244               Magadan1           538.875
       328   05 Jun 2027 00:42:34.313   05 Jun 2027 00:43:02.114            27.801               Magadan1           868.781
       329   05 Jun 2027 00:43:06.391   05 Jun 2027 00:44:14.442            68.051                Irkutsk          2126.594
       330   05 Jun 2027 00:45:31.763   05 Jun 2027 00:46:42.581            70.818                Irkutsk          2213.063
       331   05 Jun 2027 00:51:34.658   05 Jun 2027 00:51:40.557             5.899                Irkutsk           184.344
       332   05 Jun 2027 00:57:05.992   05 Jun 2027 00:58:49.906           103.914                Sumatra          3247.313
       333   05 Jun 2027 01:03:44.224   05 Jun 2027 01:04:16.878            32.654                Sumatra          1020.438
       334   05 Jun 2027 01:08:42.705   05 Jun 2027 01:08:48.449             5.744                Sumatra           179.500
       335   05 Jun 2027 01:30:37.423   05 Jun 2027 01:31:10.416            32.993            RioGallegos          1031.031
       336   05 Jun 2027 01:34:42.813   05 Jun 2027 01:35:05.552            22.739            RioGallegos           710.594
       337   05 Jun 2027 01:37:37.995   05 Jun 2027 01:37:47.020             9.025            RioGallegos           282.031
       338   05 Jun 2027 01:39:15.616   05 Jun 2027 01:40:04.544            48.928            RioGallegos          1529.000
       339   05 Jun 2027 02:11:45.606   05 Jun 2027 02:11:52.779             7.173                Anadyr2           224.156
       340   05 Jun 2027 02:12:59.063   05 Jun 2027 02:13:40.390            41.327                Anadyr2          1291.469
       341   05 Jun 2027 02:14:39.607   05 Jun 2027 02:15:58.509            78.902                Norilsk          2465.687
       342   05 Jun 2027 02:17:53.630   05 Jun 2027 02:18:21.955            28.325                Norilsk           885.156
       343   05 Jun 2027 02:18:32.193   05 Jun 2027 02:20:31.851           119.658                Irkutsk          3739.312
       344   05 Jun 2027 02:21:22.796   05 Jun 2027 02:23:37.238           134.442                Novosib          4201.312
       345   05 Jun 2027 02:33:17.808   05 Jun 2027 02:39:31.385           373.577                Sumatra         11674.281
       346   05 Jun 2027 03:55:14.185   05 Jun 2027 03:55:14.284             0.099               Magadan1             3.094
       347   05 Jun 2027 03:57:25.127   05 Jun 2027 04:02:28.184           303.057                Irkutsk          9470.531
       348   05 Jun 2027 04:03:27.535   05 Jun 2027 04:03:37.976            10.441                Norilsk           326.281
       349   05 Jun 2027 04:05:04.580   05 Jun 2027 04:05:28.676            24.096                Novosib           753.000
       350   05 Jun 2027 04:45:17.023   05 Jun 2027 04:47:39.192           142.169            RioGallegos          4442.781
       351   05 Jun 2027 05:36:35.658   05 Jun 2027 05:40:25.376           229.718                Novosib          7178.687
       352   05 Jun 2027 05:42:39.542   05 Jun 2027 05:42:40.773             1.231                 Moscow            38.469
       353   05 Jun 2027 05:43:07.118   05 Jun 2027 05:43:25.468            18.350                 Moscow           573.437
       354   05 Jun 2027 05:57:02.345   05 Jun 2027 05:58:01.143            58.798               CapeTown          1837.437
       355   05 Jun 2027 06:00:42.869   05 Jun 2027 06:01:04.358            21.489               CapeTown           671.531
       356   05 Jun 2027 06:04:29.028   05 Jun 2027 06:06:18.223           109.195               CapeTown          3412.344
       357   05 Jun 2027 07:11:37.298   05 Jun 2027 07:11:57.439            20.141                Norilsk           629.406
       358   05 Jun 2027 07:12:29.569   05 Jun 2027 07:12:55.647            26.078                Norilsk           814.938
       359   05 Jun 2027 07:13:02.427   05 Jun 2027 07:13:23.245            20.818              Murmansk1           650.562
       360   05 Jun 2027 07:13:50.285   05 Jun 2027 07:14:09.150            18.865              Murmansk1           589.531
       361   05 Jun 2027 07:14:14.246   05 Jun 2027 07:15:53.776            99.530                 Moscow          3110.312
       362   05 Jun 2027 07:32:13.201   05 Jun 2027 07:32:47.273            34.072               CapeTown          1064.750
       363   05 Jun 2027 07:34:52.215   05 Jun 2027 07:37:12.629           140.414               CapeTown          4387.938
       364   05 Jun 2027 07:40:41.542   05 Jun 2027 07:42:03.275            81.733               CapeTown          2554.156
       365   05 Jun 2027 08:35:31.487   05 Jun 2027 08:35:43.068            11.581               Magadan2           361.906
       366   05 Jun 2027 08:35:49.735   05 Jun 2027 08:37:09.085            79.350                Anadyr1          2479.688
       367   05 Jun 2027 08:37:18.174   05 Jun 2027 08:37:48.626            30.452                Anadyr1           951.625
       368   05 Jun 2027 08:38:37.298   05 Jun 2027 08:39:36.728            59.430                Anadyr2          1857.188
       369   05 Jun 2027 10:11:24.911   05 Jun 2027 10:12:37.479            72.568               Magadan2          2267.750
       370   05 Jun 2027 10:13:09.956   05 Jun 2027 10:13:13.069             3.113               Magadan1            97.281
       371   05 Jun 2027 10:14:01.120   05 Jun 2027 10:15:08.297            67.177               Magadan1          2099.281
       372   05 Jun 2027 10:15:08.297   05 Jun 2027 10:15:18.542            10.245               Magadan2           320.156
       373   05 Jun 2027 11:42:41.167   05 Jun 2027 11:42:59.940            18.773               Magadan1           586.656
       374   05 Jun 2027 11:42:59.940   05 Jun 2027 11:48:25.335           325.395               Magadan2         10168.594
       375   05 Jun 2027 11:48:44.496   05 Jun 2027 11:51:37.302           172.806               Magadan2          5400.187
       376   05 Jun 2027 11:51:57.995   05 Jun 2027 11:52:00.305             2.310                Norilsk            72.187
       377   05 Jun 2027 11:52:03.393   05 Jun 2027 11:52:13.982            10.589                Norilsk           330.906
       378   05 Jun 2027 11:52:16.199   05 Jun 2027 11:52:29.557            13.358                Norilsk           417.437
       379   05 Jun 2027 11:52:35.307   05 Jun 2027 11:52:35.750             0.443                Irkutsk            13.844
       380   05 Jun 2027 11:52:45.949   05 Jun 2027 11:53:06.286            20.337                Norilsk           635.531
       381   05 Jun 2027 12:27:31.614   05 Jun 2027 12:28:52.058            80.444            RioGallegos          2513.875
       382   05 Jun 2027 12:37:07.471   05 Jun 2027 12:38:23.519            76.048            RioGallegos          2376.500
       383   05 Jun 2027 13:02:56.165   05 Jun 2027 13:03:42.581            46.416                Sumatra          1450.500
       384   05 Jun 2027 13:09:30.619   05 Jun 2027 13:09:46.226            15.607                Sumatra           487.719
       385   05 Jun 2027 13:16:03.598   05 Jun 2027 13:17:07.178            63.580                Irkutsk          1986.875
       386   05 Jun 2027 13:17:59.758   05 Jun 2027 13:18:09.728             9.970                Novosib           311.563
       387   05 Jun 2027 13:18:59.963   05 Jun 2027 13:19:35.441            35.478                Novosib          1108.688
       388   05 Jun 2027 13:20:42.890   05 Jun 2027 13:22:46.698           123.808                Novosib          3869.000
       389   05 Jun 2027 14:05:21.193   05 Jun 2027 14:07:52.483           151.290            RioGallegos          4727.812
       390   05 Jun 2027 14:11:07.577   05 Jun 2027 14:11:12.345             4.768            RioGallegos           149.000
       391   05 Jun 2027 14:14:27.654   05 Jun 2027 14:15:25.841            58.187            RioGallegos          1818.344
       392   05 Jun 2027 14:39:35.336   05 Jun 2027 14:46:39.578           424.242                Sumatra         13257.563
       393   05 Jun 2027 14:55:09.558   05 Jun 2027 15:02:33.280           443.722                Irkutsk         13866.312
       394   05 Jun 2027 16:25:18.165   05 Jun 2027 16:33:19.289           481.124                  Delhi         15035.125
       395   05 Jun 2027 16:33:41.620   05 Jun 2027 16:40:43.170           421.550                Novosib         13173.437
       396   05 Jun 2027 19:47:45.451   05 Jun 2027 19:53:48.698           363.247                 Moscow         11351.469
       397   05 Jun 2027 19:53:54.187   05 Jun 2027 19:55:20.817            86.630              Murmansk2          2707.187
       398   05 Jun 2027 20:59:08.125   05 Jun 2027 21:03:32.667           264.542               CapeTown          8266.938
       399   05 Jun 2027 21:30:52.342   05 Jun 2027 21:33:58.711           186.369              Murmansk1          5824.031
       400   06 Jun 2027 00:07:44.871   06 Jun 2027 00:08:42.794            57.923            RioGallegos          1810.094
       401   06 Jun 2027 00:14:27.301   06 Jun 2027 00:14:34.214             6.913            RioGallegos           216.031
       402   06 Jun 2027 00:16:03.822   06 Jun 2027 00:16:16.155            12.333            RioGallegos           385.406
       403   06 Jun 2027 00:17:30.515   06 Jun 2027 00:17:52.475            21.960            RioGallegos           686.250
       404   06 Jun 2027 00:48:35.438   06 Jun 2027 00:49:43.965            68.527                Anadyr1          2141.469
       405   06 Jun 2027 00:50:20.436   06 Jun 2027 00:51:00.137            39.701                Anadyr2          1240.656
       406   06 Jun 2027 00:51:16.016   06 Jun 2027 00:52:27.852            71.836               Magadan2          2244.875
       407   06 Jun 2027 00:53:18.572   06 Jun 2027 00:53:33.150            14.578               Magadan1           455.563
       408   06 Jun 2027 00:53:47.911   06 Jun 2027 00:53:52.775             4.864                Norilsk           152.000
       409   06 Jun 2027 00:54:02.747   06 Jun 2027 00:54:39.272            36.525               Magadan1          1141.406
       410   06 Jun 2027 00:54:58.040   06 Jun 2027 00:55:18.243            20.203               Magadan1           631.344
       411   06 Jun 2027 00:55:29.608   06 Jun 2027 00:56:36.937            67.329                Irkutsk          2104.031
       412   06 Jun 2027 00:57:12.533   06 Jun 2027 00:57:34.655            22.122                Novosib           691.313
       413   06 Jun 2027 00:58:02.148   06 Jun 2027 00:58:35.256            33.108                Novosib          1034.625
       414   06 Jun 2027 01:08:48.137   06 Jun 2027 01:11:18.009           149.872                Sumatra          4683.500
       415   06 Jun 2027 01:42:38.481   06 Jun 2027 01:42:38.754             0.273            RioGallegos             8.531
       416   06 Jun 2027 01:44:55.694   06 Jun 2027 01:45:04.277             8.583            RioGallegos           268.219
       417   06 Jun 2027 01:46:01.808   06 Jun 2027 01:46:08.751             6.943            RioGallegos           216.969
       418   06 Jun 2027 01:46:30.745   06 Jun 2027 01:46:36.300             5.555            RioGallegos           173.594
       419   06 Jun 2027 01:46:47.822   06 Jun 2027 01:47:43.535            55.713            RioGallegos          1741.031
       420   06 Jun 2027 01:53:04.759   06 Jun 2027 01:53:09.635             4.876            RioGallegos           152.375
       421   06 Jun 2027 01:54:36.278   06 Jun 2027 01:54:41.701             5.423            RioGallegos           169.469
       422   06 Jun 2027 01:55:19.010   06 Jun 2027 01:55:31.511            12.501            RioGallegos           390.656
       423   06 Jun 2027 02:23:23.694   06 Jun 2027 02:23:57.999            34.305                Anadyr2          1072.031
       424   06 Jun 2027 02:25:17.613   06 Jun 2027 02:25:41.039            23.426                Anadyr2           732.063
       425   06 Jun 2027 02:26:02.876   06 Jun 2027 02:26:25.069            22.193                Anadyr2           693.531
       426   06 Jun 2027 02:26:42.081   06 Jun 2027 02:27:22.560            40.479                Norilsk          1264.969
       427   06 Jun 2027 02:27:50.501   06 Jun 2027 02:28:10.564            20.063                Norilsk           626.969
       428   06 Jun 2027 02:30:34.918   06 Jun 2027 02:33:28.692           173.774                Irkutsk          5430.437
       429   06 Jun 2027 02:36:37.063   06 Jun 2027 02:37:06.719            29.656                Irkutsk           926.750
       430   06 Jun 2027 02:39:24.648   06 Jun 2027 02:39:56.526            31.878                  Delhi           996.187
       431   06 Jun 2027 02:45:56.290   06 Jun 2027 02:54:58.729           542.439                Sumatra         16951.219
       432   06 Jun 2027 04:07:50.432   06 Jun 2027 04:09:05.217            74.785                Irkutsk          2337.031
       433   06 Jun 2027 04:09:53.740   06 Jun 2027 04:10:38.695            44.955              Murmansk1          1404.844
       434   06 Jun 2027 04:11:08.584   06 Jun 2027 04:15:12.329           243.745                Irkutsk          7617.031
       435   06 Jun 2027 04:15:21.798   06 Jun 2027 04:16:23.119            61.321                Irkutsk          1916.281
       436   06 Jun 2027 05:48:05.846   06 Jun 2027 05:51:51.339           225.493                Novosib          7046.656
       437   06 Jun 2027 05:54:46.138   06 Jun 2027 05:55:09.813            23.675                 Moscow           739.844
       438   06 Jun 2027 05:55:40.796   06 Jun 2027 05:55:55.132            14.336                 Moscow           448.000
       439   06 Jun 2027 06:08:39.798   06 Jun 2027 06:10:49.186           129.388               CapeTown          4043.375
       440   06 Jun 2027 06:15:04.139   06 Jun 2027 06:15:46.408            42.269               CapeTown          1320.906
       441   06 Jun 2027 07:12:26.060   06 Jun 2027 07:12:33.415             7.355                Anadyr1           229.844
       442   06 Jun 2027 07:12:58.959   06 Jun 2027 07:13:17.594            18.635               Magadan1           582.344
       443   06 Jun 2027 07:13:45.198   06 Jun 2027 07:14:20.147            34.949                Anadyr2          1092.156
       444   06 Jun 2027 07:15:31.919   06 Jun 2027 07:15:48.841            16.922                Anadyr1           528.813
       445   06 Jun 2027 07:24:03.083   06 Jun 2027 07:24:30.733            27.650                Norilsk           864.063
       446   06 Jun 2027 07:24:33.174   06 Jun 2027 07:24:44.124            10.950                Norilsk           342.188
       447   06 Jun 2027 07:25:01.859   06 Jun 2027 07:25:15.689            13.830              Murmansk1           432.188
       448   06 Jun 2027 07:25:40.024   06 Jun 2027 07:25:46.581             6.557              Murmansk1           204.906
       449   06 Jun 2027 07:25:46.581   06 Jun 2027 07:26:08.259            21.678              Murmansk2           677.437
       450   06 Jun 2027 07:26:24.277   06 Jun 2027 07:27:16.692            52.415              Murmansk2          1637.969
       451   06 Jun 2027 07:44:33.979   06 Jun 2027 07:46:42.835           128.856               CapeTown          4026.750
       452   06 Jun 2027 07:49:46.873   06 Jun 2027 07:49:56.370             9.497               CapeTown           296.781
       453   06 Jun 2027 08:47:00.827   06 Jun 2027 08:47:16.034            15.207               Magadan2           475.219
       454   06 Jun 2027 08:47:34.036   06 Jun 2027 08:48:06.450            32.414               Magadan2          1012.937
       455   06 Jun 2027 08:49:12.220   06 Jun 2027 08:50:21.826            69.606                Anadyr1          2175.188
       456   06 Jun 2027 10:18:05.257   06 Jun 2027 10:18:25.795            20.538               Magadan2           641.813
       457   06 Jun 2027 10:23:24.105   06 Jun 2027 10:24:25.994            61.889               Magadan1          1934.031
       458   06 Jun 2027 10:24:27.258   06 Jun 2027 10:24:30.792             3.534                Anadyr2           110.438
       459   06 Jun 2027 10:25:38.098   06 Jun 2027 10:25:55.613            17.515               Magadan1           547.344
       460   06 Jun 2027 10:26:12.211   06 Jun 2027 10:27:05.100            52.889               Magadan1          1652.781
       461   06 Jun 2027 10:28:42.182   06 Jun 2027 10:29:02.312            20.130                Anadyr1           629.062
       462   06 Jun 2027 11:05:02.633   06 Jun 2027 11:05:36.864            34.231            RioGallegos          1069.719
       463   06 Jun 2027 11:58:02.596   06 Jun 2027 12:04:17.670           375.074               Magadan2         11721.063
       464   06 Jun 2027 13:24:09.104   06 Jun 2027 13:24:57.587            48.483                Sumatra          1515.094
       465   06 Jun 2027 13:31:14.254   06 Jun 2027 13:32:15.114            60.860                Irkutsk          1901.875
       466   06 Jun 2027 13:34:54.699   06 Jun 2027 13:37:44.098           169.399                Irkutsk          5293.719
       467   06 Jun 2027 14:18:00.529   06 Jun 2027 14:24:25.639           385.110            RioGallegos         12034.687
       468   06 Jun 2027 14:52:21.663   06 Jun 2027 15:00:31.053           489.390                Sumatra         15293.437
       469   06 Jun 2027 15:08:08.568   06 Jun 2027 15:14:53.668           405.100                Irkutsk         12659.375
       470   06 Jun 2027 16:38:04.690   06 Jun 2027 16:44:21.958           377.268                  Delhi         11789.625
       471   06 Jun 2027 16:46:30.961   06 Jun 2027 16:52:09.553           338.592                Novosib         10581.000
       472   06 Jun 2027 20:01:15.349   06 Jun 2027 20:04:54.694           219.345                 Moscow          6854.531
       473   06 Jun 2027 20:05:31.065   06 Jun 2027 20:07:58.803           147.738              Murmansk1          4616.812
       474   06 Jun 2027 21:10:08.420   06 Jun 2027 21:17:44.026           455.606               CapeTown         14237.687
       475   07 Jun 2027 00:21:37.338   07 Jun 2027 00:22:36.021            58.683            RioGallegos          1833.844
       476   07 Jun 2027 01:00:32.326   07 Jun 2027 01:01:26.244            53.918                Anadyr2          1684.937
       477   07 Jun 2027 01:01:29.915   07 Jun 2027 01:01:58.281            28.366                Anadyr2           886.437
       478   07 Jun 2027 01:02:45.534   07 Jun 2027 01:03:19.148            33.614                Norilsk          1050.437
       479   07 Jun 2027 01:03:19.357   07 Jun 2027 01:05:03.605           104.248               Magadan1          3257.750
       480   07 Jun 2027 01:06:41.773   07 Jun 2027 01:06:47.360             5.587               Magadan2           174.594
       481   07 Jun 2027 01:06:53.778   07 Jun 2027 01:08:39.264           105.486                Irkutsk          3296.437
       482   07 Jun 2027 01:09:44.228   07 Jun 2027 01:10:20.168            35.940                Novosib          1123.125
