uniorb/output/strategy_4/Drop/Drop_KinoSat_111710.txt

KinoSat_111710
-------------------------
    Access    *     Start Time (UTCG)     *     Stop Time (UTCG)  *   Duration (s)        *       Station  *  Data (Mbytes)
         1   01 Jun 2027 04:00:20.508   01 Jun 2027 04:00:26.507             5.999                Irkutsk           187.469
         2   01 Jun 2027 04:01:16.044   01 Jun 2027 04:01:29.639            13.595                Irkutsk           424.844
         3   01 Jun 2027 04:01:34.439   01 Jun 2027 04:01:44.472            10.033              Murmansk2           313.531
         4   01 Jun 2027 04:01:46.449   01 Jun 2027 04:02:21.125            34.676                Novosib          1083.625
         5   01 Jun 2027 04:02:29.136   01 Jun 2027 04:04:58.196           149.060              Murmansk2          4658.125
         6   01 Jun 2027 04:05:20.719   01 Jun 2027 04:05:59.554            38.835              Murmansk1          1213.594
         7   01 Jun 2027 04:06:12.655   01 Jun 2027 04:07:27.578            74.923                Novosib          2341.344
         8   01 Jun 2027 04:07:41.517   01 Jun 2027 04:10:02.439           140.922                  Delhi          4403.812
         9   01 Jun 2027 05:39:53.221   01 Jun 2027 05:41:56.550           123.329              Murmansk2          3854.031
        10   01 Jun 2027 05:41:56.550   01 Jun 2027 05:42:10.189            13.639              Murmansk1           426.219
        11   01 Jun 2027 05:42:40.421   01 Jun 2027 05:42:50.103             9.682              Murmansk1           302.563
        12   01 Jun 2027 05:43:26.673   01 Jun 2027 05:43:32.300             5.627              Murmansk1           175.844
        13   01 Jun 2027 06:08:10.795   01 Jun 2027 06:09:25.595            74.800               CapeTown          2337.500
        14   01 Jun 2027 07:01:50.051   01 Jun 2027 07:02:57.300            67.249               Magadan2          2101.531
        15   01 Jun 2027 07:03:38.348   01 Jun 2027 07:04:19.687            41.339                Anadyr1          1291.844
        16   01 Jun 2027 07:04:37.057   01 Jun 2027 07:04:52.317            15.260               Magadan2           476.875
        17   01 Jun 2027 07:05:02.222   01 Jun 2027 07:05:27.894            25.672               Magadan2           802.250
        18   01 Jun 2027 07:06:01.618   01 Jun 2027 07:06:34.804            33.186                Anadyr2          1037.063
        19   01 Jun 2027 08:37:09.923   01 Jun 2027 08:37:38.887            28.964                Anadyr1           905.125
        20   01 Jun 2027 08:39:28.050   01 Jun 2027 08:43:08.215           220.165                Anadyr2          6880.156
        21   01 Jun 2027 10:13:03.402   01 Jun 2027 10:13:51.714            48.312               Magadan2          1509.750
        22   01 Jun 2027 10:14:59.693   01 Jun 2027 10:15:36.553            36.860               Magadan1          1151.875
        23   01 Jun 2027 10:15:36.553   01 Jun 2027 10:17:37.753           121.200               Magadan2          3787.500
        24   01 Jun 2027 10:17:54.240   01 Jun 2027 10:18:16.805            22.565               Magadan2           705.156
        25   01 Jun 2027 10:53:30.347   01 Jun 2027 10:55:30.820           120.473            RioGallegos          3764.781
        26   01 Jun 2027 11:29:23.628   01 Jun 2027 11:29:48.421            24.793                Sumatra           774.781
        27   01 Jun 2027 11:48:52.714   01 Jun 2027 11:50:01.306            68.592                Irkutsk          2143.500
        28   01 Jun 2027 11:50:10.816   01 Jun 2027 11:50:57.713            46.897                Irkutsk          1465.531
        29   01 Jun 2027 11:52:06.236   01 Jun 2027 11:53:17.289            71.053                Novosib          2220.406
        30   01 Jun 2027 11:53:36.328   01 Jun 2027 11:54:45.553            69.225                Irkutsk          2163.281
        31   01 Jun 2027 11:55:08.602   01 Jun 2027 11:55:55.694            47.092              Murmansk2          1471.625
        32   01 Jun 2027 11:55:55.694   01 Jun 2027 11:56:04.542             8.848              Murmansk1           276.500
        33   01 Jun 2027 11:56:21.479   01 Jun 2027 11:57:03.246            41.767                Norilsk          1305.219
        34   01 Jun 2027 12:30:36.690   01 Jun 2027 12:34:33.420           236.730            RioGallegos          7397.812
        35   01 Jun 2027 12:40:15.982   01 Jun 2027 12:40:34.468            18.486            RioGallegos           577.688
        36   01 Jun 2027 12:41:09.467   01 Jun 2027 12:41:36.668            27.201            RioGallegos           850.031
        37   01 Jun 2027 13:04:51.485   01 Jun 2027 13:06:29.419            97.934                Sumatra          3060.437
        38   01 Jun 2027 13:09:43.939   01 Jun 2027 13:10:00.883            16.944                Sumatra           529.500
        39   01 Jun 2027 13:12:10.083   01 Jun 2027 13:14:47.262           157.179                Sumatra          4911.844
        40   01 Jun 2027 13:20:06.561   01 Jun 2027 13:22:53.238           166.677                Irkutsk          5208.656
        41   01 Jun 2027 13:24:54.765   01 Jun 2027 13:25:49.541            54.776                Irkutsk          1711.750
        42   01 Jun 2027 14:49:48.828   01 Jun 2027 14:54:50.934           302.106                  Delhi          9440.813
        43   01 Jun 2027 14:58:13.892   01 Jun 2027 15:00:18.239           124.347                Novosib          3885.844
        44   01 Jun 2027 15:00:39.671   01 Jun 2027 15:03:18.275           158.604                Novosib          4956.375
        45   01 Jun 2027 15:03:51.469   01 Jun 2027 15:04:12.589            21.120                Novosib           660.000
        46   01 Jun 2027 15:11:32.279   01 Jun 2027 15:11:40.067             7.788                Norilsk           243.375
        47   01 Jun 2027 16:33:04.279   01 Jun 2027 16:36:08.658           184.379                 Moscow          5761.844
        48   01 Jun 2027 16:37:11.737   01 Jun 2027 16:37:20.232             8.495                 Moscow           265.469
        49   01 Jun 2027 16:37:38.212   01 Jun 2027 16:38:14.665            36.453              Murmansk1          1139.156
        50   01 Jun 2027 16:39:39.280   01 Jun 2027 16:39:41.782             2.502              Murmansk2            78.187
        51   01 Jun 2027 16:39:47.215   01 Jun 2027 16:40:18.765            31.550                 Moscow           985.938
        52   01 Jun 2027 16:41:22.649   01 Jun 2027 16:41:36.177            13.528              Murmansk1           422.750
        53   01 Jun 2027 16:42:12.813   01 Jun 2027 16:42:58.310            45.497              Murmansk2          1421.781
        54   01 Jun 2027 16:43:25.518   01 Jun 2027 16:46:32.906           187.388                Norilsk          5855.875
        55   01 Jun 2027 16:54:32.274   01 Jun 2027 16:54:56.474            24.200                Anadyr1           756.250
        56   01 Jun 2027 16:55:46.236   01 Jun 2027 16:56:07.522            21.286                Anadyr1           665.188
        57   01 Jun 2027 16:56:35.320   01 Jun 2027 16:57:23.755            48.435                Anadyr2          1513.594
        58   01 Jun 2027 17:52:38.398   01 Jun 2027 17:53:22.542            44.144               CapeTown          1379.500
        59   01 Jun 2027 17:53:58.838   01 Jun 2027 17:55:26.940            88.102               CapeTown          2753.188
        60   01 Jun 2027 17:56:55.687   01 Jun 2027 17:57:44.109            48.422               CapeTown          1513.188
        61   01 Jun 2027 18:12:22.290   01 Jun 2027 18:17:00.630           278.340                 Moscow          8698.125
        62   01 Jun 2027 18:35:18.680   01 Jun 2027 18:36:40.447            81.767                Anadyr2          2555.219
        63   01 Jun 2027 19:27:23.873   01 Jun 2027 19:28:25.084            61.211               CapeTown          1912.844
        64   01 Jun 2027 19:30:43.080   01 Jun 2027 19:31:42.804            59.724               CapeTown          1866.375
        65   01 Jun 2027 19:33:08.222   01 Jun 2027 19:33:26.334            18.112               CapeTown           566.000
        66   01 Jun 2027 19:55:20.816   01 Jun 2027 19:59:46.956           266.140              Murmansk2          8316.875
        67   01 Jun 2027 20:11:47.521   01 Jun 2027 20:12:22.687            35.166               Magadan1          1098.938
        68   01 Jun 2027 20:14:34.643   01 Jun 2027 20:15:06.695            32.052               Magadan2          1001.625
        69   01 Jun 2027 21:38:51.326   01 Jun 2027 21:44:32.783           341.457                Anadyr1         10670.531
        70   01 Jun 2027 21:44:33.519   01 Jun 2027 21:47:06.400           152.881               Magadan1          4777.531
        71   01 Jun 2027 21:50:46.017   01 Jun 2027 21:51:08.710            22.693               Magadan2           709.156
        72   01 Jun 2027 21:51:17.690   01 Jun 2027 21:51:46.323            28.633               Magadan2           894.781
        73   01 Jun 2027 21:52:43.044   01 Jun 2027 21:53:03.363            20.319               Magadan1           634.969
        74   01 Jun 2027 22:33:44.631   01 Jun 2027 22:34:22.712            38.081            RioGallegos          1190.031
        75   01 Jun 2027 22:34:47.155   01 Jun 2027 22:35:31.495            44.340            RioGallegos          1385.625
        76   01 Jun 2027 22:38:02.826   01 Jun 2027 22:38:49.025            46.199            RioGallegos          1443.719
        77   01 Jun 2027 22:40:12.470   01 Jun 2027 22:40:14.817             2.347            RioGallegos            73.344
        78   01 Jun 2027 22:40:53.478   01 Jun 2027 22:41:18.832            25.354            RioGallegos           792.313
        79   01 Jun 2027 22:41:50.528   01 Jun 2027 22:42:24.664            34.136            RioGallegos          1066.750
        80   01 Jun 2027 23:14:34.609   01 Jun 2027 23:15:55.250            80.641                Anadyr2          2520.031
        81   01 Jun 2027 23:16:25.856   01 Jun 2027 23:16:40.488            14.632                Anadyr2           457.250
        82   01 Jun 2027 23:16:41.379   01 Jun 2027 23:18:19.257            97.878                Norilsk          3058.687
        83   01 Jun 2027 23:18:22.148   01 Jun 2027 23:18:56.593            34.445               Magadan1          1076.406
        84   01 Jun 2027 23:19:08.751   01 Jun 2027 23:19:35.923            27.172               Magadan2           849.125
        85   01 Jun 2027 23:19:58.731   01 Jun 2027 23:20:11.313            12.582               Magadan2           393.187
        86   01 Jun 2027 23:21:06.652   01 Jun 2027 23:21:21.923            15.271                Irkutsk           477.219
        87   01 Jun 2027 23:22:02.308   01 Jun 2027 23:22:13.056            10.748                Irkutsk           335.875
        88   01 Jun 2027 23:23:16.975   01 Jun 2027 23:24:32.843            75.868                Irkutsk          2370.875
        89   01 Jun 2027 23:31:02.535   01 Jun 2027 23:31:47.849            45.314                Irkutsk          1416.062
        90   01 Jun 2027 23:35:10.395   01 Jun 2027 23:36:14.506            64.111                Sumatra          2003.469
        91   01 Jun 2027 23:44:27.930   01 Jun 2027 23:44:59.898            31.968                Sumatra           999.000
        92   01 Jun 2027 23:46:02.495   01 Jun 2027 23:46:38.870            36.375                Sumatra          1136.719
        93   02 Jun 2027 00:15:35.846   02 Jun 2027 00:15:56.309            20.463            RioGallegos           639.469
        94   02 Jun 2027 00:17:41.953   02 Jun 2027 00:17:45.624             3.671            RioGallegos           114.719
        95   02 Jun 2027 00:17:56.137   02 Jun 2027 00:18:08.857            12.720            RioGallegos           397.500
        96   02 Jun 2027 00:18:39.024   02 Jun 2027 00:19:05.519            26.495            RioGallegos           827.969
        97   02 Jun 2027 00:49:34.022   02 Jun 2027 00:50:52.806            78.784                Anadyr1          2462.000
        98   02 Jun 2027 00:51:52.421   02 Jun 2027 00:52:07.720            15.299                Anadyr1           478.094
        99   02 Jun 2027 00:52:17.191   02 Jun 2027 00:52:19.718             2.527                Anadyr2            78.969
       100   02 Jun 2027 00:52:35.947   02 Jun 2027 00:54:19.829           103.882                Norilsk          3246.312
       101   02 Jun 2027 00:54:31.780   02 Jun 2027 00:54:53.427            21.647               Magadan1           676.469
       102   02 Jun 2027 00:55:10.805   02 Jun 2027 00:55:37.171            26.366               Magadan2           823.937
       103   02 Jun 2027 00:56:28.278   02 Jun 2027 00:58:31.025           122.747                Irkutsk          3835.844
       104   02 Jun 2027 01:02:10.371   02 Jun 2027 01:02:29.808            19.437                Novosib           607.406
       105   02 Jun 2027 01:04:02.825   02 Jun 2027 01:05:07.331            64.506                Novosib          2015.813
       106   02 Jun 2027 01:11:22.065   02 Jun 2027 01:12:01.639            39.574                  Delhi          1236.688
       107   02 Jun 2027 01:15:06.929   02 Jun 2027 01:15:08.256             1.327                  Delhi            41.469
       108   02 Jun 2027 01:15:23.132   02 Jun 2027 01:16:20.034            56.902                Sumatra          1778.188
       109   02 Jun 2027 01:18:56.814   02 Jun 2027 01:20:54.197           117.383                Sumatra          3668.219
       110   02 Jun 2027 01:55:37.770   02 Jun 2027 01:55:57.888            20.118            RioGallegos           628.687
       111   02 Jun 2027 02:25:33.300   02 Jun 2027 02:25:55.572            22.272                Anadyr1           696.000
       112   02 Jun 2027 02:27:35.741   02 Jun 2027 02:27:55.491            19.750                Anadyr2           617.188
       113   02 Jun 2027 02:28:36.694   02 Jun 2027 02:29:42.867            66.173                Norilsk          2067.906
       114   02 Jun 2027 02:29:47.737   02 Jun 2027 02:30:14.386            26.649                Norilsk           832.781
       115   02 Jun 2027 02:31:05.569   02 Jun 2027 02:31:45.443            39.874              Murmansk1          1246.062
       116   02 Jun 2027 02:32:23.060   02 Jun 2027 02:32:50.549            27.489                Novosib           859.031
       117   02 Jun 2027 02:32:51.613   02 Jun 2027 02:33:21.471            29.858                Irkutsk           933.063
       118   02 Jun 2027 02:33:54.870   02 Jun 2027 02:34:42.716            47.846                Irkutsk          1495.188
       119   02 Jun 2027 02:39:09.137   02 Jun 2027 02:39:38.449            29.312                Irkutsk           916.000
       120   02 Jun 2027 02:41:11.254   02 Jun 2027 02:41:48.780            37.526                  Delhi          1172.687
       121   02 Jun 2027 02:44:38.138   02 Jun 2027 02:45:52.973            74.835                  Delhi          2338.594
       122   02 Jun 2027 03:22:48.894   02 Jun 2027 03:24:14.104            85.210            RioGallegos          2662.812
       123   02 Jun 2027 03:24:53.293   02 Jun 2027 03:26:11.617            78.324            RioGallegos          2447.625
       124   02 Jun 2027 04:12:57.590   02 Jun 2027 04:13:38.885            41.295              Murmansk2          1290.469
       125   02 Jun 2027 04:13:44.915   02 Jun 2027 04:14:08.098            23.183              Murmansk1           724.469
       126   02 Jun 2027 04:14:28.561   02 Jun 2027 04:16:16.251           107.690                Norilsk          3365.313
       127   02 Jun 2027 04:16:19.456   02 Jun 2027 04:16:28.567             9.111              Murmansk2           284.719
       128   02 Jun 2027 04:17:03.488   02 Jun 2027 04:19:04.089           120.601                Novosib          3768.781
       129   02 Jun 2027 04:19:07.790   02 Jun 2027 04:22:06.906           179.116                 Moscow          5597.375
       130   02 Jun 2027 04:44:22.006   02 Jun 2027 04:45:13.665            51.659               CapeTown          1614.344
       131   02 Jun 2027 05:54:38.590   02 Jun 2027 05:55:47.319            68.729                 Moscow          2147.781
       132   02 Jun 2027 07:13:36.747   02 Jun 2027 07:14:58.383            81.636                Anadyr1          2551.125
       133   02 Jun 2027 07:14:58.383   02 Jun 2027 07:15:40.056            41.673                Anadyr2          1302.281
       134   02 Jun 2027 07:16:30.232   02 Jun 2027 07:18:27.124           116.892                Anadyr2          3652.875
       135   02 Jun 2027 07:18:41.546   02 Jun 2027 07:19:05.736            24.190               Magadan2           755.938
       136   02 Jun 2027 08:51:27.051   02 Jun 2027 08:53:23.539           116.488                Anadyr1          3640.250
       137   02 Jun 2027 10:25:28.269   02 Jun 2027 10:25:45.480            17.211               Magadan2           537.844
       138   02 Jun 2027 10:26:02.670   02 Jun 2027 10:26:56.550            53.880               Magadan2          1683.750
       139   02 Jun 2027 10:27:10.420   02 Jun 2027 10:30:26.785           196.365               Magadan2          6136.406
       140   02 Jun 2027 10:30:43.454   02 Jun 2027 10:30:56.815            13.361                Norilsk           417.531
       141   02 Jun 2027 11:05:28.293   02 Jun 2027 11:06:34.874            66.581            RioGallegos          2080.656
       142   02 Jun 2027 11:40:59.263   02 Jun 2027 11:42:22.543            83.280                Sumatra          2602.500
       143   02 Jun 2027 12:05:25.752   02 Jun 2027 12:05:37.243            11.491                Novosib           359.094
       144   02 Jun 2027 12:05:49.452   02 Jun 2027 12:06:00.299            10.847                Novosib           338.969
       145   02 Jun 2027 12:06:47.930   02 Jun 2027 12:07:42.889            54.959                Novosib          1717.469
       146   02 Jun 2027 12:48:11.113   02 Jun 2027 12:48:29.000            17.887            RioGallegos           558.969
       147   02 Jun 2027 12:49:03.375   02 Jun 2027 12:49:39.219            35.844            RioGallegos          1120.125
       148   02 Jun 2027 12:52:16.782   02 Jun 2027 12:53:09.795            53.013            RioGallegos          1656.656
       149   02 Jun 2027 13:18:23.547   02 Jun 2027 13:20:20.963           117.416                Sumatra          3669.250
       150   02 Jun 2027 13:34:37.994   02 Jun 2027 13:35:30.376            52.382                Novosib          1636.938
       151   02 Jun 2027 13:37:33.921   02 Jun 2027 13:39:11.638            97.717                Irkutsk          3053.656
       152   02 Jun 2027 15:02:32.879   02 Jun 2027 15:04:07.205            94.326                  Delhi          2947.688
       153   02 Jun 2027 15:05:30.803   02 Jun 2027 15:08:49.953           199.150                  Delhi          6223.438
       154   02 Jun 2027 15:11:02.964   02 Jun 2027 15:12:01.246            58.282                Novosib          1821.313
       155   02 Jun 2027 15:15:34.956   02 Jun 2027 15:17:57.550           142.594                Novosib          4456.062
       156   02 Jun 2027 16:28:44.895   02 Jun 2027 16:30:07.085            82.190               CapeTown          2568.438
       157   02 Jun 2027 16:45:42.075   02 Jun 2027 16:46:11.096            29.021                 Moscow           906.906
       158   02 Jun 2027 16:48:07.871   02 Jun 2027 16:48:59.982            52.111                 Moscow          1628.469
       159   02 Jun 2027 16:54:54.561   02 Jun 2027 16:55:30.666            36.105              Murmansk1          1128.281
       160   02 Jun 2027 16:59:15.488   02 Jun 2027 16:59:55.873            40.385              Murmansk1          1262.031
       161   02 Jun 2027 17:04:05.816   02 Jun 2027 17:04:50.809            44.993                Anadyr2          1406.031
       162   02 Jun 2027 17:05:17.184   02 Jun 2027 17:05:58.980            41.796                Anadyr1          1306.125
       163   02 Jun 2027 17:09:08.930   02 Jun 2027 17:09:36.044            27.114                Anadyr2           847.312
       164   02 Jun 2027 17:58:28.547   02 Jun 2027 17:58:48.924            20.377               CapeTown           636.781
       165   02 Jun 2027 18:00:20.597   02 Jun 2027 18:00:33.332            12.735               CapeTown           397.969
       166   02 Jun 2027 18:01:15.147   02 Jun 2027 18:01:32.408            17.261               CapeTown           539.406
       167   02 Jun 2027 18:02:21.868   02 Jun 2027 18:04:27.872           126.004               CapeTown          3937.625
       168   02 Jun 2027 18:25:20.542   02 Jun 2027 18:29:02.924           222.382                 Moscow          6949.437
       169   02 Jun 2027 18:47:46.844   02 Jun 2027 18:48:40.204            53.360                Anadyr1          1667.500
       170   02 Jun 2027 19:35:22.360   02 Jun 2027 19:36:23.066            60.706               CapeTown          1897.062
       171   02 Jun 2027 19:39:16.482   02 Jun 2027 19:40:35.676            79.194               CapeTown          2474.813
       172   02 Jun 2027 20:08:26.103   02 Jun 2027 20:12:03.288           217.185              Murmansk2          6787.031
       173   02 Jun 2027 20:17:31.500   02 Jun 2027 20:17:52.504            21.004               Magadan2           656.375
       174   02 Jun 2027 20:19:34.420   02 Jun 2027 20:20:06.520            32.100               Magadan2          1003.125
       175   02 Jun 2027 20:21:58.709   02 Jun 2027 20:22:05.003             6.294               Magadan1           196.688
       176   02 Jun 2027 20:23:14.411   02 Jun 2027 20:23:26.473            12.062               Magadan2           376.937
       177   02 Jun 2027 20:25:08.877   02 Jun 2027 20:25:44.827            35.950               Magadan1          1123.437
       178   02 Jun 2027 21:50:52.555   02 Jun 2027 21:54:47.414           234.859                Anadyr2          7339.344
       179   02 Jun 2027 21:55:10.600   02 Jun 2027 21:56:01.792            51.192               Magadan1          1599.750
       180   02 Jun 2027 21:56:01.792   02 Jun 2027 21:58:35.172           153.380               Magadan2          4793.125
       181   02 Jun 2027 22:02:38.477   02 Jun 2027 22:03:03.024            24.547               Magadan1           767.094
       182   02 Jun 2027 22:04:02.798   02 Jun 2027 22:04:46.289            43.491               Magadan1          1359.094
       183   02 Jun 2027 22:45:28.409   02 Jun 2027 22:47:29.116           120.707            RioGallegos          3772.094
       184   02 Jun 2027 22:48:12.974   02 Jun 2027 22:48:47.192            34.218            RioGallegos          1069.312
       185   02 Jun 2027 23:26:32.396   02 Jun 2027 23:27:26.567            54.171                Anadyr2          1692.844
       186   02 Jun 2027 23:27:36.636   02 Jun 2027 23:28:37.985            61.349                Anadyr1          1917.156
       187   02 Jun 2027 23:28:41.620   02 Jun 2027 23:30:21.244            99.624                Norilsk          3113.250
       188   02 Jun 2027 23:30:24.466   02 Jun 2027 23:31:22.088            57.622               Magadan1          1800.687
       189   02 Jun 2027 23:32:58.353   02 Jun 2027 23:33:34.746            36.393                Irkutsk          1137.281
       190   02 Jun 2027 23:34:46.627   02 Jun 2027 23:35:57.635            71.008                Irkutsk          2219.000
       191   02 Jun 2027 23:46:50.033   02 Jun 2027 23:47:59.369            69.336                Sumatra          2166.750
       192   02 Jun 2027 23:49:08.795   02 Jun 2027 23:49:49.760            40.965                Sumatra          1280.156
       193   02 Jun 2027 23:58:42.430   02 Jun 2027 23:58:56.252            13.822                Sumatra           431.937
       194   03 Jun 2027 00:22:42.399   03 Jun 2027 00:23:15.913            33.514            RioGallegos          1047.313
       195   03 Jun 2027 00:30:37.764   03 Jun 2027 00:30:55.263            17.499            RioGallegos           546.844
       196   03 Jun 2027 01:01:23.338   03 Jun 2027 01:02:54.122            90.784                Anadyr2          2837.000
       197   03 Jun 2027 01:02:54.122   03 Jun 2027 01:03:38.499            44.377                Anadyr1          1386.781
       198   03 Jun 2027 01:04:38.257   03 Jun 2027 01:06:18.684           100.427                Norilsk          3138.344
       199   03 Jun 2027 01:06:31.234   03 Jun 2027 01:06:51.374            20.140               Magadan2           629.375
       200   03 Jun 2027 01:08:30.580   03 Jun 2027 01:10:29.482           118.902                Irkutsk          3715.688
       201   03 Jun 2027 01:13:53.782   03 Jun 2027 01:14:17.377            23.595                Irkutsk           737.344
       202   03 Jun 2027 01:15:49.256   03 Jun 2027 01:16:16.225            26.969                Irkutsk           842.781
       203   03 Jun 2027 01:16:52.627   03 Jun 2027 01:17:26.896            34.269                  Delhi          1070.906
       204   03 Jun 2027 01:21:13.596   03 Jun 2027 01:21:31.864            18.268                  Delhi           570.875
       205   03 Jun 2027 01:23:38.585   03 Jun 2027 01:24:16.993            38.408                Sumatra          1200.250
       206   03 Jun 2027 01:27:21.966   03 Jun 2027 01:28:39.200            77.234                Sumatra          2413.563
       207   03 Jun 2027 02:02:20.266   03 Jun 2027 02:02:32.746            12.480            RioGallegos           390.000
       208   03 Jun 2027 02:04:41.002   03 Jun 2027 02:04:55.174            14.172            RioGallegos           442.875
       209   03 Jun 2027 02:06:44.810   03 Jun 2027 02:07:20.780            35.970            RioGallegos          1124.062
       210   03 Jun 2027 02:37:22.670   03 Jun 2027 02:37:40.595            17.925                Anadyr1           560.156
       211   03 Jun 2027 02:37:41.087   03 Jun 2027 02:37:52.291            11.204                Anadyr2           350.125
       212   03 Jun 2027 02:40:38.587   03 Jun 2027 02:42:14.660            96.073                Norilsk          3002.281
       213   03 Jun 2027 02:43:01.807   03 Jun 2027 02:43:52.832            51.025              Murmansk2          1594.531
       214   03 Jun 2027 02:44:25.555   03 Jun 2027 02:44:51.245            25.690                Novosib           802.813
       215   03 Jun 2027 02:45:01.018   03 Jun 2027 02:45:54.730            53.712                Irkutsk          1678.500
       216   03 Jun 2027 02:46:49.782   03 Jun 2027 02:47:54.522            64.740                Irkutsk          2023.125
       217   03 Jun 2027 02:54:35.179   03 Jun 2027 02:56:16.722           101.543                  Delhi          3173.219
       218   03 Jun 2027 04:25:17.010   03 Jun 2027 04:25:55.494            38.484                Norilsk          1202.625
       219   03 Jun 2027 04:26:02.156   03 Jun 2027 04:27:59.394           117.238                Norilsk          3663.688
       220   03 Jun 2027 04:29:09.166   03 Jun 2027 04:30:37.821            88.655                Novosib          2770.469
       221   03 Jun 2027 04:30:45.745   03 Jun 2027 04:33:16.370           150.625                 Moscow          4707.031
       222   03 Jun 2027 04:33:46.339   03 Jun 2027 04:33:58.158            11.819                 Moscow           369.344
       223   03 Jun 2027 06:03:30.513   03 Jun 2027 06:04:20.328            49.815              Murmansk1          1556.719
       224   03 Jun 2027 06:06:37.105   03 Jun 2027 06:07:01.221            24.116              Murmansk1           753.625
       225   03 Jun 2027 06:22:23.142   03 Jun 2027 06:23:46.379            83.237               CapeTown          2601.156
       226   03 Jun 2027 06:26:59.229   03 Jun 2027 06:27:46.539            47.310               CapeTown          1478.437
       227   03 Jun 2027 07:25:20.401   03 Jun 2027 07:25:24.658             4.257               Magadan2           133.031
       228   03 Jun 2027 07:25:37.207   03 Jun 2027 07:26:53.583            76.376                Anadyr2          2386.750
       229   03 Jun 2027 07:27:17.264   03 Jun 2027 07:28:06.469            49.205               Magadan1          1537.656
       230   03 Jun 2027 07:28:43.114   03 Jun 2027 07:29:17.219            34.105                Anadyr2          1065.781
       231   03 Jun 2027 09:00:55.812   03 Jun 2027 09:02:40.733           104.921                Anadyr1          3278.781
       232   03 Jun 2027 09:02:57.518   03 Jun 2027 09:03:04.866             7.348                Anadyr1           229.625
       233   03 Jun 2027 09:03:10.711   03 Jun 2027 09:03:25.248            14.537                Anadyr2           454.281
       234   03 Jun 2027 09:03:25.248   03 Jun 2027 09:05:24.308           119.060                Anadyr1          3720.625
       235   03 Jun 2027 10:36:02.356   03 Jun 2027 10:37:57.231           114.875               Magadan1          3589.844
       236   03 Jun 2027 10:38:16.582   03 Jun 2027 10:38:39.926            23.344               Magadan2           729.500
       237   03 Jun 2027 10:38:52.070   03 Jun 2027 10:40:59.267           127.197               Magadan1          3974.906
       238   03 Jun 2027 10:41:44.850   03 Jun 2027 10:42:02.121            17.271                Norilsk           539.719
       239   03 Jun 2027 10:42:08.419   03 Jun 2027 10:43:08.656            60.237                Novosib          1882.406
       240   03 Jun 2027 11:17:29.552   03 Jun 2027 11:18:30.544            60.992            RioGallegos          1906.000
       241   03 Jun 2027 11:52:42.543   03 Jun 2027 11:53:21.917            39.374                Sumatra          1230.437
       242   03 Jun 2027 12:06:06.484   03 Jun 2027 12:06:46.049            39.565                Irkutsk          1236.406
       243   03 Jun 2027 12:09:11.043   03 Jun 2027 12:10:03.896            52.853                Irkutsk          1651.656
       244   03 Jun 2027 12:19:58.327   03 Jun 2027 12:20:27.634            29.307                Norilsk           915.844
       245   03 Jun 2027 12:55:43.751   03 Jun 2027 12:58:29.629           165.878            RioGallegos          5183.687
       246   03 Jun 2027 12:59:54.071   03 Jun 2027 13:00:38.016            43.945            RioGallegos          1373.281
       247   03 Jun 2027 13:30:00.773   03 Jun 2027 13:30:20.922            20.149                Sumatra           629.656
       248   03 Jun 2027 13:33:19.235   03 Jun 2027 13:34:51.828            92.593                Sumatra          2893.531
       249   03 Jun 2027 13:45:44.816   03 Jun 2027 13:50:04.729           259.913                Irkutsk          8122.281
       250   03 Jun 2027 15:15:34.746   03 Jun 2027 15:17:22.870           108.124                  Delhi          3378.875
       251   03 Jun 2027 15:24:04.360   03 Jun 2027 15:27:29.345           204.985                Novosib          6405.781
       252   03 Jun 2027 16:43:49.648   03 Jun 2027 16:43:56.989             7.341               CapeTown           229.406
       253   03 Jun 2027 16:57:31.838   03 Jun 2027 16:58:14.219            42.381                 Moscow          1324.406
       254   03 Jun 2027 17:00:44.079   03 Jun 2027 17:02:05.805            81.726                 Moscow          2553.938
       255   03 Jun 2027 17:07:00.306   03 Jun 2027 17:07:04.651             4.345                 Moscow           135.781
       256   03 Jun 2027 17:07:32.510   03 Jun 2027 17:07:58.489            25.979              Murmansk2           811.844
       257   03 Jun 2027 17:09:06.172   03 Jun 2027 17:09:32.815            26.643              Murmansk2           832.594
       258   03 Jun 2027 17:15:52.067   03 Jun 2027 17:16:53.544            61.477                Anadyr1          1921.156
       259   03 Jun 2027 17:17:49.558   03 Jun 2027 17:18:18.399            28.841                Anadyr1           901.281
       260   03 Jun 2027 17:19:31.495   03 Jun 2027 17:19:46.870            15.375                Anadyr1           480.469
       261   03 Jun 2027 17:20:57.017   03 Jun 2027 17:21:44.955            47.938                Anadyr2          1498.063
       262   03 Jun 2027 18:14:15.746   03 Jun 2027 18:14:37.020            21.274               CapeTown           664.812
       263   03 Jun 2027 18:18:19.194   03 Jun 2027 18:19:11.542            52.348               CapeTown          1635.875
       264   03 Jun 2027 18:38:38.822   03 Jun 2027 18:41:45.163           186.341                 Moscow          5823.156
       265   03 Jun 2027 18:43:07.225   03 Jun 2027 18:44:54.632           107.407              Murmansk2          3356.469
       266   03 Jun 2027 18:55:48.506   03 Jun 2027 18:56:13.158            24.652               Magadan1           770.375
       267   03 Jun 2027 18:57:38.051   03 Jun 2027 18:58:10.614            32.563               Magadan1          1017.594
       268   03 Jun 2027 19:47:52.043   03 Jun 2027 19:48:17.299            25.256               CapeTown           789.250
       269   03 Jun 2027 19:51:03.727   03 Jun 2027 19:51:37.444            33.717               CapeTown          1053.656
       270   03 Jun 2027 20:22:15.166   03 Jun 2027 20:23:00.059            44.893              Murmansk1          1402.906
       271   03 Jun 2027 20:27:08.006   03 Jun 2027 20:28:37.784            89.778                Anadyr1          2805.562
       272   03 Jun 2027 20:29:27.902   03 Jun 2027 20:32:37.845           189.943               Magadan1          5935.719
       273   03 Jun 2027 20:34:32.852   03 Jun 2027 20:35:12.249            39.397               Magadan2          1231.156
       274   03 Jun 2027 20:41:06.147   03 Jun 2027 20:41:07.587             1.440               Magadan2            45.000
       275   03 Jun 2027 22:02:53.557   03 Jun 2027 22:04:51.178           117.621                Anadyr1          3675.656
       276   03 Jun 2027 22:04:51.854   03 Jun 2027 22:06:36.542           104.688                Anadyr2          3271.500
       277   03 Jun 2027 22:07:12.033   03 Jun 2027 22:11:12.929           240.896               Magadan2          7528.000
       278   03 Jun 2027 22:14:42.931   03 Jun 2027 22:15:00.641            17.710               Magadan2           553.437
       279   03 Jun 2027 22:15:30.507   03 Jun 2027 22:16:04.204            33.697               Magadan2          1053.031
       280   03 Jun 2027 22:57:16.399   03 Jun 2027 22:59:14.227           117.828            RioGallegos          3682.125
       281   03 Jun 2027 22:59:31.195   03 Jun 2027 23:00:18.277            47.082            RioGallegos          1471.312
       282   03 Jun 2027 23:38:29.426   03 Jun 2027 23:39:18.808            49.382                Anadyr2          1543.188
       283   03 Jun 2027 23:39:21.459   03 Jun 2027 23:39:38.683            17.224                Anadyr2           538.250
       284   03 Jun 2027 23:40:20.107   03 Jun 2027 23:40:40.340            20.233                Anadyr2           632.281
       285   03 Jun 2027 23:40:42.400   03 Jun 2027 23:41:56.058            73.658                Norilsk          2301.812
       286   03 Jun 2027 23:42:16.393   03 Jun 2027 23:43:02.169            45.776               Magadan1          1430.500
       287   03 Jun 2027 23:44:50.107   03 Jun 2027 23:46:00.614            70.507               Magadan1          2203.344
       288   03 Jun 2027 23:46:12.437   03 Jun 2027 23:46:15.174             2.737                Irkutsk            85.531
       289   03 Jun 2027 23:46:37.927   03 Jun 2027 23:48:12.684            94.757                Novosib          2961.156
       290   03 Jun 2027 23:51:20.258   03 Jun 2027 23:51:33.895            13.637                Novosib           426.156
       291   03 Jun 2027 23:58:36.676   03 Jun 2027 23:59:17.569            40.893                Sumatra          1277.906
       292   04 Jun 2027 00:00:58.453   04 Jun 2027 00:01:21.636            23.183                Sumatra           724.469
       293   04 Jun 2027 00:02:16.497   04 Jun 2027 00:02:25.653             9.156                Sumatra           286.125
       294   04 Jun 2027 00:06:15.520   04 Jun 2027 00:06:45.684            30.164                Sumatra           942.625
       295   04 Jun 2027 00:34:30.419   04 Jun 2027 00:34:39.306             8.887            RioGallegos           277.719
       296   04 Jun 2027 00:35:26.227   04 Jun 2027 00:35:53.943            27.716            RioGallegos           866.125
       297   04 Jun 2027 00:37:27.654   04 Jun 2027 00:37:38.817            11.163            RioGallegos           348.844
       298   04 Jun 2027 00:39:52.006   04 Jun 2027 00:40:17.985            25.979            RioGallegos           811.844
       299   04 Jun 2027 00:43:23.053   04 Jun 2027 00:44:12.092            49.039            RioGallegos          1532.469
       300   04 Jun 2027 01:13:48.095   04 Jun 2027 01:14:14.712            26.617                Anadyr2           831.781
       301   04 Jun 2027 01:14:55.466   04 Jun 2027 01:15:25.853            30.387                Anadyr2           949.594
       302   04 Jun 2027 01:15:25.853   04 Jun 2027 01:15:47.792            21.939                Anadyr1           685.594
       303   04 Jun 2027 01:16:40.616   04 Jun 2027 01:18:56.011           135.395                Norilsk          4231.094
       304   04 Jun 2027 01:20:33.683   04 Jun 2027 01:22:29.066           115.383                Irkutsk          3605.719
       305   04 Jun 2027 01:23:35.195   04 Jun 2027 01:25:00.691            85.496                Irkutsk          2671.750
       306   04 Jun 2027 01:36:27.839   04 Jun 2027 01:39:15.021           167.182                Sumatra          5224.438
       307   04 Jun 2027 02:47:20.974   04 Jun 2027 02:47:53.268            32.294                Anadyr2          1009.188
       308   04 Jun 2027 02:49:12.102   04 Jun 2027 02:49:35.270            23.168                Anadyr1           724.000
       309   04 Jun 2027 02:51:35.522   04 Jun 2027 02:51:58.084            22.562                Anadyr1           705.062
       310   04 Jun 2027 02:52:40.308   04 Jun 2027 02:53:39.686            59.378                Norilsk          1855.563
       311   04 Jun 2027 02:54:59.503   04 Jun 2027 02:55:58.539            59.036              Murmansk2          1844.875
       312   04 Jun 2027 02:56:13.101   04 Jun 2027 02:56:32.546            19.445              Murmansk1           607.656
       313   04 Jun 2027 02:56:35.459   04 Jun 2027 02:56:48.801            13.342                Novosib           416.937
       314   04 Jun 2027 02:57:11.921   04 Jun 2027 02:58:13.248            61.327                Irkutsk          1916.469
       315   04 Jun 2027 02:58:40.209   04 Jun 2027 02:58:55.912            15.703                Irkutsk           490.719
       316   04 Jun 2027 03:00:14.175   04 Jun 2027 03:00:30.916            16.741                Norilsk           523.156
       317   04 Jun 2027 03:00:41.410   04 Jun 2027 03:02:13.189            91.779                Irkutsk          2868.094
       318   04 Jun 2027 03:02:37.183   04 Jun 2027 03:03:10.915            33.732                Norilsk          1054.125
       319   04 Jun 2027 03:03:12.566   04 Jun 2027 03:03:38.637            26.071              Murmansk2           814.719
       320   04 Jun 2027 03:04:09.797   04 Jun 2027 03:06:18.196           128.399                  Delhi          4012.469
       321   04 Jun 2027 04:38:19.887   04 Jun 2027 04:38:52.830            32.943              Murmansk1          1029.469
       322   04 Jun 2027 04:38:52.830   04 Jun 2027 04:39:37.102            44.272              Murmansk2          1383.500
       323   04 Jun 2027 04:40:05.574   04 Jun 2027 04:40:38.291            32.717                Novosib          1022.406
       324   04 Jun 2027 04:41:04.621   04 Jun 2027 04:42:08.712            64.091                Novosib          2002.844
       325   04 Jun 2027 04:42:19.663   04 Jun 2027 04:43:25.762            66.099                 Moscow          2065.594
       326   04 Jun 2027 04:43:41.628   04 Jun 2027 04:44:27.740            46.112                 Moscow          1441.000
       327   04 Jun 2027 04:58:24.541   04 Jun 2027 04:59:55.254            90.713               CapeTown          2834.781
       328   04 Jun 2027 05:01:32.689   04 Jun 2027 05:01:43.920            11.231               CapeTown           350.969
       329   04 Jun 2027 05:54:42.710   04 Jun 2027 05:56:36.558           113.848                Anadyr2          3557.750
       330   04 Jun 2027 06:02:15.907   04 Jun 2027 06:03:09.722            53.815                Anadyr2          1681.719
       331   04 Jun 2027 06:13:39.443   04 Jun 2027 06:14:50.758            71.315                 Moscow          2228.594
       332   04 Jun 2027 06:34:48.579   04 Jun 2027 06:35:47.840            59.261               CapeTown          1851.906
       333   04 Jun 2027 06:39:00.625   04 Jun 2027 06:40:01.347            60.722               CapeTown          1897.563
       334   04 Jun 2027 07:35:46.688   04 Jun 2027 07:35:52.153             5.465                Anadyr2           170.781
       335   04 Jun 2027 07:36:21.041   04 Jun 2027 07:36:40.934            19.893               Magadan1           621.656
       336   04 Jun 2027 07:36:41.605   04 Jun 2027 07:37:37.242            55.637                Anadyr1          1738.656
       337   04 Jun 2027 07:37:48.505   04 Jun 2027 07:38:58.017            69.512               Magadan2          2172.250
       338   04 Jun 2027 07:39:20.340   04 Jun 2027 07:39:45.568            25.228               Magadan2           788.375
       339   04 Jun 2027 07:40:05.775   04 Jun 2027 07:40:17.064            11.289               Magadan1           352.781
       340   04 Jun 2027 07:41:32.145   04 Jun 2027 07:42:00.966            28.821                Anadyr1           900.656
       341   04 Jun 2027 07:50:05.521   04 Jun 2027 07:50:29.383            23.862                 Moscow           745.687
       342   04 Jun 2027 08:23:55.427   04 Jun 2027 08:24:22.123            26.696            RioGallegos           834.250
       343   04 Jun 2027 09:12:07.580   04 Jun 2027 09:13:10.606            63.026               Magadan1          1969.563
       344   04 Jun 2027 09:13:54.518   04 Jun 2027 09:13:59.223             4.705               Magadan2           147.031
       345   04 Jun 2027 09:15:20.040   04 Jun 2027 09:15:27.901             7.861               Magadan1           245.656
       346   04 Jun 2027 09:15:45.142   04 Jun 2027 09:16:17.993            32.851               Magadan2          1026.594
       347   04 Jun 2027 09:16:44.477   04 Jun 2027 09:17:08.848            24.371               Magadan2           761.594
       348   04 Jun 2027 09:17:45.646   04 Jun 2027 09:19:04.673            79.027               Magadan1          2469.594
       349   04 Jun 2027 10:47:39.700   04 Jun 2027 10:50:30.847           171.147               Magadan1          5348.344
       350   04 Jun 2027 10:50:45.908   04 Jun 2027 10:51:49.008            63.100               Magadan2          1971.875
       351   04 Jun 2027 10:51:56.879   04 Jun 2027 10:51:57.283             0.404                Novosib            12.625
       352   04 Jun 2027 10:51:57.862   04 Jun 2027 10:52:11.099            13.237                Irkutsk           413.656
       353   04 Jun 2027 10:52:18.303   04 Jun 2027 10:52:58.363            40.060               Magadan2          1251.875
       354   04 Jun 2027 10:52:58.363   04 Jun 2027 10:54:04.291            65.928               Magadan1          2060.250
       355   04 Jun 2027 10:54:12.953   04 Jun 2027 10:55:09.491            56.538                Novosib          1766.813
       356   04 Jun 2027 11:30:27.684   04 Jun 2027 11:30:37.522             9.838            RioGallegos           307.437
       357   04 Jun 2027 11:32:47.987   04 Jun 2027 11:33:02.531            14.544            RioGallegos           454.500
       358   04 Jun 2027 11:36:54.749   04 Jun 2027 11:37:40.117            45.368            RioGallegos          1417.750
       359   04 Jun 2027 12:04:32.345   04 Jun 2027 12:05:11.702            39.357                Sumatra          1229.906
       360   04 Jun 2027 12:18:18.632   04 Jun 2027 12:19:54.149            95.517                Irkutsk          2984.906
       361   04 Jun 2027 12:22:54.327   04 Jun 2027 12:23:21.807            27.480                Norilsk           858.750
       362   04 Jun 2027 12:33:46.578   04 Jun 2027 12:33:49.519             2.941                Norilsk            91.906
       363   04 Jun 2027 12:34:23.478   04 Jun 2027 12:34:26.628             3.150                Norilsk            98.437
       364   04 Jun 2027 13:08:28.751   04 Jun 2027 13:10:15.010           106.259            RioGallegos          3320.594
       365   04 Jun 2027 13:16:15.036   04 Jun 2027 13:16:58.122            43.086            RioGallegos          1346.438
       366   04 Jun 2027 13:43:01.981   04 Jun 2027 13:45:09.279           127.298                Sumatra          3978.063
       367   04 Jun 2027 13:56:05.038   04 Jun 2027 13:57:06.212            61.174                Novosib          1911.687
       368   04 Jun 2027 13:58:56.691   04 Jun 2027 14:01:50.523           173.832                Irkutsk          5432.250
       369   04 Jun 2027 15:29:17.508   04 Jun 2027 15:31:59.958           162.450                  Delhi          5076.562
       370   04 Jun 2027 15:36:27.614   04 Jun 2027 15:37:12.374            44.760              Murmansk2          1398.750
       371   04 Jun 2027 15:37:29.917   04 Jun 2027 15:38:48.606            78.689                Novosib          2459.031
       372   04 Jun 2027 15:39:11.947   04 Jun 2027 15:40:20.332            68.385                Novosib          2137.031
       373   04 Jun 2027 15:43:27.596   04 Jun 2027 15:43:56.394            28.798                Norilsk           899.937
       374   04 Jun 2027 15:47:25.765   04 Jun 2027 15:47:38.156            12.391                Norilsk           387.219
       375   04 Jun 2027 16:51:02.517   04 Jun 2027 16:51:20.992            18.475               CapeTown           577.344
       376   04 Jun 2027 16:54:50.032   04 Jun 2027 16:55:07.516            17.484               CapeTown           546.375
       377   04 Jun 2027 16:55:46.170   04 Jun 2027 16:55:58.975            12.805               CapeTown           400.156
       378   04 Jun 2027 17:09:51.148   04 Jun 2027 17:10:57.948            66.800                 Moscow          2087.500
       379   04 Jun 2027 17:13:11.336   04 Jun 2027 17:13:42.726            31.390              Murmansk1           980.938
       380   04 Jun 2027 17:14:11.562   04 Jun 2027 17:14:35.540            23.978                 Moscow           749.312
       381   04 Jun 2027 17:15:48.053   04 Jun 2027 17:17:24.963            96.910              Murmansk2          3028.437
       382   04 Jun 2027 17:27:42.509   04 Jun 2027 17:28:14.959            32.450                Anadyr2          1014.063
       383   04 Jun 2027 17:28:52.120   04 Jun 2027 17:28:52.808             0.688                Anadyr2            21.500
       384   04 Jun 2027 17:29:44.166   04 Jun 2027 17:30:08.311            24.145                Anadyr2           754.531
       385   04 Jun 2027 17:30:32.050   04 Jun 2027 17:30:35.455             3.405                Anadyr1           106.406
       386   04 Jun 2027 17:30:49.843   04 Jun 2027 17:31:09.788            19.945                Anadyr2           623.281
       387   04 Jun 2027 18:22:27.913   04 Jun 2027 18:24:45.061           137.148               CapeTown          4285.875
       388   04 Jun 2027 18:52:02.315   04 Jun 2027 18:55:16.036           193.721              Murmansk2          6053.781
       389   04 Jun 2027 18:56:28.679   04 Jun 2027 18:57:15.343            46.664              Murmansk1          1458.250
       390   04 Jun 2027 19:07:04.345   04 Jun 2027 19:07:17.355            13.010               Magadan2           406.562
       391   04 Jun 2027 19:07:51.443   04 Jun 2027 19:08:34.264            42.821               Magadan2          1338.156
       392   04 Jun 2027 19:10:17.436   04 Jun 2027 19:10:37.227            19.791               Magadan1           618.469
       393   04 Jun 2027 20:00:34.318   04 Jun 2027 20:00:45.282            10.964               CapeTown           342.625
       394   04 Jun 2027 20:02:45.487   04 Jun 2027 20:04:12.934            87.447               CapeTown          2732.719
       395   04 Jun 2027 20:39:00.360   04 Jun 2027 20:40:38.793            98.433                Anadyr2          3076.031
       396   04 Jun 2027 20:40:40.511   04 Jun 2027 20:43:10.491           149.980                Anadyr1          4686.875
       397   04 Jun 2027 20:43:11.227   04 Jun 2027 20:43:57.229            46.002               Magadan1          1437.562
       398   04 Jun 2027 20:45:00.590   04 Jun 2027 20:46:01.327            60.737               Magadan1          1898.031
       399   04 Jun 2027 22:14:54.274   04 Jun 2027 22:18:36.330           222.056                Anadyr2          6939.250
       400   04 Jun 2027 22:18:37.524   04 Jun 2027 22:21:36.427           178.903                Norilsk          5590.719
       401   04 Jun 2027 22:22:59.982   04 Jun 2027 22:23:18.526            18.544               Magadan1           579.500
       402   04 Jun 2027 22:23:26.417   04 Jun 2027 22:24:07.840            41.423                Irkutsk          1294.469
       403   04 Jun 2027 22:24:31.431   04 Jun 2027 22:25:13.242            41.811                Irkutsk          1306.594
       404   04 Jun 2027 23:09:07.488   04 Jun 2027 23:10:41.594            94.106            RioGallegos          2940.812
       405   04 Jun 2027 23:11:14.721   04 Jun 2027 23:12:11.221            56.500            RioGallegos          1765.625
       406   04 Jun 2027 23:50:25.600   04 Jun 2027 23:51:05.634            40.034                Anadyr1          1251.063
       407   04 Jun 2027 23:51:42.710   04 Jun 2027 23:52:18.244            35.534                Anadyr1          1110.437
       408   04 Jun 2027 23:53:02.137   04 Jun 2027 23:53:32.815            30.678                Anadyr1           958.688
       409   04 Jun 2027 23:53:48.035   04 Jun 2027 23:55:08.144            80.109               Magadan2          2503.406
       410   04 Jun 2027 23:56:06.580   04 Jun 2027 23:56:16.092             9.512                Norilsk           297.250
       411   04 Jun 2027 23:56:30.105   04 Jun 2027 23:56:47.305            17.200               Magadan2           537.500
       412   04 Jun 2027 23:56:48.044   04 Jun 2027 23:57:49.560            61.516                Irkutsk          1922.375
       413   04 Jun 2027 23:58:06.194   04 Jun 2027 23:59:26.473            80.279                Novosib          2508.719
       414   05 Jun 2027 00:00:58.302   05 Jun 2027 00:01:03.928             5.626                Novosib           175.813
       415   05 Jun 2027 00:10:29.489   05 Jun 2027 00:12:21.866           112.377                Sumatra          3511.781
       416   05 Jun 2027 00:19:06.084   05 Jun 2027 00:20:02.178            56.094                Sumatra          1752.938
       417   05 Jun 2027 00:50:36.177   05 Jun 2027 00:50:40.787             4.610            RioGallegos           144.063
       418   05 Jun 2027 00:51:17.893   05 Jun 2027 00:51:39.709            21.816            RioGallegos           681.750
       419   05 Jun 2027 00:56:11.379   05 Jun 2027 00:56:24.540            13.161            RioGallegos           411.281
       420   05 Jun 2027 00:57:14.154   05 Jun 2027 00:57:23.044             8.890            RioGallegos           277.813
       421   05 Jun 2027 01:24:58.009   05 Jun 2027 01:25:44.153            46.144                Anadyr2          1442.000
       422   05 Jun 2027 01:25:54.774   05 Jun 2027 01:26:15.124            20.350                Anadyr1           635.938
       423   05 Jun 2027 01:26:56.796   05 Jun 2027 01:27:33.380            36.584                Anadyr1          1143.250
       424   05 Jun 2027 01:28:42.975   05 Jun 2027 01:30:45.684           122.709                Norilsk          3834.656
       425   05 Jun 2027 01:32:37.447   05 Jun 2027 01:34:35.122           117.675                Novosib          3677.344
       426   05 Jun 2027 01:35:53.909   05 Jun 2027 01:36:17.309            23.400                Novosib           731.250
       427   05 Jun 2027 01:37:23.314   05 Jun 2027 01:37:36.071            12.757                Novosib           398.656
       428   05 Jun 2027 01:37:46.847   05 Jun 2027 01:38:21.912            35.065                Irkutsk          1095.781
       429   05 Jun 2027 01:42:38.010   05 Jun 2027 01:43:39.244            61.234                  Delhi          1913.563
       430   05 Jun 2027 01:49:48.291   05 Jun 2027 01:51:01.909            73.618                Sumatra          2300.562
       431   05 Jun 2027 02:21:40.044   05 Jun 2027 02:22:22.778            42.734            RioGallegos          1335.438
       432   05 Jun 2027 02:24:47.043   05 Jun 2027 02:25:01.518            14.475            RioGallegos           452.344
       433   05 Jun 2027 02:25:30.900   05 Jun 2027 02:26:48.757            77.857            RioGallegos          2433.031
       434   05 Jun 2027 03:10:26.016   05 Jun 2027 03:11:15.906            49.890                Norilsk          1559.062
       435   05 Jun 2027 03:11:19.402   05 Jun 2027 03:11:56.490            37.088                 Moscow          1159.000
       436   05 Jun 2027 03:12:01.323   05 Jun 2027 03:13:01.703            60.380                 Moscow          1886.875
       437   05 Jun 2027 03:13:25.758   05 Jun 2027 03:14:02.270            36.512              Murmansk1          1141.000
       438   05 Jun 2027 03:14:16.900   05 Jun 2027 03:14:33.973            17.073                Novosib           533.531
       439   05 Jun 2027 03:14:37.406   05 Jun 2027 03:16:37.554           120.148                Novosib          3754.625
       440   05 Jun 2027 03:16:52.906   05 Jun 2027 03:17:05.806            12.900                  Delhi           403.125
       441   05 Jun 2027 03:17:54.863   05 Jun 2027 03:20:10.599           135.736                  Delhi          4241.750
       442   05 Jun 2027 04:49:49.808   05 Jun 2027 04:50:39.653            49.845                Novosib          1557.656
       443   05 Jun 2027 04:53:07.399   05 Jun 2027 04:53:23.580            16.181                 Moscow           505.656
       444   05 Jun 2027 04:53:28.757   05 Jun 2027 04:53:34.718             5.961                 Moscow           186.281
       445   05 Jun 2027 04:54:10.659   05 Jun 2027 04:54:18.574             7.915                 Moscow           247.344
       446   05 Jun 2027 04:54:34.057   05 Jun 2027 04:55:11.391            37.334                 Moscow          1166.688
       447   05 Jun 2027 04:55:30.838   05 Jun 2027 04:55:49.732            18.894                 Moscow           590.437
       448   05 Jun 2027 05:10:11.428   05 Jun 2027 05:12:15.300           123.872               CapeTown          3871.000
       449   05 Jun 2027 06:06:41.551   05 Jun 2027 06:07:21.686            40.135                Anadyr2          1254.219
       450   05 Jun 2027 06:09:19.466   05 Jun 2027 06:09:27.326             7.860               Magadan1           245.625
       451   05 Jun 2027 06:10:01.331   05 Jun 2027 06:10:52.797            51.466                Anadyr1          1608.312
       452   05 Jun 2027 06:13:06.448   05 Jun 2027 06:14:24.841            78.393                Anadyr1          2449.781
       453   05 Jun 2027 06:14:40.146   05 Jun 2027 06:15:06.777            26.631               Magadan1           832.219
       454   05 Jun 2027 06:15:48.587   05 Jun 2027 06:16:16.247            27.660                Anadyr1           864.375
       455   05 Jun 2027 06:25:58.717   05 Jun 2027 06:26:41.506            42.789                 Moscow          1337.156
       456   05 Jun 2027 06:27:14.211   05 Jun 2027 06:27:16.561             2.350                 Moscow            73.437
       457   05 Jun 2027 06:47:22.459   05 Jun 2027 06:47:54.478            32.019               CapeTown          1000.594
       458   05 Jun 2027 06:50:42.149   05 Jun 2027 06:52:22.524           100.375               CapeTown          3136.719
       459   05 Jun 2027 07:47:28.570   05 Jun 2027 07:47:59.164            30.594               Magadan1           956.062
       460   05 Jun 2027 07:48:24.385   05 Jun 2027 07:48:32.346             7.961               Magadan1           248.781
       461   05 Jun 2027 07:48:53.583   05 Jun 2027 07:50:14.162            80.579                Anadyr2          2518.094
       462   05 Jun 2027 07:50:37.643   05 Jun 2027 07:52:41.399           123.756                Anadyr2          3867.375
       463   05 Jun 2027 09:23:05.975   05 Jun 2027 09:23:39.268            33.293                Anadyr2          1040.406
       464   05 Jun 2027 09:25:08.391   05 Jun 2027 09:25:16.235             7.844               Magadan2           245.125
       465   05 Jun 2027 09:25:41.779   05 Jun 2027 09:25:52.691            10.912               Magadan1           341.000
       466   05 Jun 2027 09:27:20.698   05 Jun 2027 09:27:42.260            21.562               Magadan2           673.812
       467   05 Jun 2027 09:27:58.259   05 Jun 2027 09:28:34.028            35.769               Magadan2          1117.781
       468   05 Jun 2027 09:28:39.276   05 Jun 2027 09:29:11.151            31.875               Magadan1           996.094
       469   05 Jun 2027 09:29:24.551   05 Jun 2027 09:30:43.826            79.275                Anadyr1          2477.344
       470   05 Jun 2027 10:46:45.365   05 Jun 2027 10:47:59.606            74.241                Sumatra          2320.031
       471   05 Jun 2027 11:02:31.947   05 Jun 2027 11:02:35.934             3.987                Irkutsk           124.594
       472   05 Jun 2027 11:02:37.540   05 Jun 2027 11:02:54.019            16.479               Magadan1           514.969
       473   05 Jun 2027 11:02:59.081   05 Jun 2027 11:03:49.682            50.601                Irkutsk          1581.281
       474   05 Jun 2027 11:04:22.231   05 Jun 2027 11:04:51.067            28.836                Irkutsk           901.125
       475   05 Jun 2027 11:04:56.613   05 Jun 2027 11:05:32.823            36.210               Magadan2          1131.563
       476   05 Jun 2027 11:05:32.823   05 Jun 2027 11:05:40.664             7.841               Magadan1           245.031
       477   05 Jun 2027 11:05:48.907   05 Jun 2027 11:06:04.258            15.351                Norilsk           479.719
       478   05 Jun 2027 11:06:17.451   05 Jun 2027 11:06:46.574            29.123                Novosib           910.094
       479   05 Jun 2027 11:07:01.638   05 Jun 2027 11:07:04.248             2.610                Novosib            81.563
       480   05 Jun 2027 11:41:42.469   05 Jun 2027 11:42:43.518            61.049            RioGallegos          1907.781
       481   05 Jun 2027 11:44:47.638   05 Jun 2027 11:45:37.595            49.957            RioGallegos          1561.156
       482   05 Jun 2027 12:17:38.491   05 Jun 2027 12:19:24.175           105.684                Sumatra          3302.625
