uniorb/output/strategy_4/Drop/Drop_KinoSat_110609.txt

KinoSat_110609
-------------------------
    Access    *     Start Time (UTCG)     *     Stop Time (UTCG)  *   Duration (s)        *       Station  *  Data (Mbytes)
         1   01 Jun 2027 03:03:51.803   01 Jun 2027 03:04:13.851            22.048                Anadyr1           689.000
         2   01 Jun 2027 03:04:17.469   01 Jun 2027 03:04:28.931            11.462               Magadan2           358.188
         3   01 Jun 2027 03:04:35.882   01 Jun 2027 03:05:15.437            39.555                Anadyr2          1236.094
         4   01 Jun 2027 03:05:37.230   01 Jun 2027 03:06:10.503            33.273               Magadan2          1039.781
         5   01 Jun 2027 03:06:10.503   01 Jun 2027 03:06:38.440            27.937               Magadan1           873.031
         6   01 Jun 2027 03:06:51.088   01 Jun 2027 03:07:42.902            51.814               Magadan1          1619.187
         7   01 Jun 2027 03:07:42.902   01 Jun 2027 03:07:58.223            15.321               Magadan2           478.781
         8   01 Jun 2027 03:08:01.172   01 Jun 2027 03:10:21.471           140.299                Anadyr2          4384.344
         9   01 Jun 2027 03:10:21.471   01 Jun 2027 03:10:29.692             8.221                Anadyr1           256.906
        10   01 Jun 2027 03:10:44.954   01 Jun 2027 03:11:07.687            22.733               Magadan2           710.406
        11   01 Jun 2027 04:40:05.360   01 Jun 2027 04:40:32.174            26.814                Irkutsk           837.938
        12   01 Jun 2027 04:40:40.623   01 Jun 2027 04:42:44.381           123.758               Magadan2          3867.438
        13   01 Jun 2027 04:42:44.381   01 Jun 2027 04:43:12.972            28.591               Magadan1           893.469
        14   01 Jun 2027 04:43:24.691   01 Jun 2027 04:47:06.286           221.595                Anadyr1          6924.844
        15   01 Jun 2027 04:47:18.040   01 Jun 2027 04:47:46.184            28.144               Magadan2           879.500
        16   01 Jun 2027 05:22:54.240   01 Jun 2027 05:25:01.642           127.402            RioGallegos          3981.312
        17   01 Jun 2027 05:25:35.617   01 Jun 2027 05:26:09.111            33.494            RioGallegos          1046.688
        18   01 Jun 2027 06:00:32.594   01 Jun 2027 06:02:30.957           118.363                Sumatra          3698.844
        19   01 Jun 2027 06:04:10.569   01 Jun 2027 06:06:16.404           125.835                Sumatra          3932.344
        20   01 Jun 2027 06:18:23.186   01 Jun 2027 06:19:00.836            37.650                Novosib          1176.563
        21   01 Jun 2027 06:19:15.096   01 Jun 2027 06:23:22.079           246.983                Novosib          7718.219
        22   01 Jun 2027 06:23:26.879   01 Jun 2027 06:24:17.861            50.982                Novosib          1593.188
        23   01 Jun 2027 06:24:26.627   01 Jun 2027 06:24:53.446            26.819              Murmansk1           838.094
        24   01 Jun 2027 06:58:44.462   01 Jun 2027 06:59:11.359            26.897            RioGallegos           840.531
        25   01 Jun 2027 07:00:47.052   01 Jun 2027 07:00:55.698             8.646            RioGallegos           270.187
        26   01 Jun 2027 07:01:30.563   01 Jun 2027 07:02:02.390            31.827            RioGallegos           994.594
        27   01 Jun 2027 07:33:16.538   01 Jun 2027 07:35:24.886           128.348                Sumatra          4010.875
        28   01 Jun 2027 07:38:28.863   01 Jun 2027 07:38:40.345            11.482                Sumatra           358.812
        29   01 Jun 2027 07:42:56.365   01 Jun 2027 07:43:29.730            33.365                  Delhi          1042.656
        30   01 Jun 2027 07:44:03.932   01 Jun 2027 07:46:09.397           125.465                  Delhi          3920.781
        31   01 Jun 2027 07:53:36.780   01 Jun 2027 07:53:43.972             7.192                  Delhi           224.750
        32   01 Jun 2027 07:55:03.036   01 Jun 2027 07:55:59.877            56.841                Novosib          1776.281
        33   01 Jun 2027 07:56:42.065   01 Jun 2027 07:57:21.536            39.471                Irkutsk          1233.469
        34   01 Jun 2027 07:57:25.726   01 Jun 2027 07:59:40.334           134.608                 Moscow          4206.500
        35   01 Jun 2027 08:00:07.084   01 Jun 2027 08:01:13.545            66.461                Novosib          2076.906
        36   01 Jun 2027 08:01:20.359   01 Jun 2027 08:01:30.343             9.984                 Moscow           312.000
        37   01 Jun 2027 09:17:43.575   01 Jun 2027 09:18:55.317            71.742                  Delhi          2241.937
        38   01 Jun 2027 09:20:27.480   01 Jun 2027 09:21:35.367            67.887                  Delhi          2121.469
        39   01 Jun 2027 09:33:32.378   01 Jun 2027 09:36:38.032           185.654                 Moscow          5801.688
        40   01 Jun 2027 09:38:09.988   01 Jun 2027 09:38:37.686            27.698                 Moscow           865.562
        41   01 Jun 2027 11:08:37.825   01 Jun 2027 11:12:19.149           221.324              Murmansk2          6916.375
        42   01 Jun 2027 11:12:19.149   01 Jun 2027 11:13:24.964            65.815              Murmansk1          2056.719
        43   01 Jun 2027 12:16:09.020   01 Jun 2027 12:19:52.843           223.823               CapeTown          6994.469
        44   01 Jun 2027 12:20:41.498   01 Jun 2027 12:22:34.269           112.771               CapeTown          3524.094
        45   01 Jun 2027 12:42:36.975   01 Jun 2027 12:44:25.846           108.871              Murmansk1          3402.219
        46   01 Jun 2027 12:46:18.821   01 Jun 2027 12:47:12.527            53.706              Murmansk2          1678.313
        47   01 Jun 2027 12:48:07.642   01 Jun 2027 12:48:29.497            21.855              Murmansk2           682.969
        48   01 Jun 2027 12:48:43.059   01 Jun 2027 12:48:59.266            16.207              Murmansk2           506.469
        49   01 Jun 2027 12:51:02.461   01 Jun 2027 12:51:08.835             6.374              Murmansk2           199.188
        50   01 Jun 2027 12:51:12.434   01 Jun 2027 12:52:15.366            62.932              Murmansk2          1966.625
        51   01 Jun 2027 12:56:18.040   01 Jun 2027 13:01:53.548           335.508                Anadyr1         10484.625
        52   01 Jun 2027 13:03:34.778   01 Jun 2027 13:05:49.559           134.781                Anadyr2          4211.906
        53   01 Jun 2027 14:31:54.759   01 Jun 2027 14:33:29.042            94.283                Anadyr1          2946.344
        54   01 Jun 2027 14:35:06.760   01 Jun 2027 14:41:18.490           371.730               Magadan1         11616.563
        55   01 Jun 2027 14:41:18.646   01 Jun 2027 14:43:43.263           144.617               Magadan2          4519.281
        56   01 Jun 2027 16:10:09.622   01 Jun 2027 16:11:18.732            69.110               Magadan1          2159.688
        57   01 Jun 2027 16:12:19.174   01 Jun 2027 16:12:43.009            23.835               Magadan2           744.844
        58   01 Jun 2027 16:13:00.860   01 Jun 2027 16:14:07.702            66.842               Magadan2          2088.813
        59   01 Jun 2027 17:04:21.825   01 Jun 2027 17:09:11.914           290.089            RioGallegos          9065.281
        60   01 Jun 2027 17:45:51.726   01 Jun 2027 17:52:09.891           378.165                Norilsk         11817.656
        61   01 Jun 2027 17:53:30.506   01 Jun 2027 17:57:42.357           251.851                Irkutsk          7870.344
        62   01 Jun 2027 18:05:58.723   01 Jun 2027 18:14:08.708           489.985                Sumatra         15312.031
        63   01 Jun 2027 19:24:03.367   01 Jun 2027 19:25:37.653            94.286                Norilsk          2946.438
        64   01 Jun 2027 19:29:12.807   01 Jun 2027 19:32:18.466           185.659                Novosib          5801.844
        65   01 Jun 2027 19:36:40.841   01 Jun 2027 19:41:08.321           267.480                  Delhi          8358.750
        66   01 Jun 2027 21:00:38.807   01 Jun 2027 21:05:32.472           293.665              Murmansk1          9177.031
        67   01 Jun 2027 22:35:45.867   01 Jun 2027 22:36:27.936            42.069              Murmansk1          1314.656
        68   01 Jun 2027 22:38:23.969   01 Jun 2027 22:42:04.896           220.927              Murmansk1          6903.969
        69   01 Jun 2027 22:43:34.054   01 Jun 2027 22:45:00.697            86.643                 Moscow          2707.594
        70   01 Jun 2027 22:45:49.382   01 Jun 2027 22:47:46.016           116.634                 Moscow          3644.813
        71   01 Jun 2027 23:05:52.895   01 Jun 2027 23:14:16.503           503.608               CapeTown         15737.750
        72   02 Jun 2027 03:18:06.177   02 Jun 2027 03:20:41.743           155.566               Magadan1          4861.438
        73   02 Jun 2027 03:20:52.138   02 Jun 2027 03:20:59.045             6.907               Magadan1           215.844
        74   02 Jun 2027 03:21:19.933   02 Jun 2027 03:24:12.468           172.535                Anadyr1          5391.719
        75   02 Jun 2027 04:53:41.781   02 Jun 2027 04:54:55.971            74.190               Magadan1          2318.438
        76   02 Jun 2027 04:55:11.070   02 Jun 2027 04:58:40.536           209.466                Anadyr1          6545.813
        77   02 Jun 2027 04:58:40.802   02 Jun 2027 04:59:42.757            61.955               Magadan2          1936.094
        78   02 Jun 2027 06:32:21.287   02 Jun 2027 06:32:43.510            22.223                Irkutsk           694.469
        79   02 Jun 2027 06:33:18.205   02 Jun 2027 06:33:59.452            41.247                Novosib          1288.969
        80   02 Jun 2027 06:34:02.195   02 Jun 2027 06:35:46.313           104.118                Irkutsk          3253.687
        81   02 Jun 2027 06:35:48.886   02 Jun 2027 06:37:07.872            78.986                Novosib          2468.312
        82   02 Jun 2027 08:08:44.026   02 Jun 2027 08:09:39.950            55.924                Irkutsk          1747.625
        83   02 Jun 2027 08:10:12.562   02 Jun 2027 08:11:06.361            53.799                Irkutsk          1681.219
        84   02 Jun 2027 08:11:31.966   02 Jun 2027 08:12:25.683            53.717                Norilsk          1678.656
        85   02 Jun 2027 08:12:53.392   02 Jun 2027 08:13:41.025            47.633                Norilsk          1488.531
        86   02 Jun 2027 08:13:59.861   02 Jun 2027 08:14:02.590             2.729                 Moscow            85.281
        87   02 Jun 2027 09:35:23.000   02 Jun 2027 09:36:28.661            65.661                  Delhi          2051.906
        88   02 Jun 2027 09:45:00.498   02 Jun 2027 09:45:01.804             1.306                Novosib            40.812
        89   02 Jun 2027 09:46:35.877   02 Jun 2027 09:46:39.511             3.634                Norilsk           113.563
        90   02 Jun 2027 09:47:19.671   02 Jun 2027 09:47:21.486             1.815                Novosib            56.719
        91   02 Jun 2027 12:27:53.048   02 Jun 2027 12:31:49.338           236.290               CapeTown          7384.062
        92   02 Jun 2027 12:54:57.316   02 Jun 2027 12:56:37.715           100.399              Murmansk2          3137.469
        93   02 Jun 2027 12:57:19.350   02 Jun 2027 12:57:44.153            24.803              Murmansk2           775.094
        94   02 Jun 2027 12:59:30.873   02 Jun 2027 12:59:55.336            24.463              Murmansk2           764.469
        95   02 Jun 2027 13:04:21.593   02 Jun 2027 13:04:49.721            28.128              Murmansk1           879.000
        96   02 Jun 2027 13:08:14.383   02 Jun 2027 13:10:11.128           116.745                Anadyr2          3648.281
        97   02 Jun 2027 13:10:27.995   02 Jun 2027 13:14:31.617           243.622                Anadyr1          7613.188
        98   02 Jun 2027 13:16:35.719   02 Jun 2027 13:16:49.565            13.846                Anadyr1           432.688
        99   02 Jun 2027 14:43:55.605   02 Jun 2027 14:46:17.709           142.104                Anadyr1          4440.750
       100   02 Jun 2027 14:46:54.601   02 Jun 2027 14:56:21.683           567.082               Magadan1         17721.313
       101   02 Jun 2027 16:26:25.399   02 Jun 2027 16:26:31.466             6.067               Magadan2           189.594
       102   02 Jun 2027 16:32:20.390   02 Jun 2027 16:33:05.047            44.657               Magadan1          1395.531
       103   02 Jun 2027 17:15:34.205   02 Jun 2027 17:22:29.762           415.557            RioGallegos         12986.156
       104   02 Jun 2027 17:59:38.349   02 Jun 2027 18:00:26.998            48.649                Norilsk          1520.281
       105   02 Jun 2027 18:02:32.558   02 Jun 2027 18:10:21.842           469.284                Irkutsk         14665.125
       106   02 Jun 2027 18:17:08.011   02 Jun 2027 18:25:14.575           486.564                Sumatra         15205.125
       107   02 Jun 2027 19:47:20.951   02 Jun 2027 19:54:41.497           440.546                  Delhi         13767.062
       108   02 Jun 2027 21:12:24.906   02 Jun 2027 21:12:25.272             0.366              Murmansk1            11.438
       109   02 Jun 2027 21:13:29.981   02 Jun 2027 21:18:27.052           297.071              Murmansk2          9283.469
       110   02 Jun 2027 22:51:19.507   02 Jun 2027 22:51:37.929            18.422              Murmansk2           575.688
       111   02 Jun 2027 23:18:19.017   02 Jun 2027 23:19:05.805            46.788               CapeTown          1462.125
       112   02 Jun 2027 23:19:53.185   02 Jun 2027 23:24:37.904           284.719               CapeTown          8897.469
       113   03 Jun 2027 01:48:22.086   03 Jun 2027 01:49:03.705            41.619               Magadan2          1300.594
       114   03 Jun 2027 01:49:37.558   03 Jun 2027 01:50:20.442            42.884               Magadan1          1340.125
       115   03 Jun 2027 01:56:03.044   03 Jun 2027 01:56:11.512             8.468                Norilsk           264.625
       116   03 Jun 2027 01:56:55.726   03 Jun 2027 01:56:57.479             1.753               Magadan2            54.781
       117   03 Jun 2027 01:57:38.215   03 Jun 2027 01:58:04.013            25.798                Norilsk           806.187
       118   03 Jun 2027 01:59:38.092   03 Jun 2027 02:01:11.094            93.002              Murmansk2          2906.313
       119   03 Jun 2027 02:02:32.234   03 Jun 2027 02:02:51.475            19.241              Murmansk1           601.281
       120   03 Jun 2027 02:03:05.755   03 Jun 2027 02:03:58.789            53.034                 Moscow          1657.312
       121   03 Jun 2027 02:07:46.523   03 Jun 2027 02:08:41.016            54.493                 Moscow          1702.906
       122   03 Jun 2027 02:32:24.979   03 Jun 2027 02:33:18.722            53.743               CapeTown          1679.469
       123   03 Jun 2027 03:25:41.255   03 Jun 2027 03:26:06.846            25.591               Magadan2           799.719
       124   03 Jun 2027 03:28:58.629   03 Jun 2027 03:29:26.501            27.872               Magadan1           871.000
       125   03 Jun 2027 03:29:52.740   03 Jun 2027 03:31:52.571           119.831                Anadyr2          3744.719
       126   03 Jun 2027 03:32:01.143   03 Jun 2027 03:33:59.629           118.486                Anadyr2          3702.687
       127   03 Jun 2027 03:34:35.008   03 Jun 2027 03:35:07.178            32.170                Anadyr2          1005.313
       128   03 Jun 2027 04:18:21.025   03 Jun 2027 04:19:09.619            48.594            RioGallegos          1518.563
       129   03 Jun 2027 05:03:43.594   03 Jun 2027 05:03:48.082             4.488                Irkutsk           140.250
       130   03 Jun 2027 05:04:52.331   03 Jun 2027 05:05:07.606            15.275                Irkutsk           477.344
       131   03 Jun 2027 05:05:33.032   03 Jun 2027 05:06:14.158            41.126                Irkutsk          1285.188
       132   03 Jun 2027 05:06:19.816   03 Jun 2027 05:08:24.259           124.443                Irkutsk          3888.844
       133   03 Jun 2027 05:10:06.087   03 Jun 2027 05:10:21.600            15.513               Magadan2           484.781
       134   03 Jun 2027 05:10:29.334   03 Jun 2027 05:10:36.584             7.250               Magadan2           226.563
       135   03 Jun 2027 05:10:45.940   03 Jun 2027 05:11:11.873            25.933                Irkutsk           810.406
       136   03 Jun 2027 05:11:20.547   03 Jun 2027 05:11:38.063            17.516               Magadan2           547.375
       137   03 Jun 2027 06:50:09.709   03 Jun 2027 06:50:14.923             5.214              Murmansk2           162.937
       138   03 Jun 2027 08:03:09.929   03 Jun 2027 08:03:53.067            43.138                Sumatra          1348.063
       139   03 Jun 2027 08:20:32.534   03 Jun 2027 08:20:52.729            20.195              Murmansk2           631.094
       140   03 Jun 2027 08:21:06.690   03 Jun 2027 08:21:08.947             2.257              Murmansk2            70.531
       141   03 Jun 2027 08:23:39.567   03 Jun 2027 08:23:51.845            12.278                Norilsk           383.687
       142   03 Jun 2027 09:46:37.412   03 Jun 2027 09:48:29.020           111.608                  Delhi          3487.750
       143   03 Jun 2027 09:59:32.865   03 Jun 2027 09:59:36.760             3.895                Novosib           121.719
       144   03 Jun 2027 13:04:53.482   03 Jun 2027 13:06:05.802            72.320                 Moscow          2260.000
       145   03 Jun 2027 13:06:41.695   03 Jun 2027 13:07:27.154            45.459                 Moscow          1420.594
       146   03 Jun 2027 13:07:44.722   03 Jun 2027 13:08:51.471            66.749              Murmansk1          2085.906
       147   03 Jun 2027 13:08:51.471   03 Jun 2027 13:09:19.897            28.426              Murmansk2           888.313
       148   03 Jun 2027 13:10:09.955   03 Jun 2027 13:11:15.677            65.722              Murmansk2          2053.813
       149   03 Jun 2027 13:20:11.804   03 Jun 2027 13:25:40.363           328.559                Anadyr2         10267.469
       150   03 Jun 2027 14:15:49.229   03 Jun 2027 14:16:09.493            20.264               CapeTown           633.250
       151   03 Jun 2027 14:47:50.446   03 Jun 2027 14:49:39.241           108.795              Murmansk2          3399.844
       152   03 Jun 2027 14:55:56.639   03 Jun 2027 14:57:07.661            71.022                Anadyr2          2219.438
       153   03 Jun 2027 14:57:35.953   03 Jun 2027 14:58:54.064            78.111                Anadyr2          2440.969
       154   03 Jun 2027 14:58:56.133   03 Jun 2027 15:04:49.298           353.165               Magadan1         11036.406
       155   03 Jun 2027 15:05:28.798   03 Jun 2027 15:08:57.695           208.897               Magadan1          6528.031
       156   03 Jun 2027 17:27:04.435   03 Jun 2027 17:34:06.432           421.997            RioGallegos         13187.406
       157   03 Jun 2027 18:11:57.292   03 Jun 2027 18:12:25.611            28.319                Norilsk           884.969
       158   03 Jun 2027 18:14:18.229   03 Jun 2027 18:17:33.007           194.778                Irkutsk          6086.813
       159   03 Jun 2027 18:18:06.022   03 Jun 2027 18:20:20.431           134.409                Irkutsk          4200.281
       160   03 Jun 2027 18:31:53.525   03 Jun 2027 18:35:40.500           226.975                Sumatra          7092.969
       161   03 Jun 2027 19:49:55.123   03 Jun 2027 19:52:43.366           168.243                Novosib          5257.594
       162   03 Jun 2027 19:58:33.913   03 Jun 2027 20:06:49.236           495.323                  Delhi         15478.844
       163   03 Jun 2027 21:24:15.936   03 Jun 2027 21:31:14.621           418.685              Murmansk2         13083.906
       164   03 Jun 2027 23:05:37.832   03 Jun 2027 23:07:00.518            82.686                 Moscow          2583.937
       165   03 Jun 2027 23:10:22.744   03 Jun 2027 23:11:53.895            91.151                 Moscow          2848.469
       166   03 Jun 2027 23:29:13.973   03 Jun 2027 23:29:27.456            13.483               CapeTown           421.344
       167   03 Jun 2027 23:31:22.965   03 Jun 2027 23:35:31.332           248.367               CapeTown          7761.469
       168   04 Jun 2027 01:06:48.289   04 Jun 2027 01:06:55.486             7.197               CapeTown           224.906
       169   04 Jun 2027 01:11:20.514   04 Jun 2027 01:12:00.093            39.579               CapeTown          1236.844
       170   04 Jun 2027 02:00:07.353   04 Jun 2027 02:01:55.643           108.290               Magadan2          3384.062
       171   04 Jun 2027 02:04:56.635   04 Jun 2027 02:05:29.006            32.371               Magadan1          1011.594
       172   04 Jun 2027 02:07:54.331   04 Jun 2027 02:07:58.036             3.705                Norilsk           115.781
       173   04 Jun 2027 02:08:06.394   04 Jun 2027 02:08:57.170            50.776               Magadan2          1586.750
       174   04 Jun 2027 02:11:38.710   04 Jun 2027 02:12:19.515            40.805              Murmansk1          1275.156
       175   04 Jun 2027 02:13:12.882   04 Jun 2027 02:13:36.568            23.686              Murmansk2           740.187
       176   04 Jun 2027 02:15:11.268   04 Jun 2027 02:16:20.167            68.899                 Moscow          2153.094
       177   04 Jun 2027 02:19:10.707   04 Jun 2027 02:19:54.425            43.718                 Moscow          1366.187
       178   04 Jun 2027 03:35:13.050   04 Jun 2027 03:35:27.771            14.721               Magadan2           460.031
       179   04 Jun 2027 03:35:27.771   04 Jun 2027 03:35:41.657            13.886               Magadan1           433.938
       180   04 Jun 2027 03:37:51.966   04 Jun 2027 03:38:35.211            43.245                Anadyr2          1351.406
       181   04 Jun 2027 03:38:35.211   04 Jun 2027 03:39:28.922            53.711                Anadyr1          1678.469
       182   04 Jun 2027 03:42:13.413   04 Jun 2027 03:42:27.717            14.304                Anadyr1           447.000
       183   04 Jun 2027 03:42:31.082   04 Jun 2027 03:43:19.466            48.384               Magadan2          1512.000
       184   04 Jun 2027 03:43:44.890   04 Jun 2027 03:48:05.626           260.736               Magadan1          8148.000
       185   04 Jun 2027 04:28:18.210   04 Jun 2027 04:32:24.776           246.566            RioGallegos          7705.188
       186   04 Jun 2027 05:19:04.832   04 Jun 2027 05:19:55.693            50.861                Irkutsk          1589.406
       187   04 Jun 2027 05:20:51.204   04 Jun 2027 05:21:32.744            41.540                Irkutsk          1298.125
       188   04 Jun 2027 05:22:14.866   04 Jun 2027 05:22:18.772             3.906               Magadan1           122.062
       189   04 Jun 2027 05:22:40.322   04 Jun 2027 05:23:38.721            58.399                Irkutsk          1824.969
       190   04 Jun 2027 07:00:28.601   04 Jun 2027 07:01:07.070            38.469                Norilsk          1202.156
       191   04 Jun 2027 08:16:34.237   04 Jun 2027 08:17:15.985            41.748                Sumatra          1304.625
       192   04 Jun 2027 08:35:11.663   04 Jun 2027 08:35:39.347            27.684                Novosib           865.125
       193   04 Jun 2027 09:57:21.693   04 Jun 2027 09:59:16.391           114.698                  Delhi          3584.313
       194   04 Jun 2027 10:03:44.155   04 Jun 2027 10:03:51.516             7.361                  Delhi           230.031
       195   04 Jun 2027 10:04:15.870   04 Jun 2027 10:04:53.800            37.930                  Delhi          1185.313
       196   04 Jun 2027 10:08:26.157   04 Jun 2027 10:08:41.113            14.956                Novosib           467.375
       197   04 Jun 2027 10:11:56.808   04 Jun 2027 10:12:00.325             3.517                Novosib           109.906
       198   04 Jun 2027 12:51:34.071   04 Jun 2027 12:52:37.046            62.975               CapeTown          1967.969
       199   04 Jun 2027 12:58:59.938   04 Jun 2027 13:00:47.347           107.409               CapeTown          3356.531
       200   04 Jun 2027 13:19:06.174   04 Jun 2027 13:19:34.046            27.872                 Moscow           871.000
       201   04 Jun 2027 13:19:44.893   04 Jun 2027 13:21:20.706            95.813              Murmansk2          2994.156
       202   04 Jun 2027 13:21:47.412   04 Jun 2027 13:22:25.306            37.894              Murmansk1          1184.187
       203   04 Jun 2027 13:23:17.379   04 Jun 2027 13:23:20.108             2.729              Murmansk2            85.281
       204   04 Jun 2027 13:23:30.460   04 Jun 2027 13:24:07.977            37.517              Murmansk1          1172.406
       205   04 Jun 2027 13:29:24.351   04 Jun 2027 13:29:40.807            16.456              Murmansk1           514.250
       206   04 Jun 2027 13:32:10.077   04 Jun 2027 13:33:45.964            95.887                Anadyr2          2996.469
       207   04 Jun 2027 13:34:23.571   04 Jun 2027 13:36:28.841           125.270                Anadyr1          3914.687
       208   04 Jun 2027 13:38:00.525   04 Jun 2027 13:38:41.769            41.244                Anadyr1          1288.875
       209   04 Jun 2027 13:39:06.464   04 Jun 2027 13:39:21.889            15.425                Anadyr1           482.031
       210   04 Jun 2027 15:00:48.389   04 Jun 2027 15:02:42.579           114.190              Murmansk2          3568.437
       211   04 Jun 2027 15:07:57.803   04 Jun 2027 15:10:22.089           144.286                Anadyr1          4508.938
       212   04 Jun 2027 15:10:38.681   04 Jun 2027 15:13:09.902           151.221               Magadan2          4725.656
       213   04 Jun 2027 15:14:12.774   04 Jun 2027 15:16:36.369           143.595               Magadan1          4487.344
       214   04 Jun 2027 15:18:53.562   04 Jun 2027 15:21:27.278           153.716               Magadan1          4803.625
       215   04 Jun 2027 16:46:09.878   04 Jun 2027 16:48:25.431           135.553               Magadan2          4236.031
       216   04 Jun 2027 17:38:43.504   04 Jun 2027 17:45:07.556           384.052            RioGallegos         12001.625
       217   04 Jun 2027 18:21:46.045   04 Jun 2027 18:25:08.234           202.189                Norilsk          6318.406
       218   04 Jun 2027 18:26:07.454   04 Jun 2027 18:27:21.078            73.624                Irkutsk          2300.750
       219   04 Jun 2027 18:28:10.329   04 Jun 2027 18:29:32.412            82.083                Irkutsk          2565.094
       220   04 Jun 2027 18:40:05.630   04 Jun 2027 18:41:55.907           110.277                Sumatra          3446.156
       221   04 Jun 2027 18:43:49.224   04 Jun 2027 18:46:43.289           174.065                Sumatra          5439.531
       222   04 Jun 2027 20:01:48.844   04 Jun 2027 20:03:11.820            82.976                Novosib          2593.000
       223   04 Jun 2027 20:03:34.764   04 Jun 2027 20:04:07.900            33.136                Novosib          1035.500
       224   04 Jun 2027 20:10:01.483   04 Jun 2027 20:11:22.867            81.384                  Delhi          2543.250
       225   04 Jun 2027 20:12:38.119   04 Jun 2027 20:17:02.036           263.917                  Delhi          8247.406
       226   04 Jun 2027 21:36:09.920   04 Jun 2027 21:43:57.173           467.253              Murmansk2         14601.656
       227   04 Jun 2027 23:15:15.835   04 Jun 2027 23:16:30.454            74.619                 Moscow          2331.844
       228   04 Jun 2027 23:17:40.760   04 Jun 2027 23:18:18.294            37.534                 Moscow          1172.938
       229   04 Jun 2027 23:40:00.919   04 Jun 2027 23:43:27.348           206.429               CapeTown          6450.906
       230   04 Jun 2027 23:45:34.299   04 Jun 2027 23:46:12.828            38.529               CapeTown          1204.031
       231   05 Jun 2027 00:50:57.916   05 Jun 2027 00:52:10.486            72.570                 Moscow          2267.812
       232   05 Jun 2027 00:55:14.422   05 Jun 2027 00:55:28.371            13.949                 Moscow           435.906
       233   05 Jun 2027 00:59:49.089   05 Jun 2027 01:00:04.789            15.700                 Moscow           490.625
       234   05 Jun 2027 01:15:11.635   05 Jun 2027 01:16:11.570            59.935               CapeTown          1872.969
       235   05 Jun 2027 01:17:50.015   05 Jun 2027 01:18:25.355            35.340               CapeTown          1104.375
       236   05 Jun 2027 01:23:51.079   05 Jun 2027 01:24:16.381            25.302               CapeTown           790.688
       237   05 Jun 2027 02:11:52.779   05 Jun 2027 02:12:41.611            48.832                Anadyr2          1526.000
       238   05 Jun 2027 02:12:52.340   05 Jun 2027 02:14:33.243           100.903               Magadan2          3153.219
       239   05 Jun 2027 02:16:58.464   05 Jun 2027 02:17:05.329             6.865               Magadan1           214.531
       240   05 Jun 2027 02:19:47.724   05 Jun 2027 02:19:59.513            11.789               Magadan1           368.406
       241   05 Jun 2027 02:20:03.168   05 Jun 2027 02:20:33.153            29.985                Norilsk           937.031
       242   05 Jun 2027 02:23:39.064   05 Jun 2027 02:24:48.402            69.338              Murmansk1          2166.812
       243   05 Jun 2027 02:25:01.941   05 Jun 2027 02:25:07.104             5.163              Murmansk2           161.344
       244   05 Jun 2027 02:25:59.644   05 Jun 2027 02:26:11.970            12.326              Murmansk1           385.187
       245   05 Jun 2027 02:27:17.383   05 Jun 2027 02:28:46.018            88.635                 Moscow          2769.844
       246   05 Jun 2027 02:34:13.531   05 Jun 2027 02:34:52.048            38.517                 Moscow          1203.656
       247   05 Jun 2027 03:54:19.830   05 Jun 2027 03:56:43.783           143.953               Magadan2          4498.531
       248   05 Jun 2027 03:56:43.783   05 Jun 2027 03:59:05.889           142.106               Magadan1          4440.813
       249   05 Jun 2027 03:59:10.134   05 Jun 2027 04:00:02.778            52.644                Anadyr1          1645.125
       250   05 Jun 2027 04:39:15.325   05 Jun 2027 04:41:50.219           154.894            RioGallegos          4840.438
       251   05 Jun 2027 04:42:54.594   05 Jun 2027 04:43:34.205            39.611            RioGallegos          1237.844
       252   05 Jun 2027 04:44:03.498   05 Jun 2027 04:45:17.023            73.525            RioGallegos          2297.656
       253   05 Jun 2027 05:32:35.707   05 Jun 2027 05:35:23.437           167.730               Magadan2          5241.563
       254   05 Jun 2027 07:09:48.536   05 Jun 2027 07:09:49.601             1.065                Irkutsk            33.281
       255   05 Jun 2027 07:09:55.363   05 Jun 2027 07:10:14.143            18.780                Irkutsk           586.875
       256   05 Jun 2027 07:11:37.298   05 Jun 2027 07:11:57.439            20.141                Norilsk           629.406
       257   05 Jun 2027 07:52:36.008   05 Jun 2027 07:53:03.646            27.638            RioGallegos           863.687
       258   05 Jun 2027 07:55:23.744   05 Jun 2027 07:55:28.926             5.182            RioGallegos           161.938
       259   05 Jun 2027 08:24:00.259   05 Jun 2027 08:24:10.389            10.130                Sumatra           316.562
       260   05 Jun 2027 08:29:28.406   05 Jun 2027 08:29:35.153             6.747                Sumatra           210.844
       261   05 Jun 2027 08:32:02.999   05 Jun 2027 08:32:20.362            17.363                Sumatra           542.594
       262   05 Jun 2027 08:45:05.284   05 Jun 2027 08:45:32.698            27.414                Norilsk           856.687
       263   05 Jun 2027 08:45:41.441   05 Jun 2027 08:46:05.649            24.208                Irkutsk           756.500
       264   05 Jun 2027 08:47:45.382   05 Jun 2027 08:47:57.789            12.407                Novosib           387.719
       265   05 Jun 2027 10:07:51.641   05 Jun 2027 10:11:04.879           193.238                  Delhi          6038.688
       266   05 Jun 2027 10:25:48.671   05 Jun 2027 10:25:54.993             6.322              Murmansk1           197.562
       267   05 Jun 2027 12:04:06.450   05 Jun 2027 12:04:26.579            20.129              Murmansk1           629.031
       268   05 Jun 2027 12:05:03.973   05 Jun 2027 12:05:40.881            36.908              Murmansk2          1153.375
       269   05 Jun 2027 12:09:07.342   05 Jun 2027 12:15:39.334           391.992                Anadyr1         12249.750
       270   05 Jun 2027 13:37:08.855   05 Jun 2027 13:37:43.522            34.667              Murmansk2          1083.344
       271   05 Jun 2027 13:39:19.290   05 Jun 2027 13:39:55.781            36.491              Murmansk1          1140.344
       272   05 Jun 2027 13:41:23.874   05 Jun 2027 13:41:50.114            26.240              Murmansk1           820.000
       273   05 Jun 2027 13:44:09.030   05 Jun 2027 13:45:38.458            89.428                Anadyr1          2794.625
       274   05 Jun 2027 13:46:05.586   05 Jun 2027 13:48:01.843           116.257                Anadyr2          3633.031
       275   05 Jun 2027 13:54:48.688   05 Jun 2027 13:55:48.230            59.542                Anadyr1          1860.688
       276   05 Jun 2027 15:14:03.546   05 Jun 2027 15:15:01.331            57.785              Murmansk2          1805.781
       277   05 Jun 2027 15:19:59.072   05 Jun 2027 15:21:07.782            68.710                Anadyr1          2147.187
       278   05 Jun 2027 15:21:51.378   05 Jun 2027 15:22:14.926            23.548                Anadyr2           735.875
       279   05 Jun 2027 15:22:33.557   05 Jun 2027 15:26:14.243           220.686               Magadan1          6896.437
       280   05 Jun 2027 15:26:14.243   05 Jun 2027 15:29:25.889           191.646               Magadan2          5988.937
       281   05 Jun 2027 16:58:10.836   05 Jun 2027 16:59:24.858            74.022               Magadan1          2313.187
       282   05 Jun 2027 16:59:38.910   05 Jun 2027 17:00:15.177            36.267               Magadan2          1133.344
       283   05 Jun 2027 17:01:47.761   05 Jun 2027 17:02:17.306            29.545                Norilsk           923.281
       284   05 Jun 2027 17:10:16.227   05 Jun 2027 17:10:50.938            34.711               Magadan2          1084.719
       285   05 Jun 2027 17:50:28.081   05 Jun 2027 17:56:33.637           365.556            RioGallegos         11423.625
       286   05 Jun 2027 18:35:08.170   05 Jun 2027 18:37:45.669           157.499                Norilsk          4921.844
       287   05 Jun 2027 18:37:59.336   05 Jun 2027 18:39:42.010           102.674                Irkutsk          3208.563
       288   05 Jun 2027 18:40:14.728   05 Jun 2027 18:41:38.691            83.963                Irkutsk          2623.844
       289   05 Jun 2027 18:41:40.883   05 Jun 2027 18:44:27.277           166.394                Novosib          5199.812
       290   05 Jun 2027 18:53:22.439   05 Jun 2027 18:54:16.305            53.866                Sumatra          1683.312
       291   05 Jun 2027 18:55:41.616   05 Jun 2027 18:57:02.615            80.999                Sumatra          2531.219
       292   05 Jun 2027 20:21:38.123   05 Jun 2027 20:25:20.663           222.540                  Delhi          6954.375
       293   05 Jun 2027 20:26:19.348   05 Jun 2027 20:28:07.868           108.520                  Delhi          3391.250
       294   05 Jun 2027 21:48:05.865   05 Jun 2027 21:53:39.262           333.397              Murmansk2         10418.656
       295   05 Jun 2027 21:54:24.898   05 Jun 2027 21:56:35.690           130.792              Murmansk1          4087.250
       296   05 Jun 2027 21:58:06.994   05 Jun 2027 21:59:06.415            59.421                 Moscow          1856.906
       297   05 Jun 2027 23:26:14.700   05 Jun 2027 23:26:23.779             9.079              Murmansk2           283.719
       298   05 Jun 2027 23:27:12.287   05 Jun 2027 23:29:40.791           148.504                 Moscow          4640.750
       299   05 Jun 2027 23:34:41.807   05 Jun 2027 23:35:20.463            38.656                 Moscow          1208.000
       300   05 Jun 2027 23:51:38.212   05 Jun 2027 23:53:24.167           105.955               CapeTown          3311.094
       301   05 Jun 2027 23:54:29.536   05 Jun 2027 23:55:22.008            52.472               CapeTown          1639.750
       302   05 Jun 2027 23:56:18.734   05 Jun 2027 23:56:28.028             9.294               CapeTown           290.438
       303   06 Jun 2027 00:59:46.799   06 Jun 2027 01:00:41.017            54.218              Murmansk1          1694.312
       304   06 Jun 2027 01:00:51.937   06 Jun 2027 01:02:15.030            83.093              Murmansk2          2596.656
       305   06 Jun 2027 01:03:00.460   06 Jun 2027 01:03:49.074            48.614                 Moscow          1519.187
       306   06 Jun 2027 01:09:47.409   06 Jun 2027 01:10:47.225            59.816                 Moscow          1869.250
       307   06 Jun 2027 01:27:31.723   06 Jun 2027 01:28:03.384            31.661               CapeTown           989.406
       308   06 Jun 2027 01:31:07.210   06 Jun 2027 01:31:50.401            43.191               CapeTown          1349.719
       309   06 Jun 2027 02:23:44.068   06 Jun 2027 02:26:17.018           152.950               Magadan1          4779.687
       310   06 Jun 2027 02:27:08.196   06 Jun 2027 02:27:35.253            27.057               Magadan1           845.531
       311   06 Jun 2027 02:31:50.357   06 Jun 2027 02:32:19.054            28.697               Magadan1           896.781
       312   06 Jun 2027 02:33:28.057   06 Jun 2027 02:33:34.491             6.434                Norilsk           201.063
       313   06 Jun 2027 02:35:37.681   06 Jun 2027 02:35:46.660             8.979                Norilsk           280.594
       314   06 Jun 2027 02:36:04.642   06 Jun 2027 02:36:21.827            17.185              Murmansk2           537.031
       315   06 Jun 2027 02:36:49.697   06 Jun 2027 02:37:16.004            26.307              Murmansk1           822.094
       316   06 Jun 2027 02:38:05.718   06 Jun 2027 02:38:29.705            23.987              Murmansk1           749.594
       317   06 Jun 2027 02:39:24.192   06 Jun 2027 02:40:53.623            89.431                 Moscow          2794.719
       318   06 Jun 2027 02:47:21.534   06 Jun 2027 02:48:31.687            70.153                 Moscow          2192.281
       319   06 Jun 2027 03:17:42.528   06 Jun 2027 03:19:30.238           107.710            RioGallegos          3365.937
       320   06 Jun 2027 03:20:14.326   06 Jun 2027 03:21:15.253            60.927            RioGallegos          1903.969
       321   06 Jun 2027 04:06:10.720   06 Jun 2027 04:07:33.209            82.489               Magadan2          2577.781
       322   06 Jun 2027 04:07:33.209   06 Jun 2027 04:08:48.730            75.521               Magadan1          2360.031
       323   06 Jun 2027 04:09:01.941   06 Jun 2027 04:09:09.213             7.272               Magadan2           227.250
       324   06 Jun 2027 04:09:16.281   06 Jun 2027 04:11:37.191           140.910                Anadyr2          4403.438
       325   06 Jun 2027 04:48:00.265   06 Jun 2027 04:48:05.176             4.911            RioGallegos           153.469
       326   06 Jun 2027 04:49:35.491   06 Jun 2027 04:51:25.680           110.189            RioGallegos          3443.406
       327   06 Jun 2027 04:53:49.559   06 Jun 2027 04:54:22.070            32.511            RioGallegos          1015.969
       328   06 Jun 2027 05:42:08.882   06 Jun 2027 05:42:43.715            34.833                Irkutsk          1088.531
       329   06 Jun 2027 05:43:49.905   06 Jun 2027 05:47:49.235           239.330                Irkutsk          7479.063
       330   06 Jun 2027 07:19:13.102   06 Jun 2027 07:19:35.843            22.741                Norilsk           710.656
       331   06 Jun 2027 07:25:15.689   06 Jun 2027 07:25:40.024            24.335              Murmansk2           760.469
       332   06 Jun 2027 08:05:07.533   06 Jun 2027 08:05:08.033             0.500            RioGallegos            15.625
       333   06 Jun 2027 08:06:01.783   06 Jun 2027 08:06:37.518            35.735            RioGallegos          1116.719
       334   06 Jun 2027 08:35:16.657   06 Jun 2027 08:36:54.584            97.927                Sumatra          3060.219
       335   06 Jun 2027 08:57:44.624   06 Jun 2027 08:57:47.091             2.467                Norilsk            77.094
       336   06 Jun 2027 08:58:28.192   06 Jun 2027 08:58:38.503            10.311                Norilsk           322.219
       337   06 Jun 2027 08:59:08.107   06 Jun 2027 08:59:18.947            10.840                Novosib           338.750
       338   06 Jun 2027 10:21:01.278   06 Jun 2027 10:23:48.958           167.680                  Delhi          5240.000
       339   06 Jun 2027 10:38:47.832   06 Jun 2027 10:39:26.637            38.805                Norilsk          1212.656
       340   06 Jun 2027 12:16:10.885   06 Jun 2027 12:16:32.835            21.950              Murmansk2           685.938
       341   06 Jun 2027 12:16:54.963   06 Jun 2027 12:17:06.386            11.423              Murmansk2           356.969
       342   06 Jun 2027 12:20:54.022   06 Jun 2027 12:26:56.494           362.472                Anadyr1         11327.250
       343   06 Jun 2027 12:27:29.043   06 Jun 2027 12:28:40.747            71.704                Anadyr2          2240.750
       344   06 Jun 2027 13:44:42.536   06 Jun 2027 13:45:23.010            40.474              Murmansk1          1264.812
       345   06 Jun 2027 13:46:01.550   06 Jun 2027 13:47:11.150            69.600              Murmansk1          2175.000
       346   06 Jun 2027 13:53:59.052   06 Jun 2027 13:54:00.197             1.145              Murmansk2            35.781
       347   06 Jun 2027 13:56:08.539   06 Jun 2027 13:57:32.988            84.449                Anadyr2          2639.031
       348   06 Jun 2027 13:58:12.276   06 Jun 2027 14:00:02.247           109.971                Anadyr1          3436.594
       349   06 Jun 2027 14:00:40.762   06 Jun 2027 14:04:58.739           257.977               Magadan2          8061.781
       350   06 Jun 2027 15:34:29.783   06 Jun 2027 15:37:46.877           197.094               Magadan1          6159.187
       351   06 Jun 2027 15:37:46.877   06 Jun 2027 15:38:15.989            29.112               Magadan2           909.750
       352   06 Jun 2027 15:38:44.374   06 Jun 2027 15:40:03.623            79.249               Magadan2          2476.531
       353   06 Jun 2027 17:07:54.021   06 Jun 2027 17:09:03.191            69.170                Anadyr1          2161.562
       354   06 Jun 2027 17:10:12.128   06 Jun 2027 17:11:23.638            71.510               Magadan2          2234.688
       355   06 Jun 2027 17:12:02.814   06 Jun 2027 17:12:28.898            26.084               Magadan1           815.125
       356   06 Jun 2027 17:12:55.410   06 Jun 2027 17:13:31.419            36.009               Magadan2          1125.281
       357   06 Jun 2027 17:13:59.176   06 Jun 2027 17:15:12.276            73.100                Norilsk          2284.375
       358   06 Jun 2027 17:17:59.550   06 Jun 2027 17:19:12.301            72.751                Irkutsk          2273.469
       359   06 Jun 2027 18:02:16.506   06 Jun 2027 18:03:20.624            64.118            RioGallegos          2003.687
       360   06 Jun 2027 18:04:17.941   06 Jun 2027 18:05:43.220            85.279            RioGallegos          2664.969
       361   06 Jun 2027 18:12:45.798   06 Jun 2027 18:13:18.832            33.034            RioGallegos          1032.312
       362   06 Jun 2027 18:45:46.186   06 Jun 2027 18:47:34.045           107.859                Norilsk          3370.594
       363   06 Jun 2027 18:49:53.318   06 Jun 2027 18:52:12.276           138.958                Irkutsk          4342.437
       364   06 Jun 2027 18:53:39.273   06 Jun 2027 18:57:50.210           250.937                Novosib          7841.781
       365   06 Jun 2027 19:04:59.513   06 Jun 2027 19:06:13.996            74.483                Sumatra          2327.594
       366   06 Jun 2027 19:13:43.114   06 Jun 2027 19:14:09.407            26.293                Sumatra           821.656
       367   06 Jun 2027 19:15:05.904   06 Jun 2027 19:16:10.353            64.449                Sumatra          2014.031
       368   06 Jun 2027 20:29:36.631   06 Jun 2027 20:29:57.509            20.878                Novosib           652.437
       369   06 Jun 2027 20:30:06.462   06 Jun 2027 20:31:11.586            65.124                Novosib          2035.125
       370   06 Jun 2027 20:32:47.597   06 Jun 2027 20:33:12.273            24.676                Novosib           771.125
       371   06 Jun 2027 20:33:21.247   06 Jun 2027 20:35:09.606           108.359                  Delhi          3386.219
       372   06 Jun 2027 20:35:13.572   06 Jun 2027 20:35:23.229             9.657                  Delhi           301.781
       373   06 Jun 2027 20:37:17.726   06 Jun 2027 20:38:34.882            77.156                  Delhi          2411.125
       374   06 Jun 2027 22:00:03.201   06 Jun 2027 22:01:57.548           114.347              Murmansk2          3573.344
       375   06 Jun 2027 22:02:14.946   06 Jun 2027 22:05:32.464           197.518              Murmansk1          6172.437
       376   06 Jun 2027 22:05:35.306   06 Jun 2027 22:12:07.241           391.935                 Moscow         12247.969
       377   06 Jun 2027 23:39:52.495   06 Jun 2027 23:41:02.162            69.667                 Moscow          2177.094
       378   07 Jun 2027 00:03:21.196   07 Jun 2027 00:05:13.243           112.047               CapeTown          3501.469
       379   07 Jun 2027 00:05:18.002   07 Jun 2027 00:05:59.374            41.372               CapeTown          1292.875
       380   07 Jun 2027 00:07:21.606   07 Jun 2027 00:07:22.211             0.605               CapeTown            18.906
       381   07 Jun 2027 00:14:45.109   07 Jun 2027 00:15:40.493            55.384               CapeTown          1730.750
       382   07 Jun 2027 01:11:48.272   07 Jun 2027 01:14:09.666           141.394              Murmansk2          4418.563
       383   07 Jun 2027 01:15:03.503   07 Jun 2027 01:15:25.002            21.499                 Moscow           671.844
       384   07 Jun 2027 01:19:23.153   07 Jun 2027 01:19:37.098            13.945                 Moscow           435.781
       385   07 Jun 2027 01:23:32.476   07 Jun 2027 01:23:45.823            13.347                 Moscow           417.094
       386   07 Jun 2027 01:24:24.350   07 Jun 2027 01:24:40.805            16.455                 Moscow           514.219
       387   07 Jun 2027 01:27:13.703   07 Jun 2027 01:27:22.104             8.401                 Moscow           262.531
       388   07 Jun 2027 01:39:59.046   07 Jun 2027 01:40:18.258            19.212               CapeTown           600.375
       389   07 Jun 2027 01:42:38.063   07 Jun 2027 01:43:13.490            35.427               CapeTown          1107.094
       390   07 Jun 2027 01:44:10.075   07 Jun 2027 01:44:27.516            17.441               CapeTown           545.031
       391   07 Jun 2027 01:47:18.832   07 Jun 2027 01:47:46.176            27.344               CapeTown           854.500
       392   07 Jun 2027 02:35:35.627   07 Jun 2027 02:37:53.563           137.936               Magadan1          4310.500
       393   07 Jun 2027 02:39:06.328   07 Jun 2027 02:39:37.983            31.655               Magadan1           989.219
       394   07 Jun 2027 02:43:52.266   07 Jun 2027 02:44:08.937            16.671                Norilsk           520.969
       395   07 Jun 2027 02:44:21.354   07 Jun 2027 02:44:48.625            27.271                Norilsk           852.219
       396   07 Jun 2027 02:47:38.868   07 Jun 2027 02:48:23.323            44.455              Murmansk2          1389.219
       397   07 Jun 2027 02:48:38.348   07 Jun 2027 02:48:50.825            12.477              Murmansk2           389.906
       398   07 Jun 2027 02:50:26.890   07 Jun 2027 02:50:30.126             3.236              Murmansk1           101.125
       399   07 Jun 2027 02:50:55.675   07 Jun 2027 02:51:26.511            30.836              Murmansk1           963.625
       400   07 Jun 2027 02:51:31.834   07 Jun 2027 02:52:13.393            41.559                 Moscow          1298.719
       401   07 Jun 2027 02:53:57.246   07 Jun 2027 02:54:19.363            22.117                 Moscow           691.156
       402   07 Jun 2027 02:57:30.136   07 Jun 2027 02:57:38.598             8.462                 Moscow           264.438
       403   07 Jun 2027 02:59:55.124   07 Jun 2027 03:00:07.963            12.839                 Moscow           401.219
       404   07 Jun 2027 03:28:32.994   07 Jun 2027 03:30:24.232           111.238            RioGallegos          3476.187
       405   07 Jun 2027 03:31:11.599   07 Jun 2027 03:31:26.791            15.192            RioGallegos           474.750
       406   07 Jun 2027 03:31:48.596   07 Jun 2027 03:33:08.241            79.645            RioGallegos          2488.906
       407   07 Jun 2027 04:15:53.374   07 Jun 2027 04:16:01.763             8.389                Anadyr2           262.156
       408   07 Jun 2027 04:16:06.118   07 Jun 2027 04:17:31.019            84.901                Anadyr1          2653.156
       409   07 Jun 2027 04:17:41.256   07 Jun 2027 04:18:18.727            37.471                Anadyr2          1170.969
       410   07 Jun 2027 04:18:43.900   07 Jun 2027 04:22:48.432           244.532               Magadan1          7641.625
       411   07 Jun 2027 04:22:48.432   07 Jun 2027 04:22:51.526             3.094               Magadan2            96.688
       412   07 Jun 2027 04:59:39.823   07 Jun 2027 05:01:38.736           118.913            RioGallegos          3716.031
       413   07 Jun 2027 05:02:54.259   07 Jun 2027 05:03:15.797            21.538            RioGallegos           673.062
       414   07 Jun 2027 05:04:32.077   07 Jun 2027 05:05:47.744            75.667            RioGallegos          2364.594
       415   07 Jun 2027 05:55:09.752   07 Jun 2027 05:55:30.899            21.147               Magadan1           660.844
       416   07 Jun 2027 05:56:04.844   07 Jun 2027 05:59:53.313           228.469                Irkutsk          7139.656
       417   07 Jun 2027 07:33:36.038   07 Jun 2027 07:34:31.605            55.567                 Moscow          1736.469
       418   07 Jun 2027 07:35:08.554   07 Jun 2027 07:35:32.234            23.680                Irkutsk           740.000
       419   07 Jun 2027 07:36:00.553   07 Jun 2027 07:36:32.080            31.527                Norilsk           985.219
       420   07 Jun 2027 08:14:26.467   07 Jun 2027 08:14:41.923            15.456            RioGallegos           483.000
       421   07 Jun 2027 08:16:24.954   07 Jun 2027 08:17:15.923            50.969            RioGallegos          1592.781
       422   07 Jun 2027 08:48:26.532   07 Jun 2027 08:48:32.522             5.990                Sumatra           187.187
       423   07 Jun 2027 08:49:31.896   07 Jun 2027 08:50:43.915            72.019                Sumatra          2250.594
       424   07 Jun 2027 09:11:10.613   07 Jun 2027 09:11:55.484            44.871                Novosib          1402.219
       425   07 Jun 2027 10:35:24.349   07 Jun 2027 10:36:16.133            51.784                  Delhi          1618.250
       426   07 Jun 2027 10:36:19.291   07 Jun 2027 10:36:55.461            36.170                  Delhi          1130.313
       427   07 Jun 2027 10:49:38.329   07 Jun 2027 10:49:48.557            10.228                Norilsk           319.625
       428   07 Jun 2027 12:20:06.397   07 Jun 2027 12:20:48.644            42.247              Murmansk1          1320.219
       429   07 Jun 2027 12:20:48.644   07 Jun 2027 12:23:25.132           156.488              Murmansk2          4890.250
       430   07 Jun 2027 12:23:38.630   07 Jun 2027 12:23:52.955            14.325              Murmansk1           447.656
       431   07 Jun 2027 12:24:34.707   07 Jun 2027 12:24:49.165            14.458              Murmansk1           451.813
       432   07 Jun 2027 12:28:01.370   07 Jun 2027 12:28:04.774             3.404              Murmansk1           106.375
       433   07 Jun 2027 12:28:45.063   07 Jun 2027 12:29:07.084            22.021              Murmansk2           688.156
       434   07 Jun 2027 12:32:44.556   07 Jun 2027 12:38:33.622           349.066                Anadyr2         10908.312
       435   07 Jun 2027 12:39:04.362   07 Jun 2027 12:41:22.829           138.467                Anadyr1          4327.094
       436   07 Jun 2027 14:08:08.487   07 Jun 2027 14:09:29.018            80.531                Anadyr1          2516.594
       437   07 Jun 2027 14:10:41.910   07 Jun 2027 14:11:43.434            61.524                Anadyr2          1922.625
       438   07 Jun 2027 14:12:01.757   07 Jun 2027 14:18:13.999           372.242               Magadan2         11632.563
       439   07 Jun 2027 15:46:27.098   07 Jun 2027 15:47:19.152            52.054               Magadan2          1626.687
       440   07 Jun 2027 15:47:19.152   07 Jun 2027 15:48:43.713            84.561               Magadan1          2642.531
       441   07 Jun 2027 15:50:17.959   07 Jun 2027 15:50:44.110            26.151               Magadan1           817.219
       442   07 Jun 2027 15:51:05.192   07 Jun 2027 15:51:44.350            39.158               Magadan1          1223.688
       443   07 Jun 2027 15:53:10.460   07 Jun 2027 15:55:07.151           116.691               Magadan2          3646.594
       444   07 Jun 2027 17:22:13.719   07 Jun 2027 17:23:23.082            69.363               Magadan2          2167.594
       445   07 Jun 2027 17:25:49.945   07 Jun 2027 17:26:23.040            33.095                Norilsk          1034.219
       446   07 Jun 2027 17:27:18.916   07 Jun 2027 17:28:12.289            53.373                Norilsk          1667.906
       447   07 Jun 2027 17:28:15.416   07 Jun 2027 17:33:30.042           314.626                Irkutsk          9832.063
       448   07 Jun 2027 18:57:46.934   07 Jun 2027 18:59:03.055            76.121                Norilsk          2378.781
       449   07 Jun 2027 19:03:03.852   07 Jun 2027 19:10:22.346           438.494                Novosib         13702.937
       450   07 Jun 2027 19:25:28.075   07 Jun 2027 19:26:32.125            64.050                Sumatra          2001.562
       451   07 Jun 2027 20:40:06.317   07 Jun 2027 20:40:30.721            24.404                Novosib           762.625
       452   07 Jun 2027 20:41:15.887   07 Jun 2027 20:41:40.522            24.635                Novosib           769.844
       453   07 Jun 2027 20:45:09.432   07 Jun 2027 20:48:52.308           222.876                  Delhi          6964.875
       454   07 Jun 2027 20:56:21.077   07 Jun 2027 20:57:30.847            69.770                  Delhi          2180.312
       455   07 Jun 2027 22:12:01.581   07 Jun 2027 22:17:27.875           326.294              Murmansk2         10196.688
       456   07 Jun 2027 22:17:33.716   07 Jun 2027 22:22:46.497           312.781                 Moscow          9774.406
       457   07 Jun 2027 22:44:33.926   07 Jun 2027 22:48:51.019           257.093               CapeTown          8034.156
       458   08 Jun 2027 01:15:46.322   08 Jun 2027 01:16:07.475            21.153               Magadan1           661.031
       459   08 Jun 2027 01:21:05.973   08 Jun 2027 01:22:14.122            68.149               Magadan2          2129.656
       460   08 Jun 2027 01:23:49.635   08 Jun 2027 01:24:35.935            46.300              Murmansk1          1446.875
       461   08 Jun 2027 01:26:03.163   08 Jun 2027 01:27:02.664            59.501              Murmansk1          1859.406
       462   08 Jun 2027 01:29:45.128   08 Jun 2027 01:29:49.124             3.996                 Moscow           124.875
       463   08 Jun 2027 01:31:04.716   08 Jun 2027 01:31:26.751            22.035                 Moscow           688.594
       464   08 Jun 2027 01:31:58.272   08 Jun 2027 01:32:11.649            13.377                 Moscow           418.031
       465   08 Jun 2027 01:36:31.756   08 Jun 2027 01:36:44.703            12.947                 Moscow           404.594
       466   08 Jun 2027 01:37:26.878   08 Jun 2027 01:37:43.512            16.634                 Moscow           519.812
       467   08 Jun 2027 01:52:35.351   08 Jun 2027 01:53:06.348            30.997               CapeTown           968.656
       468   08 Jun 2027 01:55:13.922   08 Jun 2027 01:56:25.073            71.151               CapeTown          2223.469
       469   08 Jun 2027 02:47:29.390   08 Jun 2027 02:49:58.825           149.435               Magadan1          4669.844
       470   08 Jun 2027 02:51:05.844   08 Jun 2027 02:51:29.070            23.226               Magadan1           725.812
       471   08 Jun 2027 02:52:21.902   08 Jun 2027 02:53:05.638            43.736               Magadan2          1366.750
       472   08 Jun 2027 02:57:15.841   08 Jun 2027 02:57:19.377             3.536                Norilsk           110.500
       473   08 Jun 2027 02:58:00.843   08 Jun 2027 02:58:36.384            35.541                Norilsk          1110.656
       474   08 Jun 2027 02:59:38.244   08 Jun 2027 03:00:09.016            30.772              Murmansk1           961.625
       475   08 Jun 2027 03:39:38.607   08 Jun 2027 03:42:57.344           198.737            RioGallegos          6210.531
       476   08 Jun 2027 04:28:23.584   08 Jun 2027 04:30:14.085           110.501                Anadyr2          3453.156
       477   08 Jun 2027 04:30:14.615   08 Jun 2027 04:30:40.988            26.373               Magadan2           824.156
       478   08 Jun 2027 04:30:57.323   08 Jun 2027 04:32:54.201           116.878               Magadan2          3652.438
       479   08 Jun 2027 04:33:13.401   08 Jun 2027 04:33:57.249            43.848               Magadan2          1370.250
       480   08 Jun 2027 04:34:23.906   08 Jun 2027 04:35:20.581            56.675                Irkutsk          1771.094
       481   08 Jun 2027 04:35:32.888   08 Jun 2027 04:35:55.753            22.865                Novosib           714.531
       482   08 Jun 2027 04:35:56.734   08 Jun 2027 04:36:03.201             6.467               Magadan2           202.094
