uniorb/output/strategy_4/Drop/Drop_KinoSat_111601.txt

KinoSat_111601
-------------------------
    Access    *     Start Time (UTCG)     *     Stop Time (UTCG)  *   Duration (s)        *       Station  *  Data (Mbytes)
         1   01 Jun 2027 03:56:07.222   01 Jun 2027 03:57:26.322            79.100                Norilsk          2471.875
         2   01 Jun 2027 03:57:34.342   01 Jun 2027 03:59:52.612           138.270                Novosib          4320.937
         3   01 Jun 2027 04:00:10.216   01 Jun 2027 04:00:30.832            20.616              Murmansk2           644.250
         4   01 Jun 2027 04:01:32.259   01 Jun 2027 04:02:33.184            60.925                 Moscow          1903.906
         5   01 Jun 2027 04:24:02.418   01 Jun 2027 04:24:17.718            15.300               CapeTown           478.125
         6   01 Jun 2027 05:32:55.166   01 Jun 2027 05:33:17.075            21.909                Norilsk           684.656
         7   01 Jun 2027 05:33:21.591   01 Jun 2027 05:34:02.039            40.448              Murmansk2          1264.000
         8   01 Jun 2027 05:34:27.300   01 Jun 2027 05:35:38.367            71.067              Murmansk1          2220.844
         9   01 Jun 2027 05:35:38.367   01 Jun 2027 05:36:00.175            21.808              Murmansk2           681.500
        10   01 Jun 2027 05:38:50.795   01 Jun 2027 05:39:35.402            44.607                 Moscow          1393.969
        11   01 Jun 2027 06:56:27.167   01 Jun 2027 06:58:44.951           137.784                Anadyr1          4305.750
        12   01 Jun 2027 08:32:25.075   01 Jun 2027 08:33:28.263            63.188               Magadan2          1974.625
        13   01 Jun 2027 08:33:28.263   01 Jun 2027 08:34:08.038            39.775               Magadan1          1242.969
        14   01 Jun 2027 08:34:16.345   01 Jun 2027 08:35:40.871            84.526                Anadyr1          2641.437
        15   01 Jun 2027 08:37:00.642   01 Jun 2027 08:37:09.923             9.281                Anadyr1           290.031
        16   01 Jun 2027 10:07:24.172   01 Jun 2027 10:08:19.964            55.792               Magadan2          1743.500
        17   01 Jun 2027 10:08:56.126   01 Jun 2027 10:11:16.092           139.966               Magadan1          4373.937
        18   01 Jun 2027 10:11:16.092   01 Jun 2027 10:12:29.390            73.298               Magadan2          2290.563
        19   01 Jun 2027 11:43:18.078   01 Jun 2027 11:46:24.518           186.440                Irkutsk          5826.250
        20   01 Jun 2027 11:47:01.677   01 Jun 2027 11:47:41.800            40.123                Irkutsk          1253.844
        21   01 Jun 2027 11:48:23.177   01 Jun 2027 11:49:00.383            37.206                Novosib          1162.687
        22   01 Jun 2027 12:26:00.898   01 Jun 2027 12:27:21.167            80.269            RioGallegos          2508.406
        23   01 Jun 2027 12:59:48.498   01 Jun 2027 13:02:48.045           179.547                Sumatra          5610.844
        24   01 Jun 2027 13:03:34.074   01 Jun 2027 13:04:51.485            77.411                Sumatra          2419.094
        25   01 Jun 2027 13:15:26.987   01 Jun 2027 13:15:54.273            27.286                Irkutsk           852.688
        26   01 Jun 2027 13:16:28.471   01 Jun 2027 13:16:58.716            30.245                Irkutsk           945.156
        27   01 Jun 2027 13:17:39.708   01 Jun 2027 13:18:00.746            21.038                Novosib           657.438
        28   01 Jun 2027 13:19:05.786   01 Jun 2027 13:20:06.561            60.775                Irkutsk          1899.219
        29   01 Jun 2027 13:22:53.238   01 Jun 2027 13:23:20.521            27.283                Irkutsk           852.594
        30   01 Jun 2027 14:45:12.106   01 Jun 2027 14:49:48.828           276.722                  Delhi          8647.563
        31   01 Jun 2027 14:53:43.161   01 Jun 2027 14:56:32.327           169.166                Novosib          5286.438
        32   01 Jun 2027 14:57:44.478   01 Jun 2027 14:58:13.892            29.414                Novosib           919.188
        33   01 Jun 2027 15:00:18.239   01 Jun 2027 15:00:39.671            21.432                Novosib           669.750
        34   01 Jun 2027 16:07:51.204   01 Jun 2027 16:09:42.844           111.640               CapeTown          3488.750
        35   01 Jun 2027 16:10:04.496   01 Jun 2027 16:10:48.480            43.984               CapeTown          1374.500
        36   01 Jun 2027 16:12:37.198   01 Jun 2027 16:13:17.544            40.346               CapeTown          1260.812
        37   01 Jun 2027 16:27:32.309   01 Jun 2027 16:27:44.556            12.247                 Moscow           382.719
        38   01 Jun 2027 16:27:55.188   01 Jun 2027 16:28:30.362            35.174                 Moscow          1099.188
        39   01 Jun 2027 16:30:59.714   01 Jun 2027 16:31:47.187            47.473              Murmansk2          1483.531
        40   01 Jun 2027 16:32:00.276   01 Jun 2027 16:32:07.981             7.705                 Moscow           240.781
        41   01 Jun 2027 16:33:25.848   01 Jun 2027 16:33:52.797            26.949              Murmansk1           842.156
        42   01 Jun 2027 16:35:52.533   01 Jun 2027 16:36:35.326            42.793              Murmansk1          1337.281
        43   01 Jun 2027 16:38:06.754   01 Jun 2027 16:38:41.436            34.682                 Moscow          1083.812
        44   01 Jun 2027 16:40:44.181   01 Jun 2027 16:41:22.649            38.468              Murmansk2          1202.125
        45   01 Jun 2027 16:42:58.310   01 Jun 2027 16:43:28.711            30.401              Murmansk2           950.031
        46   01 Jun 2027 16:46:05.849   01 Jun 2027 16:46:46.634            40.785                Anadyr2          1274.531
        47   01 Jun 2027 16:47:02.970   01 Jun 2027 16:47:39.859            36.889                Anadyr2          1152.781
        48   01 Jun 2027 16:49:47.991   01 Jun 2027 16:50:15.629            27.638                Anadyr1           863.688
        49   01 Jun 2027 16:50:44.294   01 Jun 2027 16:51:29.804            45.510                Anadyr2          1422.188
        50   01 Jun 2027 17:43:44.668   01 Jun 2027 17:44:15.690            31.022               CapeTown           969.437
        51   01 Jun 2027 17:47:26.618   01 Jun 2027 17:48:00.797            34.179               CapeTown          1068.094
        52   01 Jun 2027 17:48:19.689   01 Jun 2027 17:49:16.470            56.781               CapeTown          1774.406
        53   01 Jun 2027 18:08:08.523   01 Jun 2027 18:11:56.154           227.631                 Moscow          7113.469
        54   01 Jun 2027 18:13:43.868   01 Jun 2027 18:15:06.966            83.098              Murmansk1          2596.813
        55   01 Jun 2027 18:26:36.903   01 Jun 2027 18:27:03.797            26.894               Magadan1           840.438
        56   01 Jun 2027 18:28:20.646   01 Jun 2027 18:28:31.134            10.488               Magadan2           327.750
        57   01 Jun 2027 18:28:38.815   01 Jun 2027 18:28:44.797             5.982               Magadan2           186.938
        58   01 Jun 2027 18:32:24.498   01 Jun 2027 18:32:45.955            21.457                Anadyr2           670.531
        59   01 Jun 2027 19:17:45.198   01 Jun 2027 19:18:41.945            56.747               CapeTown          1773.344
        60   01 Jun 2027 19:21:21.372   01 Jun 2027 19:23:00.151            98.779               CapeTown          3086.844
        61   01 Jun 2027 19:51:22.247   01 Jun 2027 19:53:47.767           145.520              Murmansk2          4547.500
        62   01 Jun 2027 19:59:37.324   01 Jun 2027 20:01:00.366            83.042               Magadan1          2595.063
        63   01 Jun 2027 20:01:08.140   01 Jun 2027 20:01:11.857             3.717               Magadan1           116.156
        64   01 Jun 2027 20:02:09.667   01 Jun 2027 20:02:27.361            17.694               Magadan1           552.937
        65   01 Jun 2027 20:03:04.099   01 Jun 2027 20:04:02.420            58.321               Magadan1          1822.531
        66   01 Jun 2027 20:07:29.081   01 Jun 2027 20:07:56.035            26.954               Magadan1           842.312
        67   01 Jun 2027 20:10:17.133   01 Jun 2027 20:11:05.451            48.318               Magadan2          1509.938
        68   01 Jun 2027 21:33:00.820   01 Jun 2027 21:36:51.587           230.767                Anadyr2          7211.469
        69   01 Jun 2027 21:37:02.242   01 Jun 2027 21:38:57.731           115.489                Norilsk          3609.031
        70   01 Jun 2027 21:39:06.914   01 Jun 2027 21:39:08.482             1.568               Magadan2            49.000
        71   01 Jun 2027 21:39:14.165   01 Jun 2027 21:39:24.207            10.042               Magadan2           313.813
        72   01 Jun 2027 21:39:54.231   01 Jun 2027 21:40:17.654            23.423               Magadan2           731.969
        73   01 Jun 2027 21:40:51.649   01 Jun 2027 21:41:45.037            53.388               Magadan1          1668.375
        74   01 Jun 2027 21:42:53.926   01 Jun 2027 21:43:08.743            14.817               Magadan2           463.031
        75   01 Jun 2027 21:45:39.238   01 Jun 2027 21:45:41.687             2.449               Magadan2            76.531
        76   01 Jun 2027 21:45:43.227   01 Jun 2027 21:47:06.400            83.173               Magadan2          2599.156
        77   01 Jun 2027 22:27:29.342   01 Jun 2027 22:28:28.396            59.054            RioGallegos          1845.438
        78   01 Jun 2027 22:29:33.214   01 Jun 2027 22:30:31.707            58.493            RioGallegos          1827.906
        79   01 Jun 2027 23:08:38.404   01 Jun 2027 23:09:28.523            50.119                Anadyr2          1566.219
        80   01 Jun 2027 23:09:41.629   01 Jun 2027 23:10:53.249            71.620                Anadyr1          2238.125
        81   01 Jun 2027 23:11:00.066   01 Jun 2027 23:12:30.070            90.004                Norilsk          2812.625
        82   01 Jun 2027 23:12:36.399   01 Jun 2027 23:13:21.437            45.038               Magadan1          1407.438
        83   01 Jun 2027 23:14:05.130   01 Jun 2027 23:14:34.044            28.914                Norilsk           903.563
        84   01 Jun 2027 23:15:02.699   01 Jun 2027 23:16:21.948            79.249                Irkutsk          2476.531
        85   01 Jun 2027 23:17:06.894   01 Jun 2027 23:17:26.978            20.084                Novosib           627.625
        86   01 Jun 2027 23:17:54.180   01 Jun 2027 23:18:14.264            20.084                Novosib           627.625
        87   01 Jun 2027 23:20:45.269   01 Jun 2027 23:21:36.019            50.750                Novosib          1585.938
        88   01 Jun 2027 23:28:49.667   01 Jun 2027 23:29:28.279            38.612                Sumatra          1206.625
        89   01 Jun 2027 23:31:26.284   01 Jun 2027 23:32:16.631            50.347                Sumatra          1573.344
        90   01 Jun 2027 23:40:51.721   01 Jun 2027 23:41:06.910            15.189                Sumatra           474.656
        91   02 Jun 2027 00:03:16.320   02 Jun 2027 00:03:21.897             5.577            RioGallegos           174.281
        92   02 Jun 2027 00:04:38.859   02 Jun 2027 00:04:53.140            14.281            RioGallegos           446.281
        93   02 Jun 2027 00:06:01.374   02 Jun 2027 00:06:30.299            28.925            RioGallegos           903.906
        94   02 Jun 2027 00:08:42.657   02 Jun 2027 00:09:12.275            29.618            RioGallegos           925.562
        95   02 Jun 2027 00:13:52.319   02 Jun 2027 00:14:19.145            26.826            RioGallegos           838.312
        96   02 Jun 2027 00:43:24.318   02 Jun 2027 00:44:07.188            42.870                Anadyr1          1339.688
        97   02 Jun 2027 00:44:55.404   02 Jun 2027 00:46:10.393            74.989                Anadyr1          2343.406
        98   02 Jun 2027 00:46:47.448   02 Jun 2027 00:48:30.385           102.937                Norilsk          3216.781
        99   02 Jun 2027 00:48:30.408   02 Jun 2027 00:48:51.896            21.488               Magadan2           671.500
       100   02 Jun 2027 00:50:39.951   02 Jun 2027 00:52:42.037           122.086                Irkutsk          3815.187
       101   02 Jun 2027 00:53:19.320   02 Jun 2027 00:54:26.923            67.603                Novosib          2112.594
       102   02 Jun 2027 00:55:51.269   02 Jun 2027 00:55:58.593             7.324                Irkutsk           228.875
       103   02 Jun 2027 00:56:17.496   02 Jun 2027 00:56:28.278            10.782                Irkutsk           336.937
       104   02 Jun 2027 00:58:38.566   02 Jun 2027 00:59:02.728            24.162                  Delhi           755.062
       105   02 Jun 2027 01:01:06.690   02 Jun 2027 01:01:51.975            45.285                  Delhi          1415.156
       106   02 Jun 2027 01:06:11.091   02 Jun 2027 01:06:35.555            24.464                Sumatra           764.500
       107   02 Jun 2027 01:08:39.856   02 Jun 2027 01:09:30.808            50.952                Sumatra          1592.250
       108   02 Jun 2027 01:11:04.542   02 Jun 2027 01:12:13.495            68.953                Sumatra          2154.781
       109   02 Jun 2027 01:40:47.690   02 Jun 2027 01:41:35.067            47.377            RioGallegos          1480.531
       110   02 Jun 2027 02:17:09.133   02 Jun 2027 02:18:01.915            52.782                Anadyr2          1649.437
       111   02 Jun 2027 02:22:47.342   02 Jun 2027 02:24:22.139            94.797                Norilsk          2962.406
       112   02 Jun 2027 02:25:08.533   02 Jun 2027 02:25:57.244            48.711              Murmansk2          1522.219
       113   02 Jun 2027 02:26:19.096   02 Jun 2027 02:27:17.878            58.782              Murmansk1          1836.938
       114   02 Jun 2027 02:27:37.293   02 Jun 2027 02:28:47.615            70.322                Irkutsk          2197.563
       115   02 Jun 2027 02:34:11.156   02 Jun 2027 02:34:50.454            39.298                  Delhi          1228.062
       116   02 Jun 2027 02:39:17.366   02 Jun 2027 02:39:46.517            29.151                  Delhi           910.969
       117   02 Jun 2027 02:42:46.366   02 Jun 2027 02:43:49.667            63.301                  Delhi          1978.156
       118   02 Jun 2027 04:07:56.499   02 Jun 2027 04:09:28.350            91.851                Norilsk          2870.344
       119   02 Jun 2027 04:09:40.298   02 Jun 2027 04:10:30.183            49.885              Murmansk1          1558.906
       120   02 Jun 2027 04:10:47.764   02 Jun 2027 04:12:57.590           129.826              Murmansk1          4057.063
       121   02 Jun 2027 04:13:36.611   02 Jun 2027 04:16:40.659           184.048                 Moscow          5751.500
       122   02 Jun 2027 04:28:39.903   02 Jun 2027 04:29:41.033            61.130               CapeTown          1910.312
       123   02 Jun 2027 04:29:51.228   02 Jun 2027 04:29:55.904             4.676               CapeTown           146.125
       124   02 Jun 2027 04:30:56.945   02 Jun 2027 04:36:24.563           327.618               CapeTown         10238.062
       125   02 Jun 2027 04:38:01.456   02 Jun 2027 04:40:40.138           158.682               CapeTown          4958.813
       126   02 Jun 2027 05:46:08.543   02 Jun 2027 05:47:50.529           101.986                 Moscow          3187.063
       127   02 Jun 2027 05:51:01.365   02 Jun 2027 05:51:42.082            40.717                 Moscow          1272.406
       128   02 Jun 2027 07:07:01.710   02 Jun 2027 07:09:07.640           125.930               Magadan2          3935.312
       129   02 Jun 2027 07:09:29.111   02 Jun 2027 07:13:17.908           228.797               Magadan2          7149.906
       130   02 Jun 2027 08:45:09.548   02 Jun 2027 08:47:41.296           151.748                Anadyr2          4742.125
       131   02 Jun 2027 08:47:57.630   02 Jun 2027 08:49:12.515            74.885               Magadan2          2340.156
       132   02 Jun 2027 10:19:24.982   02 Jun 2027 10:20:26.920            61.938               Magadan2          1935.563
       133   02 Jun 2027 10:20:26.920   02 Jun 2027 10:20:46.237            19.317               Magadan1           603.656
       134   02 Jun 2027 10:20:58.235   02 Jun 2027 10:23:15.319           137.084               Magadan1          4283.875
       135   02 Jun 2027 10:23:31.014   02 Jun 2027 10:23:50.027            19.013                Irkutsk           594.156
       136   02 Jun 2027 10:24:17.374   02 Jun 2027 10:24:28.055            10.681                Novosib           333.781
       137   02 Jun 2027 10:25:21.353   02 Jun 2027 10:25:48.287            26.934                Novosib           841.688
       138   02 Jun 2027 10:59:39.492   02 Jun 2027 11:00:36.407            56.915            RioGallegos          1778.594
       139   02 Jun 2027 11:34:43.948   02 Jun 2027 11:37:07.563           143.615                Sumatra          4487.969
       140   02 Jun 2027 11:55:02.464   02 Jun 2027 11:56:00.692            58.228                Irkutsk          1819.625
       141   02 Jun 2027 11:56:39.906   02 Jun 2027 11:57:08.285            28.379                Novosib           886.844
       142   02 Jun 2027 11:57:11.335   02 Jun 2027 11:57:26.331            14.996                Irkutsk           468.625
       143   02 Jun 2027 11:58:02.796   02 Jun 2027 11:58:17.429            14.633                Norilsk           457.281
       144   02 Jun 2027 11:58:21.139   02 Jun 2027 11:58:47.563            26.424                Norilsk           825.750
       145   02 Jun 2027 11:58:51.554   02 Jun 2027 11:59:14.509            22.955                Novosib           717.344
       146   02 Jun 2027 11:59:21.456   02 Jun 2027 12:00:19.270            57.814                Novosib          1806.688
       147   02 Jun 2027 12:04:31.290   02 Jun 2027 12:04:55.817            24.527                Norilsk           766.469
       148   02 Jun 2027 12:05:12.991   02 Jun 2027 12:05:42.124            29.133                Norilsk           910.406
       149   02 Jun 2027 12:39:24.914   02 Jun 2027 12:40:39.829            74.915            RioGallegos          2341.094
       150   02 Jun 2027 12:44:07.238   02 Jun 2027 12:44:19.632            12.394            RioGallegos           387.313
       151   02 Jun 2027 12:46:32.188   02 Jun 2027 12:47:15.304            43.116            RioGallegos          1347.375
       152   02 Jun 2027 13:12:38.713   02 Jun 2027 13:14:33.345           114.632                Sumatra          3582.250
       153   02 Jun 2027 13:28:29.709   02 Jun 2027 13:31:05.350           155.641                Irkutsk          4863.781
       154   02 Jun 2027 13:37:43.174   02 Jun 2027 13:37:47.919             4.745              Murmansk2           148.281
       155   02 Jun 2027 13:38:09.791   02 Jun 2027 13:39:16.394            66.603                Norilsk          2081.344
       156   02 Jun 2027 14:58:30.641   02 Jun 2027 15:01:43.259           192.618                  Delhi          6019.312
       157   02 Jun 2027 15:02:22.416   02 Jun 2027 15:02:32.879            10.463                  Delhi           326.969
       158   02 Jun 2027 15:06:35.019   02 Jun 2027 15:07:33.011            57.992              Murmansk1          1812.250
       159   02 Jun 2027 15:08:31.236   02 Jun 2027 15:10:31.055           119.819                Novosib          3744.344
       160   02 Jun 2027 15:13:56.949   02 Jun 2027 15:14:05.865             8.916                Norilsk           278.625
       161   02 Jun 2027 16:18:50.039   02 Jun 2027 16:20:47.186           117.147               CapeTown          3660.844
       162   02 Jun 2027 16:22:05.849   02 Jun 2027 16:22:22.113            16.264               CapeTown           508.250
       163   02 Jun 2027 16:25:13.668   02 Jun 2027 16:25:47.875            34.207               CapeTown          1068.969
       164   02 Jun 2027 16:39:49.861   02 Jun 2027 16:40:33.036            43.175                 Moscow          1349.219
       165   02 Jun 2027 16:43:12.715   02 Jun 2027 16:43:48.532            35.817              Murmansk2          1119.281
       166   02 Jun 2027 16:44:39.938   02 Jun 2027 16:45:23.216            43.278              Murmansk2          1352.437
       167   02 Jun 2027 16:51:14.761   02 Jun 2027 16:51:43.916            29.155              Murmansk2           911.094
       168   02 Jun 2027 16:54:54.561   02 Jun 2027 16:55:30.666            36.105              Murmansk1          1128.281
       169   02 Jun 2027 16:57:54.553   02 Jun 2027 16:59:20.185            85.632                Anadyr2          2676.000
       170   02 Jun 2027 17:00:37.322   02 Jun 2027 17:00:43.848             6.526                Anadyr2           203.937
       171   02 Jun 2027 17:00:47.490   02 Jun 2027 17:00:51.571             4.081                Anadyr1           127.531
       172   02 Jun 2027 17:02:32.216   02 Jun 2027 17:02:35.951             3.735                Anadyr1           116.719
       173   02 Jun 2027 17:04:06.721   02 Jun 2027 17:04:20.454            13.733                Anadyr1           429.156
       174   02 Jun 2027 17:52:34.836   02 Jun 2027 17:55:01.613           146.777               CapeTown          4586.781
       175   02 Jun 2027 18:21:53.134   02 Jun 2027 18:24:23.529           150.395                 Moscow          4699.844
       176   02 Jun 2027 18:25:23.800   02 Jun 2027 18:27:00.928            97.128              Murmansk1          3035.250
       177   02 Jun 2027 18:36:12.644   02 Jun 2027 18:36:15.386             2.742                Anadyr1            85.687
       178   02 Jun 2027 18:37:28.988   02 Jun 2027 18:38:31.114            62.126               Magadan1          1941.438
       179   02 Jun 2027 18:41:00.334   02 Jun 2027 18:41:11.995            11.661               Magadan1           364.406
       180   02 Jun 2027 18:42:17.179   02 Jun 2027 18:42:32.063            14.884               Magadan1           465.125
       181   02 Jun 2027 19:30:20.694   02 Jun 2027 19:30:53.523            32.829               CapeTown          1025.906
       182   02 Jun 2027 19:32:21.229   02 Jun 2027 19:33:04.944            43.715               CapeTown          1366.094
       183   02 Jun 2027 20:09:07.302   02 Jun 2027 20:10:45.778            98.476                Anadyr1          3077.375
       184   02 Jun 2027 20:11:08.613   02 Jun 2027 20:13:00.066           111.453                Anadyr2          3482.906
       185   02 Jun 2027 20:13:35.773   02 Jun 2027 20:15:48.533           132.760               Magadan1          4148.750
       186   02 Jun 2027 20:16:33.984   02 Jun 2027 20:17:00.096            26.112               Magadan1           816.000
       187   02 Jun 2027 20:23:04.805   02 Jun 2027 20:23:14.411             9.606               Magadan1           300.187
       188   02 Jun 2027 21:45:01.618   02 Jun 2027 21:47:05.153           123.535                Anadyr1          3860.469
       189   02 Jun 2027 21:47:10.416   02 Jun 2027 21:48:42.957            92.541                Anadyr2          2891.906
       190   02 Jun 2027 21:48:55.240   02 Jun 2027 21:50:52.922           117.682                Norilsk          3677.563
       191   02 Jun 2027 21:51:09.485   02 Jun 2027 21:52:28.678            79.193               Magadan1          2474.781
       192   02 Jun 2027 21:53:42.506   02 Jun 2027 21:54:10.766            28.260               Magadan2           883.125
       193   02 Jun 2027 21:54:10.875   02 Jun 2027 21:55:36.171            85.296                Irkutsk          2665.500
       194   02 Jun 2027 22:39:19.090   02 Jun 2027 22:40:28.532            69.442            RioGallegos          2170.062
       195   02 Jun 2027 22:41:07.579   02 Jun 2027 22:41:45.595            38.016            RioGallegos          1188.000
       196   02 Jun 2027 22:47:29.116   02 Jun 2027 22:47:42.905            13.789            RioGallegos           430.906
       197   02 Jun 2027 22:48:12.974   02 Jun 2027 22:48:47.192            34.218            RioGallegos          1069.312
       198   02 Jun 2027 23:20:34.923   02 Jun 2027 23:21:17.954            43.031                Anadyr2          1344.719
       199   02 Jun 2027 23:22:50.658   02 Jun 2027 23:22:52.573             1.915                Anadyr2            59.844
       200   02 Jun 2027 23:23:09.762   02 Jun 2027 23:24:32.145            82.383                Norilsk          2574.469
       201   02 Jun 2027 23:25:04.431   02 Jun 2027 23:25:43.157            38.726               Magadan2          1210.188
       202   02 Jun 2027 23:25:48.528   02 Jun 2027 23:26:32.274            43.746                Norilsk          1367.062
       203   02 Jun 2027 23:26:57.621   02 Jun 2027 23:27:53.842            56.221                Irkutsk          1756.906
       204   02 Jun 2027 23:28:26.899   02 Jun 2027 23:29:36.514            69.615                Novosib          2175.469
       205   02 Jun 2027 23:35:06.140   02 Jun 2027 23:35:16.568            10.428                Novosib           325.875
       206   02 Jun 2027 23:38:23.464   02 Jun 2027 23:39:02.880            39.416                Irkutsk          1231.750
       207   02 Jun 2027 23:40:39.753   02 Jun 2027 23:41:17.851            38.098                Sumatra          1190.563
       208   02 Jun 2027 23:47:59.369   02 Jun 2027 23:49:08.795            69.426                Sumatra          2169.563
       209   03 Jun 2027 00:18:34.291   03 Jun 2027 00:19:07.520            33.229            RioGallegos          1038.406
       210   03 Jun 2027 00:26:24.407   03 Jun 2027 00:26:27.593             3.186            RioGallegos            99.562
       211   03 Jun 2027 00:55:11.557   03 Jun 2027 00:55:36.287            24.730                Anadyr1           772.813
       212   03 Jun 2027 00:56:05.672   03 Jun 2027 00:56:49.831            44.159                Anadyr1          1379.969
       213   03 Jun 2027 00:56:49.831   03 Jun 2027 00:57:14.485            24.654                Anadyr2           770.437
       214   03 Jun 2027 00:57:43.183   03 Jun 2027 00:57:55.971            12.788                Anadyr2           399.625
       215   03 Jun 2027 00:58:49.760   03 Jun 2027 01:00:32.089           102.329                Norilsk          3197.781
       216   03 Jun 2027 01:02:24.315   03 Jun 2027 01:02:52.509            28.194               Magadan1           881.063
       217   03 Jun 2027 01:03:47.435   03 Jun 2027 01:04:42.266            54.831                Irkutsk          1713.469
       218   03 Jun 2027 01:04:52.467   03 Jun 2027 01:05:59.749            67.282                Novosib          2102.563
       219   03 Jun 2027 01:06:19.187   03 Jun 2027 01:07:00.669            41.482                Novosib          1296.313
       220   03 Jun 2027 01:10:12.697   03 Jun 2027 01:10:41.190            28.493                Novosib           890.406
       221   03 Jun 2027 01:12:36.082   03 Jun 2027 01:13:46.997            70.915                  Delhi          2216.094
       222   03 Jun 2027 01:21:19.730   03 Jun 2027 01:23:22.407           122.677                Sumatra          3833.656
       223   03 Jun 2027 01:58:05.330   03 Jun 2027 01:58:18.969            13.639            RioGallegos           426.219
       224   03 Jun 2027 02:28:39.043   03 Jun 2027 02:28:50.004            10.961                Anadyr2           342.531
       225   03 Jun 2027 02:30:21.245   03 Jun 2027 02:31:18.870            57.625                Anadyr2          1800.781
       226   03 Jun 2027 02:34:30.303   03 Jun 2027 02:34:45.182            14.879                Anadyr1           464.969
       227   03 Jun 2027 02:34:48.907   03 Jun 2027 02:35:44.614            55.707                Norilsk          1740.844
       228   03 Jun 2027 02:36:03.901   03 Jun 2027 02:36:21.830            17.929                Norilsk           560.281
       229   03 Jun 2027 02:37:06.776   03 Jun 2027 02:38:23.323            76.547              Murmansk1          2392.094
       230   03 Jun 2027 02:38:38.145   03 Jun 2027 02:39:07.928            29.783                Novosib           930.719
       231   03 Jun 2027 02:39:33.938   03 Jun 2027 02:39:50.691            16.753                Irkutsk           523.531
       232   03 Jun 2027 02:40:14.447   03 Jun 2027 02:41:23.826            69.379                Novosib          2168.094
       233   03 Jun 2027 02:51:06.533   03 Jun 2027 02:51:54.731            48.198                  Delhi          1506.187
       234   03 Jun 2027 04:20:27.548   03 Jun 2027 04:21:02.713            35.165              Murmansk2          1098.906
       235   03 Jun 2027 04:21:11.162   03 Jun 2027 04:23:19.153           127.991              Murmansk2          3999.719
       236   03 Jun 2027 04:23:19.153   03 Jun 2027 04:23:40.848            21.695              Murmansk1           677.969
       237   03 Jun 2027 04:23:40.848   03 Jun 2027 04:23:55.547            14.699              Murmansk2           459.344
       238   03 Jun 2027 04:24:13.851   03 Jun 2027 04:25:12.779            58.928              Murmansk1          1841.500
       239   03 Jun 2027 04:25:13.755   03 Jun 2027 04:25:41.459            27.704                 Moscow           865.750
       240   03 Jun 2027 04:25:49.095   03 Jun 2027 04:26:15.695            26.600                 Moscow           831.250
       241   03 Jun 2027 04:26:57.548   03 Jun 2027 04:28:50.787           113.239                 Moscow          3538.719
       242   03 Jun 2027 04:48:41.488   03 Jun 2027 04:49:50.138            68.650               CapeTown          2145.312
       243   03 Jun 2027 05:43:53.247   03 Jun 2027 05:45:18.034            84.787                Anadyr1          2649.594
       244   03 Jun 2027 05:47:21.749   03 Jun 2027 05:48:08.172            46.423               Magadan2          1450.719
       245   03 Jun 2027 07:18:58.427   03 Jun 2027 07:19:43.514            45.087                Anadyr1          1408.969
       246   03 Jun 2027 07:19:54.452   03 Jun 2027 07:20:50.792            56.340                Anadyr2          1760.625
       247   03 Jun 2027 07:21:06.911   03 Jun 2027 07:21:32.054            25.143               Magadan2           785.719
       248   03 Jun 2027 07:21:32.054   03 Jun 2027 07:21:47.425            15.371               Magadan1           480.344
       249   03 Jun 2027 07:21:53.561   03 Jun 2027 07:22:54.592            61.031                Anadyr1          1907.219
       250   03 Jun 2027 07:23:15.798   03 Jun 2027 07:23:50.344            34.546                Anadyr2          1079.562
       251   03 Jun 2027 08:52:45.001   03 Jun 2027 08:52:50.860             5.859               Magadan1           183.094
       252   03 Jun 2027 08:52:53.734   03 Jun 2027 08:53:10.357            16.623                Anadyr1           519.469
       253   03 Jun 2027 08:53:10.357   03 Jun 2027 08:53:52.489            42.132                Anadyr2          1316.625
       254   03 Jun 2027 08:54:42.034   03 Jun 2027 08:56:23.312           101.278                Anadyr1          3164.937
       255   03 Jun 2027 08:56:51.157   03 Jun 2027 08:57:29.712            38.555                Anadyr2          1204.844
       256   03 Jun 2027 08:57:30.282   03 Jun 2027 08:57:50.023            19.741               Magadan2           616.906
       257   03 Jun 2027 08:58:21.734   03 Jun 2027 08:58:28.113             6.379               Magadan1           199.344
       258   03 Jun 2027 08:58:34.262   03 Jun 2027 08:58:48.255            13.993               Magadan1           437.281
       259   03 Jun 2027 08:58:48.255   03 Jun 2027 08:59:27.396            39.141               Magadan2          1223.156
       260   03 Jun 2027 08:59:41.245   03 Jun 2027 09:00:55.812            74.567                Anadyr2          2330.219
       261   03 Jun 2027 10:31:25.266   03 Jun 2027 10:32:50.752            85.486               Magadan2          2671.438
       262   03 Jun 2027 10:33:03.668   03 Jun 2027 10:33:05.810             2.142               Magadan2            66.937
       263   03 Jun 2027 10:33:06.720   03 Jun 2027 10:34:00.663            53.943                Irkutsk          1685.719
       264   03 Jun 2027 10:34:18.406   03 Jun 2027 10:34:36.737            18.331                Irkutsk           572.844
       265   03 Jun 2027 10:34:44.546   03 Jun 2027 10:35:13.731            29.185               Magadan1           912.031
       266   03 Jun 2027 10:35:22.981   03 Jun 2027 10:36:22.040            59.059                Novosib          1845.594
       267   03 Jun 2027 10:36:38.898   03 Jun 2027 10:37:30.428            51.530                Norilsk          1610.313
       268   03 Jun 2027 11:11:46.083   03 Jun 2027 11:12:31.038            44.955            RioGallegos          1404.844
       269   03 Jun 2027 11:46:37.025   03 Jun 2027 11:48:13.709            96.684                Sumatra          3021.375
       270   03 Jun 2027 12:07:07.914   03 Jun 2027 12:07:55.839            47.925                Irkutsk          1497.656
       271   03 Jun 2027 12:17:29.917   03 Jun 2027 12:17:43.264            13.347                Norilsk           417.094
       272   03 Jun 2027 12:51:06.170   03 Jun 2027 12:51:30.664            24.494            RioGallegos           765.437
       273   03 Jun 2027 12:51:52.490   03 Jun 2027 12:52:34.454            41.964            RioGallegos          1311.375
       274   03 Jun 2027 12:58:29.629   03 Jun 2027 12:58:38.564             8.935            RioGallegos           279.219
       275   03 Jun 2027 13:26:01.835   03 Jun 2027 13:29:27.096           205.261                Sumatra          6414.406
       276   03 Jun 2027 13:40:41.039   03 Jun 2027 13:41:04.327            23.288                Novosib           727.750
       277   03 Jun 2027 13:42:00.256   03 Jun 2027 13:43:03.772            63.516                Irkutsk          1984.875
       278   03 Jun 2027 13:43:47.410   03 Jun 2027 13:45:01.375            73.965                Irkutsk          2311.406
       279   03 Jun 2027 15:15:13.499   03 Jun 2027 15:17:54.400           160.901                 Moscow          5028.156
       280   03 Jun 2027 15:18:28.256   03 Jun 2027 15:18:55.505            27.249                 Moscow           851.531
       281   03 Jun 2027 15:19:52.620   03 Jun 2027 15:19:54.736             2.116              Murmansk2            66.125
       282   03 Jun 2027 15:20:10.456   03 Jun 2027 15:20:47.893            37.437              Murmansk1          1169.906
       283   03 Jun 2027 15:21:05.615   03 Jun 2027 15:22:27.792            82.177                Novosib          2568.031
       284   03 Jun 2027 15:24:02.001   03 Jun 2027 15:24:09.817             7.816                Norilsk           244.250
       285   03 Jun 2027 15:25:53.864   03 Jun 2027 15:26:56.408            62.544                Norilsk          1954.500
       286   03 Jun 2027 16:30:11.347   03 Jun 2027 16:31:07.379            56.032               CapeTown          1751.000
       287   03 Jun 2027 16:33:32.112   03 Jun 2027 16:33:58.950            26.838               CapeTown           838.688
       288   03 Jun 2027 16:34:40.283   03 Jun 2027 16:35:57.448            77.165               CapeTown          2411.406
       289   03 Jun 2027 16:54:08.602   03 Jun 2027 16:55:01.213            52.611                 Moscow          1644.094
       290   03 Jun 2027 16:57:56.744   03 Jun 2027 16:58:22.514            25.770              Murmansk2           805.313
       291   03 Jun 2027 17:02:22.792   03 Jun 2027 17:03:12.948            50.156              Murmansk1          1567.375
       292   03 Jun 2027 17:06:29.198   03 Jun 2027 17:06:48.917            19.719              Murmansk1           616.219
       293   03 Jun 2027 17:09:46.557   03 Jun 2027 17:11:21.506            94.949                Anadyr1          2967.156
       294   03 Jun 2027 17:16:11.846   03 Jun 2027 17:16:52.218            40.372                Anadyr2          1261.625
       295   03 Jun 2027 18:07:07.573   03 Jun 2027 18:07:38.216            30.643               CapeTown           957.594
       296   03 Jun 2027 18:11:06.413   03 Jun 2027 18:12:51.238           104.825               CapeTown          3275.781
       297   03 Jun 2027 18:34:29.523   03 Jun 2027 18:35:05.058            35.535              Murmansk2          1110.469
       298   03 Jun 2027 18:35:09.979   03 Jun 2027 18:37:43.452           153.473              Murmansk1          4796.031
       299   03 Jun 2027 18:41:39.198   03 Jun 2027 18:43:07.225            88.027              Murmansk2          2750.844
       300   03 Jun 2027 18:54:22.765   03 Jun 2027 18:55:36.660            73.895               Magadan1          2309.219
       301   03 Jun 2027 19:47:05.026   03 Jun 2027 19:47:35.077            30.051               CapeTown           939.094
       302   03 Jun 2027 20:21:09.060   03 Jun 2027 20:24:53.826           224.766                Anadyr2          7023.937
       303   03 Jun 2027 20:25:23.833   03 Jun 2027 20:27:30.341           126.508               Magadan1          3953.375
       304   03 Jun 2027 20:30:11.555   03 Jun 2027 20:30:30.900            19.345               Magadan2           604.531
       305   03 Jun 2027 21:57:02.100   03 Jun 2027 22:00:42.454           220.354                Anadyr2          6886.063
       306   03 Jun 2027 22:00:50.176   03 Jun 2027 22:01:06.023            15.847                Norilsk           495.219
       307   03 Jun 2027 22:01:39.171   03 Jun 2027 22:03:03.560            84.389               Magadan1          2637.156
       308   03 Jun 2027 22:03:03.560   03 Jun 2027 22:03:19.108            15.548               Magadan2           485.875
       309   03 Jun 2027 22:03:29.708   03 Jun 2027 22:03:43.106            13.398                Anadyr2           418.688
       310   03 Jun 2027 22:03:44.268   03 Jun 2027 22:04:18.766            34.498                Norilsk          1078.063
       311   03 Jun 2027 22:05:04.312   03 Jun 2027 22:05:44.570            40.258                Irkutsk          1258.062
       312   03 Jun 2027 22:06:03.507   03 Jun 2027 22:06:28.512            25.005               Magadan2           781.406
       313   03 Jun 2027 22:06:42.540   03 Jun 2027 22:07:25.448            42.908                Irkutsk          1340.875
       314   03 Jun 2027 22:09:43.039   03 Jun 2027 22:10:29.344            46.305                Irkutsk          1447.031
       315   03 Jun 2027 22:24:07.184   03 Jun 2027 22:24:28.139            20.955                Sumatra           654.844
       316   03 Jun 2027 22:51:11.504   03 Jun 2027 22:51:53.261            41.757            RioGallegos          1304.906
       317   03 Jun 2027 22:59:06.540   03 Jun 2027 22:59:31.195            24.655            RioGallegos           770.469
       318   03 Jun 2027 23:00:18.277   03 Jun 2027 23:00:41.332            23.055            RioGallegos           720.469
       319   03 Jun 2027 23:32:30.532   03 Jun 2027 23:34:49.440           138.908                Anadyr1          4340.875
       320   03 Jun 2027 23:34:52.346   03 Jun 2027 23:34:58.099             5.753                Norilsk           179.781
       321   03 Jun 2027 23:35:04.291   03 Jun 2027 23:36:18.471            74.180                Norilsk          2318.125
       322   03 Jun 2027 23:36:32.222   03 Jun 2027 23:36:44.120            11.898               Magadan1           371.813
       323   03 Jun 2027 23:37:40.470   03 Jun 2027 23:37:45.743             5.273               Magadan2           164.781
       324   03 Jun 2027 23:38:10.008   03 Jun 2027 23:38:44.085            34.077               Magadan2          1064.906
       325   03 Jun 2027 23:38:54.172   03 Jun 2027 23:39:16.101            21.929                Irkutsk           685.281
       326   03 Jun 2027 23:39:29.064   03 Jun 2027 23:39:57.710            28.646                Irkutsk           895.188
       327   03 Jun 2027 23:40:01.645   03 Jun 2027 23:40:47.712            46.067                Novosib          1439.594
       328   03 Jun 2027 23:42:59.839   03 Jun 2027 23:43:16.306            16.467                Novosib           514.594
       329   03 Jun 2027 23:43:25.585   03 Jun 2027 23:44:10.682            45.097                Novosib          1409.281
       330   03 Jun 2027 23:52:35.731   03 Jun 2027 23:53:36.266            60.535                Sumatra          1891.719
       331   04 Jun 2027 00:01:21.636   04 Jun 2027 00:02:10.877            49.241                Sumatra          1538.781
       332   04 Jun 2027 00:36:21.520   04 Jun 2027 00:37:27.654            66.134            RioGallegos          2066.687
       333   04 Jun 2027 01:07:30.035   04 Jun 2027 01:08:04.703            34.668                Anadyr1          1083.375
       334   04 Jun 2027 01:08:42.180   04 Jun 2027 01:09:09.477            27.297                Anadyr2           853.031
       335   04 Jun 2027 01:09:14.239   04 Jun 2027 01:09:42.589            28.350                Anadyr1           885.938
       336   04 Jun 2027 01:10:52.060   04 Jun 2027 01:12:33.641           101.581                Norilsk          3174.406
       337   04 Jun 2027 01:13:53.717   04 Jun 2027 01:14:20.553            26.836               Magadan1           838.625
       338   04 Jun 2027 01:14:44.597   04 Jun 2027 01:16:21.424            96.827                Novosib          3025.844
       339   04 Jun 2027 01:16:26.629   04 Jun 2027 01:16:52.314            25.685              Murmansk2           802.656
       340   04 Jun 2027 01:19:27.827   04 Jun 2027 01:20:13.615            45.788                Novosib          1430.875
       341   04 Jun 2027 01:23:02.200   04 Jun 2027 01:24:00.227            58.027                  Delhi          1813.344
       342   04 Jun 2027 01:32:30.415   04 Jun 2027 01:32:43.408            12.993                  Delhi           406.031
       343   04 Jun 2027 01:33:32.533   04 Jun 2027 01:35:17.807           105.274                Sumatra          3289.812
       344   04 Jun 2027 02:06:34.335   04 Jun 2027 02:07:03.083            28.748            RioGallegos           898.375
       345   04 Jun 2027 02:09:54.470   04 Jun 2027 02:10:14.718            20.248            RioGallegos           632.750
       346   04 Jun 2027 02:40:38.799   04 Jun 2027 02:40:40.830             2.031                Anadyr1            63.469
       347   04 Jun 2027 02:41:13.156   04 Jun 2027 02:42:01.019            47.863                Anadyr1          1495.719
       348   04 Jun 2027 02:43:10.470   04 Jun 2027 02:43:16.063             5.593                Anadyr2           174.781
       349   04 Jun 2027 02:46:34.209   04 Jun 2027 02:47:22.101            47.892               Magadan2          1496.625
       350   04 Jun 2027 02:47:38.822   04 Jun 2027 02:48:12.137            33.315                Norilsk          1041.094
       351   04 Jun 2027 02:49:05.946   04 Jun 2027 02:49:56.923            50.977              Murmansk2          1593.031
       352   04 Jun 2027 02:50:25.979   04 Jun 2027 02:50:41.218            15.239              Murmansk1           476.219
       353   04 Jun 2027 02:50:41.880   04 Jun 2027 02:51:19.855            37.975                Novosib          1186.719
       354   04 Jun 2027 02:51:38.458   04 Jun 2027 02:52:00.082            21.624                Novosib           675.750
       355   04 Jun 2027 02:52:09.611   04 Jun 2027 02:52:40.238            30.627                Irkutsk           957.094
       356   04 Jun 2027 02:58:13.248   04 Jun 2027 02:58:40.209            26.961                Irkutsk           842.531
       357   04 Jun 2027 02:59:16.911   04 Jun 2027 02:59:46.703            29.792                  Delhi           931.000
       358   04 Jun 2027 04:32:43.923   04 Jun 2027 04:34:16.889            92.966              Murmansk1          2905.188
       359   04 Jun 2027 04:34:30.878   04 Jun 2027 04:35:25.625            54.747                Novosib          1710.844
       360   04 Jun 2027 04:35:42.517   04 Jun 2027 04:37:33.868           111.351                 Moscow          3479.719
       361   04 Jun 2027 04:37:46.831   04 Jun 2027 04:38:54.874            68.043                 Moscow          2126.344
       362   04 Jun 2027 04:52:14.127   04 Jun 2027 04:54:36.853           142.726               CapeTown          4460.188
       363   04 Jun 2027 05:55:54.843   04 Jun 2027 05:56:36.558            41.715                Anadyr1          1303.594
       364   04 Jun 2027 05:56:40.146   04 Jun 2027 05:57:15.588            35.442               Magadan2          1107.562
       365   04 Jun 2027 07:30:07.696   04 Jun 2027 07:30:16.737             9.041                Anadyr1           282.531
       366   04 Jun 2027 07:30:27.728   04 Jun 2027 07:30:37.003             9.275               Magadan2           289.844
       367   04 Jun 2027 07:31:11.801   04 Jun 2027 07:31:42.640            30.839                Anadyr2           963.719
       368   04 Jun 2027 07:31:56.405   04 Jun 2027 07:33:54.528           118.123                Anadyr2          3691.344
       369   04 Jun 2027 07:34:06.840   04 Jun 2027 07:34:12.417             5.577               Magadan1           174.281
       370   04 Jun 2027 07:35:05.018   04 Jun 2027 07:35:21.411            16.393                Anadyr2           512.281
       371   04 Jun 2027 07:35:21.411   04 Jun 2027 07:35:35.098            13.687                Anadyr1           427.719
       372   04 Jun 2027 07:40:52.994   04 Jun 2027 07:41:31.788            38.794                 Moscow          1212.312
       373   04 Jun 2027 09:04:35.125   04 Jun 2027 09:05:32.394            57.269               Magadan1          1789.656
       374   04 Jun 2027 09:05:40.871   04 Jun 2027 09:05:46.555             5.684                Anadyr2           177.625
       375   04 Jun 2027 09:05:50.495   04 Jun 2027 09:07:50.209           119.714                Anadyr2          3741.063
       376   04 Jun 2027 09:08:09.642   04 Jun 2027 09:09:30.576            80.934               Magadan1          2529.188
       377   04 Jun 2027 09:10:22.258   04 Jun 2027 09:11:40.620            78.362                Anadyr1          2448.812
       378   04 Jun 2027 09:48:26.014   04 Jun 2027 09:49:06.835            40.821            RioGallegos          1275.656
       379   04 Jun 2027 09:50:52.686   04 Jun 2027 09:51:41.688            49.002            RioGallegos          1531.312
       380   04 Jun 2027 10:27:01.533   04 Jun 2027 10:27:34.216            32.683                Sumatra          1021.344
       381   04 Jun 2027 10:43:14.638   04 Jun 2027 10:43:17.371             2.733                Irkutsk            85.406
       382   04 Jun 2027 10:43:24.930   04 Jun 2027 10:44:40.619            75.689               Magadan2          2365.281
       383   04 Jun 2027 10:44:40.619   04 Jun 2027 10:45:28.929            48.310               Magadan1          1509.687
       384   04 Jun 2027 10:45:46.579   04 Jun 2027 10:47:11.165            84.586               Magadan2          2643.313
       385   04 Jun 2027 10:47:37.646   04 Jun 2027 10:47:55.847            18.201                Irkutsk           568.781
       386   04 Jun 2027 10:48:04.093   04 Jun 2027 10:48:46.018            41.925                Irkutsk          1310.156
       387   04 Jun 2027 10:48:55.992   04 Jun 2027 10:48:59.468             3.476                Novosib           108.625
       388   04 Jun 2027 10:49:05.901   04 Jun 2027 10:50:18.414            72.513                Novosib          2266.031
       389   04 Jun 2027 11:26:54.579   04 Jun 2027 11:27:36.001            41.422            RioGallegos          1294.438
       390   04 Jun 2027 11:58:35.839   04 Jun 2027 11:59:06.352            30.513                Sumatra           953.531
       391   04 Jun 2027 12:11:18.029   04 Jun 2027 12:11:21.399             3.370                  Delhi           105.312
       392   04 Jun 2027 12:11:46.255   04 Jun 2027 12:12:33.768            47.513                  Delhi          1484.781
       393   04 Jun 2027 12:12:53.044   04 Jun 2027 12:13:35.604            42.560                Irkutsk          1330.000
       394   04 Jun 2027 12:17:25.760   04 Jun 2027 12:18:28.656            62.896                Novosib          1965.500
       395   04 Jun 2027 13:04:11.899   04 Jun 2027 13:06:42.093           150.194            RioGallegos          4693.563
       396   04 Jun 2027 13:45:54.353   04 Jun 2027 13:47:20.396            86.043                  Delhi          2688.844
       397   04 Jun 2027 13:50:45.848   04 Jun 2027 13:50:48.333             2.485                Novosib            77.656
       398   04 Jun 2027 13:51:47.706   04 Jun 2027 13:52:34.220            46.514                Novosib          1453.563
       399   04 Jun 2027 13:53:30.013   04 Jun 2027 13:54:54.054            84.041                Novosib          2626.281
       400   04 Jun 2027 13:55:33.125   04 Jun 2027 13:55:45.026            11.901                Norilsk           371.906
       401   04 Jun 2027 13:56:05.038   04 Jun 2027 13:56:44.314            39.276                Novosib          1227.375
       402   04 Jun 2027 14:02:39.262   04 Jun 2027 14:03:51.298            72.036                Norilsk          2251.125
       403   04 Jun 2027 15:27:12.052   04 Jun 2027 15:28:20.209            68.157                 Moscow          2129.906
       404   04 Jun 2027 15:29:23.175   04 Jun 2027 15:31:00.858            97.683                 Moscow          3052.594
       405   04 Jun 2027 15:31:53.506   04 Jun 2027 15:32:44.963            51.457              Murmansk2          1608.031
       406   04 Jun 2027 15:34:44.096   04 Jun 2027 15:36:24.750           100.654                Norilsk          3145.437
       407   04 Jun 2027 15:37:52.033   04 Jun 2027 15:38:05.158            13.125                Norilsk           410.156
       408   04 Jun 2027 15:38:19.059   04 Jun 2027 15:39:32.227            73.168                Norilsk          2286.500
       409   04 Jun 2027 16:41:44.237   04 Jun 2027 16:42:11.992            27.755               CapeTown           867.344
       410   04 Jun 2027 16:45:30.616   04 Jun 2027 16:46:16.867            46.251               CapeTown          1445.344
       411   04 Jun 2027 17:04:37.226   04 Jun 2027 17:05:26.979            49.753                 Moscow          1554.781
       412   04 Jun 2027 17:07:44.651   04 Jun 2027 17:08:57.059            72.408              Murmansk2          2262.750
       413   04 Jun 2027 17:10:24.914   04 Jun 2027 17:11:31.591            66.677              Murmansk2          2083.656
       414   04 Jun 2027 17:21:40.846   04 Jun 2027 17:22:12.326            31.480                Anadyr1           983.750
       415   04 Jun 2027 17:22:36.650   04 Jun 2027 17:23:18.194            41.544                Anadyr2          1298.250
       416   04 Jun 2027 17:30:08.311   04 Jun 2027 17:30:32.050            23.739                Anadyr1           741.844
       417   04 Jun 2027 17:31:12.788   04 Jun 2027 17:31:17.933             5.145                Anadyr2           160.781
       418   04 Jun 2027 18:16:42.779   04 Jun 2027 18:17:08.855            26.076               CapeTown           814.875
       419   04 Jun 2027 18:17:58.714   04 Jun 2027 18:18:45.876            47.162               CapeTown          1473.813
       420   04 Jun 2027 18:47:06.874   04 Jun 2027 18:51:39.108           272.234              Murmansk1          8507.312
       421   04 Jun 2027 19:00:36.609   04 Jun 2027 19:02:21.302           104.693               Magadan2          3271.656
       422   04 Jun 2027 19:03:26.764   04 Jun 2027 19:03:40.243            13.479               Magadan2           421.219
       423   04 Jun 2027 20:33:10.784   04 Jun 2027 20:36:55.300           224.516                Anadyr1          7016.125
       424   04 Jun 2027 20:37:43.072   04 Jun 2027 20:40:23.333           160.261               Magadan1          5008.156
       425   04 Jun 2027 20:40:57.488   04 Jun 2027 20:41:11.773            14.285               Magadan1           446.406
       426   04 Jun 2027 20:44:17.740   04 Jun 2027 20:44:42.248            24.508               Magadan1           765.875
       427   04 Jun 2027 20:47:19.613   04 Jun 2027 20:47:19.896             0.283               Magadan2             8.844
       428   04 Jun 2027 21:30:43.185   04 Jun 2027 21:32:15.087            91.902            RioGallegos          2871.938
       429   04 Jun 2027 22:09:02.220   04 Jun 2027 22:11:11.899           129.679                Anadyr1          4052.469
       430   04 Jun 2027 22:11:12.746   04 Jun 2027 22:12:46.034            93.288                Norilsk          2915.250
       431   04 Jun 2027 22:13:21.100   04 Jun 2027 22:14:36.615            75.515                Norilsk          2359.844
       432   04 Jun 2027 22:14:39.884   04 Jun 2027 22:15:14.008            34.124               Magadan2          1066.375
       433   04 Jun 2027 22:16:28.817   04 Jun 2027 22:16:42.803            13.986                Irkutsk           437.063
       434   04 Jun 2027 22:17:13.453   04 Jun 2027 22:17:50.134            36.681                Irkutsk          1146.281
       435   04 Jun 2027 22:19:08.246   04 Jun 2027 22:19:28.160            19.914                Irkutsk           622.313
       436   04 Jun 2027 22:21:40.284   04 Jun 2027 22:22:05.624            25.340                Irkutsk           791.875
       437   04 Jun 2027 22:32:10.925   04 Jun 2027 22:33:47.022            96.097                Sumatra          3003.031
       438   04 Jun 2027 22:36:32.390   04 Jun 2027 22:37:11.469            39.079                Sumatra          1221.219
       439   04 Jun 2027 23:11:14.721   04 Jun 2027 23:11:18.934             4.213            RioGallegos           131.656
       440   04 Jun 2027 23:44:25.145   04 Jun 2027 23:46:48.711           143.566                Anadyr1          4486.438
       441   04 Jun 2027 23:46:48.711   04 Jun 2027 23:47:03.526            14.815                Anadyr2           462.969
       442   04 Jun 2027 23:47:20.535   04 Jun 2027 23:48:17.236            56.701                Norilsk          1771.906
       443   04 Jun 2027 23:48:23.918   04 Jun 2027 23:49:14.867            50.949               Magadan1          1592.156
       444   04 Jun 2027 23:50:52.081   04 Jun 2027 23:51:58.303            66.222                Irkutsk          2069.437
       445   04 Jun 2027 23:53:46.245   04 Jun 2027 23:53:50.626             4.381                Novosib           136.906
       446   04 Jun 2027 23:54:41.045   04 Jun 2027 23:56:00.263            79.218                Novosib          2475.563
       447   05 Jun 2027 00:04:37.370   05 Jun 2027 00:04:41.644             4.274                Sumatra           133.562
       448   05 Jun 2027 00:09:16.330   05 Jun 2027 00:10:29.489            73.159                Sumatra          2286.219
       449   05 Jun 2027 00:16:34.059   05 Jun 2027 00:17:15.509            41.450                Sumatra          1295.313
       450   05 Jun 2027 00:41:46.337   05 Jun 2027 00:41:51.150             4.813            RioGallegos           150.406
       451   05 Jun 2027 00:42:36.025   05 Jun 2027 00:42:44.905             8.880            RioGallegos           277.500
       452   05 Jun 2027 00:44:06.464   05 Jun 2027 00:44:38.816            32.352            RioGallegos          1011.000
       453   05 Jun 2027 01:18:42.303   05 Jun 2027 01:19:25.443            43.140                Anadyr2          1348.125
       454   05 Jun 2027 01:20:04.198   05 Jun 2027 01:20:31.575            27.377                Anadyr2           855.531
       455   05 Jun 2027 01:20:52.603   05 Jun 2027 01:21:13.498            20.895                Anadyr1           652.969
       456   05 Jun 2027 01:22:54.336   05 Jun 2027 01:24:53.107           118.771                Norilsk          3711.594
       457   05 Jun 2027 01:25:23.880   05 Jun 2027 01:25:45.665            21.785               Magadan2           680.781
       458   05 Jun 2027 01:26:08.447   05 Jun 2027 01:26:53.282            44.835              Murmansk2          1401.094
       459   05 Jun 2027 01:26:53.318   05 Jun 2027 01:28:19.914            86.596              Murmansk1          2706.125
       460   05 Jun 2027 01:28:26.331   05 Jun 2027 01:28:45.470            19.139                Irkutsk           598.094
       461   05 Jun 2027 01:30:23.447   05 Jun 2027 01:30:41.667            18.220                Novosib           569.375
       462   05 Jun 2027 01:33:33.883   05 Jun 2027 01:33:38.646             4.763                Irkutsk           148.844
       463   05 Jun 2027 01:34:53.893   05 Jun 2027 01:36:16.547            82.654                  Delhi          2582.937
       464   05 Jun 2027 02:15:43.239   05 Jun 2027 02:16:43.185            59.946            RioGallegos          1873.312
       465   05 Jun 2027 02:17:39.566   05 Jun 2027 02:18:38.109            58.543            RioGallegos          1829.469
       466   05 Jun 2027 02:22:42.616   05 Jun 2027 02:23:45.914            63.298            RioGallegos          1978.063
       467   05 Jun 2027 02:55:55.294   05 Jun 2027 02:56:06.941            11.647                Anadyr2           363.969
       468   05 Jun 2027 02:56:06.941   05 Jun 2027 02:56:14.051             7.110                Anadyr1           222.187
       469   05 Jun 2027 02:57:29.589   05 Jun 2027 02:57:46.747            17.158                Anadyr1           536.188
       470   05 Jun 2027 02:58:13.628   05 Jun 2027 02:58:48.892            35.264               Magadan1          1102.000
       471   05 Jun 2027 02:58:51.401   05 Jun 2027 02:59:30.243            38.842                Norilsk          1213.812
       472   05 Jun 2027 03:05:14.711   05 Jun 2027 03:06:10.375            55.664                Novosib          1739.500
       473   05 Jun 2027 03:06:23.720   05 Jun 2027 03:08:21.263           117.543              Murmansk1          3673.219
       474   05 Jun 2027 03:08:24.885   05 Jun 2027 03:10:27.888           123.003                Irkutsk          3843.844
       475   05 Jun 2027 03:12:41.829   05 Jun 2027 03:14:56.134           134.305                  Delhi          4197.031
       476   05 Jun 2027 04:44:59.325   05 Jun 2027 04:46:36.466            97.141                Novosib          3035.656
       477   05 Jun 2027 04:48:21.898   05 Jun 2027 04:50:48.604           146.706                 Moscow          4584.562
       478   05 Jun 2027 05:04:08.949   05 Jun 2027 05:07:08.000           179.051               CapeTown          5595.344
       479   05 Jun 2027 06:00:51.168   05 Jun 2027 06:03:40.769           169.601                Anadyr1          5300.031
       480   05 Jun 2027 06:07:56.322   05 Jun 2027 06:09:31.150            94.828                Anadyr2          2963.375
       481   05 Jun 2027 06:09:31.150   05 Jun 2027 06:10:01.331            30.181                Anadyr1           943.156
       482   05 Jun 2027 06:10:28.277   05 Jun 2027 06:10:52.797            24.520                Anadyr2           766.250
