uniorb/output/strategy_4/Drop/Drop_KinoSat_111605.txt

KinoSat_111605
-------------------------
    Access    *     Start Time (UTCG)     *     Stop Time (UTCG)  *   Duration (s)        *       Station  *  Data (Mbytes)
         1   01 Jun 2027 03:16:04.417   01 Jun 2027 03:16:13.615             9.198                Norilsk           287.438
         2   01 Jun 2027 03:16:23.561   01 Jun 2027 03:19:04.748           161.187              Murmansk2          5037.094
         3   01 Jun 2027 03:19:08.447   01 Jun 2027 03:19:50.787            42.340                Novosib          1323.125
         4   01 Jun 2027 03:19:56.090   01 Jun 2027 03:20:38.112            42.022                Norilsk          1313.187
         5   01 Jun 2027 03:21:08.849   01 Jun 2027 03:24:11.223           182.374                  Delhi          5699.188
         6   01 Jun 2027 04:54:11.507   01 Jun 2027 04:54:20.563             9.056              Murmansk1           283.000
         7   01 Jun 2027 04:54:22.449   01 Jun 2027 04:54:30.903             8.454                Norilsk           264.187
         8   01 Jun 2027 04:54:34.886   01 Jun 2027 04:54:56.023            21.137                Novosib           660.531
         9   01 Jun 2027 04:55:02.198   01 Jun 2027 04:55:32.250            30.052              Murmansk1           939.125
        10   01 Jun 2027 04:55:44.599   01 Jun 2027 04:57:20.278            95.679              Murmansk2          2989.969
        11   01 Jun 2027 04:57:28.891   01 Jun 2027 04:58:03.210            34.319              Murmansk1          1072.469
        12   01 Jun 2027 05:13:34.234   01 Jun 2027 05:16:17.308           163.074               CapeTown          5096.063
        13   01 Jun 2027 06:17:23.410   01 Jun 2027 06:18:24.744            61.334                Anadyr2          1916.688
        14   01 Jun 2027 06:18:40.806   01 Jun 2027 06:20:44.539           123.733               Magadan1          3866.656
        15   01 Jun 2027 06:20:44.539   01 Jun 2027 06:21:18.826            34.287               Magadan2          1071.469
        16   01 Jun 2027 06:22:36.700   01 Jun 2027 06:22:48.587            11.887               Magadan2           371.469
        17   01 Jun 2027 07:54:52.210   01 Jun 2027 07:58:51.927           239.717               Magadan1          7491.156
        18   01 Jun 2027 09:27:36.622   01 Jun 2027 09:28:24.781            48.159               Magadan2          1504.969
        19   01 Jun 2027 09:28:31.183   01 Jun 2027 09:30:55.302           144.119               Magadan1          4503.719
        20   01 Jun 2027 09:30:55.302   01 Jun 2027 09:32:57.604           122.302               Magadan2          3821.938
        21   01 Jun 2027 09:33:03.087   01 Jun 2027 09:33:33.180            30.093                Anadyr1           940.406
        22   01 Jun 2027 09:33:50.726   01 Jun 2027 09:34:31.888            41.162               Magadan2          1286.313
        23   01 Jun 2027 11:05:25.908   01 Jun 2027 11:07:31.222           125.314               Magadan2          3916.063
        24   01 Jun 2027 11:08:21.722   01 Jun 2027 11:08:26.240             4.518                Irkutsk           141.188
        25   01 Jun 2027 11:09:27.529   01 Jun 2027 11:11:55.008           147.479                Novosib          4608.719
        26   01 Jun 2027 11:12:09.479   01 Jun 2027 11:12:32.316            22.837                Norilsk           713.656
        27   01 Jun 2027 11:14:04.524   01 Jun 2027 11:14:31.296            26.772                Norilsk           836.625
        28   01 Jun 2027 11:18:05.809   01 Jun 2027 11:18:14.729             8.920              Murmansk2           278.750
        29   01 Jun 2027 11:45:49.783   01 Jun 2027 11:50:29.117           279.334            RioGallegos          8729.188
        30   01 Jun 2027 12:20:13.551   01 Jun 2027 12:22:19.613           126.062                Sumatra          3939.438
        31   01 Jun 2027 12:24:34.946   01 Jun 2027 12:24:41.996             7.050                Sumatra           220.313
        32   01 Jun 2027 12:28:11.366   01 Jun 2027 12:29:03.415            52.049                Sumatra          1626.531
        33   01 Jun 2027 12:35:02.214   01 Jun 2027 12:35:38.425            36.211                Irkutsk          1131.594
        34   01 Jun 2027 12:37:29.615   01 Jun 2027 12:40:08.438           158.823                Irkutsk          4963.219
        35   01 Jun 2027 14:04:51.323   01 Jun 2027 14:05:31.388            40.065                  Delhi          1252.031
        36   01 Jun 2027 14:07:05.327   01 Jun 2027 14:09:30.528           145.201                  Delhi          4537.531
        37   01 Jun 2027 14:13:02.331   01 Jun 2027 14:14:00.501            58.170                Novosib          1817.812
        38   01 Jun 2027 14:16:17.991   01 Jun 2027 14:18:13.496           115.505                Novosib          3609.531
        39   01 Jun 2027 14:18:36.386   01 Jun 2027 14:18:55.567            19.181                Norilsk           599.406
        40   01 Jun 2027 14:19:19.645   01 Jun 2027 14:19:54.481            34.836                Norilsk          1088.625
        41   01 Jun 2027 14:24:58.650   01 Jun 2027 14:25:16.330            17.680                Norilsk           552.500
        42   01 Jun 2027 14:25:35.682   01 Jun 2027 14:26:46.471            70.789                Norilsk          2212.156
        43   01 Jun 2027 15:48:42.429   01 Jun 2027 15:51:50.188           187.759                 Moscow          5867.469
        44   01 Jun 2027 15:52:13.418   01 Jun 2027 15:53:38.404            84.986              Murmansk1          2655.812
        45   01 Jun 2027 15:54:08.668   01 Jun 2027 15:54:57.383            48.715              Murmansk1          1522.344
        46   01 Jun 2027 15:57:35.301   01 Jun 2027 16:02:10.712           275.411                Norilsk          8606.594
        47   01 Jun 2027 17:27:01.131   01 Jun 2027 17:28:42.829           101.698                 Moscow          3178.062
        48   01 Jun 2027 17:29:45.572   01 Jun 2027 17:32:54.919           189.347              Murmansk2          5917.094
        49   01 Jun 2027 18:38:25.345   01 Jun 2027 18:42:29.126           243.781               CapeTown          7618.156
        50   01 Jun 2027 19:09:47.919   01 Jun 2027 19:14:32.603           284.684              Murmansk2          8896.375
        51   01 Jun 2027 19:15:08.011   01 Jun 2027 19:15:38.422            30.411              Murmansk1           950.344
        52   01 Jun 2027 19:22:08.622   01 Jun 2027 19:22:48.127            39.505               Magadan1          1234.531
        53   01 Jun 2027 20:54:39.531   01 Jun 2027 20:56:13.743            94.212                Anadyr1          2944.125
        54   01 Jun 2027 20:56:28.422   01 Jun 2027 20:57:45.565            77.143                Anadyr2          2410.719
        55   01 Jun 2027 20:58:06.854   01 Jun 2027 21:00:45.310           158.456               Magadan1          4951.750
        56   01 Jun 2027 21:50:16.729   01 Jun 2027 21:53:04.845           168.116            RioGallegos          5253.625
        57   01 Jun 2027 21:56:08.283   01 Jun 2027 21:56:20.188            11.905            RioGallegos           372.031
        58   01 Jun 2027 22:30:27.253   01 Jun 2027 22:33:28.828           181.575                Anadyr1          5674.219
        59   01 Jun 2027 22:33:29.677   01 Jun 2027 22:34:06.621            36.944                Norilsk          1154.500
        60   01 Jun 2027 22:34:17.056   01 Jun 2027 22:36:42.983           145.927               Magadan1          4560.219
        61   01 Jun 2027 22:37:17.540   01 Jun 2027 22:38:04.301            46.761                Irkutsk          1461.281
        62   01 Jun 2027 22:39:56.665   01 Jun 2027 22:40:32.505            35.840                Irkutsk          1120.000
        63   01 Jun 2027 22:53:30.610   01 Jun 2027 22:54:26.964            56.354                Sumatra          1761.062
        64   01 Jun 2027 22:56:34.336   01 Jun 2027 22:57:41.777            67.441                Sumatra          2107.531
        65   01 Jun 2027 23:25:31.936   01 Jun 2027 23:25:58.753            26.817            RioGallegos           838.031
        66   02 Jun 2027 00:05:38.853   02 Jun 2027 00:06:46.529            67.676                Anadyr1          2114.875
        67   02 Jun 2027 00:06:53.808   02 Jun 2027 00:07:19.520            25.712                Anadyr1           803.500
        68   02 Jun 2027 00:08:07.626   02 Jun 2027 00:08:45.400            37.774                Anadyr2          1180.437
        69   02 Jun 2027 00:09:01.553   02 Jun 2027 00:11:48.872           167.319               Magadan2          5228.719
        70   02 Jun 2027 00:12:17.053   02 Jun 2027 00:14:31.922           134.869                Irkutsk          4214.656
        71   02 Jun 2027 00:15:50.500   02 Jun 2027 00:16:05.802            15.302                Novosib           478.188
        72   02 Jun 2027 00:22:03.494   02 Jun 2027 00:23:54.837           111.343                  Delhi          3479.469
        73   02 Jun 2027 01:00:26.659   02 Jun 2027 01:01:40.422            73.763            RioGallegos          2305.094
        74   02 Jun 2027 01:39:38.931   02 Jun 2027 01:40:16.050            37.119                Anadyr1          1159.969
        75   02 Jun 2027 01:40:48.746   02 Jun 2027 01:41:26.001            37.255                Anadyr2          1164.219
        76   02 Jun 2027 01:41:40.058   02 Jun 2027 01:41:51.001            10.943                Anadyr1           341.969
        77   02 Jun 2027 01:41:51.001   02 Jun 2027 01:42:13.357            22.356                Anadyr2           698.625
        78   02 Jun 2027 01:44:24.047   02 Jun 2027 01:46:20.407           116.360                Norilsk          3636.250
        79   02 Jun 2027 01:47:07.730   02 Jun 2027 01:48:43.084            95.354              Murmansk2          2979.813
        80   02 Jun 2027 01:48:43.734   02 Jun 2027 01:49:57.023            73.289                Irkutsk          2290.281
        81   02 Jun 2027 01:55:30.969   02 Jun 2027 01:57:59.536           148.567                  Delhi          4642.719
        82   02 Jun 2027 02:37:42.713   02 Jun 2027 02:38:49.571            66.858            RioGallegos          2089.313
        83   02 Jun 2027 02:39:26.140   02 Jun 2027 02:40:12.058            45.918            RioGallegos          1434.937
        84   02 Jun 2027 02:41:52.511   02 Jun 2027 02:42:47.520            55.009            RioGallegos          1719.031
        85   02 Jun 2027 03:26:28.320   02 Jun 2027 03:27:01.946            33.626                Irkutsk          1050.813
        86   02 Jun 2027 03:29:11.660   02 Jun 2027 03:30:51.234            99.574                Novosib          3111.687
        87   02 Jun 2027 03:31:13.005   02 Jun 2027 03:31:52.452            39.447              Murmansk2          1232.719
        88   02 Jun 2027 03:31:52.452   02 Jun 2027 03:32:07.890            15.438              Murmansk1           482.438
        89   02 Jun 2027 03:32:29.828   02 Jun 2027 03:33:05.721            35.893                Novosib          1121.656
        90   02 Jun 2027 03:33:10.051   02 Jun 2027 03:33:38.254            28.203              Murmansk2           881.344
        91   02 Jun 2027 03:34:00.943   02 Jun 2027 03:35:07.567            66.624                Novosib          2082.000
        92   02 Jun 2027 03:38:20.998   02 Jun 2027 03:39:40.685            79.687                  Delhi          2490.219
        93   02 Jun 2027 03:56:24.409   02 Jun 2027 03:57:23.476            59.067               CapeTown          1845.844
        94   02 Jun 2027 05:10:17.740   02 Jun 2027 05:13:55.204           217.464                 Moscow          6795.750
        95   02 Jun 2027 05:25:37.934   02 Jun 2027 05:29:48.542           250.608               CapeTown          7831.500
        96   02 Jun 2027 05:30:39.520   02 Jun 2027 05:31:13.188            33.668               CapeTown          1052.125
        97   02 Jun 2027 05:36:04.763   02 Jun 2027 05:37:25.682            80.919               CapeTown          2528.719
        98   02 Jun 2027 06:22:24.976   02 Jun 2027 06:24:23.582           118.606                Anadyr2          3706.438
        99   02 Jun 2027 06:27:00.903   02 Jun 2027 06:27:30.023            29.120               Magadan1           910.000
       100   02 Jun 2027 06:28:35.032   02 Jun 2027 06:34:32.329           357.297                Anadyr1         11165.531
       101   02 Jun 2027 06:34:36.912   02 Jun 2027 06:34:51.662            14.750               Magadan2           460.937
       102   02 Jun 2027 08:07:21.009   02 Jun 2027 08:08:28.214            67.205                Anadyr2          2100.156
       103   02 Jun 2027 09:40:24.061   02 Jun 2027 09:40:24.204             0.143               Magadan1             4.469
       104   02 Jun 2027 09:40:43.961   02 Jun 2027 09:41:04.130            20.169               Magadan1           630.281
       105   02 Jun 2027 09:41:47.833   02 Jun 2027 09:42:53.695            65.862               Magadan2          2058.188
       106   02 Jun 2027 09:43:37.437   02 Jun 2027 09:44:58.651            81.214               Magadan2          2537.938
       107   02 Jun 2027 09:45:25.558   02 Jun 2027 09:45:51.977            26.419               Magadan1           825.594
       108   02 Jun 2027 09:46:04.807   02 Jun 2027 09:46:27.603            22.796               Magadan2           712.375
       109   02 Jun 2027 10:21:23.866   02 Jun 2027 10:22:09.202            45.336            RioGallegos          1416.750
       110   02 Jun 2027 10:22:25.862   02 Jun 2027 10:23:05.408            39.546            RioGallegos          1235.813
       111   02 Jun 2027 10:57:52.377   02 Jun 2027 10:58:42.645            50.268                Sumatra          1570.875
       112   02 Jun 2027 11:17:47.452   02 Jun 2027 11:18:19.690            32.238                Irkutsk          1007.438
       113   02 Jun 2027 11:18:49.014   02 Jun 2027 11:19:18.513            29.499                Irkutsk           921.844
       114   02 Jun 2027 11:19:22.124   02 Jun 2027 11:19:38.412            16.288                Norilsk           509.000
       115   02 Jun 2027 11:19:57.815   02 Jun 2027 11:20:00.772             2.957                Norilsk            92.406
       116   02 Jun 2027 11:20:04.350   02 Jun 2027 11:20:24.841            20.491                Norilsk           640.344
       117   02 Jun 2027 11:20:31.205   02 Jun 2027 11:20:42.099            10.894                Norilsk           340.438
       118   02 Jun 2027 11:21:03.460   02 Jun 2027 11:21:09.413             5.953                Novosib           186.031
       119   02 Jun 2027 11:21:28.848   02 Jun 2027 11:21:35.809             6.961                Novosib           217.531
       120   02 Jun 2027 11:21:37.572   02 Jun 2027 11:22:01.449            23.877                Novosib           746.156
       121   02 Jun 2027 11:22:12.472   02 Jun 2027 11:22:49.378            36.906                Norilsk          1153.313
       122   02 Jun 2027 11:58:11.510   02 Jun 2027 11:58:39.504            27.994            RioGallegos           874.812
       123   02 Jun 2027 12:02:29.521   02 Jun 2027 12:03:03.826            34.305            RioGallegos          1072.031
       124   02 Jun 2027 12:32:28.899   02 Jun 2027 12:32:58.438            29.539                Sumatra           923.094
       125   02 Jun 2027 12:34:50.230   02 Jun 2027 12:37:14.659           144.429                Sumatra          4513.406
       126   02 Jun 2027 12:47:13.003   02 Jun 2027 12:48:12.021            59.018                Novosib          1844.312
       127   02 Jun 2027 12:51:33.061   02 Jun 2027 12:51:52.271            19.210                Norilsk           600.313
       128   02 Jun 2027 14:17:18.251   02 Jun 2027 14:19:39.357           141.106                  Delhi          4409.562
       129   02 Jun 2027 14:22:08.726   02 Jun 2027 14:22:31.921            23.195                  Delhi           724.844
       130   02 Jun 2027 14:25:32.154   02 Jun 2027 14:26:21.073            48.919                 Moscow          1528.719
       131   02 Jun 2027 14:26:58.123   02 Jun 2027 14:30:36.741           218.618                Novosib          6831.812
       132   02 Jun 2027 14:31:56.707   02 Jun 2027 14:33:36.805           100.098                Norilsk          3128.063
       133   02 Jun 2027 16:00:49.172   02 Jun 2027 16:02:47.906           118.734                 Moscow          3710.438
       134   02 Jun 2027 16:03:59.294   02 Jun 2027 16:04:20.996            21.702                 Moscow           678.187
       135   02 Jun 2027 16:05:11.097   02 Jun 2027 16:06:09.609            58.512              Murmansk2          1828.500
       136   02 Jun 2027 16:10:33.911   02 Jun 2027 16:13:35.045           181.134                Norilsk          5660.437
       137   02 Jun 2027 17:14:28.718   02 Jun 2027 17:16:02.914            94.196               CapeTown          2943.625
       138   02 Jun 2027 17:40:33.617   02 Jun 2027 17:41:43.483            69.866                 Moscow          2183.312
       139   02 Jun 2027 17:42:08.603   02 Jun 2027 17:42:27.849            19.246              Murmansk1           601.437
       140   02 Jun 2027 17:43:28.420   02 Jun 2027 17:44:51.488            83.068              Murmansk2          2595.875
       141   02 Jun 2027 17:45:39.819   02 Jun 2027 17:47:10.496            90.677              Murmansk1          2833.656
       142   02 Jun 2027 17:57:55.454   02 Jun 2027 17:58:25.112            29.658                Anadyr2           926.813
       143   02 Jun 2027 18:50:39.624   02 Jun 2027 18:52:10.502            90.878               CapeTown          2839.937
       144   02 Jun 2027 18:54:49.640   02 Jun 2027 18:55:13.144            23.504               CapeTown           734.500
       145   02 Jun 2027 18:55:21.881   02 Jun 2027 18:56:11.282            49.401               CapeTown          1543.781
       146   02 Jun 2027 19:22:37.708   02 Jun 2027 19:27:14.529           276.821              Murmansk2          8650.656
       147   02 Jun 2027 19:27:16.558   02 Jun 2027 19:27:55.550            38.992              Murmansk1          1218.500
       148   02 Jun 2027 19:33:31.419   02 Jun 2027 19:33:34.482             3.063               Magadan2            95.719
       149   02 Jun 2027 19:33:48.167   02 Jun 2027 19:33:56.322             8.155               Magadan2           254.844
       150   02 Jun 2027 19:35:57.535   02 Jun 2027 19:36:02.074             4.539               Magadan1           141.844
       151   02 Jun 2027 19:36:26.277   02 Jun 2027 19:36:34.799             8.522               Magadan1           266.313
       152   02 Jun 2027 19:42:37.148   02 Jun 2027 19:43:00.676            23.528               Magadan2           735.250
       153   02 Jun 2027 21:06:41.000   02 Jun 2027 21:10:30.823           229.823                Anadyr1          7181.969
       154   02 Jun 2027 21:10:37.855   02 Jun 2027 21:13:19.135           161.280               Magadan2          5040.000
       155   02 Jun 2027 21:13:25.699   02 Jun 2027 21:13:37.023            11.324               Magadan2           353.875
       156   02 Jun 2027 21:13:46.859   02 Jun 2027 21:13:57.672            10.813               Magadan2           337.906
       157   02 Jun 2027 21:15:23.495   02 Jun 2027 21:15:27.910             4.415               Magadan1           137.969
       158   02 Jun 2027 21:16:01.128   02 Jun 2027 21:16:06.781             5.653               Magadan1           176.656
       159   02 Jun 2027 21:16:12.466   02 Jun 2027 21:16:39.419            26.953               Magadan1           842.281
       160   02 Jun 2027 22:01:48.545   02 Jun 2027 22:04:05.476           136.931            RioGallegos          4279.094
       161   02 Jun 2027 22:04:20.500   02 Jun 2027 22:04:51.573            31.073            RioGallegos           971.031
       162   02 Jun 2027 22:07:31.475   02 Jun 2027 22:08:13.525            42.050            RioGallegos          1314.063
       163   02 Jun 2027 22:42:26.034   02 Jun 2027 22:44:00.064            94.030                Anadyr1          2938.438
       164   02 Jun 2027 22:44:37.260   02 Jun 2027 22:46:08.289            91.029                Norilsk          2844.656
       165   02 Jun 2027 22:46:21.880   02 Jun 2027 22:46:40.571            18.691               Magadan2           584.094
       166   02 Jun 2027 22:47:22.290   02 Jun 2027 22:47:34.112            11.822               Magadan2           369.438
       167   02 Jun 2027 22:48:24.479   02 Jun 2027 22:48:43.631            19.152               Magadan1           598.500
       168   02 Jun 2027 22:49:04.034   02 Jun 2027 22:50:03.230            59.196                Irkutsk          1849.875
       169   02 Jun 2027 22:51:30.465   02 Jun 2027 22:52:46.025            75.560                Irkutsk          2361.250
       170   02 Jun 2027 23:03:17.766   02 Jun 2027 23:04:16.629            58.863                Sumatra          1839.469
       171   02 Jun 2027 23:08:25.315   02 Jun 2027 23:08:52.230            26.915                Sumatra           841.094
       172   02 Jun 2027 23:09:40.304   02 Jun 2027 23:09:56.190            15.886                Sumatra           496.438
       173   02 Jun 2027 23:14:07.230   02 Jun 2027 23:14:14.949             7.719                Sumatra           241.219
       174   03 Jun 2027 00:17:30.246   03 Jun 2027 00:18:54.806            84.560                Anadyr1          2642.500
       175   03 Jun 2027 00:19:20.802   03 Jun 2027 00:19:51.792            30.990                Anadyr1           968.437
       176   03 Jun 2027 00:20:09.281   03 Jun 2027 00:20:27.921            18.640                Anadyr2           582.500
       177   03 Jun 2027 00:21:04.092   03 Jun 2027 00:22:08.619            64.527                Norilsk          2016.469
       178   03 Jun 2027 00:22:10.846   03 Jun 2027 00:23:58.455           107.609               Magadan1          3362.781
       179   03 Jun 2027 00:24:17.909   03 Jun 2027 00:24:41.539            23.630                Irkutsk           738.437
       180   03 Jun 2027 00:24:41.590   03 Jun 2027 00:24:46.597             5.007                Novosib           156.469
       181   03 Jun 2027 00:25:07.112   03 Jun 2027 00:25:38.771            31.659                Novosib           989.344
       182   03 Jun 2027 00:25:58.904   03 Jun 2027 00:26:19.834            20.930                Novosib           654.063
       183   03 Jun 2027 00:27:26.505   03 Jun 2027 00:28:38.780            72.275                Novosib          2258.594
       184   03 Jun 2027 00:35:30.210   03 Jun 2027 00:36:19.582            49.372                  Delhi          1542.875
       185   03 Jun 2027 00:42:07.052   03 Jun 2027 00:42:26.828            19.776                  Delhi           618.000
       186   03 Jun 2027 00:48:48.826   03 Jun 2027 00:49:44.130            55.304                Sumatra          1728.250
       187   03 Jun 2027 01:20:04.252   03 Jun 2027 01:20:05.510             1.258            RioGallegos            39.313
       188   03 Jun 2027 01:20:31.866   03 Jun 2027 01:20:39.279             7.413            RioGallegos           231.656
       189   03 Jun 2027 01:21:04.432   03 Jun 2027 01:22:00.176            55.744            RioGallegos          1742.000
       190   03 Jun 2027 01:51:47.696   03 Jun 2027 01:52:28.122            40.426                Anadyr2          1263.313
       191   03 Jun 2027 01:53:31.632   03 Jun 2027 01:53:56.699            25.067                Anadyr2           783.344
       192   03 Jun 2027 01:54:09.639   03 Jun 2027 01:54:13.201             3.562                Anadyr1           111.312
       193   03 Jun 2027 01:56:26.099   03 Jun 2027 01:58:04.013            97.914                Norilsk          3059.813
       194   03 Jun 2027 01:59:00.010   03 Jun 2027 02:00:18.846            78.836              Murmansk1          2463.625
       195   03 Jun 2027 02:00:36.856   03 Jun 2027 02:01:39.805            62.949                Irkutsk          1967.156
       196   03 Jun 2027 02:05:12.661   03 Jun 2027 02:05:20.941             8.280                Novosib           258.750
       197   03 Jun 2027 02:07:21.918   03 Jun 2027 02:08:01.199            39.281                Irkutsk          1227.531
       198   03 Jun 2027 02:10:41.149   03 Jun 2027 02:11:05.343            24.194                  Delhi           756.062
       199   03 Jun 2027 02:16:03.177   03 Jun 2027 02:16:34.794            31.617                  Delhi           988.031
       200   03 Jun 2027 02:50:11.707   03 Jun 2027 02:54:23.093           251.386            RioGallegos          7855.813
       201   03 Jun 2027 03:41:18.225   03 Jun 2027 03:41:53.299            35.074                Norilsk          1096.063
       202   03 Jun 2027 03:42:01.573   03 Jun 2027 03:42:29.294            27.721                Norilsk           866.281
       203   03 Jun 2027 03:43:07.751   03 Jun 2027 03:43:56.173            48.422                Novosib          1513.188
       204   03 Jun 2027 03:43:59.157   03 Jun 2027 03:44:46.844            47.687                Norilsk          1490.219
       205   03 Jun 2027 05:08:14.304   03 Jun 2027 05:09:08.787            54.483                Anadyr1          1702.594
       206   03 Jun 2027 05:17:23.474   03 Jun 2027 05:17:44.705            21.231                Novosib           663.469
       207   03 Jun 2027 05:19:20.502   03 Jun 2027 05:20:20.749            60.247                 Moscow          1882.719
       208   03 Jun 2027 05:20:31.327   03 Jun 2027 05:21:22.109            50.782                 Moscow          1586.937
       209   03 Jun 2027 05:37:46.898   03 Jun 2027 05:38:33.833            46.935               CapeTown          1466.719
       210   03 Jun 2027 05:43:12.712   03 Jun 2027 05:43:27.449            14.737               CapeTown           460.531
       211   03 Jun 2027 05:47:20.842   03 Jun 2027 05:47:32.328            11.486               CapeTown           358.937
       212   03 Jun 2027 06:40:23.097   03 Jun 2027 06:41:25.534            62.437                Anadyr1          1951.156
       213   03 Jun 2027 06:41:31.796   03 Jun 2027 06:42:12.039            40.243                Anadyr1          1257.594
       214   03 Jun 2027 06:42:31.681   03 Jun 2027 06:43:31.895            60.214                Anadyr1          1881.687
       215   03 Jun 2027 06:46:25.736   03 Jun 2027 06:47:17.383            51.647                Anadyr2          1613.969
       216   03 Jun 2027 08:16:57.093   03 Jun 2027 08:17:50.795            53.702                Anadyr2          1678.188
       217   03 Jun 2027 08:18:08.247   03 Jun 2027 08:18:16.181             7.934               Magadan1           247.938
       218   03 Jun 2027 08:18:16.979   03 Jun 2027 08:19:09.226            52.247               Magadan2          1632.719
       219   03 Jun 2027 08:19:20.335   03 Jun 2027 08:20:17.621            57.286                Anadyr1          1790.188
       220   03 Jun 2027 08:21:22.973   03 Jun 2027 08:22:40.325            77.352                Anadyr1          2417.250
       221   03 Jun 2027 09:52:14.796   03 Jun 2027 09:53:04.938            50.142               Magadan2          1566.937
       222   03 Jun 2027 09:53:06.653   03 Jun 2027 09:53:57.952            51.299               Magadan2          1603.094
       223   03 Jun 2027 09:54:31.303   03 Jun 2027 09:55:32.854            61.551                Irkutsk          1923.469
       224   03 Jun 2027 09:55:54.459   03 Jun 2027 09:56:19.224            24.765                Irkutsk           773.906
       225   03 Jun 2027 09:56:24.523   03 Jun 2027 09:56:33.237             8.714                Irkutsk           272.312
       226   03 Jun 2027 09:56:59.217   03 Jun 2027 09:57:58.015            58.798               Magadan1          1837.438
       227   03 Jun 2027 09:58:14.514   03 Jun 2027 09:58:26.570            12.056                Irkutsk           376.750
       228   03 Jun 2027 09:59:29.510   03 Jun 2027 10:00:03.346            33.836                Norilsk          1057.375
       229   03 Jun 2027 10:33:19.768   03 Jun 2027 10:34:19.021            59.253            RioGallegos          1851.656
       230   03 Jun 2027 11:09:03.983   03 Jun 2027 11:10:02.704            58.721                Sumatra          1835.031
       231   03 Jun 2027 11:30:12.988   03 Jun 2027 11:30:51.571            38.583                Irkutsk          1205.719
       232   03 Jun 2027 11:31:24.115   03 Jun 2027 11:32:03.226            39.111                Irkutsk          1222.219
       233   03 Jun 2027 11:32:10.949   03 Jun 2027 11:33:16.956            66.007                Novosib          2062.719
       234   03 Jun 2027 11:33:21.403   03 Jun 2027 11:33:22.908             1.505                Novosib            47.031
       235   03 Jun 2027 11:33:29.049   03 Jun 2027 11:34:36.200            67.151                Irkutsk          2098.469
       236   03 Jun 2027 12:10:38.264   03 Jun 2027 12:11:18.986            40.722            RioGallegos          1272.562
       237   03 Jun 2027 12:44:51.783   03 Jun 2027 12:46:09.442            77.659                Sumatra          2426.844
       238   03 Jun 2027 12:59:20.406   03 Jun 2027 13:00:08.357            47.951                Novosib          1498.469
       239   03 Jun 2027 13:00:13.051   03 Jun 2027 13:01:30.701            77.650                Irkutsk          2426.563
       240   03 Jun 2027 13:05:35.552   03 Jun 2027 13:05:58.836            23.284                Norilsk           727.625
       241   03 Jun 2027 14:29:54.701   03 Jun 2027 14:32:30.239           155.538                  Delhi          4860.563
       242   03 Jun 2027 14:33:29.159   03 Jun 2027 14:34:54.523            85.364                  Delhi          2667.625
       243   03 Jun 2027 14:38:22.325   03 Jun 2027 14:40:12.051           109.726                Novosib          3428.938
       244   03 Jun 2027 14:41:52.924   03 Jun 2027 14:42:00.902             7.978                Norilsk           249.313
       245   03 Jun 2027 14:42:15.634   03 Jun 2027 14:43:09.891            54.257                Novosib          1695.531
       246   03 Jun 2027 16:12:59.102   03 Jun 2027 16:14:45.957           106.855                 Moscow          3339.219
       247   03 Jun 2027 16:15:58.982   03 Jun 2027 16:16:57.461            58.479                 Moscow          1827.469
       248   03 Jun 2027 16:17:04.096   03 Jun 2027 16:17:41.410            37.314              Murmansk2          1166.062
       249   03 Jun 2027 16:19:09.782   03 Jun 2027 16:19:25.862            16.080              Murmansk1           502.500
       250   03 Jun 2027 16:21:51.376   03 Jun 2027 16:21:55.625             4.249                 Moscow           132.781
       251   03 Jun 2027 16:22:54.498   03 Jun 2027 16:23:18.662            24.164              Murmansk2           755.125
       252   03 Jun 2027 16:23:50.485   03 Jun 2027 16:26:06.680           136.195                Norilsk          4256.094
       253   03 Jun 2027 16:32:08.897   03 Jun 2027 16:32:47.896            38.999                Anadyr2          1218.719
       254   03 Jun 2027 17:26:21.796   03 Jun 2027 17:27:49.645            87.849               CapeTown          2745.281
       255   03 Jun 2027 17:33:04.427   03 Jun 2027 17:33:12.458             8.031               CapeTown           250.969
       256   03 Jun 2027 17:34:51.442   03 Jun 2027 17:35:52.951            61.509               CapeTown          1922.156
       257   03 Jun 2027 17:53:12.828   03 Jun 2027 17:55:46.166           153.338                 Moscow          4791.812
       258   03 Jun 2027 17:59:10.136   03 Jun 2027 17:59:47.517            37.381              Murmansk2          1168.156
       259   03 Jun 2027 18:02:46.433   03 Jun 2027 18:04:30.688           104.255              Murmansk1          3257.969
       260   03 Jun 2027 19:02:58.319   03 Jun 2027 19:04:15.453            77.134               CapeTown          2410.437
       261   03 Jun 2027 19:06:09.835   03 Jun 2027 19:06:20.761            10.926               CapeTown           341.438
       262   03 Jun 2027 19:07:16.770   03 Jun 2027 19:07:50.407            33.637               CapeTown          1051.156
       263   03 Jun 2027 19:35:35.380   03 Jun 2027 19:39:19.803           224.423              Murmansk1          7013.219
       264   03 Jun 2027 19:40:04.447   03 Jun 2027 19:40:07.787             3.340              Murmansk2           104.375
       265   03 Jun 2027 19:45:25.240   03 Jun 2027 19:46:21.418            56.178               Magadan2          1755.563
       266   03 Jun 2027 19:47:27.537   03 Jun 2027 19:48:12.947            45.410               Magadan1          1419.062
       267   03 Jun 2027 19:48:46.064   03 Jun 2027 19:49:07.612            21.548               Magadan2           673.375
       268   03 Jun 2027 19:52:16.309   03 Jun 2027 19:53:40.634            84.325               Magadan1          2635.156
       269   03 Jun 2027 21:18:42.308   03 Jun 2027 21:20:44.372           122.064                Anadyr1          3814.500
       270   03 Jun 2027 21:20:58.379   03 Jun 2027 21:23:55.553           177.174               Magadan1          5536.688
       271   03 Jun 2027 21:23:55.553   03 Jun 2027 21:24:16.127            20.574               Magadan2           642.938
       272   03 Jun 2027 21:24:45.774   03 Jun 2027 21:25:12.683            26.909               Magadan2           840.906
       273   03 Jun 2027 21:25:12.683   03 Jun 2027 21:25:26.494            13.811               Magadan1           431.594
       274   03 Jun 2027 21:25:28.190   03 Jun 2027 21:25:44.007            15.817               Magadan2           494.281
       275   03 Jun 2027 21:25:55.976   03 Jun 2027 21:26:00.416             4.440               Magadan2           138.750
       276   03 Jun 2027 21:28:01.278   03 Jun 2027 21:28:21.047            19.769               Magadan1           617.781
       277   03 Jun 2027 22:13:28.735   03 Jun 2027 22:16:41.685           192.950            RioGallegos          6029.688
       278   03 Jun 2027 22:18:28.557   03 Jun 2027 22:18:56.288            27.731            RioGallegos           866.594
       279   03 Jun 2027 22:54:24.201   03 Jun 2027 22:55:44.005            79.804                Anadyr2          2493.875
       280   03 Jun 2027 22:56:25.577   03 Jun 2027 22:56:37.298            11.721                Anadyr2           366.281
       281   03 Jun 2027 22:56:59.832   03 Jun 2027 22:58:42.887           103.055               Magadan2          3220.469
       282   03 Jun 2027 22:59:53.195   03 Jun 2027 23:00:44.754            51.559               Magadan2          1611.219
       283   03 Jun 2027 23:00:53.979   03 Jun 2027 23:02:03.193            69.214                Irkutsk          2162.938
       284   03 Jun 2027 23:09:30.517   03 Jun 2027 23:10:22.193            51.676                Irkutsk          1614.875
       285   03 Jun 2027 23:15:15.536   03 Jun 2027 23:16:10.278            54.742                Sumatra          1710.688
       286   03 Jun 2027 23:24:47.581   03 Jun 2027 23:26:00.307            72.726                Sumatra          2272.687
       287   03 Jun 2027 23:59:53.036   04 Jun 2027 00:00:11.559            18.523            RioGallegos           578.844
       288   04 Jun 2027 00:29:20.347   04 Jun 2027 00:29:37.361            17.014                Anadyr2           531.688
       289   04 Jun 2027 00:29:37.361   04 Jun 2027 00:30:12.307            34.946                Anadyr1          1092.063
       290   04 Jun 2027 00:30:42.077   04 Jun 2027 00:31:37.066            54.989                Anadyr2          1718.406
       291   04 Jun 2027 00:32:06.575   04 Jun 2027 00:32:11.217             4.642                Anadyr2           145.062
       292   04 Jun 2027 00:32:16.494   04 Jun 2027 00:32:19.148             2.654                Anadyr2            82.938
       293   04 Jun 2027 00:32:27.531   04 Jun 2027 00:34:10.591           103.060                Norilsk          3220.625
       294   04 Jun 2027 00:34:49.762   04 Jun 2027 00:35:23.301            33.539               Magadan1          1048.094
       295   04 Jun 2027 00:36:19.632   04 Jun 2027 00:38:16.621           116.989                Irkutsk          3655.906
       296   04 Jun 2027 00:38:25.950   04 Jun 2027 00:38:59.794            33.844                Novosib          1057.625
       297   04 Jun 2027 00:44:46.893   04 Jun 2027 00:45:32.014            45.121                  Delhi          1410.031
       298   04 Jun 2027 00:47:45.507   04 Jun 2027 00:48:29.378            43.871                  Delhi          1370.969
       299   04 Jun 2027 00:50:03.060   04 Jun 2027 00:51:10.101            67.041                  Delhi          2095.031
       300   04 Jun 2027 01:25:41.213   04 Jun 2027 01:25:48.209             6.996            RioGallegos           218.625
       301   04 Jun 2027 01:26:01.079   04 Jun 2027 01:26:23.037            21.958            RioGallegos           686.188
       302   04 Jun 2027 01:29:26.462   04 Jun 2027 01:30:21.680            55.218            RioGallegos          1725.563
       303   04 Jun 2027 02:03:02.784   04 Jun 2027 02:03:45.794            43.010                Anadyr2          1344.063
       304   04 Jun 2027 02:04:42.574   04 Jun 2027 02:05:24.558            41.984                Anadyr2          1312.000
       305   04 Jun 2027 02:08:28.023   04 Jun 2027 02:09:46.947            78.924                Norilsk          2466.375
       306   04 Jun 2027 02:09:57.246   04 Jun 2027 02:10:27.638            30.392                Norilsk           949.750
       307   04 Jun 2027 02:10:54.964   04 Jun 2027 02:11:53.916            58.952              Murmansk2          1842.250
       308   04 Jun 2027 02:12:14.504   04 Jun 2027 02:14:34.663           140.159                Novosib          4379.969
       309   04 Jun 2027 02:25:24.334   04 Jun 2027 02:25:34.071             9.737                  Delhi           304.281
       310   04 Jun 2027 02:29:59.913   04 Jun 2027 02:31:13.385            73.472                  Delhi          2296.000
       311   04 Jun 2027 03:03:03.595   04 Jun 2027 03:03:14.884            11.289            RioGallegos           352.781
       312   04 Jun 2027 03:04:25.271   04 Jun 2027 03:05:13.110            47.839            RioGallegos          1494.969
       313   04 Jun 2027 03:54:31.947   04 Jun 2027 03:55:17.759            45.812                Novosib          1431.625
       314   04 Jun 2027 03:55:49.098   04 Jun 2027 03:58:45.155           176.057                Novosib          5501.781
       315   04 Jun 2027 04:16:14.464   04 Jun 2027 04:17:46.190            91.726               CapeTown          2866.437
       316   04 Jun 2027 04:21:12.667   04 Jun 2027 04:21:28.170            15.503               CapeTown           484.469
       317   04 Jun 2027 05:10:38.934   04 Jun 2027 05:12:00.750            81.816                Anadyr1          2556.750
       318   04 Jun 2027 05:12:40.620   04 Jun 2027 05:13:19.123            38.503                Anadyr1          1203.219
       319   04 Jun 2027 05:16:19.031   04 Jun 2027 05:16:24.740             5.709                Anadyr1           178.406
       320   04 Jun 2027 05:16:40.900   04 Jun 2027 05:17:16.205            35.305                Anadyr1          1103.281
       321   04 Jun 2027 05:17:43.933   04 Jun 2027 05:17:57.089            13.156                Anadyr2           411.125
       322   04 Jun 2027 05:17:57.089   04 Jun 2027 05:18:55.140            58.051                Anadyr1          1814.094
       323   04 Jun 2027 05:20:09.866   04 Jun 2027 05:20:43.201            33.335                Anadyr1          1041.719
       324   04 Jun 2027 05:20:49.776   04 Jun 2027 05:22:14.866            85.090               Magadan1          2659.063
       325   04 Jun 2027 05:30:49.086   04 Jun 2027 05:31:35.693            46.607                 Moscow          1456.469
       326   04 Jun 2027 05:31:41.587   04 Jun 2027 05:32:21.957            40.370                 Moscow          1261.563
       327   04 Jun 2027 05:35:49.060   04 Jun 2027 05:35:55.472             6.412                 Moscow           200.375
       328   04 Jun 2027 05:50:01.534   04 Jun 2027 05:51:43.430           101.896               CapeTown          3184.250
       329   04 Jun 2027 06:53:26.166   04 Jun 2027 06:54:48.101            81.935                Anadyr2          2560.469
       330   04 Jun 2027 06:55:05.825   04 Jun 2027 06:55:19.954            14.129                Anadyr1           441.531
       331   04 Jun 2027 06:55:19.954   04 Jun 2027 06:55:33.500            13.546                Anadyr2           423.313
       332   04 Jun 2027 06:57:06.725   04 Jun 2027 06:57:29.325            22.600                Anadyr2           706.250
       333   04 Jun 2027 06:58:01.336   04 Jun 2027 06:58:16.625            15.289                Anadyr2           477.781
       334   04 Jun 2027 08:28:50.380   04 Jun 2027 08:30:17.219            86.839                Anadyr1          2713.719
       335   04 Jun 2027 08:30:25.710   04 Jun 2027 08:30:36.133            10.423               Magadan1           325.719
       336   04 Jun 2027 08:30:50.804   04 Jun 2027 08:31:18.947            28.143                Anadyr2           879.469
       337   04 Jun 2027 08:31:49.069   04 Jun 2027 08:32:39.011            49.942               Magadan1          1560.687
       338   04 Jun 2027 08:34:25.063   04 Jun 2027 08:34:53.485            28.422                Anadyr1           888.187
       339   04 Jun 2027 10:04:02.010   04 Jun 2027 10:05:07.158            65.148               Magadan2          2035.875
       340   04 Jun 2027 10:05:33.211   04 Jun 2027 10:05:53.174            19.963               Magadan1           623.844
       341   04 Jun 2027 10:06:10.660   04 Jun 2027 10:06:46.186            35.526               Magadan2          1110.187
       342   04 Jun 2027 10:07:17.940   04 Jun 2027 10:07:39.492            21.552                Irkutsk           673.500
       343   04 Jun 2027 10:08:08.186   04 Jun 2027 10:08:25.759            17.573                Irkutsk           549.156
       344   04 Jun 2027 10:08:59.222   04 Jun 2027 10:10:13.761            74.539               Magadan2          2329.344
       345   04 Jun 2027 10:11:22.025   04 Jun 2027 10:11:31.184             9.159                Norilsk           286.219
       346   04 Jun 2027 10:45:18.943   04 Jun 2027 10:46:23.085            64.142            RioGallegos          2004.437
       347   04 Jun 2027 11:20:42.680   04 Jun 2027 11:21:56.504            73.824                Sumatra          2307.000
       348   04 Jun 2027 11:40:39.101   04 Jun 2027 11:41:04.923            25.822                Irkutsk           806.938
       349   04 Jun 2027 11:41:09.289   04 Jun 2027 11:41:39.791            30.502                Novosib           953.188
       350   04 Jun 2027 11:42:00.594   04 Jun 2027 11:42:03.632             3.038                Norilsk            94.938
       351   04 Jun 2027 11:42:19.631   04 Jun 2027 11:42:46.508            26.877                Novosib           839.906
       352   04 Jun 2027 11:42:53.306   04 Jun 2027 11:42:56.088             2.782                Irkutsk            86.937
       353   04 Jun 2027 11:43:07.761   04 Jun 2027 11:43:33.203            25.442                Irkutsk           795.063
       354   04 Jun 2027 11:43:35.810   04 Jun 2027 11:43:56.474            20.664                Novosib           645.750
       355   04 Jun 2027 11:44:02.423   04 Jun 2027 11:44:02.577             0.154                Norilsk             4.813
       356   04 Jun 2027 11:44:08.342   04 Jun 2027 11:44:43.992            35.650                Irkutsk          1114.063
       357   04 Jun 2027 11:45:00.970   04 Jun 2027 11:45:12.704            11.734                Novosib           366.688
       358   04 Jun 2027 11:45:25.124   04 Jun 2027 11:46:35.665            70.541                Irkutsk          2204.406
       359   04 Jun 2027 12:23:10.836   04 Jun 2027 12:23:41.243            30.407            RioGallegos           950.219
       360   04 Jun 2027 12:57:24.353   04 Jun 2027 12:58:12.948            48.595                Sumatra          1518.594
       361   04 Jun 2027 12:59:44.523   04 Jun 2027 13:00:34.259            49.736                Sumatra          1554.250
       362   04 Jun 2027 13:02:38.102   04 Jun 2027 13:03:43.965            65.863                Sumatra          2058.219
       363   04 Jun 2027 13:12:39.886   04 Jun 2027 13:14:28.217           108.331                Novosib          3385.344
       364   04 Jun 2027 13:16:48.920   04 Jun 2027 13:17:42.811            53.891                Irkutsk          1684.094
       365   04 Jun 2027 14:42:44.402   04 Jun 2027 14:45:23.117           158.715                  Delhi          4959.844
       366   04 Jun 2027 14:47:20.608   04 Jun 2027 14:47:25.449             4.841                  Delhi           151.281
       367   04 Jun 2027 14:51:15.456   04 Jun 2027 14:54:15.580           180.124                Novosib          5628.875
       368   04 Jun 2027 14:54:45.541   04 Jun 2027 14:54:45.814             0.273                Norilsk             8.531
       369   04 Jun 2027 14:55:29.505   04 Jun 2027 14:55:46.856            17.351                Novosib           542.219
       370   04 Jun 2027 14:58:01.869   04 Jun 2027 14:58:27.358            25.489                Novosib           796.531
       371   04 Jun 2027 16:05:49.145   04 Jun 2027 16:06:30.993            41.848               CapeTown          1307.750
       372   04 Jun 2027 16:06:50.430   04 Jun 2027 16:07:30.687            40.257               CapeTown          1258.031
       373   04 Jun 2027 16:25:12.405   04 Jun 2027 16:25:24.003            11.598                 Moscow           362.438
       374   04 Jun 2027 16:26:12.949   04 Jun 2027 16:26:46.888            33.939                 Moscow          1060.594
       375   04 Jun 2027 16:27:57.787   04 Jun 2027 16:28:44.256            46.469                 Moscow          1452.156
       376   04 Jun 2027 16:28:53.515   04 Jun 2027 16:29:29.427            35.912              Murmansk1          1122.250
       377   04 Jun 2027 16:31:08.377   04 Jun 2027 16:31:35.189            26.812              Murmansk2           837.875
       378   04 Jun 2027 16:35:20.522   04 Jun 2027 16:35:57.358            36.836              Murmansk2          1151.125
       379   04 Jun 2027 16:39:18.929   04 Jun 2027 16:40:41.008            82.079              Murmansk1          2564.969
       380   04 Jun 2027 16:43:51.046   04 Jun 2027 16:44:29.974            38.928                Anadyr1          1216.500
       381   04 Jun 2027 16:44:29.974   04 Jun 2027 16:45:00.491            30.517                Anadyr2           953.656
       382   04 Jun 2027 17:38:18.132   04 Jun 2027 17:40:29.242           131.110               CapeTown          4097.188
       383   04 Jun 2027 18:05:38.100   04 Jun 2027 18:08:48.966           190.866                 Moscow          5964.563
       384   04 Jun 2027 18:11:21.860   04 Jun 2027 18:11:34.515            12.655              Murmansk2           395.469
       385   04 Jun 2027 18:11:34.515   04 Jun 2027 18:11:58.704            24.189              Murmansk1           755.906
       386   04 Jun 2027 18:19:45.251   04 Jun 2027 18:20:13.672            28.421                Anadyr1           888.156
       387   04 Jun 2027 18:20:28.392   04 Jun 2027 18:20:31.079             2.687                Anadyr1            83.969
       388   04 Jun 2027 18:21:51.030   04 Jun 2027 18:22:13.304            22.274                Anadyr2           696.063
       389   04 Jun 2027 18:24:53.681   04 Jun 2027 18:25:46.412            52.731               Magadan1          1647.844
       390   04 Jun 2027 19:15:22.905   04 Jun 2027 19:16:23.302            60.397               CapeTown          1887.406
       391   04 Jun 2027 19:19:06.567   04 Jun 2027 19:20:39.791            93.224               CapeTown          2913.250
       392   04 Jun 2027 19:48:48.752   04 Jun 2027 19:51:38.862           170.110              Murmansk2          5315.938
       393   04 Jun 2027 19:57:20.725   04 Jun 2027 19:58:15.959            55.234               Magadan2          1726.062
       394   04 Jun 2027 19:58:56.242   04 Jun 2027 19:59:53.817            57.575               Magadan1          1799.219
       395   04 Jun 2027 20:05:49.890   04 Jun 2027 20:06:13.417            23.527               Magadan1           735.219
       396   04 Jun 2027 21:30:43.400   04 Jun 2027 21:32:46.159           122.759                Anadyr2          3836.219
       397   04 Jun 2027 21:32:58.108   04 Jun 2027 21:34:34.443            96.335                Anadyr1          3010.469
       398   04 Jun 2027 21:34:43.810   04 Jun 2027 21:36:41.499           117.689                Norilsk          3677.781
       399   04 Jun 2027 21:36:48.485   04 Jun 2027 21:38:22.704            94.219               Magadan2          2944.344
       400   04 Jun 2027 21:39:45.064   04 Jun 2027 21:40:09.199            24.135               Magadan2           754.219
       401   04 Jun 2027 21:40:26.289   04 Jun 2027 21:40:41.598            15.309               Magadan2           478.406
       402   04 Jun 2027 21:43:19.635   04 Jun 2027 21:43:22.339             2.704               Magadan2            84.500
       403   04 Jun 2027 21:43:25.496   04 Jun 2027 21:43:26.784             1.288               Magadan2            40.250
       404   04 Jun 2027 21:44:52.992   04 Jun 2027 21:44:55.396             2.404               Magadan1            75.125
       405   04 Jun 2027 22:25:14.209   04 Jun 2027 22:27:28.059           133.850            RioGallegos          4182.813
       406   04 Jun 2027 22:27:59.375   04 Jun 2027 22:28:34.382            35.007            RioGallegos          1093.969
       407   04 Jun 2027 22:33:49.999   04 Jun 2027 22:34:21.995            31.996            RioGallegos           999.875
       408   04 Jun 2027 23:06:21.657   04 Jun 2027 23:07:27.009            65.352                Anadyr2          2042.250
       409   04 Jun 2027 23:08:29.149   04 Jun 2027 23:08:36.279             7.130                Anadyr1           222.812
       410   04 Jun 2027 23:08:37.553   04 Jun 2027 23:10:12.102            94.549                Norilsk          2954.656
       411   04 Jun 2027 23:10:23.693   04 Jun 2027 23:10:29.152             5.459               Magadan2           170.594
       412   04 Jun 2027 23:11:06.932   04 Jun 2027 23:11:21.896            14.964               Magadan2           467.625
       413   04 Jun 2027 23:11:21.896   04 Jun 2027 23:12:10.117            48.221               Magadan1          1506.906
       414   04 Jun 2027 23:12:46.527   04 Jun 2027 23:14:04.090            77.563                Irkutsk          2423.844
       415   04 Jun 2027 23:15:22.036   04 Jun 2027 23:16:17.520            55.484                Irkutsk          1733.875
       416   04 Jun 2027 23:26:34.769   04 Jun 2027 23:28:30.915           116.146                Sumatra          3629.562
       417   04 Jun 2027 23:38:27.986   04 Jun 2027 23:38:51.642            23.656                Sumatra           739.250
       418   05 Jun 2027 00:08:03.264   05 Jun 2027 00:08:31.176            27.912            RioGallegos           872.250
       419   05 Jun 2027 00:10:01.523   05 Jun 2027 00:10:28.393            26.870            RioGallegos           839.687
       420   05 Jun 2027 00:41:09.126   05 Jun 2027 00:41:27.718            18.592                Anadyr1           581.000
       421   05 Jun 2027 00:41:49.631   05 Jun 2027 00:42:38.287            48.656                Anadyr2          1520.500
       422   05 Jun 2027 00:42:38.287   05 Jun 2027 00:42:56.141            17.854                Anadyr1           557.938
       423   05 Jun 2027 00:43:23.463   05 Jun 2027 00:43:54.500            31.037                Anadyr1           969.906
       424   05 Jun 2027 00:44:29.811   05 Jun 2027 00:46:12.455           102.644                Norilsk          3207.625
       425   05 Jun 2027 00:46:18.625   05 Jun 2027 00:46:39.258            20.633               Magadan2           644.781
       426   05 Jun 2027 00:48:22.179   05 Jun 2027 00:50:24.078           121.899                Irkutsk          3809.344
       427   05 Jun 2027 00:52:52.416   05 Jun 2027 00:53:17.136            24.720                Novosib           772.500
       428   05 Jun 2027 00:56:24.501   05 Jun 2027 00:57:06.847            42.346                  Delhi          1323.312
       429   05 Jun 2027 00:57:21.489   05 Jun 2027 00:57:45.949            24.460                  Delhi           764.375
       430   05 Jun 2027 01:01:29.440   05 Jun 2027 01:01:44.248            14.808                  Delhi           462.750
       431   05 Jun 2027 01:04:58.326   05 Jun 2027 01:06:25.496            87.170                Sumatra          2724.063
       432   05 Jun 2027 01:38:00.739   05 Jun 2027 01:38:29.805            29.066            RioGallegos           908.312
       433   05 Jun 2027 01:42:47.957   05 Jun 2027 01:43:30.105            42.148            RioGallegos          1317.125
       434   05 Jun 2027 02:14:44.020   05 Jun 2027 02:15:44.493            60.473                Anadyr1          1889.781
       435   05 Jun 2027 02:20:29.803   05 Jun 2027 02:22:04.546            94.743                Norilsk          2960.719
       436   05 Jun 2027 02:22:51.725   05 Jun 2027 02:24:20.532            88.807              Murmansk2          2775.219
       437   05 Jun 2027 02:24:35.226   05 Jun 2027 02:24:38.316             3.090                Novosib            96.562
       438   05 Jun 2027 02:24:55.238   05 Jun 2027 02:26:31.529            96.291                Irkutsk          3009.094
       439   05 Jun 2027 02:33:37.371   05 Jun 2027 02:34:18.162            40.791                Irkutsk          1274.719
       440   05 Jun 2027 02:39:04.711   05 Jun 2027 02:39:33.016            28.305                  Delhi           884.531
       441   05 Jun 2027 04:07:15.018   05 Jun 2027 04:08:46.098            91.080                Novosib          2846.250
       442   05 Jun 2027 04:09:09.938   05 Jun 2027 04:09:52.884            42.946              Murmansk1          1342.062
       443   05 Jun 2027 04:09:54.627   05 Jun 2027 04:13:33.764           219.137                 Moscow          6848.031
       444   05 Jun 2027 04:13:56.718   05 Jun 2027 04:14:20.954            24.236                 Moscow           757.375
       445   05 Jun 2027 04:26:25.900   05 Jun 2027 04:29:09.647           163.747               CapeTown          5117.094
       446   05 Jun 2027 04:29:36.670   05 Jun 2027 04:30:29.332            52.662               CapeTown          1645.687
       447   05 Jun 2027 04:32:09.192   05 Jun 2027 04:32:40.057            30.865               CapeTown           964.531
       448   05 Jun 2027 04:33:49.295   05 Jun 2027 04:34:58.868            69.573               CapeTown          2174.156
       449   05 Jun 2027 04:35:46.694   05 Jun 2027 04:37:22.466            95.772               CapeTown          2992.875
       450   05 Jun 2027 05:27:55.148   05 Jun 2027 05:29:03.683            68.535               Magadan2          2141.719
       451   05 Jun 2027 05:29:33.917   05 Jun 2027 05:30:01.706            27.789                Anadyr2           868.406
       452   05 Jun 2027 05:30:30.982   05 Jun 2027 05:32:07.182            96.200                Anadyr2          3006.250
       453   05 Jun 2027 05:32:35.707   05 Jun 2027 05:34:02.468            86.761               Magadan1          2711.281
       454   05 Jun 2027 05:34:47.313   05 Jun 2027 05:34:53.048             5.735               Magadan1           179.219
       455   05 Jun 2027 05:35:00.628   05 Jun 2027 05:35:24.685            24.057                Anadyr2           751.781
       456   05 Jun 2027 05:42:40.773   05 Jun 2027 05:43:07.118            26.345                 Moscow           823.281
       457   05 Jun 2027 05:43:25.468   05 Jun 2027 05:43:49.283            23.815                 Moscow           744.219
       458   05 Jun 2027 05:44:09.883   05 Jun 2027 05:44:16.540             6.657                 Moscow           208.031
       459   05 Jun 2027 05:47:27.270   05 Jun 2027 05:47:47.331            20.061                 Moscow           626.906
       460   05 Jun 2027 05:49:24.763   05 Jun 2027 05:49:28.112             3.349                 Moscow           104.656
       461   05 Jun 2027 06:02:22.503   05 Jun 2027 06:03:42.369            79.866               CapeTown          2495.812
       462   05 Jun 2027 06:07:28.134   05 Jun 2027 06:07:44.983            16.849               CapeTown           526.531
       463   05 Jun 2027 07:04:28.623   05 Jun 2027 07:05:26.430            57.807                Anadyr1          1806.469
       464   05 Jun 2027 07:05:35.387   05 Jun 2027 07:06:10.511            35.124                Anadyr2          1097.625
       465   05 Jun 2027 07:06:42.510   05 Jun 2027 07:07:34.965            52.455                Anadyr2          1639.219
       466   05 Jun 2027 07:07:34.965   05 Jun 2027 07:07:43.956             8.991                Anadyr1           280.969
       467   05 Jun 2027 07:09:31.232   05 Jun 2027 07:10:03.774            32.542                Anadyr1          1016.937
       468   05 Jun 2027 08:39:36.728   05 Jun 2027 08:40:40.992            64.264                Anadyr2          2008.250
       469   05 Jun 2027 08:41:00.736   05 Jun 2027 08:41:09.707             8.971               Magadan1           280.344
       470   05 Jun 2027 08:41:31.454   05 Jun 2027 08:42:29.560            58.106                Anadyr1          1815.813
       471   05 Jun 2027 08:42:47.003   05 Jun 2027 08:43:12.378            25.375                Anadyr2           792.969
       472   05 Jun 2027 08:43:16.678   05 Jun 2027 08:43:38.378            21.700                Anadyr2           678.125
       473   05 Jun 2027 08:44:00.190   05 Jun 2027 08:44:57.031            56.841               Magadan1          1776.281
       474   05 Jun 2027 08:45:24.325   05 Jun 2027 08:46:47.934            83.609                Anadyr2          2612.781
       475   05 Jun 2027 10:15:44.174   05 Jun 2027 10:17:42.869           118.695               Magadan1          3709.219
       476   05 Jun 2027 10:18:04.074   05 Jun 2027 10:18:26.414            22.340               Magadan2           698.125
       477   05 Jun 2027 10:18:42.151   05 Jun 2027 10:20:58.569           136.418               Magadan1          4263.063
       478   05 Jun 2027 10:22:05.478   05 Jun 2027 10:22:38.007            32.529                Irkutsk          1016.531
       479   05 Jun 2027 10:23:32.991   05 Jun 2027 10:23:47.011            14.020                Norilsk           438.125
       480   05 Jun 2027 10:57:21.465   05 Jun 2027 10:58:19.686            58.221            RioGallegos          1819.406
       481   05 Jun 2027 11:32:28.504   05 Jun 2027 11:34:44.426           135.922                Sumatra          4247.562
       482   05 Jun 2027 11:53:25.666   05 Jun 2027 11:53:30.041             4.375                Novosib           136.719
