uniorb/output/strategy_4/Drop/Drop_KinoSat_110501.txt

KinoSat_110501
-------------------------
    Access    *     Start Time (UTCG)     *     Stop Time (UTCG)  *   Duration (s)        *       Station  *  Data (Mbytes)
         1   01 Jun 2027 04:26:34.203   01 Jun 2027 04:27:21.644            47.441               Magadan1          5930.125
         2   01 Jun 2027 04:28:02.762   01 Jun 2027 04:29:35.410            92.648               Magadan1         11581.000
         3   01 Jun 2027 04:29:46.529   01 Jun 2027 04:30:02.398            15.869                Anadyr1          1983.625
         4   01 Jun 2027 04:30:02.398   01 Jun 2027 04:30:13.762            11.364                Anadyr2          1420.500
         5   01 Jun 2027 04:30:14.773   01 Jun 2027 04:30:43.718            28.945                Anadyr2          3618.125
         6   01 Jun 2027 04:30:44.770   01 Jun 2027 04:30:53.167             8.397                Novosib          1049.625
         7   01 Jun 2027 04:30:57.673   01 Jun 2027 04:31:16.190            18.517               Magadan1          2314.625
         8   01 Jun 2027 04:31:38.672   01 Jun 2027 04:32:19.562            40.890               Magadan2          5111.250
         9   01 Jun 2027 04:32:34.500   01 Jun 2027 04:32:41.139             6.639                Irkutsk           829.875
        10   01 Jun 2027 04:32:43.507   01 Jun 2027 04:33:23.479            39.972                Norilsk          4996.500
        11   01 Jun 2027 04:33:41.088   01 Jun 2027 04:33:41.856             0.768                Novosib            96.000
        12   01 Jun 2027 04:34:16.554   01 Jun 2027 04:34:17.115             0.561                Norilsk            70.125
        13   01 Jun 2027 04:34:23.372   01 Jun 2027 04:34:25.771             2.399                Norilsk           299.875
        14   01 Jun 2027 04:34:47.298   01 Jun 2027 04:35:00.999            13.701              Murmansk2          1712.625
        15   01 Jun 2027 05:07:49.101   01 Jun 2027 05:08:58.421            69.320            RioGallegos          8665.000
        16   01 Jun 2027 05:44:11.722   01 Jun 2027 05:47:17.456           185.734                Sumatra         23216.750
        17   01 Jun 2027 06:05:11.626   01 Jun 2027 06:08:03.823           172.197                Novosib         21524.625
        18   01 Jun 2027 06:08:43.061   01 Jun 2027 06:09:31.489            48.428                Norilsk          6053.500
        19   01 Jun 2027 06:09:45.724   01 Jun 2027 06:10:05.663            19.939                Novosib          2492.375
        20   01 Jun 2027 06:44:26.385   01 Jun 2027 06:44:27.298             0.913            RioGallegos           114.125
        21   01 Jun 2027 06:45:40.426   01 Jun 2027 06:46:04.886            24.460            RioGallegos          3057.500
        22   01 Jun 2027 07:18:45.080   01 Jun 2027 07:19:51.505            66.425                Sumatra          8303.125
        23   01 Jun 2027 07:29:35.198   01 Jun 2027 07:31:16.709           101.511                  Delhi         12688.875
        24   01 Jun 2027 07:42:15.012   01 Jun 2027 07:42:43.000            27.988                 Moscow          3498.500
        25   01 Jun 2027 07:42:47.130   01 Jun 2027 07:44:23.634            96.504                 Moscow         12063.000
        26   01 Jun 2027 09:03:30.279   01 Jun 2027 09:03:39.516             9.237                  Delhi          1154.625
        27   01 Jun 2027 09:06:50.678   01 Jun 2027 09:06:52.423             1.745                  Delhi           218.125
        28   01 Jun 2027 09:18:49.891   01 Jun 2027 09:18:59.941            10.050              Murmansk1          1256.250
        29   01 Jun 2027 09:19:01.053   01 Jun 2027 09:19:06.802             5.749              Murmansk1           718.625
        30   01 Jun 2027 09:19:20.172   01 Jun 2027 09:20:16.885            56.713              Murmansk2          7089.125
        31   01 Jun 2027 09:20:24.799   01 Jun 2027 09:21:32.539            67.740                Novosib          8467.500
        32   01 Jun 2027 09:21:34.921   01 Jun 2027 09:25:50.724           255.803                Norilsk         31975.375
        33   01 Jun 2027 09:25:57.547   01 Jun 2027 09:27:32.565            95.018              Murmansk1         11877.250
        34   01 Jun 2027 10:50:21.885   01 Jun 2027 10:54:10.218           228.333                 Moscow         28541.625
        35   01 Jun 2027 10:54:55.838   01 Jun 2027 10:58:29.433           213.595                 Moscow         26699.375
        36   01 Jun 2027 11:07:29.776   01 Jun 2027 11:10:21.514           171.738                Anadyr1         21467.250
        37   01 Jun 2027 12:41:23.769   01 Jun 2027 12:43:03.332            99.563                Anadyr1         12445.375
        38   01 Jun 2027 12:46:14.132   01 Jun 2027 12:46:47.409            33.277                Anadyr2          4159.625
        39   01 Jun 2027 14:19:59.371   01 Jun 2027 14:24:07.690           248.319               Magadan2         31039.875
        40   01 Jun 2027 14:26:03.931   01 Jun 2027 14:28:35.408           151.477               Magadan2         18934.625
        41   01 Jun 2027 16:48:23.928   01 Jun 2027 16:51:53.563           209.635            RioGallegos         26204.375
        42   01 Jun 2027 16:56:04.352   01 Jun 2027 16:56:17.629            13.277            RioGallegos          1659.625
        43   01 Jun 2027 17:38:37.616   01 Jun 2027 17:41:38.262           180.646                Irkutsk         22580.750
        44   01 Jun 2027 17:52:30.075   01 Jun 2027 17:54:40.954           130.879                Sumatra         16359.875
        45   01 Jun 2027 17:56:09.160   01 Jun 2027 17:57:22.595            73.435                Sumatra          9179.375
        46   01 Jun 2027 19:19:58.066   01 Jun 2027 19:22:57.801           179.735                  Delhi         22466.875
        47   01 Jun 2027 19:28:09.475   01 Jun 2027 19:28:34.796            25.321                  Delhi          3165.125
        48   01 Jun 2027 20:46:52.914   01 Jun 2027 20:47:25.051            32.137              Murmansk2           306.126
        49   02 Jun 2027 04:43:51.365   02 Jun 2027 04:44:45.183            53.818               Magadan1          6727.250
        50   02 Jun 2027 04:48:29.359   02 Jun 2027 04:49:46.051            76.692              Murmansk1          9586.500
        51   02 Jun 2027 04:49:54.359   02 Jun 2027 04:50:07.493            13.134                Norilsk          1641.750
        52   02 Jun 2027 04:51:43.617   02 Jun 2027 04:54:06.720           143.103              Murmansk2         17887.875
        53   02 Jun 2027 05:21:55.980   02 Jun 2027 05:29:43.173           467.193            RioGallegos         58399.125
        54   02 Jun 2027 06:19:39.138   02 Jun 2027 06:20:58.654            79.516                Irkutsk          9939.500
        55   02 Jun 2027 06:21:28.916   02 Jun 2027 06:22:26.187            57.271                Novosib          7158.875
        56   02 Jun 2027 06:22:34.287   02 Jun 2027 06:23:00.353            26.066              Murmansk2          3258.250
        57   02 Jun 2027 06:23:13.362   02 Jun 2027 06:26:10.989           177.627              Murmansk1         22203.375
        58   02 Jun 2027 06:27:19.005   02 Jun 2027 06:28:35.953            76.948              Murmansk1          9618.500
        59   02 Jun 2027 07:02:08.701   02 Jun 2027 07:07:55.206           346.505            RioGallegos         43313.125
        60   02 Jun 2027 07:35:12.953   02 Jun 2027 07:42:16.584           423.631                Sumatra         52953.875
        61   02 Jun 2027 07:46:21.258   02 Jun 2027 07:46:32.869            11.611                Irkutsk          1451.375
        62   02 Jun 2027 07:48:07.754   02 Jun 2027 07:49:01.315            53.561                Irkutsk          6695.125
        63   02 Jun 2027 07:56:53.146   02 Jun 2027 08:01:55.970           302.824                Norilsk         37853.000
        64   02 Jun 2027 08:03:13.016   02 Jun 2027 08:03:49.442            36.426              Murmansk1          4553.250
        65   02 Jun 2027 09:18:55.147   02 Jun 2027 09:26:14.526           439.379                  Delhi         54922.375
        66   02 Jun 2027 09:26:20.954   02 Jun 2027 09:28:14.547           113.593                Novosib         14199.125
        67   02 Jun 2027 09:32:21.514   02 Jun 2027 09:33:13.155            51.641                 Moscow          6455.125
        68   02 Jun 2027 09:33:26.984   02 Jun 2027 09:37:50.856           263.872                Norilsk         32984.000
        69   02 Jun 2027 09:38:16.478   02 Jun 2027 09:39:33.416            76.938              Murmansk1          9617.250
        70   02 Jun 2027 11:01:18.545   02 Jun 2027 11:01:27.506             8.961                 Moscow          1120.125
        71   02 Jun 2027 11:05:29.896   02 Jun 2027 11:06:46.616            76.720              Murmansk2          9590.000
        72   02 Jun 2027 11:06:46.616   02 Jun 2027 11:15:30.403           523.787              Murmansk1         65473.375
        73   02 Jun 2027 11:20:58.923   02 Jun 2027 11:23:45.291           166.368                Anadyr1         20796.000
        74   02 Jun 2027 14:31:51.884   02 Jun 2027 14:34:34.199           162.315               Magadan2         20289.375
        75   02 Jun 2027 14:36:06.953   02 Jun 2027 14:37:29.475            82.522               Magadan1         10315.250
        76   02 Jun 2027 14:40:35.945   02 Jun 2027 14:41:21.800            45.855               Magadan2          5731.875
        77   02 Jun 2027 17:00:50.006   02 Jun 2027 17:06:35.270           345.264            RioGallegos         43158.000
        78   02 Jun 2027 17:45:08.389   02 Jun 2027 17:45:52.795            44.406                Norilsk          5550.750
        79   02 Jun 2027 18:06:21.927   02 Jun 2027 18:08:12.438           110.511                Sumatra         13813.875
        80   02 Jun 2027 19:31:21.851   02 Jun 2027 19:34:46.557           204.706                  Delhi         25588.250
        81   02 Jun 2027 19:36:52.100   02 Jun 2027 19:38:45.127           113.027                  Delhi         14128.375
        82   02 Jun 2027 20:57:45.587   02 Jun 2027 20:58:10.373            24.786              Murmansk1          3098.250
        83   02 Jun 2027 20:58:47.306   02 Jun 2027 20:59:36.634            49.328              Murmansk2          6166.000
        84   02 Jun 2027 21:01:22.117   02 Jun 2027 21:01:39.730            17.613              Murmansk2          2201.625
        85   02 Jun 2027 21:02:02.622   02 Jun 2027 21:02:08.418             5.796              Murmansk1           724.500
        86   02 Jun 2027 21:03:57.496   02 Jun 2027 21:05:54.187           116.691                 Moscow         14586.375
        87   02 Jun 2027 23:06:46.274   02 Jun 2027 23:07:46.410            60.136               CapeTown          7517.000
        88   03 Jun 2027 05:00:19.149   03 Jun 2027 05:02:12.450           113.301              Murmansk1         14162.625
        89   03 Jun 2027 05:03:40.754   03 Jun 2027 05:05:54.973           134.219              Murmansk2         16777.375
        90   03 Jun 2027 05:39:25.646   03 Jun 2027 05:44:34.273           308.627            RioGallegos         38578.375
        91   03 Jun 2027 06:18:15.514   03 Jun 2027 06:19:01.763            46.249                Sumatra          5781.125
        92   03 Jun 2027 06:21:56.997   03 Jun 2027 06:27:24.814           327.817                Irkutsk         40977.125
        93   03 Jun 2027 06:32:55.041   03 Jun 2027 06:37:58.055           303.014                Norilsk         37876.750
        94   03 Jun 2027 06:39:19.463   03 Jun 2027 06:40:29.642            70.179              Murmansk1          8772.375
        95   03 Jun 2027 07:13:43.155   03 Jun 2027 07:19:43.797           360.642            RioGallegos         45080.250
        96   03 Jun 2027 07:45:40.463   03 Jun 2027 07:53:44.216           483.753                Sumatra         60469.125
        97   03 Jun 2027 07:57:49.240   03 Jun 2027 07:58:10.656            21.416                Novosib          2677.000
        98   03 Jun 2027 07:58:26.021   03 Jun 2027 07:59:52.964            86.943                  Delhi         10867.875
        99   03 Jun 2027 08:08:54.667   03 Jun 2027 08:13:57.789           303.122                Norilsk         37890.250
       100   03 Jun 2027 08:15:13.721   03 Jun 2027 08:15:47.995            34.274              Murmansk2          4284.250
       101   03 Jun 2027 09:28:45.873   03 Jun 2027 09:37:40.664           534.791                  Delhi         66848.875
       102   03 Jun 2027 09:37:48.116   03 Jun 2027 09:40:27.856           159.740                Novosib         19967.500
       103   03 Jun 2027 09:45:19.930   03 Jun 2027 09:49:50.397           270.467                Norilsk         33808.375
       104   03 Jun 2027 09:50:17.627   03 Jun 2027 09:51:34.471            76.844              Murmansk1          9605.500
       105   03 Jun 2027 11:13:06.386   03 Jun 2027 11:13:20.865            14.479                 Moscow          1809.875
       106   03 Jun 2027 11:17:56.197   03 Jun 2027 11:18:47.937            51.740              Murmansk1          6467.500
       107   03 Jun 2027 11:19:09.065   03 Jun 2027 11:23:52.956           283.891                 Moscow         35486.375
       108   03 Jun 2027 11:24:09.722   03 Jun 2027 11:27:32.038           202.316              Murmansk1         25289.500
       109   03 Jun 2027 11:33:39.265   03 Jun 2027 11:36:46.539           187.274                Anadyr2         23409.250
       110   03 Jun 2027 14:43:46.258   03 Jun 2027 14:45:57.679           131.421               Magadan1         16427.625
       111   03 Jun 2027 17:14:37.913   03 Jun 2027 17:17:52.693           194.780            RioGallegos         24347.500
       112   03 Jun 2027 18:02:00.024   03 Jun 2027 18:05:00.431           180.407                Novosib         22550.875
       113   03 Jun 2027 18:07:33.293   03 Jun 2027 18:09:55.370           142.077                Irkutsk         17759.625
       114   03 Jun 2027 18:19:19.948   03 Jun 2027 18:19:25.224             5.276                Sumatra           659.500
       115   03 Jun 2027 19:46:43.798   03 Jun 2027 19:49:35.283           171.485                  Delhi         21435.625
       116   03 Jun 2027 21:10:38.588   03 Jun 2027 21:11:42.578            63.990              Murmansk1          7998.750
       117   03 Jun 2027 21:11:46.384   03 Jun 2027 21:14:48.256           181.872              Murmansk2         22734.000
       118   03 Jun 2027 21:15:11.860   03 Jun 2027 21:17:17.882           126.022                 Moscow         15752.750
       119   03 Jun 2027 21:19:40.039   03 Jun 2027 21:19:53.116            13.077                 Moscow          1634.625
       120   04 Jun 2027 05:09:30.074   04 Jun 2027 05:10:08.640            38.566                Novosib          4820.750
       121   04 Jun 2027 05:11:04.725   04 Jun 2027 05:11:55.831            51.106              Murmansk2          6388.250
       122   04 Jun 2027 05:12:09.626   04 Jun 2027 05:14:02.079           112.453              Murmansk1         14056.625
       123   04 Jun 2027 05:15:38.451   04 Jun 2027 05:17:43.752           125.301              Murmansk2         15662.625
       124   04 Jun 2027 05:51:23.078   04 Jun 2027 05:56:34.692           311.614            RioGallegos         38951.750
       125   04 Jun 2027 06:29:50.086   04 Jun 2027 06:31:15.193            85.107                Sumatra         10638.375
       126   04 Jun 2027 06:33:18.673   04 Jun 2027 06:38:26.900           308.227                Irkutsk         38528.375
       127   04 Jun 2027 06:44:56.872   04 Jun 2027 06:49:59.645           302.773                Norilsk         37846.625
       128   04 Jun 2027 06:51:20.185   04 Jun 2027 06:52:24.056            63.871              Murmansk1          7983.875
       129   04 Jun 2027 07:25:04.811   04 Jun 2027 07:31:28.616           383.805            RioGallegos         47975.625
       130   04 Jun 2027 07:56:11.801   04 Jun 2027 08:04:59.330           527.529                Sumatra         65941.125
       131   04 Jun 2027 08:10:01.643   04 Jun 2027 08:10:33.048            31.405                Novosib          3925.625
       132   04 Jun 2027 08:10:56.261   04 Jun 2027 08:15:36.866           280.605                  Delhi         35075.625
       133   04 Jun 2027 08:15:51.972   04 Jun 2027 08:16:46.455            54.483                Irkutsk          6810.375
       134   04 Jun 2027 08:20:33.271   04 Jun 2027 08:25:59.529           326.258                Norilsk         40782.250
       135   04 Jun 2027 08:27:14.639   04 Jun 2027 08:27:46.990            32.351              Murmansk2          4043.875
       136   04 Jun 2027 09:41:47.040   04 Jun 2027 09:48:51.054           424.014                  Delhi         53001.750
       137   04 Jun 2027 09:50:19.430   04 Jun 2027 09:52:15.594           116.164                Novosib         14520.500
       138   04 Jun 2027 09:56:11.368   04 Jun 2027 09:56:28.605            17.237                 Moscow          2154.625
       139   04 Jun 2027 09:57:30.313   04 Jun 2027 10:01:49.174           258.861                Norilsk         32357.625
       140   04 Jun 2027 10:02:08.331   04 Jun 2027 10:03:35.691            87.360              Murmansk2         10920.000
       141   04 Jun 2027 11:26:17.881   04 Jun 2027 11:26:51.215            33.334                 Moscow          4166.750
       142   04 Jun 2027 11:29:57.823   04 Jun 2027 11:30:37.787            39.964              Murmansk2          4995.500
       143   04 Jun 2027 11:31:22.504   04 Jun 2027 11:35:49.800           267.296                 Moscow         33412.000
       144   04 Jun 2027 11:36:06.956   04 Jun 2027 11:39:33.614           206.658              Murmansk1         25832.250
       145   04 Jun 2027 11:48:17.475   04 Jun 2027 11:49:37.364            79.889                Anadyr1          9986.125
       146   04 Jun 2027 12:44:03.366   04 Jun 2027 12:49:28.041           324.675               CapeTown         40584.375
       147   04 Jun 2027 13:04:55.341   04 Jun 2027 13:09:05.306           249.965                 Moscow         31245.625
       148   04 Jun 2027 13:22:11.645   04 Jun 2027 13:25:38.191           206.546               Magadan2         25818.250
       149   04 Jun 2027 17:27:45.368   04 Jun 2027 17:29:25.128            99.760            RioGallegos         12470.000
       150   04 Jun 2027 18:08:28.000   04 Jun 2027 18:08:58.900            30.900                Norilsk          3862.500
       151   04 Jun 2027 18:12:56.677   04 Jun 2027 18:18:38.607           341.930                Novosib         42741.250
       152   04 Jun 2027 19:59:58.521   04 Jun 2027 20:00:51.931            53.410                  Delhi          6676.250
       153   04 Jun 2027 21:22:24.550   04 Jun 2027 21:23:12.015            47.465              Murmansk2          5933.125
       154   04 Jun 2027 21:23:37.821   04 Jun 2027 21:26:39.995           182.174              Murmansk1         22771.750
       155   04 Jun 2027 21:26:43.857   04 Jun 2027 21:28:12.113            88.256              Murmansk2         11032.000
       156   04 Jun 2027 21:28:40.468   04 Jun 2027 21:31:49.817           189.349                 Moscow         23668.625
       157   05 Jun 2027 03:43:25.849   05 Jun 2027 03:45:16.319           110.470               Magadan1         13808.750
       158   05 Jun 2027 03:45:17.553   05 Jun 2027 03:46:07.690            50.137                Norilsk          6267.125
       159   05 Jun 2027 05:22:11.568   05 Jun 2027 05:22:15.529             3.961                Novosib           495.125
       160   05 Jun 2027 05:23:00.679   05 Jun 2027 05:23:50.329            49.650              Murmansk1          6206.250
       161   05 Jun 2027 05:24:00.824   05 Jun 2027 05:25:49.789           108.965              Murmansk2         13620.625
       162   05 Jun 2027 05:27:36.657   05 Jun 2027 05:29:33.123           116.466              Murmansk1         14558.250
       163   05 Jun 2027 06:03:19.074   05 Jun 2027 06:08:34.075           315.001            RioGallegos         39375.125
       164   05 Jun 2027 06:38:07.025   05 Jun 2027 06:43:22.469           315.444                Sumatra         39430.500
       165   05 Jun 2027 06:45:53.238   05 Jun 2027 06:50:55.339           302.101                Irkutsk         37762.625
       166   05 Jun 2027 06:56:49.733   05 Jun 2027 07:02:01.340           311.607                Norilsk         38950.875
       167   05 Jun 2027 07:03:21.124   05 Jun 2027 07:04:19.170            58.046              Murmansk1          7255.750
       168   05 Jun 2027 07:35:49.745   05 Jun 2027 07:43:08.044           438.299            RioGallegos         54787.375
       169   05 Jun 2027 08:09:11.295   05 Jun 2027 08:15:53.727           402.432                Sumatra         50304.000
       170   05 Jun 2027 08:22:08.425   05 Jun 2027 08:27:35.897           327.472                  Delhi         40934.000
       171   05 Jun 2027 08:27:39.859   05 Jun 2027 08:28:54.661            74.802                Irkutsk          9350.250
       172   05 Jun 2027 08:32:32.482   05 Jun 2027 08:34:18.208           105.726                Novosib         13215.750
       173   05 Jun 2027 08:34:22.008   05 Jun 2027 08:38:01.142           219.134                Norilsk         27391.750
       174   05 Jun 2027 08:39:15.752   05 Jun 2027 08:39:46.380            30.628              Murmansk2          3828.500
       175   05 Jun 2027 09:55:28.718   05 Jun 2027 09:59:22.898           234.180                  Delhi         29272.500
       176   05 Jun 2027 10:08:18.659   05 Jun 2027 10:08:27.723             9.064              Murmansk1          1133.000
       177   05 Jun 2027 10:10:09.376   05 Jun 2027 10:13:46.937           217.561                Norilsk         27195.125
       178   05 Jun 2027 10:14:10.871   05 Jun 2027 10:15:37.052            86.181              Murmansk2         10772.625
       179   05 Jun 2027 11:38:14.473   05 Jun 2027 11:39:21.124            66.651                 Moscow          8331.375
       180   05 Jun 2027 11:41:59.380   05 Jun 2027 11:42:48.859            49.479              Murmansk2          6184.875
       181   05 Jun 2027 11:42:53.596   05 Jun 2027 11:47:45.320           291.724                 Moscow         36465.500
       182   05 Jun 2027 11:47:51.797   05 Jun 2027 11:51:35.091           223.294              Murmansk1         27911.750
       183   05 Jun 2027 11:54:56.674   05 Jun 2027 11:59:47.857           291.183                Anadyr2         36397.875
       184   05 Jun 2027 11:59:47.857   05 Jun 2027 12:02:21.265           153.408                Anadyr1         19176.000
       185   05 Jun 2027 12:55:47.561   05 Jun 2027 13:01:25.603           338.042               CapeTown         42255.250
       186   05 Jun 2027 13:18:16.012   05 Jun 2027 13:27:21.945           545.933              Murmansk2         68241.625
       187   05 Jun 2027 13:29:19.688   05 Jun 2027 13:32:47.805           208.117                Anadyr2         26014.625
       188   05 Jun 2027 13:33:23.068   05 Jun 2027 13:34:25.033            61.965               Magadan2          7745.625
       189   05 Jun 2027 13:34:25.033   05 Jun 2027 13:35:56.893            91.860               Magadan1         11482.500
       190   05 Jun 2027 13:36:16.024   05 Jun 2027 13:36:46.122            30.098               Magadan1          3762.250
       191   05 Jun 2027 15:14:01.068   05 Jun 2027 15:14:54.605            53.537               Magadan1          6692.125
       192   05 Jun 2027 16:49:46.370   05 Jun 2027 16:54:11.228           264.858                Irkutsk         33107.250
       193   05 Jun 2027 18:24:23.104   05 Jun 2027 18:31:43.910           440.806                Novosib         55100.750
       194   05 Jun 2027 21:33:58.711   05 Jun 2027 21:34:49.115            50.404              Murmansk1          6300.500
       195   05 Jun 2027 21:36:23.211   05 Jun 2027 21:38:34.431           131.220              Murmansk2         16402.500
       196   05 Jun 2027 21:39:09.811   05 Jun 2027 21:45:32.902           383.091                 Moscow         47737.377
       197   06 Jun 2027 03:55:46.420   06 Jun 2027 03:56:41.008            54.588               Magadan2          6823.500
       198   06 Jun 2027 03:56:43.314   06 Jun 2027 03:57:14.992            31.678               Magadan1          3959.750
       199   06 Jun 2027 03:57:16.036   06 Jun 2027 03:58:02.197            46.161                Norilsk          5770.125
       200   06 Jun 2027 03:58:21.201   06 Jun 2027 04:01:02.938           161.737              Murmansk1         20217.125
       201   06 Jun 2027 05:13:17.238   06 Jun 2027 05:13:54.407            37.169                Sumatra          4646.125
       202   06 Jun 2027 05:33:12.810   06 Jun 2027 05:34:21.710            68.900                Novosib          8612.500
       203   06 Jun 2027 05:34:57.267   06 Jun 2027 05:35:43.696            46.429              Murmansk1          5803.625
       204   06 Jun 2027 05:35:52.761   06 Jun 2027 05:37:47.596           114.835              Murmansk2         14354.375
       205   06 Jun 2027 05:39:35.335   06 Jun 2027 05:41:23.151           107.816              Murmansk1         13477.000
       206   06 Jun 2027 06:15:13.383   06 Jun 2027 06:20:32.318           318.935            RioGallegos         39866.875
       207   06 Jun 2027 06:49:53.293   06 Jun 2027 06:55:24.059           330.766                Sumatra         41345.750
       208   06 Jun 2027 06:58:16.031   06 Jun 2027 07:02:39.925           263.894                Irkutsk         32986.750
       209   06 Jun 2027 07:09:08.295   06 Jun 2027 07:14:03.125           294.830                Norilsk         36853.750
       210   06 Jun 2027 07:15:22.267   06 Jun 2027 07:16:14.950            52.683              Murmansk1          6585.375
       211   06 Jun 2027 07:47:37.854   06 Jun 2027 07:54:38.899           421.045            RioGallegos         52630.625
       212   06 Jun 2027 08:23:10.793   06 Jun 2027 08:25:47.040           156.247                Sumatra         19530.875
       213   06 Jun 2027 08:33:52.748   06 Jun 2027 08:39:31.491           338.743                  Delhi         42342.875
       214   06 Jun 2027 08:39:56.419   06 Jun 2027 08:40:44.228            47.809                Irkutsk          5976.125
       215   06 Jun 2027 08:44:50.345   06 Jun 2027 08:44:57.802             7.457              Murmansk2           932.125
       216   06 Jun 2027 08:45:03.391   06 Jun 2027 08:50:02.588           299.197                Norilsk         37399.625
       217   06 Jun 2027 08:51:17.028   06 Jun 2027 08:51:46.130            29.102              Murmansk2          3637.750
       218   06 Jun 2027 10:13:58.146   06 Jun 2027 10:14:11.360            13.214                 Moscow          1651.750
       219   06 Jun 2027 10:20:13.433   06 Jun 2027 10:25:43.314           329.881                Norilsk         41235.125
       220   06 Jun 2027 10:25:56.047   06 Jun 2027 10:27:38.526           102.479              Murmansk2         12809.875
       221   06 Jun 2027 11:50:09.701   06 Jun 2027 11:59:39.236           569.535                 Moscow         71191.875
       222   06 Jun 2027 12:00:03.069   06 Jun 2027 12:03:36.436           213.367              Murmansk1         26670.875
       223   06 Jun 2027 12:09:42.428   06 Jun 2027 12:14:59.850           317.422                Anadyr1         39677.750
       224   06 Jun 2027 13:06:26.258   06 Jun 2027 13:13:18.231           411.973               CapeTown         51496.625
       225   06 Jun 2027 13:30:51.213   06 Jun 2027 13:39:19.227           508.014              Murmansk1         63501.750
       226   06 Jun 2027 13:41:19.889   06 Jun 2027 13:45:37.717           257.828                Anadyr1         32228.500
       227   06 Jun 2027 13:46:28.941   06 Jun 2027 13:50:56.559           267.618               Magadan1         33452.250
       228   06 Jun 2027 17:00:55.752   06 Jun 2027 17:07:33.232           397.480                Irkutsk         49685.000
       229   06 Jun 2027 17:17:17.342   06 Jun 2027 17:19:24.254           126.912                Sumatra         15864.000
       230   06 Jun 2027 18:36:00.642   06 Jun 2027 18:41:04.673           304.031                Novosib         38003.875
       231   06 Jun 2027 18:42:26.653   06 Jun 2027 18:44:02.714            96.061                Novosib         12007.625
       232   06 Jun 2027 21:45:12.163   06 Jun 2027 21:46:35.788            83.625              Murmansk2         10453.125
       233   06 Jun 2027 21:49:04.052   06 Jun 2027 21:51:13.719           129.667              Murmansk1         16208.375
       234   06 Jun 2027 21:52:41.232   06 Jun 2027 21:53:12.936            31.704                 Moscow          3963.000
       235   06 Jun 2027 21:56:00.019   06 Jun 2027 21:57:35.524            95.505                 Moscow         10306.500
       236   07 Jun 2027 04:07:55.754   07 Jun 2027 04:08:29.978            34.224                Anadyr2          4278.000
       237   07 Jun 2027 04:09:14.823   07 Jun 2027 04:09:28.895            14.072                Novosib          1759.000
       238   07 Jun 2027 04:09:30.950   07 Jun 2027 04:18:33.841           542.891              Murmansk2         67861.375
       239   07 Jun 2027 05:22:23.534   07 Jun 2027 05:23:21.581            58.047                Sumatra          7255.875
       240   07 Jun 2027 05:25:39.430   07 Jun 2027 05:25:54.060            14.630                Sumatra          1828.750
       241   07 Jun 2027 05:45:25.120   07 Jun 2027 05:46:28.067            62.947                Norilsk          7868.375
       242   07 Jun 2027 05:46:54.437   07 Jun 2027 05:47:36.012            41.575              Murmansk2          5196.875
       243   07 Jun 2027 05:47:45.452   07 Jun 2027 05:50:01.395           135.943              Murmansk1         16992.875
       244   07 Jun 2027 05:51:34.443   07 Jun 2027 05:53:13.878            99.435              Murmansk2         12429.375
       245   07 Jun 2027 06:27:05.632   07 Jun 2027 06:32:29.266           323.634            RioGallegos         40454.250
       246   07 Jun 2027 07:01:32.668   07 Jun 2027 07:07:20.074           347.406                Sumatra         43425.750
       247   07 Jun 2027 07:09:45.708   07 Jun 2027 07:11:01.218            75.510                Novosib          9438.750
       248   07 Jun 2027 07:11:04.899   07 Jun 2027 07:14:38.071           213.172                Irkutsk         26646.500
       249   07 Jun 2027 07:20:05.304   07 Jun 2027 07:20:43.978            38.674                Novosib          4834.250
       250   07 Jun 2027 07:21:23.394   07 Jun 2027 07:26:04.970           281.576                Norilsk         35197.000
       251   07 Jun 2027 07:27:23.569   07 Jun 2027 07:28:11.371            47.802              Murmansk2          5975.250
       252   07 Jun 2027 08:00:54.025   07 Jun 2027 08:05:52.761           298.736            RioGallegos         37342.000
       253   07 Jun 2027 08:45:30.962   07 Jun 2027 08:51:23.346           352.384                  Delhi         44048.000
       254   07 Jun 2027 08:56:41.578   07 Jun 2027 08:58:06.961            85.383                Novosib         10672.875
       255   07 Jun 2027 08:58:09.042   07 Jun 2027 09:02:03.815           234.773                Norilsk         29346.625
       256   07 Jun 2027 09:03:18.444   07 Jun 2027 09:03:46.205            27.761              Murmansk1          3470.125
       257   07 Jun 2027 10:25:54.424   07 Jun 2027 10:26:35.287            40.863                 Moscow          5107.875
       258   07 Jun 2027 10:31:52.853   07 Jun 2027 10:37:37.693           344.840                Norilsk         43105.000
       259   07 Jun 2027 10:38:06.399   07 Jun 2027 10:39:40.091            93.692              Murmansk1         11711.500
       260   07 Jun 2027 12:00:54.144   07 Jun 2027 12:11:31.124           636.980                 Moscow         79622.500
       261   07 Jun 2027 12:12:01.864   07 Jun 2027 12:15:37.592           215.728              Murmansk1         26966.000
       262   07 Jun 2027 12:17:45.295   07 Jun 2027 12:27:34.018           588.723                Anadyr2         73590.375
       263   07 Jun 2027 13:15:41.604   07 Jun 2027 13:25:05.807           564.203               CapeTown         70525.375
       264   07 Jun 2027 13:43:29.894   07 Jun 2027 13:44:45.923            76.029              Murmansk1          9503.625
       265   07 Jun 2027 13:56:37.162   07 Jun 2027 14:00:30.817           233.655               Magadan1         29206.875
       266   07 Jun 2027 14:01:26.673   07 Jun 2027 14:03:06.036            99.363               Magadan2         12420.375
       267   07 Jun 2027 16:26:10.239   07 Jun 2027 16:28:34.020           143.781            RioGallegos         17972.625
       268   07 Jun 2027 17:12:25.061   07 Jun 2027 17:15:59.122           214.061                Irkutsk         26757.625
       269   07 Jun 2027 17:17:10.650   07 Jun 2027 17:18:33.725            83.075                Irkutsk         10384.375
       270   07 Jun 2027 17:27:44.332   07 Jun 2027 17:29:55.594           131.262                Sumatra         16407.750
       271   07 Jun 2027 17:31:52.160   07 Jun 2027 17:33:55.599           123.439                Sumatra         15429.875
       272   07 Jun 2027 18:49:55.929   07 Jun 2027 18:51:10.701            74.772                Novosib          9346.500
       273   07 Jun 2027 18:58:51.251   07 Jun 2027 19:00:13.967            82.716                  Delhi         10339.500
       274   07 Jun 2027 19:01:41.420   07 Jun 2027 19:01:45.187             3.767                  Delhi           470.875
       275   07 Jun 2027 20:23:16.316   07 Jun 2027 20:24:19.538            63.222              Murmansk2          7902.750
       276   07 Jun 2027 22:01:05.396   07 Jun 2027 22:02:56.706           111.310                 Moscow         13913.750
       277   07 Jun 2027 22:04:24.919   07 Jun 2027 22:07:19.675           174.756                 Moscow         18975.500
       278   08 Jun 2027 04:21:14.262   08 Jun 2027 04:22:11.953            57.691                Norilsk          7211.375
       279   08 Jun 2027 04:22:13.102   08 Jun 2027 04:30:35.254           502.152              Murmansk1         62769.000
       280   08 Jun 2027 05:33:13.178   08 Jun 2027 05:35:41.181           148.003                Sumatra         18500.375
       281   08 Jun 2027 05:57:04.726   08 Jun 2027 05:58:49.464           104.738                Norilsk         13092.250
       282   08 Jun 2027 05:58:52.157   08 Jun 2027 06:02:04.261           192.104              Murmansk2         24013.000
       283   08 Jun 2027 06:03:33.948   08 Jun 2027 06:05:05.334            91.386              Murmansk1         11423.250
       284   08 Jun 2027 06:38:55.286   08 Jun 2027 06:44:24.690           329.404            RioGallegos         41175.500
       285   08 Jun 2027 07:13:03.692   08 Jun 2027 07:19:10.311           366.619                Sumatra         45827.375
       286   08 Jun 2027 07:21:45.825   08 Jun 2027 07:27:50.293           364.468                Novosib         45558.500
       287   08 Jun 2027 07:32:58.457   08 Jun 2027 07:34:17.362            78.905                 Moscow          9863.125
       288   08 Jun 2027 07:34:34.124   08 Jun 2027 07:36:00.170            86.046              Murmansk1         10755.750
       289   08 Jun 2027 07:36:00.170   08 Jun 2027 07:37:48.988           108.818              Murmansk2         13602.250
       290   08 Jun 2027 07:39:25.018   08 Jun 2027 07:40:08.381            43.363              Murmansk1          5420.375
       291   08 Jun 2027 08:57:00.828   08 Jun 2027 09:03:10.889           370.061                  Delhi         46257.625
       292   08 Jun 2027 09:03:12.290   08 Jun 2027 09:03:55.266            42.976                Novosib          5372.000
       293   08 Jun 2027 09:08:39.296   08 Jun 2027 09:08:58.680            19.384              Murmansk2          2423.000
       294   08 Jun 2027 09:09:04.765   08 Jun 2027 09:09:58.370            53.605                Novosib          6700.625
       295   08 Jun 2027 09:09:59.661   08 Jun 2027 09:14:04.757           245.096                Norilsk         30637.000
       296   08 Jun 2027 09:14:22.065   08 Jun 2027 09:15:46.567            84.502              Murmansk1         10562.750
       297   08 Jun 2027 10:37:49.266   08 Jun 2027 10:40:32.295           163.029                 Moscow         20378.625
       298   08 Jun 2027 10:43:46.512   08 Jun 2027 10:48:11.038           264.526                 Moscow         33065.750
       299   08 Jun 2027 10:48:14.284   08 Jun 2027 10:49:28.999            74.715                Norilsk          9339.375
       300   08 Jun 2027 10:49:41.293   08 Jun 2027 10:51:41.716           120.423              Murmansk1         15052.875
       301   08 Jun 2027 12:00:56.478   08 Jun 2027 12:01:00.194             3.716               CapeTown           464.500
       302   08 Jun 2027 12:13:54.666   08 Jun 2027 12:23:20.398           565.732                 Moscow         70716.500
       303   08 Jun 2027 12:23:58.854   08 Jun 2027 12:27:38.515           219.661              Murmansk2         27457.625
       304   08 Jun 2027 12:29:41.243   08 Jun 2027 12:39:13.399           572.156                Anadyr1         71519.500
       305   08 Jun 2027 14:08:23.812   08 Jun 2027 14:13:54.773           330.961               Magadan1         41370.125
       306   08 Jun 2027 16:37:11.957   08 Jun 2027 16:40:19.209           187.252            RioGallegos         23406.500
       307   08 Jun 2027 17:25:18.743   08 Jun 2027 17:29:38.509           259.766                Irkutsk         32470.750
       308   08 Jun 2027 17:38:47.478   08 Jun 2027 17:41:38.187           170.709                Sumatra         21338.625
       309   08 Jun 2027 17:43:24.924   08 Jun 2027 17:44:11.493            46.569                Sumatra          5821.125
       310   08 Jun 2027 17:44:35.531   08 Jun 2027 17:45:59.502            83.971                Sumatra         10496.375
       311   08 Jun 2027 19:03:36.623   08 Jun 2027 19:05:24.701           108.078                Novosib         13509.750
       312   08 Jun 2027 19:09:05.969   08 Jun 2027 19:11:28.376           142.407                  Delhi         17800.875
       313   08 Jun 2027 20:36:29.111   08 Jun 2027 20:36:59.023            29.912              Murmansk1          3739.000
       314   08 Jun 2027 22:11:44.708   08 Jun 2027 22:13:31.933           107.225              Murmansk2         13403.125
       315   08 Jun 2027 22:14:14.909   08 Jun 2027 22:14:20.918             6.009              Murmansk2           542.375
       316   09 Jun 2027 04:33:08.823   09 Jun 2027 04:39:47.912           399.089              Murmansk2         49886.125
       317   09 Jun 2027 05:44:25.861   09 Jun 2027 05:47:31.954           186.093                Sumatra         23261.625
       318   09 Jun 2027 06:09:02.353   09 Jun 2027 06:09:37.345            34.992                Novosib          4374.000
       319   09 Jun 2027 06:09:46.811   09 Jun 2027 06:10:43.718            56.907                Norilsk          7113.375
       320   09 Jun 2027 06:10:50.391   09 Jun 2027 06:13:52.465           182.074              Murmansk2         22759.250
       321   09 Jun 2027 06:14:07.331   09 Jun 2027 06:14:09.930             2.599                Norilsk           324.875
       322   09 Jun 2027 06:15:33.808   09 Jun 2027 06:16:57.539            83.731              Murmansk1         10466.375
       323   09 Jun 2027 06:50:41.539   09 Jun 2027 06:56:18.306           336.767            RioGallegos         42095.875
       324   09 Jun 2027 07:24:23.668   09 Jun 2027 07:30:54.245           390.577                Sumatra         48822.125
       325   09 Jun 2027 07:34:42.670   09 Jun 2027 07:34:54.919            12.249                Irkutsk          1531.125
       326   09 Jun 2027 07:35:08.864   09 Jun 2027 07:35:22.961            14.097                Novosib          1762.125
       327   09 Jun 2027 07:36:02.341   09 Jun 2027 07:39:38.388           216.047                Irkutsk         27005.875
       328   09 Jun 2027 07:44:11.711   09 Jun 2027 07:44:24.417            12.706                Irkutsk          1588.250
       329   09 Jun 2027 07:44:32.342   09 Jun 2027 07:45:11.810            39.468              Murmansk2          4933.500
       330   09 Jun 2027 07:45:13.540   09 Jun 2027 07:50:08.739           295.199                Norilsk         36899.875
       331   09 Jun 2027 07:51:26.572   09 Jun 2027 07:52:05.956            39.384              Murmansk2          4923.000
       332   09 Jun 2027 09:08:17.754   09 Jun 2027 09:14:53.221           395.467                  Delhi         49433.375
       333   09 Jun 2027 09:15:00.931   09 Jun 2027 09:15:22.541            21.610                 Moscow          2701.250
       334   09 Jun 2027 09:15:45.340   09 Jun 2027 09:16:03.331            17.991                Novosib          2248.875
       335   09 Jun 2027 09:20:39.735   09 Jun 2027 09:21:46.997            67.262                Novosib          8407.750
       336   09 Jun 2027 09:21:50.985   09 Jun 2027 09:26:05.342           254.357                Norilsk         31794.625
       337   09 Jun 2027 09:26:12.123   09 Jun 2027 09:27:47.197            95.074              Murmansk2         11884.250
       338   09 Jun 2027 10:50:36.502   09 Jun 2027 10:52:30.472           113.970                 Moscow         14246.250
       339   09 Jun 2027 10:53:43.547   09 Jun 2027 10:54:36.268            52.721              Murmansk1          6590.125
       340   09 Jun 2027 10:55:10.129   09 Jun 2027 11:00:10.736           300.607                 Moscow         37575.875
       341   09 Jun 2027 11:00:16.155   09 Jun 2027 11:01:14.900            58.745                Norilsk          7343.125
       342   09 Jun 2027 11:01:14.987   09 Jun 2027 11:03:43.377           148.390              Murmansk2         18548.750
       343   09 Jun 2027 11:07:43.610   09 Jun 2027 11:10:37.415           173.805                Anadyr2         21725.625
       344   09 Jun 2027 12:07:05.655   09 Jun 2027 12:12:42.694           337.039               CapeTown         42129.875
       345   09 Jun 2027 12:42:35.492   09 Jun 2027 12:43:17.855            42.363                Anadyr1          5295.375
       346   09 Jun 2027 14:20:13.893   09 Jun 2027 14:26:18.850           364.957               Magadan1         45619.625
       347   09 Jun 2027 16:48:38.222   09 Jun 2027 16:52:08.075           209.853            RioGallegos         26231.625
       348   09 Jun 2027 16:54:41.128   09 Jun 2027 16:56:19.426            98.298            RioGallegos         12287.250
       349   09 Jun 2027 17:38:53.185   09 Jun 2027 17:39:45.565            52.380                Irkutsk          6547.500
       350   09 Jun 2027 17:42:01.339   09 Jun 2027 17:42:34.250            32.911                Irkutsk          4113.875
       351   09 Jun 2027 17:52:47.229   09 Jun 2027 17:56:23.917           216.688                Sumatra         27086.000
       352   09 Jun 2027 19:20:12.170   09 Jun 2027 19:22:45.304           153.134                  Delhi         19141.750
       353   09 Jun 2027 19:28:23.545   09 Jun 2027 19:28:50.063            26.518                  Delhi          3314.750
       354   09 Jun 2027 20:47:10.340   09 Jun 2027 20:49:35.614           145.274              Murmansk1         18159.250
       355   09 Jun 2027 22:54:11.892   09 Jun 2027 22:55:53.599           101.707               CapeTown         12713.375
       356   10 Jun 2027 04:45:13.943   10 Jun 2027 04:45:30.996            17.053                Norilsk          2131.625
       357   10 Jun 2027 04:48:43.865   10 Jun 2027 04:50:00.788            76.923              Murmansk1          9615.375
       358   10 Jun 2027 04:50:10.676   10 Jun 2027 04:50:22.103            11.427                Norilsk          1428.375
       359   10 Jun 2027 04:51:58.522   10 Jun 2027 04:54:21.197           142.675              Murmansk2         17834.375
       360   10 Jun 2027 05:26:12.705   10 Jun 2027 05:32:47.558           394.853            RioGallegos         49356.625
       361   10 Jun 2027 06:06:47.783   10 Jun 2027 06:06:56.139             8.356                Sumatra          1044.500
       362   10 Jun 2027 06:08:21.053   10 Jun 2027 06:14:32.704           371.651                Irkutsk         46456.375
       363   10 Jun 2027 06:21:07.941   10 Jun 2027 06:22:36.777            88.836                Norilsk         11104.500
       364   10 Jun 2027 06:22:49.087   10 Jun 2027 06:24:27.088            98.001              Murmansk1         12250.125
       365   10 Jun 2027 06:24:27.088   10 Jun 2027 06:25:52.089            85.001              Murmansk2         10625.125
       366   10 Jun 2027 06:25:55.889   10 Jun 2027 06:26:11.229            15.340                Norilsk          1917.500
       367   10 Jun 2027 06:27:33.990   10 Jun 2027 06:28:50.493            76.503              Murmansk1          9562.875
       368   10 Jun 2027 07:02:23.075   10 Jun 2027 07:08:09.702           346.627            RioGallegos         43328.375
       369   10 Jun 2027 07:35:26.728   10 Jun 2027 07:42:30.870           424.142                Sumatra         53017.750
       370   10 Jun 2027 07:46:36.350   10 Jun 2027 07:46:47.326            10.976                Irkutsk          1372.000
       371   10 Jun 2027 07:48:23.383   10 Jun 2027 07:52:24.828           241.445                Irkutsk         30180.625
       372   10 Jun 2027 07:57:07.812   10 Jun 2027 08:02:10.608           302.796                Norilsk         37849.500
       373   10 Jun 2027 08:03:27.732   10 Jun 2027 08:04:04.042            36.310              Murmansk1          4538.750
       374   10 Jun 2027 09:19:08.618   10 Jun 2027 09:26:28.799           440.181                  Delhi         55022.625
       375   10 Jun 2027 09:26:37.696   10 Jun 2027 09:28:29.557           111.861                Novosib         13982.625
       376   10 Jun 2027 09:32:37.853   10 Jun 2027 09:36:14.499           216.646                 Moscow         27080.750
       377   10 Jun 2027 09:36:17.836   10 Jun 2027 09:38:05.468           107.632                Norilsk         13454.000
       378   10 Jun 2027 09:38:33.589   10 Jun 2027 09:39:48.046            74.457              Murmansk1          9307.125
       379   10 Jun 2027 11:02:36.036   10 Jun 2027 11:04:31.486           115.450                 Moscow         14431.250
       380   10 Jun 2027 11:05:44.624   10 Jun 2027 11:15:45.039           600.415              Murmansk2         75051.875
       381   10 Jun 2027 11:21:14.103   10 Jun 2027 11:24:00.719           166.616                Anadyr1         20827.000
       382   10 Jun 2027 14:32:06.428   10 Jun 2027 14:35:58.955           232.527               Magadan2         29065.875
       383   10 Jun 2027 17:01:06.702   10 Jun 2027 17:05:46.231           279.529            RioGallegos         34941.125
       384   10 Jun 2027 17:06:42.576   10 Jun 2027 17:06:49.241             6.665            RioGallegos           833.125
       385   10 Jun 2027 17:45:25.230   10 Jun 2027 17:46:00.125            34.895                Norilsk          4361.875
       386   10 Jun 2027 18:06:37.498   10 Jun 2027 18:08:26.376           108.878                Sumatra         13609.750
       387   10 Jun 2027 19:31:36.109   10 Jun 2027 19:37:06.579           330.470                  Delhi         41308.750
       388   10 Jun 2027 20:58:01.051   10 Jun 2027 20:58:34.523            33.472              Murmansk1          4184.000
       389   10 Jun 2027 20:59:04.482   10 Jun 2027 21:01:54.354           169.872              Murmansk2         21234.000
       390   10 Jun 2027 21:02:17.780   10 Jun 2027 21:03:15.384            57.604              Murmansk1          7200.500
       391   10 Jun 2027 21:04:10.164   10 Jun 2027 21:04:57.621            47.457                 Moscow          5932.125
       392   10 Jun 2027 23:07:01.428   10 Jun 2027 23:07:17.665            16.237               CapeTown          2029.625
       393   10 Jun 2027 23:08:01.125   10 Jun 2027 23:08:22.139            21.014               CapeTown          2626.750
       394   11 Jun 2027 05:00:33.663   11 Jun 2027 05:02:28.830           115.167              Murmansk1         14395.875
       395   11 Jun 2027 05:03:55.673   11 Jun 2027 05:06:09.456           133.783              Murmansk2         16722.875
       396   11 Jun 2027 05:39:40.262   11 Jun 2027 05:44:48.901           308.639            RioGallegos         38579.875
       397   11 Jun 2027 06:18:29.923   11 Jun 2027 06:19:16.579            46.656                Sumatra          5832.000
       398   11 Jun 2027 06:22:11.194   11 Jun 2027 06:27:39.335           328.141                Irkutsk         41017.625
       399   11 Jun 2027 06:33:09.703   11 Jun 2027 06:38:12.690           302.987                Norilsk         37873.375
       400   11 Jun 2027 06:39:34.454   11 Jun 2027 06:40:44.191            69.737              Murmansk2          8717.125
       401   11 Jun 2027 07:13:57.413   11 Jun 2027 07:19:58.252           360.839            RioGallegos         45104.875
       402   11 Jun 2027 07:45:53.445   11 Jun 2027 07:53:58.377           484.932                Sumatra         60616.500
       403   11 Jun 2027 07:58:03.987   11 Jun 2027 07:58:25.153            21.166                Novosib          2645.750
       404   11 Jun 2027 07:58:40.601   11 Jun 2027 08:00:10.446            89.845                  Delhi         11230.625
       405   11 Jun 2027 08:08:59.722   11 Jun 2027 08:09:30.153            30.431                 Moscow          3803.875
       406   11 Jun 2027 08:09:33.116   11 Jun 2027 08:14:12.424           279.308                Norilsk         34913.500
       407   11 Jun 2027 08:15:28.441   11 Jun 2027 08:16:02.599            34.158              Murmansk1          4269.750
       408   11 Jun 2027 09:29:01.101   11 Jun 2027 09:37:54.794           533.693                  Delhi         66711.625
       409   11 Jun 2027 09:38:03.239   11 Jun 2027 09:40:21.829           138.590                Novosib         17323.750
       410   11 Jun 2027 09:45:36.105   11 Jun 2027 09:50:04.998           268.893                Norilsk         33611.625
       411   11 Jun 2027 09:50:32.738   11 Jun 2027 09:51:49.102            76.364              Murmansk2          9545.500
       412   11 Jun 2027 11:13:20.904   11 Jun 2027 11:13:34.680            13.776                 Moscow          1722.000
       413   11 Jun 2027 11:18:10.832   11 Jun 2027 11:19:02.674            51.842              Murmansk1          6480.250
       414   11 Jun 2027 11:19:25.796   11 Jun 2027 11:24:07.540           281.744                 Moscow         35218.000
       415   11 Jun 2027 11:24:25.584   11 Jun 2027 11:27:46.673           201.089              Murmansk1         25136.125
       416   11 Jun 2027 11:32:15.598   11 Jun 2027 11:37:01.808           286.210                Anadyr1         35776.250
       417   11 Jun 2027 12:32:28.511   11 Jun 2027 12:34:29.051           120.540               CapeTown         15067.500
       418   11 Jun 2027 14:44:00.820   11 Jun 2027 14:46:12.472           131.652               Magadan2         16456.500
       419   11 Jun 2027 17:14:53.544   11 Jun 2027 17:18:06.935           193.391            RioGallegos         24173.875
       420   11 Jun 2027 18:02:13.431   11 Jun 2027 18:05:16.696           183.265                Novosib         22908.125
       421   11 Jun 2027 18:19:35.182   11 Jun 2027 18:19:39.368             4.186                Sumatra           523.250
       422   11 Jun 2027 19:46:59.636   11 Jun 2027 19:49:49.270           169.634                  Delhi         21204.250
       423   11 Jun 2027 21:10:55.379   11 Jun 2027 21:12:14.899            79.520              Murmansk1          9940.000
       424   11 Jun 2027 21:12:58.434   11 Jun 2027 21:15:02.796           124.362              Murmansk2         15545.250
       425   11 Jun 2027 21:15:26.880   11 Jun 2027 21:19:55.060           268.180                 Moscow         33522.500
       426   12 Jun 2027 05:11:19.467   12 Jun 2027 05:12:11.344            51.877              Murmansk1          6484.625
       427   12 Jun 2027 05:12:24.150   12 Jun 2027 05:14:16.571           112.421              Murmansk2         14052.625
       428   12 Jun 2027 05:15:53.383   12 Jun 2027 05:17:58.241           124.858              Murmansk1         15607.250
       429   12 Jun 2027 05:51:37.676   12 Jun 2027 05:56:49.307           311.631            RioGallegos         38953.875
       430   12 Jun 2027 06:30:04.371   12 Jun 2027 06:31:29.931            85.560                Sumatra         10695.000
       431   12 Jun 2027 06:33:36.090   12 Jun 2027 06:38:40.174           304.084                Irkutsk         38010.500
       432   12 Jun 2027 06:45:11.534   12 Jun 2027 06:50:14.281           302.747                Norilsk         37843.375
       433   12 Jun 2027 06:51:35.183   12 Jun 2027 06:52:38.613            63.430              Murmansk1          7928.750
       434   12 Jun 2027 07:25:18.837   12 Jun 2027 07:31:43.016           384.179            RioGallegos         48022.375
       435   12 Jun 2027 07:56:26.987   12 Jun 2027 08:05:13.306           526.319                Sumatra         65789.875
       436   12 Jun 2027 08:10:16.430   12 Jun 2027 08:10:47.722            31.292                Novosib          3911.500
       437   12 Jun 2027 08:11:11.061   12 Jun 2027 08:15:51.490           280.429                  Delhi         35053.625
       438   12 Jun 2027 08:16:06.778   12 Jun 2027 08:17:02.861            56.083                Irkutsk          7010.375
       439   12 Jun 2027 08:20:48.063   12 Jun 2027 08:26:14.162           326.099                Norilsk         40762.375
       440   12 Jun 2027 08:27:29.362   12 Jun 2027 08:28:01.600            32.238              Murmansk2          4029.750
       441   12 Jun 2027 09:42:02.552   12 Jun 2027 09:49:04.920           422.368                  Delhi         52796.000
       442   12 Jun 2027 09:50:34.902   12 Jun 2027 09:52:33.240           118.338                Novosib         14792.250
       443   12 Jun 2027 09:56:25.702   12 Jun 2027 09:57:00.800            35.098                 Moscow          4387.250
       444   12 Jun 2027 09:57:44.951   12 Jun 2027 10:02:03.762           258.811                Norilsk         32351.375
       445   12 Jun 2027 10:02:23.833   12 Jun 2027 10:03:50.323            86.490              Murmansk1         10811.250
       446   12 Jun 2027 11:26:32.461   12 Jun 2027 11:27:05.607            33.146                 Moscow          4143.250
       447   12 Jun 2027 11:30:12.457   12 Jun 2027 11:31:04.127            51.670              Murmansk1          6458.750
       448   12 Jun 2027 11:31:39.090   12 Jun 2027 11:36:04.368           265.278                 Moscow         33159.750
       449   12 Jun 2027 11:36:22.843   12 Jun 2027 11:39:48.247           205.404              Murmansk1         25675.500
       450   12 Jun 2027 11:48:31.654   12 Jun 2027 11:49:52.536            80.882                Anadyr2         10110.250
       451   12 Jun 2027 12:44:17.839   12 Jun 2027 12:49:42.657           324.818               CapeTown         40602.250
       452   12 Jun 2027 13:05:11.154   12 Jun 2027 13:08:21.730           190.576                 Moscow         23822.000
       453   12 Jun 2027 13:22:25.423   12 Jun 2027 13:25:54.113           208.690               Magadan1         26086.250
       454   12 Jun 2027 17:28:00.732   12 Jun 2027 17:29:39.496            98.764            RioGallegos         12345.500
       455   12 Jun 2027 18:08:41.555   12 Jun 2027 18:10:11.062            89.507                Norilsk         11188.375
       456   12 Jun 2027 18:13:10.800   12 Jun 2027 18:18:54.120           343.320                Novosib         42915.000
       457   12 Jun 2027 20:00:13.917   12 Jun 2027 20:01:06.132            52.215                  Delhi          6526.875
       458   12 Jun 2027 21:22:40.614   12 Jun 2027 21:26:54.577           253.963              Murmansk2         31745.375
       459   12 Jun 2027 21:26:59.593   12 Jun 2027 21:28:27.158            87.565              Murmansk1         10945.625
       460   12 Jun 2027 21:28:55.285   12 Jun 2027 21:29:42.371            47.086                 Moscow          5885.750
       461   12 Jun 2027 21:32:04.782   12 Jun 2027 21:33:17.944            73.162                 Moscow          9145.250
       462   13 Jun 2027 03:43:42.534   13 Jun 2027 03:45:27.486           104.952               Magadan2         13119.000
       463   13 Jun 2027 05:22:26.322   13 Jun 2027 05:22:30.230             3.908                Novosib           488.500
       464   13 Jun 2027 05:23:15.434   13 Jun 2027 05:24:05.798            50.364              Murmansk1          6295.500
       465   13 Jun 2027 05:24:15.358   13 Jun 2027 05:26:04.287           108.929              Murmansk2         13616.125
       466   13 Jun 2027 05:27:51.601   13 Jun 2027 05:29:47.621           116.020              Murmansk1         14502.500
       467   13 Jun 2027 06:03:33.653   13 Jun 2027 06:08:48.676           315.023            RioGallegos         39377.875
       468   13 Jun 2027 06:38:21.531   13 Jun 2027 06:43:37.138           315.607                Sumatra         39450.875
       469   13 Jun 2027 06:46:08.591   13 Jun 2027 06:50:49.255           280.664                Irkutsk         35083.000
       470   13 Jun 2027 06:57:04.590   13 Jun 2027 07:02:15.976           311.386                Norilsk         38923.250
       471   13 Jun 2027 07:03:36.128   13 Jun 2027 07:04:33.736            57.608              Murmansk2          7201.000
       472   13 Jun 2027 07:36:02.717   13 Jun 2027 07:43:22.361           439.644            RioGallegos         54955.500
       473   13 Jun 2027 08:09:26.815   13 Jun 2027 08:16:07.354           400.539                Sumatra         50067.375
       474   13 Jun 2027 08:22:22.899   13 Jun 2027 08:27:50.480           327.581                  Delhi         40947.625
       475   13 Jun 2027 08:27:54.298   13 Jun 2027 08:29:11.010            76.712                Irkutsk          9589.000
       476   13 Jun 2027 08:32:47.832   13 Jun 2027 08:34:32.772           104.940                Novosib         13117.500
       477   13 Jun 2027 08:34:37.959   13 Jun 2027 08:38:15.772           217.813                Norilsk         27226.625
       478   13 Jun 2027 08:39:30.483   13 Jun 2027 08:40:00.994            30.511              Murmansk1          3813.875
       479   13 Jun 2027 09:55:45.170   13 Jun 2027 09:59:35.849           230.679                  Delhi         28834.875
       480   13 Jun 2027 10:08:33.798   13 Jun 2027 10:08:42.695             8.897              Murmansk2          1112.125
       481   13 Jun 2027 10:09:45.219   13 Jun 2027 10:14:01.508           256.289                Norilsk         32036.125
       482   13 Jun 2027 10:14:26.014   13 Jun 2027 10:15:51.685            85.671              Murmansk1         10708.875
