uniorb/output/strategy_4/Drop/Drop_KinoSat_110610.txt

KinoSat_110610
-------------------------
    Access    *     Start Time (UTCG)     *     Stop Time (UTCG)  *   Duration (s)        *       Station  *  Data (Mbytes)
         1   01 Jun 2027 04:31:16.190   01 Jun 2027 04:31:38.672            22.482               Magadan2           702.562
         2   01 Jun 2027 04:31:38.672   01 Jun 2027 04:32:50.922            72.250               Magadan1          2257.813
         3   01 Jun 2027 04:32:50.922   01 Jun 2027 04:33:07.653            16.731               Magadan2           522.844
         4   01 Jun 2027 04:33:19.062   01 Jun 2027 04:36:10.886           171.824               Magadan1          5369.500
         5   01 Jun 2027 04:36:29.467   01 Jun 2027 04:38:02.266            92.799               Magadan2          2899.969
         6   01 Jun 2027 04:38:02.266   01 Jun 2027 04:38:13.295            11.029               Magadan1           344.656
         7   01 Jun 2027 04:38:33.429   01 Jun 2027 04:38:40.415             6.986              Murmansk1           218.312
         8   01 Jun 2027 04:39:45.345   01 Jun 2027 04:40:37.606            52.261              Murmansk2          1633.156
         9   01 Jun 2027 05:13:30.619   01 Jun 2027 05:14:39.694            69.075            RioGallegos          2158.594
        10   01 Jun 2027 05:14:44.410   01 Jun 2027 05:15:27.207            42.797            RioGallegos          1337.406
        11   01 Jun 2027 05:15:38.411   01 Jun 2027 05:15:56.964            18.553            RioGallegos           579.781
        12   01 Jun 2027 05:16:25.014   01 Jun 2027 05:16:50.681            25.667            RioGallegos           802.094
        13   01 Jun 2027 05:17:19.004   01 Jun 2027 05:17:23.185             4.181            RioGallegos           130.656
        14   01 Jun 2027 05:18:07.711   01 Jun 2027 05:19:34.986            87.275            RioGallegos          2727.344
        15   01 Jun 2027 05:52:16.150   01 Jun 2027 05:53:18.144            61.994                Sumatra          1937.312
        16   01 Jun 2027 05:54:44.528   01 Jun 2027 05:56:45.102           120.574                Sumatra          3767.938
        17   01 Jun 2027 06:08:50.458   01 Jun 2027 06:09:20.041            29.583               Magadan1           924.469
        18   01 Jun 2027 06:09:31.489   01 Jun 2027 06:13:22.027           230.538                Norilsk          7204.312
        19   01 Jun 2027 06:13:22.381   01 Jun 2027 06:13:43.715            21.334                Irkutsk           666.688
        20   01 Jun 2027 06:13:50.802   01 Jun 2027 06:14:10.815            20.013                Norilsk           625.406
        21   01 Jun 2027 06:48:59.467   01 Jun 2027 06:50:00.947            61.480            RioGallegos          1921.250
        22   01 Jun 2027 07:23:39.603   01 Jun 2027 07:25:31.118           111.515                Sumatra          3484.844
        23   01 Jun 2027 07:33:00.758   01 Jun 2027 07:33:16.538            15.780                Sumatra           493.125
        24   01 Jun 2027 07:33:49.752   01 Jun 2027 07:36:23.429           153.677                  Delhi          4802.406
        25   01 Jun 2027 07:46:20.216   01 Jun 2027 07:48:36.556           136.340              Murmansk1          4260.625
        26   01 Jun 2027 07:48:48.662   01 Jun 2027 07:52:04.309           195.647                 Moscow          6113.969
        27   01 Jun 2027 07:52:04.868   01 Jun 2027 07:53:25.535            80.667                Norilsk          2520.844
        28   01 Jun 2027 07:53:29.021   01 Jun 2027 07:55:47.934           138.913              Murmansk1          4341.031
        29   01 Jun 2027 07:56:13.750   01 Jun 2027 07:56:47.576            33.826              Murmansk1          1057.062
        30   01 Jun 2027 08:29:12.417   01 Jun 2027 08:29:27.880            15.463            RioGallegos           483.219
        31   01 Jun 2027 08:29:59.946   01 Jun 2027 08:30:36.347            36.401            RioGallegos          1137.531
        32   01 Jun 2027 09:07:58.816   01 Jun 2027 09:10:50.963           172.147                  Delhi          5379.594
        33   01 Jun 2027 09:24:26.603   01 Jun 2027 09:24:59.392            32.789                 Moscow          1024.656
        34   01 Jun 2027 09:25:28.093   01 Jun 2027 09:27:10.010           101.917                Novosib          3184.906
        35   01 Jun 2027 09:27:48.756   01 Jun 2027 09:28:11.046            22.290              Murmansk1           696.562
        36   01 Jun 2027 09:28:28.710   01 Jun 2027 09:28:52.342            23.632                Norilsk           738.500
        37   01 Jun 2027 09:32:03.362   01 Jun 2027 09:32:21.030            17.668              Murmansk1           552.125
        38   01 Jun 2027 10:57:48.518   01 Jun 2027 11:00:10.903           142.385              Murmansk1          4449.531
        39   01 Jun 2027 11:00:17.100   01 Jun 2027 11:03:28.736           191.636              Murmansk2          5988.625
        40   01 Jun 2027 11:03:49.747   01 Jun 2027 11:04:13.430            23.683                Norilsk           740.094
        41   01 Jun 2027 11:05:55.773   01 Jun 2027 11:06:18.656            22.883                Norilsk           715.094
        42   01 Jun 2027 12:06:51.419   01 Jun 2027 12:08:20.258            88.839               CapeTown          2776.219
        43   01 Jun 2027 12:09:54.696   01 Jun 2027 12:13:37.941           223.245               CapeTown          6976.406
        44   01 Jun 2027 12:30:06.847   01 Jun 2027 12:30:50.716            43.869                 Moscow          1370.906
        45   01 Jun 2027 12:32:47.742   01 Jun 2027 12:34:15.911            88.169              Murmansk2          2755.281
        46   01 Jun 2027 12:34:16.579   01 Jun 2027 12:34:24.026             7.447              Murmansk1           232.719
        47   01 Jun 2027 12:35:01.137   01 Jun 2027 12:35:29.809            28.672              Murmansk1           896.000
        48   01 Jun 2027 12:36:06.577   01 Jun 2027 12:36:48.876            42.299              Murmansk2          1321.844
        49   01 Jun 2027 12:46:47.409   01 Jun 2027 12:49:29.428           162.019                Anadyr2          5063.094
        50   01 Jun 2027 12:49:53.226   01 Jun 2027 12:52:27.148           153.922                Anadyr1          4810.063
        51   01 Jun 2027 12:52:57.538   01 Jun 2027 12:56:17.274           199.736                Anadyr2          6241.750
        52   01 Jun 2027 14:22:19.716   01 Jun 2027 14:22:32.283            12.567                Anadyr1           392.719
        53   01 Jun 2027 14:23:25.039   01 Jun 2027 14:24:39.978            74.939                Anadyr1          2341.844
        54   01 Jun 2027 14:25:09.517   01 Jun 2027 14:26:12.465            62.948                Anadyr1          1967.125
        55   01 Jun 2027 14:27:02.086   01 Jun 2027 14:32:19.738           317.652               Magadan1          9926.625
        56   01 Jun 2027 14:33:18.348   01 Jun 2027 14:33:31.657            13.309               Magadan2           415.906
        57   01 Jun 2027 16:00:35.873   01 Jun 2027 16:03:09.677           153.804               Magadan1          4806.375
        58   01 Jun 2027 16:03:09.677   01 Jun 2027 16:04:31.303            81.626               Magadan2          2550.812
        59   01 Jun 2027 16:56:17.629   01 Jun 2027 16:57:40.578            82.949            RioGallegos          2592.156
        60   01 Jun 2027 17:34:04.753   01 Jun 2027 17:34:52.685            47.932                Anadyr1          1497.875
        61   01 Jun 2027 17:34:58.723   01 Jun 2027 17:35:16.437            17.714                Anadyr2           553.563
        62   01 Jun 2027 17:35:46.348   01 Jun 2027 17:35:57.146            10.798                Anadyr1           337.438
        63   01 Jun 2027 17:36:04.096   01 Jun 2027 17:36:10.576             6.480                Anadyr1           202.500
        64   01 Jun 2027 17:36:20.790   01 Jun 2027 17:42:44.635           383.845                Norilsk         11995.156
        65   01 Jun 2027 17:43:55.959   01 Jun 2027 17:49:04.622           308.663                Irkutsk          9645.719
        66   01 Jun 2027 17:57:22.595   01 Jun 2027 18:03:40.843           378.248                Sumatra         11820.250
        67   01 Jun 2027 19:17:56.262   01 Jun 2027 19:18:12.227            15.965                Novosib           498.906
        68   01 Jun 2027 19:18:31.697   01 Jun 2027 19:23:09.551           277.854                Novosib          8682.937
        69   01 Jun 2027 20:51:22.227   01 Jun 2027 20:55:06.022           223.795              Murmansk2          6993.594
        70   01 Jun 2027 22:26:11.472   01 Jun 2027 22:27:40.875            89.403              Murmansk2          2793.844
        71   01 Jun 2027 22:27:55.510   01 Jun 2027 22:32:13.990           258.480              Murmansk1          8077.500
        72   01 Jun 2027 22:33:08.673   01 Jun 2027 22:38:08.888           300.215                 Moscow          9381.719
        73   01 Jun 2027 22:57:04.928   01 Jun 2027 23:04:12.543           427.615               CapeTown         13362.969
        74   02 Jun 2027 01:38:01.880   02 Jun 2027 01:38:44.424            42.544              Murmansk1          1329.500
        75   02 Jun 2027 01:40:04.886   02 Jun 2027 01:40:37.684            32.798              Murmansk2          1024.938
        76   02 Jun 2027 01:41:22.640   02 Jun 2027 01:42:11.494            48.854                 Moscow          1526.687
        77   02 Jun 2027 01:43:39.366   02 Jun 2027 01:43:56.871            17.505                 Moscow           547.031
        78   02 Jun 2027 01:45:59.885   02 Jun 2027 01:46:20.545            20.660                 Moscow           645.625
        79   02 Jun 2027 01:50:52.677   02 Jun 2027 01:51:00.779             8.102                 Moscow           253.187
        80   02 Jun 2027 01:51:50.456   02 Jun 2027 01:52:16.630            26.174                 Moscow           817.937
        81   02 Jun 2027 02:07:45.830   02 Jun 2027 02:08:06.223            20.393               CapeTown           637.281
        82   02 Jun 2027 02:09:21.422   02 Jun 2027 02:10:31.630            70.208               CapeTown          2194.000
        83   02 Jun 2027 03:01:35.754   02 Jun 2027 03:01:45.651             9.897               Magadan1           309.281
        84   02 Jun 2027 03:02:32.596   02 Jun 2027 03:03:21.191            48.595               Magadan1          1518.594
        85   02 Jun 2027 03:05:53.667   02 Jun 2027 03:09:39.908           226.241                Anadyr2          7070.031
        86   02 Jun 2027 03:09:41.360   02 Jun 2027 03:10:26.729            45.369               Magadan2          1417.781
        87   02 Jun 2027 03:11:04.252   02 Jun 2027 03:13:31.562           147.310               Magadan1          4603.437
        88   02 Jun 2027 03:13:31.562   02 Jun 2027 03:14:28.251            56.689               Magadan2          1771.531
        89   02 Jun 2027 04:43:38.423   02 Jun 2027 04:45:35.612           117.189                Anadyr2          3662.156
        90   02 Jun 2027 04:45:53.586   02 Jun 2027 04:48:00.949           127.363                Anadyr2          3980.094
        91   02 Jun 2027 04:48:15.563   02 Jun 2027 04:49:04.346            48.783               Magadan1          1524.469
        92   02 Jun 2027 04:49:07.741   02 Jun 2027 04:49:51.558            43.817               Magadan2          1369.281
        93   02 Jun 2027 06:21:46.724   02 Jun 2027 06:25:02.988           196.264                Irkutsk          6133.250
        94   02 Jun 2027 06:25:43.625   02 Jun 2027 06:27:04.598            80.973                Novosib          2530.406
        95   02 Jun 2027 07:59:08.030   02 Jun 2027 08:00:13.418            65.388                Irkutsk          2043.375
        96   02 Jun 2027 08:00:15.095   02 Jun 2027 08:00:38.826            23.731                 Moscow           741.594
        97   02 Jun 2027 08:03:13.192   02 Jun 2027 08:04:35.534            82.342              Murmansk2          2573.187
        98   02 Jun 2027 08:42:49.640   02 Jun 2027 08:43:56.787            67.147            RioGallegos          2098.344
        99   02 Jun 2027 08:44:34.854   02 Jun 2027 08:45:01.370            26.516            RioGallegos           828.625
       100   02 Jun 2027 09:33:18.202   02 Jun 2027 09:33:18.548             0.346                Novosib            10.812
       101   02 Jun 2027 09:38:13.547   02 Jun 2027 09:38:14.392             0.845                Novosib            26.406
       102   02 Jun 2027 11:12:11.663   02 Jun 2027 11:12:13.087             1.424              Murmansk1            44.500
       103   02 Jun 2027 11:16:55.965   02 Jun 2027 11:17:43.140            47.175                Norilsk          1474.219
       104   02 Jun 2027 12:18:30.847   02 Jun 2027 12:19:49.741            78.894               CapeTown          2465.438
       105   02 Jun 2027 12:24:09.105   02 Jun 2027 12:24:51.927            42.822               CapeTown          1338.187
       106   02 Jun 2027 12:45:06.354   02 Jun 2027 12:45:44.067            37.713              Murmansk1          1178.531
       107   02 Jun 2027 12:45:44.067   02 Jun 2027 12:46:58.289            74.222              Murmansk2          2319.438
       108   02 Jun 2027 12:47:44.724   02 Jun 2027 12:48:08.282            23.558              Murmansk2           736.187
       109   02 Jun 2027 12:49:38.348   02 Jun 2027 12:49:47.243             8.895              Murmansk1           277.969
       110   02 Jun 2027 12:49:58.045   02 Jun 2027 12:50:43.584            45.539              Murmansk2          1423.094
       111   02 Jun 2027 12:53:38.274   02 Jun 2027 12:53:44.693             6.419              Murmansk1           200.594
       112   02 Jun 2027 12:54:03.612   02 Jun 2027 12:54:39.822            36.210              Murmansk2          1131.563
       113   02 Jun 2027 12:58:42.669   02 Jun 2027 13:04:40.153           357.484                Anadyr2         11171.375
       114   02 Jun 2027 13:06:13.682   02 Jun 2027 13:08:14.383           120.701                Anadyr2          3771.906
       115   02 Jun 2027 14:34:20.377   02 Jun 2027 14:35:34.655            74.278                Anadyr1          2321.187
       116   02 Jun 2027 14:37:29.475   02 Jun 2027 14:45:19.832           470.357               Magadan1         14698.656
       117   02 Jun 2027 14:45:19.832   02 Jun 2027 14:46:17.312            57.480               Magadan2          1796.250
       118   02 Jun 2027 16:12:34.954   02 Jun 2027 16:13:40.842            65.888               Magadan2          2059.000
       119   02 Jun 2027 16:15:07.933   02 Jun 2027 16:15:28.869            20.936               Magadan2           654.250
       120   02 Jun 2027 17:06:35.270   02 Jun 2027 17:11:55.741           320.471            RioGallegos         10014.719
       121   02 Jun 2027 17:49:21.603   02 Jun 2027 17:50:00.753            39.150                Norilsk          1223.438
       122   02 Jun 2027 17:53:12.965   02 Jun 2027 17:59:54.626           401.661                Irkutsk         12551.906
       123   02 Jun 2027 18:08:12.438   02 Jun 2027 18:16:44.744           512.306                Sumatra         16009.563
       124   02 Jun 2027 19:31:52.169   02 Jun 2027 19:36:50.461           298.292                Novosib          9321.625
       125   02 Jun 2027 19:38:45.127   02 Jun 2027 19:43:57.799           312.672                  Delhi          9771.000
       126   02 Jun 2027 21:03:00.913   02 Jun 2027 21:08:09.647           308.734              Murmansk2          9647.938
       127   02 Jun 2027 22:41:01.458   02 Jun 2027 22:44:07.464           186.006              Murmansk1          5812.687
       128   02 Jun 2027 22:48:47.053   02 Jun 2027 22:50:12.203            85.150                 Moscow          2660.937
       129   02 Jun 2027 23:08:08.126   02 Jun 2027 23:16:21.809           493.683               CapeTown         15427.594
       130   03 Jun 2027 03:20:30.609   03 Jun 2027 03:21:13.375            42.766               Magadan1          1336.438
       131   03 Jun 2027 03:21:15.528   03 Jun 2027 03:25:24.248           248.720                Anadyr1          7772.500
       132   03 Jun 2027 04:09:48.573   03 Jun 2027 04:10:04.173            15.600            RioGallegos           487.500
       133   03 Jun 2027 04:55:33.395   03 Jun 2027 04:58:24.431           171.036                Irkutsk          5344.875
       134   03 Jun 2027 05:00:00.628   03 Jun 2027 05:00:06.905             6.277                Anadyr2           196.156
       135   03 Jun 2027 05:00:10.773   03 Jun 2027 05:01:47.577            96.804               Magadan1          3025.125
       136   03 Jun 2027 05:01:59.873   03 Jun 2027 05:02:07.387             7.514               Magadan1           234.812
       137   03 Jun 2027 06:40:35.181   03 Jun 2027 06:40:41.797             6.616              Murmansk1           206.750
       138   03 Jun 2027 08:13:49.737   03 Jun 2027 08:13:52.527             2.790                Novosib            87.188
       139   03 Jun 2027 08:20:52.729   03 Jun 2027 08:21:06.690            13.961              Murmansk2           436.281
       140   03 Jun 2027 09:37:40.664   03 Jun 2027 09:39:07.273            86.609                  Delhi          2706.531
       141   03 Jun 2027 09:47:20.994   03 Jun 2027 09:47:40.232            19.238                Novosib           601.188
       142   03 Jun 2027 09:50:12.234   03 Jun 2027 09:50:17.685             5.451                Novosib           170.344
       143   03 Jun 2027 12:54:45.404   03 Jun 2027 12:55:26.727            41.323                 Moscow          1291.344
       144   03 Jun 2027 12:56:00.602   03 Jun 2027 12:56:33.153            32.551                 Moscow          1017.219
       145   03 Jun 2027 12:57:15.977   03 Jun 2027 12:58:04.365            48.388                 Moscow          1512.125
       146   03 Jun 2027 12:58:12.920   03 Jun 2027 12:59:03.363            50.443              Murmansk1          1576.344
       147   03 Jun 2027 12:59:03.363   03 Jun 2027 12:59:34.973            31.610              Murmansk2           987.813
       148   03 Jun 2027 13:00:09.976   03 Jun 2027 13:00:38.876            28.900              Murmansk2           903.125
       149   03 Jun 2027 13:00:38.876   03 Jun 2027 13:01:39.897            61.021              Murmansk1          1906.906
       150   03 Jun 2027 13:06:33.984   03 Jun 2027 13:06:58.980            24.996              Murmansk2           781.125
       151   03 Jun 2027 13:07:20.824   03 Jun 2027 13:07:44.722            23.898              Murmansk2           746.813
       152   03 Jun 2027 13:10:39.254   03 Jun 2027 13:17:01.061           381.807                Anadyr2         11931.469
       153   03 Jun 2027 14:46:21.264   03 Jun 2027 14:47:33.589            72.325                Anadyr2          2260.156
       154   03 Jun 2027 14:47:39.580   03 Jun 2027 14:48:50.954            71.374                Anadyr1          2230.437
       155   03 Jun 2027 14:49:18.029   03 Jun 2027 14:58:56.133           578.104               Magadan1         18065.750
       156   03 Jun 2027 16:24:34.645   03 Jun 2027 16:25:22.939            48.294               Magadan1          1509.188
       157   03 Jun 2027 17:17:52.693   03 Jun 2027 17:25:07.909           435.216            RioGallegos         13600.500
       158   03 Jun 2027 18:02:13.774   03 Jun 2027 18:03:08.741            54.967                Norilsk          1717.719
       159   03 Jun 2027 18:04:54.796   03 Jun 2027 18:12:48.191           473.395                Irkutsk         14793.594
       160   03 Jun 2027 18:19:25.224   03 Jun 2027 18:27:15.401           470.177                Sumatra         14693.031
       161   03 Jun 2027 19:49:35.283   03 Jun 2027 19:57:20.530           465.247                  Delhi         14538.969
       162   03 Jun 2027 21:14:48.256   03 Jun 2027 21:15:03.275            15.019              Murmansk2           469.344
       163   03 Jun 2027 21:15:58.460   03 Jun 2027 21:21:02.565           304.105              Murmansk1          9503.281
       164   03 Jun 2027 22:53:55.248   03 Jun 2027 22:54:11.541            16.293              Murmansk2           509.156
       165   03 Jun 2027 23:19:51.121   03 Jun 2027 23:20:19.109            27.988               CapeTown           874.625
       166   03 Jun 2027 23:21:34.239   03 Jun 2027 23:26:48.074           313.835               CapeTown          9807.344
       167   04 Jun 2027 01:50:44.423   04 Jun 2027 01:50:45.969             1.546               Magadan1            48.312
       168   04 Jun 2027 01:52:16.256   04 Jun 2027 01:52:39.806            23.550               Magadan1           735.937
       169   04 Jun 2027 01:54:43.074   04 Jun 2027 01:55:07.844            24.770               Magadan1           774.063
       170   04 Jun 2027 01:58:57.383   04 Jun 2027 01:59:07.787            10.404               Magadan2           325.125
       171   04 Jun 2027 02:00:04.842   04 Jun 2027 02:00:12.795             7.953               Magadan1           248.531
       172   04 Jun 2027 02:02:03.696   04 Jun 2027 02:03:42.102            98.406              Murmansk2          3075.187
       173   04 Jun 2027 02:05:32.280   04 Jun 2027 02:06:24.821            52.541                 Moscow          1641.906
       174   04 Jun 2027 02:07:03.080   04 Jun 2027 02:07:17.033            13.953                 Moscow           436.031
       175   04 Jun 2027 02:10:13.497   04 Jun 2027 02:10:42.245            28.748                 Moscow           898.375
       176   04 Jun 2027 03:26:56.996   04 Jun 2027 03:27:49.477            52.481               Magadan2          1640.031
       177   04 Jun 2027 03:27:55.026   04 Jun 2027 03:29:02.624            67.598                Anadyr2          2112.438
       178   04 Jun 2027 03:29:55.446   04 Jun 2027 03:30:05.504            10.058                Anadyr2           314.313
       179   04 Jun 2027 03:31:58.731   04 Jun 2027 03:32:24.444            25.713               Magadan1           803.531
       180   04 Jun 2027 03:32:40.594   04 Jun 2027 03:36:56.391           255.797                Anadyr1          7993.656
       181   04 Jun 2027 03:37:33.025   04 Jun 2027 03:37:57.608            24.583                Anadyr1           768.219
       182   04 Jun 2027 04:20:25.238   04 Jun 2027 04:21:16.016            50.778            RioGallegos          1586.813
       183   04 Jun 2027 04:21:59.410   04 Jun 2027 04:22:11.504            12.094            RioGallegos           377.937
       184   04 Jun 2027 05:07:40.815   04 Jun 2027 05:07:56.039            15.224                Irkutsk           475.750
       185   04 Jun 2027 05:08:39.581   04 Jun 2027 05:10:58.283           138.702                Irkutsk          4334.437
       186   04 Jun 2027 05:13:08.086   04 Jun 2027 05:13:09.174             1.088               Magadan1            34.000
       187   04 Jun 2027 05:13:10.432   04 Jun 2027 05:13:37.771            27.339                Irkutsk           854.344
       188   04 Jun 2027 05:13:45.925   04 Jun 2027 05:14:02.403            16.478               Magadan1           514.937
       189   04 Jun 2027 06:46:04.100   04 Jun 2027 06:46:26.744            22.644                Norilsk           707.625
       190   04 Jun 2027 06:49:46.568   04 Jun 2027 06:49:59.645            13.077                Norilsk           408.656
       191   04 Jun 2027 08:04:59.330   04 Jun 2027 08:05:20.727            21.397                Sumatra           668.656
       192   04 Jun 2027 08:25:28.242   04 Jun 2027 08:25:38.993            10.751                Novosib           335.969
       193   04 Jun 2027 09:48:59.029   04 Jun 2027 09:50:51.798           112.769                  Delhi          3524.031
       194   04 Jun 2027 09:52:14.842   04 Jun 2027 09:52:36.117            21.275                  Delhi           664.844
       195   04 Jun 2027 10:01:55.411   04 Jun 2027 10:02:28.830            33.419                Norilsk          1044.344
       196   04 Jun 2027 12:53:25.710   04 Jun 2027 12:54:25.599            59.889               CapeTown          1871.531
       197   04 Jun 2027 13:09:18.635   04 Jun 2027 13:09:54.295            35.660                 Moscow          1114.375
       198   04 Jun 2027 13:10:09.346   04 Jun 2027 13:11:15.301            65.955              Murmansk2          2061.094
       199   04 Jun 2027 13:11:15.301   04 Jun 2027 13:11:45.641            30.340              Murmansk1           948.125
       200   04 Jun 2027 13:12:11.630   04 Jun 2027 13:12:34.937            23.307              Murmansk1           728.344
       201   04 Jun 2027 13:13:41.537   04 Jun 2027 13:14:52.308            70.771              Murmansk2          2211.594
       202   04 Jun 2027 13:22:36.860   04 Jun 2027 13:26:54.229           257.369                Anadyr1          8042.781
       203   04 Jun 2027 13:27:59.627   04 Jun 2027 13:28:04.912             5.285                Anadyr1           165.156
       204   04 Jun 2027 13:29:14.896   04 Jun 2027 13:29:45.637            30.741                Anadyr2           960.656
       205   04 Jun 2027 14:18:17.870   04 Jun 2027 14:18:26.345             8.475               CapeTown           264.844
       206   04 Jun 2027 14:50:26.778   04 Jun 2027 14:52:18.253           111.475              Murmansk2          3483.594
       207   04 Jun 2027 14:58:22.329   04 Jun 2027 14:59:25.779            63.450                Anadyr2          1982.813
       208   04 Jun 2027 14:59:25.779   04 Jun 2027 14:59:33.084             7.305                Anadyr1           228.281
       209   04 Jun 2027 15:00:14.302   04 Jun 2027 15:01:23.332            69.030                Anadyr2          2157.187
       210   04 Jun 2027 15:01:28.712   04 Jun 2027 15:06:54.808           326.096               Magadan1         10190.500
       211   04 Jun 2027 15:08:14.813   04 Jun 2027 15:10:38.681           143.868               Magadan2          4495.875
       212   04 Jun 2027 16:36:34.852   04 Jun 2027 16:38:43.902           129.050               Magadan1          4032.813
       213   04 Jun 2027 17:29:25.128   04 Jun 2027 17:36:16.134           411.006            RioGallegos         12843.937
       214   04 Jun 2027 18:13:08.519   04 Jun 2027 18:15:00.005           111.486                Norilsk          3483.938
       215   04 Jun 2027 18:16:41.274   04 Jun 2027 18:18:29.859           108.585                Irkutsk          3393.281
       216   04 Jun 2027 18:19:58.911   04 Jun 2027 18:22:40.992           162.081                Irkutsk          5065.031
       217   04 Jun 2027 18:31:58.817   04 Jun 2027 18:34:17.667           138.850                Sumatra          4339.062
       218   04 Jun 2027 18:35:16.985   04 Jun 2027 18:37:52.543           155.558                Sumatra          4861.188
       219   04 Jun 2027 19:53:38.982   04 Jun 2027 19:55:00.844            81.862                Novosib          2558.188
       220   04 Jun 2027 20:00:51.931   04 Jun 2027 20:08:42.096           470.165                  Delhi         14692.656
       221   04 Jun 2027 21:26:39.995   04 Jun 2027 21:28:09.832            89.837              Murmansk1          2807.406
       222   04 Jun 2027 21:28:12.113   04 Jun 2027 21:32:27.209           255.096              Murmansk2          7971.750
       223   04 Jun 2027 21:33:34.010   04 Jun 2027 21:33:49.016            15.006              Murmansk1           468.938
       224   04 Jun 2027 23:07:08.142   04 Jun 2027 23:08:06.600            58.458                 Moscow          1826.812
       225   04 Jun 2027 23:12:33.026   04 Jun 2027 23:14:20.275           107.249                 Moscow          3351.531
       226   04 Jun 2027 23:30:49.060   04 Jun 2027 23:31:43.790            54.730               CapeTown          1710.313
       227   04 Jun 2027 23:33:52.671   04 Jun 2027 23:37:45.658           232.987               CapeTown          7280.844
       228   05 Jun 2027 01:05:25.543   05 Jun 2027 01:06:47.230            81.687               CapeTown          2552.719
       229   05 Jun 2027 01:09:22.234   05 Jun 2027 01:10:28.304            66.070               CapeTown          2064.687
       230   05 Jun 2027 02:02:30.095   05 Jun 2027 02:03:43.742            73.647               Magadan2          2301.469
       231   05 Jun 2027 02:07:22.499   05 Jun 2027 02:07:55.325            32.826               Magadan1          1025.813
       232   05 Jun 2027 02:10:37.226   05 Jun 2027 02:10:49.193            11.967               Magadan2           373.969
       233   05 Jun 2027 02:12:20.410   05 Jun 2027 02:12:53.877            33.467                Norilsk          1045.844
       234   05 Jun 2027 02:14:04.265   05 Jun 2027 02:14:20.803            16.538              Murmansk2           516.812
       235   05 Jun 2027 02:14:20.803   05 Jun 2027 02:14:45.298            24.495              Murmansk1           765.469
       236   05 Jun 2027 02:15:36.199   05 Jun 2027 02:15:59.365            23.166              Murmansk1           723.937
       237   05 Jun 2027 02:17:37.913   05 Jun 2027 02:18:22.680            44.767                 Moscow          1398.969
       238   05 Jun 2027 02:19:47.754   05 Jun 2027 02:19:55.915             8.161                 Moscow           255.031
       239   05 Jun 2027 02:21:21.703   05 Jun 2027 02:21:29.675             7.972                 Moscow           249.125
       240   05 Jun 2027 02:21:56.099   05 Jun 2027 02:22:21.606            25.507                 Moscow           797.094
       241   05 Jun 2027 03:38:57.342   05 Jun 2027 03:39:29.307            31.965               Magadan1           998.906
       242   05 Jun 2027 03:39:45.992   05 Jun 2027 03:39:54.396             8.404               Magadan1           262.625
       243   05 Jun 2027 03:40:03.557   05 Jun 2027 03:40:56.190            52.633               Magadan1          1644.781
       244   05 Jun 2027 03:42:19.640   05 Jun 2027 03:42:30.263            10.623                Anadyr1           331.969
       245   05 Jun 2027 03:44:43.395   05 Jun 2027 03:49:34.513           291.118                Anadyr2          9097.438
       246   05 Jun 2027 03:49:34.513   05 Jun 2027 03:49:57.362            22.849                Anadyr1           714.031
       247   05 Jun 2027 03:50:13.342   05 Jun 2027 03:50:23.198             9.856                Anadyr2           308.000
       248   05 Jun 2027 04:30:32.089   05 Jun 2027 04:31:41.626            69.537            RioGallegos          2173.031
       249   05 Jun 2027 05:22:21.233   05 Jun 2027 05:25:31.575           190.342                Irkutsk          5948.187
       250   05 Jun 2027 05:25:39.447   05 Jun 2027 05:26:05.394            25.947                Irkutsk           810.844
       251   05 Jun 2027 07:02:28.184   05 Jun 2027 07:02:37.255             9.071                Novosib           283.469
       252   05 Jun 2027 07:44:57.220   05 Jun 2027 07:44:59.909             2.689            RioGallegos            84.031
       253   05 Jun 2027 08:15:53.727   05 Jun 2027 08:16:23.819            30.092                Sumatra           940.375
       254   05 Jun 2027 08:18:55.723   05 Jun 2027 08:20:03.034            67.311                Sumatra          2103.469
       255   05 Jun 2027 08:37:36.287   05 Jun 2027 08:38:06.148            29.861                Novosib           933.156
       256   05 Jun 2027 09:59:22.898   05 Jun 2027 10:01:18.518           115.620                  Delhi          3613.125
       257   05 Jun 2027 10:04:23.615   05 Jun 2027 10:05:43.819            80.204                  Delhi          2506.375
       258   05 Jun 2027 10:10:37.005   05 Jun 2027 10:10:50.007            13.002                Novosib           406.313
       259   05 Jun 2027 10:14:06.709   05 Jun 2027 10:14:21.747            15.038                Novosib           469.937
       260   05 Jun 2027 12:55:16.503   05 Jun 2027 12:55:47.561            31.058               CapeTown           970.563
       261   05 Jun 2027 13:03:15.771   05 Jun 2027 13:04:22.154            66.383               CapeTown          2074.469
       262   05 Jun 2027 13:20:57.326   05 Jun 2027 13:22:01.042            63.716                 Moscow          1991.125
       263   05 Jun 2027 13:22:15.685   05 Jun 2027 13:24:13.206           117.521              Murmansk1          3672.531
       264   05 Jun 2027 13:25:29.206   05 Jun 2027 13:25:37.338             8.132              Murmansk2           254.125
       265   05 Jun 2027 13:25:43.250   05 Jun 2027 13:25:55.430            12.180              Murmansk1           380.625
       266   05 Jun 2027 13:26:32.496   05 Jun 2027 13:26:41.167             8.671              Murmansk2           270.969
       267   05 Jun 2027 13:28:24.059   05 Jun 2027 13:28:47.454            23.395              Murmansk2           731.094
       268   05 Jun 2027 13:29:43.441   05 Jun 2027 13:30:24.523            41.082              Murmansk1          1283.812
       269   05 Jun 2027 13:34:35.281   05 Jun 2027 13:38:24.477           229.196                Anadyr1          7162.375
       270   05 Jun 2027 13:40:55.664   05 Jun 2027 13:43:11.989           136.325                Anadyr2          4260.156
       271   05 Jun 2027 15:05:53.139   05 Jun 2027 15:06:35.907            42.768              Murmansk2          1336.500
       272   05 Jun 2027 15:10:23.515   05 Jun 2027 15:11:33.035            69.520                Anadyr2          2172.500
       273   05 Jun 2027 15:12:36.734   05 Jun 2027 15:13:10.052            33.318                Anadyr2          1041.187
       274   05 Jun 2027 15:13:57.934   05 Jun 2027 15:14:05.951             8.017                Anadyr1           250.531
       275   05 Jun 2027 15:14:20.712   05 Jun 2027 15:14:48.129            27.417                Anadyr1           856.781
       276   05 Jun 2027 15:14:54.605   05 Jun 2027 15:18:58.920           244.315               Magadan1          7634.844
       277   05 Jun 2027 15:21:25.752   05 Jun 2027 15:22:33.557            67.805               Magadan1          2118.906
       278   05 Jun 2027 16:46:18.483   05 Jun 2027 16:46:53.848            35.365                Anadyr1          1105.156
       279   05 Jun 2027 16:48:35.506   05 Jun 2027 16:49:51.870            76.364               Magadan2          2386.375
       280   05 Jun 2027 16:50:49.004   05 Jun 2027 16:51:53.393            64.389               Magadan1          2012.156
       281   05 Jun 2027 16:52:06.541   05 Jun 2027 16:52:41.382            34.841               Magadan2          1088.781
       282   05 Jun 2027 16:57:31.782   05 Jun 2027 16:57:57.548            25.766               Magadan2           805.188
       283   05 Jun 2027 17:00:58.887   05 Jun 2027 17:01:30.464            31.577               Magadan1           986.781
       284   05 Jun 2027 17:41:05.495   05 Jun 2027 17:47:24.953           379.458            RioGallegos         11858.063
       285   05 Jun 2027 18:24:17.877   05 Jun 2027 18:25:28.531            70.654                Norilsk          2207.938
       286   05 Jun 2027 18:26:32.622   05 Jun 2027 18:28:33.178           120.556                Norilsk          3767.375
       287   05 Jun 2027 18:29:43.581   05 Jun 2027 18:31:45.092           121.511                Irkutsk          3797.219
       288   05 Jun 2027 18:42:26.818   05 Jun 2027 18:44:00.960            94.142                Sumatra          2941.938
       289   05 Jun 2027 18:44:26.117   05 Jun 2027 18:46:14.497           108.380                Sumatra          3386.875
       290   05 Jun 2027 18:47:57.333   05 Jun 2027 18:48:59.565            62.232                Sumatra          1944.750
       291   05 Jun 2027 20:04:13.256   05 Jun 2027 20:05:34.373            81.117                Novosib          2534.906
       292   05 Jun 2027 20:06:05.114   05 Jun 2027 20:07:56.308           111.194                Novosib          3474.812
       293   05 Jun 2027 20:12:21.627   05 Jun 2027 20:12:49.191            27.564                  Delhi           861.375
       294   05 Jun 2027 20:13:48.352   05 Jun 2027 20:19:14.423           326.071                  Delhi         10189.719
       295   05 Jun 2027 21:38:34.431   05 Jun 2027 21:46:30.690           476.259              Murmansk2         14883.094
       296   05 Jun 2027 21:48:21.840   05 Jun 2027 21:48:22.958             1.118                 Moscow            34.938
       297   05 Jun 2027 23:17:40.483   05 Jun 2027 23:18:52.586            72.103                 Moscow          2253.219
       298   05 Jun 2027 23:42:21.328   05 Jun 2027 23:45:51.342           210.014               CapeTown          6562.937
       299   05 Jun 2027 23:47:56.784   05 Jun 2027 23:48:10.279            13.495               CapeTown           421.719
       300   06 Jun 2027 00:50:11.019   06 Jun 2027 00:51:34.754            83.735              Murmansk2          2616.719
       301   06 Jun 2027 00:53:23.855   06 Jun 2027 00:54:31.854            67.999                 Moscow          2124.969
       302   06 Jun 2027 01:02:38.397   06 Jun 2027 01:03:00.460            22.063                 Moscow           689.469
       303   06 Jun 2027 01:17:40.618   06 Jun 2027 01:18:34.999            54.381               CapeTown          1699.406
       304   06 Jun 2027 01:22:01.326   06 Jun 2027 01:22:35.202            33.876               CapeTown          1058.625
       305   06 Jun 2027 01:26:28.979   06 Jun 2027 01:26:44.669            15.690               CapeTown           490.312
       306   06 Jun 2027 02:14:17.823   06 Jun 2027 02:15:36.648            78.825               Magadan1          2463.281
       307   06 Jun 2027 02:15:59.092   06 Jun 2027 02:16:58.712            59.620               Magadan2          1863.125
       308   06 Jun 2027 02:17:58.562   06 Jun 2027 02:18:12.946            14.384               Magadan1           449.500
       309   06 Jun 2027 02:21:26.129   06 Jun 2027 02:21:52.993            26.864               Magadan1           839.500
       310   06 Jun 2027 02:22:12.138   06 Jun 2027 02:22:22.125             9.987                Norilsk           312.094
       311   06 Jun 2027 02:24:48.563   06 Jun 2027 02:24:56.192             7.629                Norilsk           238.406
       312   06 Jun 2027 02:26:04.566   06 Jun 2027 02:26:46.377            41.811              Murmansk2          1306.594
       313   06 Jun 2027 02:27:35.319   06 Jun 2027 02:28:29.678            54.359              Murmansk1          1698.719
       314   06 Jun 2027 02:29:44.156   06 Jun 2027 02:30:31.363            47.207                 Moscow          1475.219
       315   06 Jun 2027 02:32:55.606   06 Jun 2027 02:33:02.085             6.479                 Moscow           202.469
       316   06 Jun 2027 02:33:10.911   06 Jun 2027 02:33:53.857            42.946                 Moscow          1342.063
       317   06 Jun 2027 02:39:23.588   06 Jun 2027 02:39:24.192             0.604                 Moscow            18.875
       318   06 Jun 2027 03:10:01.038   06 Jun 2027 03:10:15.273            14.235            RioGallegos           444.844
       319   06 Jun 2027 03:56:41.008   06 Jun 2027 03:56:43.314             2.306               Magadan2            72.062
       320   06 Jun 2027 03:56:45.671   06 Jun 2027 03:59:21.714           156.043                Anadyr2          4876.344
       321   06 Jun 2027 03:59:21.714   06 Jun 2027 04:01:46.309           144.595                Anadyr1          4518.594
       322   06 Jun 2027 04:02:20.402   06 Jun 2027 04:02:27.183             6.781                Anadyr1           211.906
       323   06 Jun 2027 04:41:25.353   06 Jun 2027 04:43:08.286           102.933            RioGallegos          3216.656
       324   06 Jun 2027 05:34:00.159   06 Jun 2027 05:35:14.404            74.245               Magadan2          2320.156
       325   06 Jun 2027 05:35:22.308   06 Jun 2027 05:37:46.913           144.605               Magadan2          4518.906
       326   06 Jun 2027 07:12:08.043   06 Jun 2027 07:12:13.776             5.733                Irkutsk           179.156
       327   06 Jun 2027 07:12:23.013   06 Jun 2027 07:12:45.718            22.705                Irkutsk           709.531
       328   06 Jun 2027 07:14:03.125   06 Jun 2027 07:14:29.918            26.793                Norilsk           837.281
       329   06 Jun 2027 07:56:22.101   06 Jun 2027 07:57:08.532            46.431            RioGallegos          1450.969
       330   06 Jun 2027 08:33:20.226   06 Jun 2027 08:34:29.113            68.887                Sumatra          2152.719
       331   06 Jun 2027 08:48:11.553   06 Jun 2027 08:48:37.900            26.347                Norilsk           823.344
       332   06 Jun 2027 08:49:13.238   06 Jun 2027 08:49:29.831            16.593                Norilsk           518.531
       333   06 Jun 2027 08:50:07.942   06 Jun 2027 08:50:11.966             4.024                Novosib           125.750
       334   06 Jun 2027 10:10:28.930   06 Jun 2027 10:13:32.971           184.041                  Delhi          5751.281
       335   06 Jun 2027 10:29:50.569   06 Jun 2027 10:30:09.918            19.349                Norilsk           604.656
       336   06 Jun 2027 12:11:29.723   06 Jun 2027 12:15:20.817           231.094                Anadyr2          7221.687
       337   06 Jun 2027 12:17:04.619   06 Jun 2027 12:18:28.162            83.543                Anadyr2          2610.719
       338   06 Jun 2027 13:34:07.140   06 Jun 2027 13:34:11.367             4.227                 Moscow           132.094
       339   06 Jun 2027 13:34:43.690   06 Jun 2027 13:34:59.698            16.008              Murmansk2           500.250
       340   06 Jun 2027 13:34:59.698   06 Jun 2027 13:36:13.195            73.497              Murmansk1          2296.781
       341   06 Jun 2027 13:37:44.786   06 Jun 2027 13:37:50.830             6.044              Murmansk2           188.875
       342   06 Jun 2027 13:38:27.801   06 Jun 2027 13:39:03.507            35.706              Murmansk1          1115.812
       343   06 Jun 2027 13:40:24.890   06 Jun 2027 13:40:34.926            10.036              Murmansk2           313.625
       344   06 Jun 2027 13:40:56.345   06 Jun 2027 13:41:04.757             8.412              Murmansk1           262.875
       345   06 Jun 2027 13:41:38.513   06 Jun 2027 13:41:45.125             6.612              Murmansk1           206.625
       346   06 Jun 2027 13:41:45.125   06 Jun 2027 13:42:20.838            35.713              Murmansk2          1116.031
       347   06 Jun 2027 13:43:52.461   06 Jun 2027 13:44:17.535            25.074              Murmansk2           783.562
       348   06 Jun 2027 13:46:34.354   06 Jun 2027 13:48:35.190           120.836                Anadyr1          3776.125
       349   06 Jun 2027 13:48:43.058   06 Jun 2027 13:49:04.544            21.486                Anadyr1           671.437
       350   06 Jun 2027 13:50:27.448   06 Jun 2027 13:50:54.820            27.372                Anadyr1           855.375
       351   06 Jun 2027 13:52:22.127   06 Jun 2027 13:53:37.208            75.081               Magadan1          2346.281
       352   06 Jun 2027 15:16:49.482   06 Jun 2027 15:17:30.951            41.469              Murmansk2          1295.906
       353   06 Jun 2027 15:17:34.778   06 Jun 2027 15:17:36.730             1.952              Murmansk1            61.000
       354   06 Jun 2027 15:18:31.485   06 Jun 2027 15:18:56.066            24.581              Murmansk2           768.156
       355   06 Jun 2027 15:22:24.799   06 Jun 2027 15:24:13.020           108.221                Anadyr1          3381.906
       356   06 Jun 2027 15:24:58.164   06 Jun 2027 15:30:32.841           334.677               Magadan2         10458.656
       357   06 Jun 2027 15:31:57.324   06 Jun 2027 15:33:28.097            90.773               Magadan1          2836.656
       358   06 Jun 2027 17:00:36.536   06 Jun 2027 17:01:50.039            73.503               Magadan1          2296.969
       359   06 Jun 2027 17:03:18.407   06 Jun 2027 17:03:56.317            37.910               Magadan2          1184.687
       360   06 Jun 2027 17:04:13.395   06 Jun 2027 17:04:56.723            43.328                Norilsk          1354.000
       361   06 Jun 2027 17:52:50.945   06 Jun 2027 17:56:06.479           195.534            RioGallegos          6110.438
       362   06 Jun 2027 17:56:36.595   06 Jun 2027 17:56:44.648             8.053            RioGallegos           251.656
       363   06 Jun 2027 17:56:46.997   06 Jun 2027 17:58:53.767           126.770            RioGallegos          3961.562
       364   06 Jun 2027 18:37:46.528   06 Jun 2027 18:40:11.519           144.991                Norilsk          4530.969
       365   06 Jun 2027 18:40:23.436   06 Jun 2027 18:42:40.679           137.243                Irkutsk          4288.844
       366   06 Jun 2027 18:44:02.714   06 Jun 2027 18:47:12.611           189.897                Novosib          5934.281
       367   06 Jun 2027 18:54:09.841   06 Jun 2027 18:55:43.910            94.069                Sumatra          2939.656
       368   06 Jun 2027 18:56:44.982   06 Jun 2027 18:57:53.095            68.113                Sumatra          2128.531
       369   06 Jun 2027 20:17:18.272   06 Jun 2027 20:18:26.854            68.582                Novosib          2143.188
       370   06 Jun 2027 20:23:32.183   06 Jun 2027 20:24:52.849            80.666                Novosib          2520.812
       371   06 Jun 2027 20:25:26.201   06 Jun 2027 20:30:24.954           298.753                  Delhi          9336.031
       372   06 Jun 2027 21:50:30.697   06 Jun 2027 21:56:03.142           332.445              Murmansk2         10388.906
       373   06 Jun 2027 21:56:53.340   06 Jun 2027 21:59:08.476           135.136              Murmansk1          4223.000
       374   06 Jun 2027 22:00:33.024   06 Jun 2027 22:01:46.088            73.064                 Moscow          2283.250
       375   06 Jun 2027 23:29:37.186   06 Jun 2027 23:30:34.398            57.212                 Moscow          1787.875
       376   06 Jun 2027 23:30:54.759   06 Jun 2027 23:32:05.920            71.161                 Moscow          2223.781
       377   06 Jun 2027 23:53:59.811   06 Jun 2027 23:55:48.650           108.839               CapeTown          3401.219
       378   06 Jun 2027 23:57:21.039   06 Jun 2027 23:58:38.390            77.351               CapeTown          2417.219
       379   07 Jun 2027 01:02:12.569   07 Jun 2027 01:03:05.856            53.287              Murmansk2          1665.219
       380   07 Jun 2027 01:04:39.505   07 Jun 2027 01:05:33.120            53.615              Murmansk1          1675.469
       381   07 Jun 2027 01:05:45.771   07 Jun 2027 01:06:09.910            24.139                 Moscow           754.344
       382   07 Jun 2027 01:09:27.792   07 Jun 2027 01:09:58.840            31.048                 Moscow           970.250
       383   07 Jun 2027 01:13:31.448   07 Jun 2027 01:13:59.810            28.362                 Moscow           886.313
       384   07 Jun 2027 01:30:02.065   07 Jun 2027 01:31:25.370            83.305               CapeTown          2603.281
       385   07 Jun 2027 02:26:07.658   07 Jun 2027 02:28:37.118           149.460               Magadan1          4670.625
       386   07 Jun 2027 02:29:16.078   07 Jun 2027 02:29:33.000            16.922               Magadan2           528.812
       387   07 Jun 2027 02:30:01.292   07 Jun 2027 02:30:10.086             8.794               Magadan1           274.812
       388   07 Jun 2027 02:30:52.960   07 Jun 2027 02:31:18.300            25.340               Magadan1           791.875
       389   07 Jun 2027 02:33:19.536   07 Jun 2027 02:33:27.862             8.326               Magadan2           260.187
       390   07 Jun 2027 02:34:51.074   07 Jun 2027 02:34:57.398             6.324                Norilsk           197.625
       391   07 Jun 2027 02:35:52.618   07 Jun 2027 02:35:58.134             5.516                Norilsk           172.375
       392   07 Jun 2027 02:37:29.184   07 Jun 2027 02:37:43.154            13.970                Norilsk           436.563
       393   07 Jun 2027 02:37:54.324   07 Jun 2027 02:38:02.414             8.090                Norilsk           252.813
       394   07 Jun 2027 02:38:04.568   07 Jun 2027 02:38:47.719            43.151              Murmansk1          1348.469
       395   07 Jun 2027 02:39:13.475   07 Jun 2027 02:39:47.326            33.851              Murmansk1          1057.844
       396   07 Jun 2027 02:41:51.120   07 Jun 2027 02:43:06.675            75.555                 Moscow          2361.094
       397   07 Jun 2027 02:48:54.507   07 Jun 2027 02:49:39.800            45.293                 Moscow          1415.406
       398   07 Jun 2027 03:19:51.978   07 Jun 2027 03:20:31.365            39.387            RioGallegos          1230.844
       399   07 Jun 2027 03:21:18.231   07 Jun 2027 03:21:54.767            36.536            RioGallegos          1141.750
       400   07 Jun 2027 03:22:35.040   07 Jun 2027 03:23:49.994            74.954            RioGallegos          2342.313
       401   07 Jun 2027 04:06:58.972   07 Jun 2027 04:07:28.430            29.458               Magadan1           920.563
       402   07 Jun 2027 04:07:47.193   07 Jun 2027 04:08:19.962            32.769                Irkutsk          1024.031
       403   07 Jun 2027 04:08:29.978   07 Jun 2027 04:12:31.542           241.564                Anadyr2          7548.875
       404   07 Jun 2027 04:12:31.542   07 Jun 2027 04:13:37.371            65.829                Anadyr1          2057.156
       405   07 Jun 2027 04:50:21.342   07 Jun 2027 04:52:08.233           106.891            RioGallegos          3340.344
       406   07 Jun 2027 04:53:00.012   07 Jun 2027 04:53:10.640            10.628            RioGallegos           332.125
       407   07 Jun 2027 04:53:48.896   07 Jun 2027 04:54:21.456            32.560            RioGallegos          1017.500
       408   07 Jun 2027 05:45:23.446   07 Jun 2027 05:49:14.875           231.429               Magadan1          7232.156
       409   07 Jun 2027 05:49:14.875   07 Jun 2027 05:49:22.551             7.676               Magadan2           239.875
       410   07 Jun 2027 05:49:23.166   07 Jun 2027 05:49:32.846             9.680               Magadan2           302.500
       411   07 Jun 2027 05:49:40.232   07 Jun 2027 05:50:15.581            35.349                Irkutsk          1104.656
       412   07 Jun 2027 07:26:08.197   07 Jun 2027 07:26:32.109            23.912                Novosib           747.250
       413   07 Jun 2027 08:06:49.021   07 Jun 2027 08:07:24.861            35.840            RioGallegos          1120.000
       414   07 Jun 2027 08:11:10.935   07 Jun 2027 08:12:09.845            58.910            RioGallegos          1840.937
       415   07 Jun 2027 08:43:32.198   07 Jun 2027 08:45:26.634           114.436                Sumatra          3576.125
       416   07 Jun 2027 09:01:48.512   07 Jun 2027 09:02:03.815            15.303                Norilsk           478.219
       417   07 Jun 2027 10:23:45.323   07 Jun 2027 10:26:21.539           156.216                  Delhi          4881.750
       418   07 Jun 2027 10:40:33.156   07 Jun 2027 10:40:49.749            16.593                Norilsk           518.531
       419   07 Jun 2027 12:20:06.397   07 Jun 2027 12:20:48.644            42.247              Murmansk2          1320.219
       420   07 Jun 2027 12:23:17.325   07 Jun 2027 12:31:15.133           477.808                Anadyr2         14931.500
       421   07 Jun 2027 13:47:14.415   07 Jun 2027 13:48:15.982            61.567              Murmansk2          1923.969
       422   07 Jun 2027 13:55:27.402   07 Jun 2027 13:55:41.432            14.030              Murmansk1           438.438
       423   07 Jun 2027 13:55:41.432   07 Jun 2027 13:55:49.507             8.075              Murmansk2           252.344
       424   07 Jun 2027 13:56:23.716   07 Jun 2027 13:56:37.127            13.411              Murmansk2           419.094
       425   07 Jun 2027 13:58:33.961   07 Jun 2027 14:02:27.792           233.831                Anadyr2          7307.219
       426   07 Jun 2027 14:02:56.300   07 Jun 2027 14:07:41.662           285.362               Magadan1          8917.563
       427   07 Jun 2027 15:36:54.627   07 Jun 2027 15:39:20.609           145.982               Magadan2          4561.937
       428   07 Jun 2027 15:41:09.738   07 Jun 2027 15:42:25.379            75.641               Magadan2          2363.781
       429   07 Jun 2027 15:43:12.242   07 Jun 2027 15:43:54.138            41.896               Magadan2          1309.250
       430   07 Jun 2027 17:10:19.543   07 Jun 2027 17:10:44.677            25.134                Anadyr2           785.437
       431   07 Jun 2027 17:12:11.448   07 Jun 2027 17:12:31.313            19.865                Anadyr1           620.781
       432   07 Jun 2027 17:12:37.890   07 Jun 2027 17:14:25.540           107.650               Magadan2          3364.062
       433   07 Jun 2027 17:14:39.959   07 Jun 2027 17:16:14.405            94.446                Norilsk          2951.437
       434   07 Jun 2027 17:19:46.105   07 Jun 2027 17:22:23.704           157.599                Irkutsk          4924.969
       435   07 Jun 2027 18:05:46.957   07 Jun 2027 18:06:44.498            57.541            RioGallegos          1798.156
       436   07 Jun 2027 18:12:43.490   07 Jun 2027 18:13:08.162            24.672            RioGallegos           771.000
       437   07 Jun 2027 18:14:07.795   07 Jun 2027 18:15:07.570            59.775            RioGallegos          1867.969
       438   07 Jun 2027 18:48:11.767   07 Jun 2027 18:49:31.106            79.339                Norilsk          2479.344
       439   07 Jun 2027 18:52:17.787   07 Jun 2027 18:54:35.129           137.342                Irkutsk          4291.937
       440   07 Jun 2027 18:55:01.505   07 Jun 2027 18:56:04.133            62.628                Irkutsk          1957.125
       441   07 Jun 2027 18:56:04.531   07 Jun 2027 19:00:29.020           264.489                Novosib          8265.281
       442   07 Jun 2027 19:16:27.603   07 Jun 2027 19:17:43.397            75.794                Sumatra          2368.562
       443   07 Jun 2027 20:29:32.989   07 Jun 2027 20:29:54.758            21.769                Novosib           680.281
       444   07 Jun 2027 20:32:02.847   07 Jun 2027 20:32:06.819             3.972                Novosib           124.125
       445   07 Jun 2027 20:32:23.022   07 Jun 2027 20:32:33.571            10.549                Novosib           329.656
       446   07 Jun 2027 20:33:20.106   07 Jun 2027 20:33:35.900            15.794                Novosib           493.563
       447   07 Jun 2027 20:34:41.703   07 Jun 2027 20:35:18.256            36.553                Novosib          1142.281
       448   07 Jun 2027 20:35:43.960   07 Jun 2027 20:39:43.005           239.045                  Delhi          7470.156
       449   07 Jun 2027 22:02:28.266   07 Jun 2027 22:09:06.901           398.635              Murmansk2         12457.344
       450   07 Jun 2027 22:09:07.325   07 Jun 2027 22:11:42.894           155.569              Murmansk2          4861.531
       451   07 Jun 2027 22:12:22.976   07 Jun 2027 22:14:06.530           103.554                 Moscow          3236.062
       452   07 Jun 2027 23:41:35.019   07 Jun 2027 23:43:35.235           120.216                 Moscow          3756.750
       453   08 Jun 2027 00:05:43.879   08 Jun 2027 00:07:41.814           117.935               CapeTown          3685.469
       454   08 Jun 2027 00:08:26.680   08 Jun 2027 00:09:36.638            69.958               CapeTown          2186.188
       455   08 Jun 2027 01:14:14.024   08 Jun 2027 01:14:52.942            38.918              Murmansk2          1216.188
       456   08 Jun 2027 01:15:12.563   08 Jun 2027 01:16:33.910            81.347              Murmansk1          2542.094
       457   08 Jun 2027 01:17:29.636   08 Jun 2027 01:18:04.571            34.935                 Moscow          1091.719
       458   08 Jun 2027 01:22:03.547   08 Jun 2027 01:22:14.749            11.202                 Moscow           350.062
       459   08 Jun 2027 01:22:46.740   08 Jun 2027 01:23:52.050            65.310                 Moscow          2040.937
       460   08 Jun 2027 01:46:10.258   08 Jun 2027 01:46:22.717            12.459               CapeTown           389.344
       461   08 Jun 2027 01:46:38.976   08 Jun 2027 01:46:56.117            17.141               CapeTown           535.656
       462   08 Jun 2027 01:49:56.537   08 Jun 2027 01:50:05.809             9.272               CapeTown           289.750
       463   08 Jun 2027 01:51:36.330   08 Jun 2027 01:51:45.634             9.304               CapeTown           290.750
       464   08 Jun 2027 02:37:59.657   08 Jun 2027 02:40:53.288           173.631               Magadan2          5425.969
       465   08 Jun 2027 02:41:31.738   08 Jun 2027 02:42:04.020            32.282               Magadan2          1008.813
       466   08 Jun 2027 02:45:16.805   08 Jun 2027 02:45:29.338            12.533               Magadan1           391.656
       467   08 Jun 2027 02:46:17.211   08 Jun 2027 02:46:34.922            17.711                Norilsk           553.469
       468   08 Jun 2027 02:47:12.400   08 Jun 2027 02:47:46.798            34.398                Norilsk          1074.937
       469   08 Jun 2027 02:50:04.240   08 Jun 2027 02:51:57.488           113.248              Murmansk1          3539.000
       470   08 Jun 2027 02:56:38.742   08 Jun 2027 02:56:41.392             2.650                 Moscow            82.813
       471   08 Jun 2027 02:56:45.182   08 Jun 2027 02:56:52.425             7.243                 Moscow           226.344
       472   08 Jun 2027 02:59:49.961   08 Jun 2027 03:00:04.850            14.889                 Moscow           465.281
       473   08 Jun 2027 03:30:46.645   08 Jun 2027 03:32:55.726           129.081            RioGallegos          4033.781
       474   08 Jun 2027 03:33:39.675   08 Jun 2027 03:33:51.969            12.294            RioGallegos           384.188
       475   08 Jun 2027 03:34:08.527   08 Jun 2027 03:35:29.142            80.615            RioGallegos          2519.219
       476   08 Jun 2027 04:18:31.697   08 Jun 2027 04:19:56.711            85.014                Anadyr2          2656.688
       477   08 Jun 2027 04:20:15.351   08 Jun 2027 04:21:48.488            93.137                Anadyr1          2910.531
       478   08 Jun 2027 04:21:48.656   08 Jun 2027 04:22:20.603            31.947                Irkutsk           998.344
       479   08 Jun 2027 04:22:25.365   08 Jun 2027 04:23:24.355            58.990                Anadyr1          1843.438
       480   08 Jun 2027 04:23:24.355   08 Jun 2027 04:23:27.635             3.280                Anadyr2           102.500
       481   08 Jun 2027 04:23:37.324   08 Jun 2027 04:25:14.541            97.217               Magadan2          3038.031
       482   08 Jun 2027 04:25:38.658   08 Jun 2027 04:26:12.015            33.357                Anadyr1          1042.406
