uniorb/output/strategy_4/Drop/Drop_KinoSat_110903.txt

KinoSat_110903
-------------------------
    Access    *     Start Time (UTCG)     *     Stop Time (UTCG)  *   Duration (s)        *       Station  *  Data (Mbytes)
         1   01 Jun 2027 03:51:54.597   01 Jun 2027 03:52:00.395             5.798                Anadyr2           181.188
         2   01 Jun 2027 03:52:09.983   01 Jun 2027 03:52:50.263            40.280               Magadan2          1258.750
         3   01 Jun 2027 03:52:50.263   01 Jun 2027 03:53:12.813            22.550               Magadan1           704.687
         4   01 Jun 2027 03:53:21.228   01 Jun 2027 03:55:11.665           110.437                Anadyr2          3451.156
         5   01 Jun 2027 03:55:11.665   01 Jun 2027 03:55:41.456            29.791                Anadyr1           930.969
         6   01 Jun 2027 03:56:36.886   01 Jun 2027 03:56:38.112             1.226               Magadan1            38.312
         7   01 Jun 2027 03:56:52.465   01 Jun 2027 03:56:59.315             6.850               Magadan1           214.062
         8   01 Jun 2027 05:28:53.154   01 Jun 2027 05:30:01.428            68.274                Irkutsk          2133.563
         9   01 Jun 2027 05:30:04.473   01 Jun 2027 05:31:02.602            58.129                Irkutsk          1816.531
        10   01 Jun 2027 05:31:22.350   01 Jun 2027 05:31:32.511            10.161               Magadan1           317.531
        11   01 Jun 2027 05:32:28.012   01 Jun 2027 05:32:56.463            28.451               Magadan1           889.094
        12   01 Jun 2027 06:09:18.073   01 Jun 2027 06:10:22.738            64.665            RioGallegos          2020.781
        13   01 Jun 2027 07:03:59.610   01 Jun 2027 07:05:27.386            87.776                Irkutsk          2743.000
        14   01 Jun 2027 07:05:27.894   01 Jun 2027 07:08:11.282           163.388               Magadan2          5105.875
        15   01 Jun 2027 07:08:24.031   01 Jun 2027 07:10:22.778           118.747                Norilsk          3710.844
        16   01 Jun 2027 07:10:28.778   01 Jun 2027 07:11:36.794            68.016              Murmansk1          2125.500
        17   01 Jun 2027 07:11:56.894   01 Jun 2027 07:12:49.018            52.124              Murmansk2          1628.875
        18   01 Jun 2027 07:44:50.589   01 Jun 2027 07:45:28.930            38.341            RioGallegos          1198.156
        19   01 Jun 2027 08:18:48.428   01 Jun 2027 08:20:54.877           126.449                Sumatra          3951.531
        20   01 Jun 2027 08:39:55.471   01 Jun 2027 08:40:34.416            38.945                Novosib          1217.031
        21   01 Jun 2027 08:40:41.265   01 Jun 2027 08:40:51.699            10.434                Irkutsk           326.063
        22   01 Jun 2027 08:40:59.015   01 Jun 2027 08:41:32.458            33.443                Novosib          1045.094
        23   01 Jun 2027 08:41:33.013   01 Jun 2027 08:41:47.441            14.428                Irkutsk           450.875
        24   01 Jun 2027 08:41:52.612   01 Jun 2027 08:42:03.155            10.543                Novosib           329.469
        25   01 Jun 2027 08:42:17.873   01 Jun 2027 08:43:47.827            89.954                Norilsk          2811.062
        26   01 Jun 2027 08:43:53.971   01 Jun 2027 08:44:22.662            28.691              Murmansk2           896.594
        27   01 Jun 2027 08:44:22.662   01 Jun 2027 08:44:35.548            12.886              Murmansk1           402.687
        28   01 Jun 2027 08:44:55.553   01 Jun 2027 08:45:01.191             5.638              Murmansk1           176.187
        29   01 Jun 2027 08:45:01.191   01 Jun 2027 08:45:56.269            55.078              Murmansk2          1721.188
        30   01 Jun 2027 09:21:06.263   01 Jun 2027 09:21:14.439             8.176            RioGallegos           255.500
        31   01 Jun 2027 09:55:18.026   01 Jun 2027 09:55:52.532            34.506                Sumatra          1078.312
        32   01 Jun 2027 09:57:41.243   01 Jun 2027 09:58:36.372            55.129                Sumatra          1722.781
        33   01 Jun 2027 10:02:34.222   01 Jun 2027 10:05:36.251           182.029                  Delhi          5688.406
        34   01 Jun 2027 10:17:12.184   01 Jun 2027 10:18:21.160            68.976                Irkutsk          2155.500
        35   01 Jun 2027 10:19:28.129   01 Jun 2027 10:20:10.963            42.834                Norilsk          1338.562
        36   01 Jun 2027 10:20:26.081   01 Jun 2027 10:20:59.696            33.615                Novosib          1050.469
        37   01 Jun 2027 10:21:05.045   01 Jun 2027 10:21:36.814            31.769                Norilsk           992.781
        38   01 Jun 2027 11:40:35.043   01 Jun 2027 11:40:54.130            19.087                  Delhi           596.469
        39   01 Jun 2027 11:42:15.330   01 Jun 2027 11:44:12.218           116.888                  Delhi          3652.750
        40   01 Jun 2027 11:53:36.975   01 Jun 2027 11:56:31.594           174.619                Novosib          5456.844
        41   01 Jun 2027 11:56:36.312   01 Jun 2027 11:57:37.058            60.746                 Moscow          1898.312
        42   01 Jun 2027 11:58:24.257   01 Jun 2027 11:58:43.379            19.122                 Moscow           597.563
        43   01 Jun 2027 12:01:55.234   01 Jun 2027 12:02:20.857            25.623              Murmansk2           800.719
        44   01 Jun 2027 13:04:15.902   01 Jun 2027 13:07:20.335           184.433               CapeTown          5763.531
        45   01 Jun 2027 13:07:48.343   01 Jun 2027 13:08:23.649            35.306               CapeTown          1103.313
        46   01 Jun 2027 13:23:11.432   01 Jun 2027 13:24:28.482            77.050                 Moscow          2407.813
        47   01 Jun 2027 13:26:40.155   01 Jun 2027 13:28:39.179           119.024              Murmansk1          3719.500
        48   01 Jun 2027 13:29:29.582   01 Jun 2027 13:30:15.843            46.261              Murmansk2          1445.656
        49   01 Jun 2027 13:31:16.190   01 Jun 2027 13:32:04.869            48.679              Murmansk2          1521.219
        50   01 Jun 2027 13:32:31.617   01 Jun 2027 13:33:13.735            42.118              Murmansk1          1316.188
        51   01 Jun 2027 13:33:13.735   01 Jun 2027 13:33:39.518            25.783              Murmansk2           805.719
        52   01 Jun 2027 13:33:41.477   01 Jun 2027 13:34:45.017            63.540              Murmansk1          1985.625
        53   01 Jun 2027 13:35:25.177   01 Jun 2027 13:35:31.900             6.723                 Moscow           210.094
        54   01 Jun 2027 13:35:55.017   01 Jun 2027 13:36:24.106            29.089              Murmansk2           909.031
        55   01 Jun 2027 13:36:47.118   01 Jun 2027 13:37:51.916            64.798              Murmansk1          2024.937
        56   01 Jun 2027 13:37:51.916   01 Jun 2027 13:38:15.409            23.493              Murmansk2           734.156
        57   01 Jun 2027 13:38:32.659   01 Jun 2027 13:39:04.543            31.884              Murmansk1           996.375
        58   01 Jun 2027 13:39:04.543   01 Jun 2027 13:39:11.775             7.232              Murmansk2           226.000
        59   01 Jun 2027 13:41:59.306   01 Jun 2027 13:43:04.564            65.258                Anadyr1          2039.312
        60   01 Jun 2027 13:43:04.564   01 Jun 2027 13:45:58.132           173.568                Anadyr2          5424.000
        61   01 Jun 2027 13:46:30.431   01 Jun 2027 13:47:54.340            83.909                Anadyr2          2622.156
        62   01 Jun 2027 13:48:21.929   01 Jun 2027 13:48:28.927             6.998                Anadyr2           218.688
        63   01 Jun 2027 15:09:11.100   01 Jun 2027 15:09:48.445            37.345              Murmansk2          1167.031
        64   01 Jun 2027 15:10:02.954   01 Jun 2027 15:10:23.644            20.690              Murmansk1           646.563
        65   01 Jun 2027 15:10:31.958   01 Jun 2027 15:11:08.122            36.164              Murmansk2          1130.125
        66   01 Jun 2027 15:12:24.634   01 Jun 2027 15:12:59.380            34.746              Murmansk1          1085.813
        67   01 Jun 2027 15:12:59.380   01 Jun 2027 15:13:19.796            20.416              Murmansk2           638.000
        68   01 Jun 2027 15:13:44.151   01 Jun 2027 15:14:53.291            69.140              Murmansk2          2160.625
        69   01 Jun 2027 15:18:52.672   01 Jun 2027 15:19:12.046            19.374                Anadyr1           605.437
        70   01 Jun 2027 15:19:51.738   01 Jun 2027 15:20:25.448            33.710                Anadyr2          1053.437
        71   01 Jun 2027 15:20:25.448   01 Jun 2027 15:21:00.354            34.906                Anadyr1          1090.812
        72   01 Jun 2027 15:22:40.717   01 Jun 2027 15:23:12.246            31.529                Anadyr2           985.281
        73   01 Jun 2027 15:23:30.432   01 Jun 2027 15:23:43.919            13.487                Anadyr1           421.469
        74   01 Jun 2027 15:24:16.400   01 Jun 2027 15:24:56.385            39.985                Anadyr2          1249.531
        75   01 Jun 2027 15:27:42.124   01 Jun 2027 15:28:22.081            39.957                Anadyr2          1248.656
        76   01 Jun 2027 16:46:41.106   01 Jun 2027 16:48:49.449           128.343              Murmansk2          4010.719
        77   01 Jun 2027 16:52:49.428   01 Jun 2027 16:53:44.755            55.327                Anadyr2          1728.969
        78   01 Jun 2027 16:54:07.171   01 Jun 2027 16:54:32.274            25.103                Anadyr1           784.469
        79   01 Jun 2027 16:55:24.440   01 Jun 2027 16:57:50.344           145.904               Magadan2          4559.500
        80   01 Jun 2027 16:59:29.306   01 Jun 2027 17:00:07.923            38.617               Magadan2          1206.781
        81   01 Jun 2027 17:02:19.643   01 Jun 2027 17:02:29.074             9.431               Magadan1           294.719
        82   01 Jun 2027 17:02:29.074   01 Jun 2027 17:03:47.660            78.586               Magadan2          2455.813
        83   01 Jun 2027 18:28:44.152   01 Jun 2027 18:30:27.189           103.037                Anadyr1          3219.906
        84   01 Jun 2027 18:30:48.219   01 Jun 2027 18:32:24.498            96.279                Anadyr2          3008.719
        85   01 Jun 2027 18:32:30.413   01 Jun 2027 18:33:33.675            63.262               Magadan2          1976.937
        86   01 Jun 2027 18:33:36.920   01 Jun 2027 18:34:59.926            83.006                Norilsk          2593.937
        87   01 Jun 2027 19:23:20.060   01 Jun 2027 19:25:53.687           153.627            RioGallegos          4800.844
        88   01 Jun 2027 19:26:54.760   01 Jun 2027 19:27:49.670            54.910            RioGallegos          1715.938
        89   01 Jun 2027 20:04:22.356   01 Jun 2027 20:04:35.193            12.837                Anadyr2           401.156
        90   01 Jun 2027 20:06:36.052   01 Jun 2027 20:08:31.123           115.071                Norilsk          3595.969
        91   01 Jun 2027 20:09:23.248   01 Jun 2027 20:09:55.976            32.728               Magadan2          1022.750
        92   01 Jun 2027 20:10:50.588   01 Jun 2027 20:12:29.323            98.735                Irkutsk          3085.469
        93   01 Jun 2027 20:13:06.185   01 Jun 2027 20:13:43.963            37.778                Irkutsk          1180.562
        94   01 Jun 2027 20:14:01.950   01 Jun 2027 20:17:04.797           182.847                Novosib          5713.969
        95   01 Jun 2027 20:27:04.627   01 Jun 2027 20:28:20.546            75.919                Sumatra          2372.469
        96   01 Jun 2027 20:36:08.964   01 Jun 2027 20:36:51.006            42.042                Sumatra          1313.813
        97   01 Jun 2027 21:43:08.743   01 Jun 2027 21:43:40.519            31.776               Magadan2           993.000
        98   01 Jun 2027 21:44:33.519   01 Jun 2027 21:45:34.253            60.734               Magadan2          1897.938
        99   01 Jun 2027 21:46:23.037   01 Jun 2027 21:46:39.029            15.992                Irkutsk           499.750
       100   01 Jun 2027 21:46:52.414   01 Jun 2027 21:46:56.600             4.186                Novosib           130.812
       101   01 Jun 2027 21:48:09.369   01 Jun 2027 21:48:45.347            35.978                Novosib          1124.312
       102   01 Jun 2027 21:49:27.920   01 Jun 2027 21:50:28.309            60.389                Novosib          1887.156
       103   01 Jun 2027 21:54:31.068   01 Jun 2027 21:56:53.718           142.650                  Delhi          4457.813
       104   01 Jun 2027 21:59:48.741   01 Jun 2027 22:00:02.259            13.518                  Delhi           422.437
       105   01 Jun 2027 22:00:46.725   01 Jun 2027 22:01:57.821            71.096                  Delhi          2221.750
       106   01 Jun 2027 23:15:30.434   01 Jun 2027 23:15:35.105             4.671                Anadyr1           145.969
       107   01 Jun 2027 23:18:06.553   01 Jun 2027 23:18:10.029             3.476                Anadyr2           108.625
       108   01 Jun 2027 23:18:29.478   01 Jun 2027 23:18:54.627            25.149                Anadyr1           785.906
       109   01 Jun 2027 23:18:59.885   01 Jun 2027 23:20:46.674           106.789               Magadan2          3337.156
       110   01 Jun 2027 23:20:56.384   01 Jun 2027 23:23:26.865           150.481              Murmansk2          4702.531
       111   01 Jun 2027 23:23:31.882   01 Jun 2027 23:24:56.894            85.012              Murmansk1          2656.625
       112   01 Jun 2027 23:26:06.719   01 Jun 2027 23:27:04.981            58.262                 Moscow          1820.688
       113   01 Jun 2027 23:30:59.282   01 Jun 2027 23:31:48.045            48.763                 Moscow          1523.844
       114   02 Jun 2027 00:46:10.515   02 Jun 2027 00:46:35.595            25.080                Anadyr2           783.750
       115   02 Jun 2027 00:47:03.214   02 Jun 2027 00:47:38.589            35.375                Anadyr1          1105.469
       116   02 Jun 2027 00:48:00.022   02 Jun 2027 00:48:25.964            25.942                Anadyr2           810.687
       117   02 Jun 2027 00:48:47.132   02 Jun 2027 00:49:00.919            13.787                Anadyr2           430.844
       118   02 Jun 2027 00:51:24.548   02 Jun 2027 00:52:20.296            55.748               Magadan2          1742.125
       119   02 Jun 2027 00:52:36.322   02 Jun 2027 00:54:31.780           115.458               Magadan1          3608.063
       120   02 Jun 2027 00:56:34.047   02 Jun 2027 00:56:52.581            18.534               Magadan2           579.188
       121   02 Jun 2027 00:57:03.489   02 Jun 2027 00:58:58.837           115.348              Murmansk1          3604.625
       122   02 Jun 2027 00:59:09.099   02 Jun 2027 00:59:13.467             4.368                Novosib           136.500
       123   02 Jun 2027 00:59:32.579   02 Jun 2027 01:01:24.551           111.972                Novosib          3499.125
       124   02 Jun 2027 01:24:31.358   02 Jun 2027 01:25:38.915            67.557               CapeTown          2111.156
       125   02 Jun 2027 01:26:37.018   02 Jun 2027 01:27:24.251            47.233               CapeTown          1476.031
       126   02 Jun 2027 02:20:36.941   02 Jun 2027 02:21:45.105            68.164                Anadyr1          2130.125
       127   02 Jun 2027 02:22:19.658   02 Jun 2027 02:22:51.920            32.262                Anadyr1          1008.187
       128   02 Jun 2027 02:23:12.551   02 Jun 2027 02:23:36.806            24.255               Magadan2           757.969
       129   02 Jun 2027 02:23:41.582   02 Jun 2027 02:24:38.241            56.659               Magadan1          1770.594
       130   02 Jun 2027 02:27:14.981   02 Jun 2027 02:27:27.805            12.824               Magadan1           400.750
       131   02 Jun 2027 02:28:26.377   02 Jun 2027 02:28:51.228            24.851               Magadan2           776.594
       132   02 Jun 2027 02:28:52.984   02 Jun 2027 02:29:41.522            48.538               Magadan1          1516.812
       133   02 Jun 2027 02:32:37.134   02 Jun 2027 02:33:37.527            60.393              Murmansk2          1887.281
       134   02 Jun 2027 02:35:50.731   02 Jun 2027 02:36:23.316            32.585                 Moscow          1018.281
       135   02 Jun 2027 02:36:33.459   02 Jun 2027 02:37:15.197            41.738                 Moscow          1304.312
       136   02 Jun 2027 02:44:06.612   02 Jun 2027 02:44:23.041            16.429                 Moscow           513.406
       137   02 Jun 2027 03:00:19.336   02 Jun 2027 03:01:24.989            65.653               CapeTown          2051.656
       138   02 Jun 2027 04:03:03.830   02 Jun 2027 04:04:25.328            81.498               Magadan1          2546.813
       139   02 Jun 2027 04:04:40.333   02 Jun 2027 04:05:21.155            40.822               Magadan1          1275.687
       140   02 Jun 2027 04:05:22.402   02 Jun 2027 04:06:07.113            44.711                Anadyr1          1397.219
       141   02 Jun 2027 04:06:07.113   02 Jun 2027 04:06:09.887             2.774                Anadyr2            86.687
       142   02 Jun 2027 04:06:38.208   02 Jun 2027 04:09:08.282           150.074                Anadyr2          4689.812
       143   02 Jun 2027 05:40:59.914   02 Jun 2027 05:41:59.483            59.569               Magadan1          1861.531
       144   02 Jun 2027 05:42:30.126   02 Jun 2027 05:43:17.848            47.722               Magadan1          1491.313
       145   02 Jun 2027 05:43:17.848   02 Jun 2027 05:44:37.656            79.808               Magadan2          2494.000
       146   02 Jun 2027 07:16:32.222   02 Jun 2027 07:18:41.546           129.324               Magadan2          4041.375
       147   02 Jun 2027 07:19:05.736   02 Jun 2027 07:20:04.864            59.128               Magadan2          1847.750
       148   02 Jun 2027 07:20:06.009   02 Jun 2027 07:21:41.881            95.872                Novosib          2996.000
       149   02 Jun 2027 08:37:29.702   02 Jun 2027 08:38:11.190            41.488                Sumatra          1296.500
       150   02 Jun 2027 08:42:41.356   02 Jun 2027 08:42:56.354            14.998                Sumatra           468.688
       151   02 Jun 2027 08:53:22.379   02 Jun 2027 08:54:23.174            60.795                Irkutsk          1899.844
       152   02 Jun 2027 08:54:35.450   02 Jun 2027 08:56:35.412           119.962                Irkutsk          3748.812
       153   02 Jun 2027 10:29:23.914   02 Jun 2027 10:30:02.413            38.499                Novosib          1203.094
       154   02 Jun 2027 10:30:09.172   02 Jun 2027 10:31:31.175            82.003                Novosib          2562.594
       155   02 Jun 2027 10:31:38.630   02 Jun 2027 10:32:02.565            23.935                Norilsk           747.969
       156   02 Jun 2027 10:32:09.024   02 Jun 2027 10:32:09.852             0.828                Norilsk            25.875
       157   02 Jun 2027 11:53:41.071   02 Jun 2027 11:57:14.466           213.395                  Delhi          6668.594
       158   02 Jun 2027 12:12:17.261   02 Jun 2027 12:13:28.114            70.853                Norilsk          2214.156
       159   02 Jun 2027 13:14:56.097   02 Jun 2027 13:16:32.085            95.988               CapeTown          2999.625
       160   02 Jun 2027 13:19:56.054   02 Jun 2027 13:20:49.767            53.713               CapeTown          1678.531
       161   02 Jun 2027 13:35:27.333   02 Jun 2027 13:35:29.632             2.299                 Moscow            71.844
       162   02 Jun 2027 13:35:57.202   02 Jun 2027 13:36:22.843            25.641                 Moscow           801.281
       163   02 Jun 2027 13:38:52.196   02 Jun 2027 13:40:17.531            85.335              Murmansk2          2666.719
       164   02 Jun 2027 13:40:56.604   02 Jun 2027 13:41:30.346            33.742              Murmansk2          1054.438
       165   02 Jun 2027 13:45:14.991   02 Jun 2027 13:45:42.829            27.838              Murmansk2           869.938
       166   02 Jun 2027 13:53:45.504   02 Jun 2027 13:56:01.216           135.712                Anadyr2          4241.000
       167   02 Jun 2027 13:57:13.663   02 Jun 2027 13:58:04.927            51.264                Anadyr2          1602.000
       168   02 Jun 2027 13:58:36.018   02 Jun 2027 13:59:54.748            78.730                Anadyr2          2460.313
       169   02 Jun 2027 15:17:28.884   02 Jun 2027 15:18:20.912            52.028              Murmansk1          1625.875
       170   02 Jun 2027 15:19:15.800   02 Jun 2027 15:19:31.712            15.912              Murmansk2           497.250
       171   02 Jun 2027 15:21:24.780   02 Jun 2027 15:21:33.806             9.026              Murmansk1           282.062
       172   02 Jun 2027 15:23:08.677   02 Jun 2027 15:23:17.048             8.371              Murmansk2           261.594
       173   02 Jun 2027 15:24:18.210   02 Jun 2027 15:25:01.039            42.829              Murmansk1          1338.406
       174   02 Jun 2027 15:28:58.987   02 Jun 2027 15:30:19.559            80.572                Anadyr1          2517.875
       175   02 Jun 2027 15:30:41.663   02 Jun 2027 15:30:53.956            12.293                Anadyr2           384.156
       176   02 Jun 2027 15:31:09.587   02 Jun 2027 15:31:53.063            43.476                Anadyr1          1358.625
       177   02 Jun 2027 15:33:37.331   02 Jun 2027 15:34:22.478            45.147               Magadan1          1410.844
       178   02 Jun 2027 15:34:23.307   02 Jun 2027 15:36:06.565           103.258               Magadan2          3226.812
       179   02 Jun 2027 17:04:50.809   02 Jun 2027 17:07:22.303           151.494                Anadyr2          4734.188
       180   02 Jun 2027 17:08:02.048   02 Jun 2027 17:11:16.222           194.174               Magadan1          6067.938
       181   02 Jun 2027 17:18:39.162   02 Jun 2027 17:19:02.467            23.305               Magadan2           728.281
       182   02 Jun 2027 18:40:44.709   02 Jun 2027 18:44:26.036           221.327                Anadyr2          6916.469
       183   02 Jun 2027 18:44:27.464   02 Jun 2027 18:45:35.985            68.521               Magadan1          2141.281
       184   02 Jun 2027 18:46:06.230   02 Jun 2027 18:46:59.030            52.800                Norilsk          1650.000
       185   02 Jun 2027 19:35:08.138   02 Jun 2027 19:38:16.137           187.999            RioGallegos          5874.969
       186   02 Jun 2027 19:44:26.677   02 Jun 2027 19:44:35.289             8.612            RioGallegos           269.125
       187   02 Jun 2027 19:46:02.417   02 Jun 2027 19:46:06.036             3.619            RioGallegos           113.094
       188   02 Jun 2027 20:17:58.768   02 Jun 2027 20:18:17.162            18.394                Anadyr1           574.813
       189   02 Jun 2027 20:18:36.409   02 Jun 2027 20:20:27.444           111.035                Norilsk          3469.844
       190   02 Jun 2027 20:20:56.068   02 Jun 2027 20:21:45.098            49.030               Magadan1          1532.188
       191   02 Jun 2027 20:22:44.409   02 Jun 2027 20:22:54.287             9.878                Irkutsk           308.688
       192   02 Jun 2027 20:23:30.278   02 Jun 2027 20:23:40.650            10.372               Magadan1           324.125
       193   02 Jun 2027 20:23:41.814   02 Jun 2027 20:24:14.820            33.006                Norilsk          1031.437
       194   02 Jun 2027 20:24:26.133   02 Jun 2027 20:25:13.967            47.834                Irkutsk          1494.813
       195   02 Jun 2027 20:25:33.620   02 Jun 2027 20:27:24.652           111.032                Novosib          3469.750
       196   02 Jun 2027 20:29:29.248   02 Jun 2027 20:29:58.876            29.628                Novosib           925.875
       197   02 Jun 2027 20:30:03.008   02 Jun 2027 20:30:10.787             7.779                Irkutsk           243.094
       198   02 Jun 2027 20:30:28.539   02 Jun 2027 20:30:43.855            15.316                Irkutsk           478.625
       199   02 Jun 2027 20:36:27.166   02 Jun 2027 20:38:48.646           141.480                Sumatra          4421.250
       200   02 Jun 2027 21:55:10.600   02 Jun 2027 21:56:01.792            51.192               Magadan2          1599.750
       201   02 Jun 2027 21:57:34.571   02 Jun 2027 21:57:59.747            25.176                Norilsk           786.750
       202   02 Jun 2027 21:58:25.809   02 Jun 2027 21:58:55.851            30.042                Irkutsk           938.813
       203   02 Jun 2027 21:58:59.574   02 Jun 2027 21:59:01.846             2.272                Irkutsk            71.000
       204   02 Jun 2027 22:00:21.746   02 Jun 2027 22:01:42.045            80.299                Novosib          2509.344
       205   02 Jun 2027 22:06:13.529   02 Jun 2027 22:09:07.281           173.752                  Delhi          5429.750
       206   02 Jun 2027 22:14:56.479   02 Jun 2027 22:16:31.996            95.517                  Delhi          2984.906
       207   02 Jun 2027 23:30:32.796   02 Jun 2027 23:31:40.296            67.500               Magadan2          2109.375
       208   02 Jun 2027 23:31:52.886   02 Jun 2027 23:32:28.225            35.339               Magadan2          1104.344
       209   02 Jun 2027 23:32:53.667   02 Jun 2027 23:36:52.159           238.492              Murmansk1          7452.875
       210   02 Jun 2027 23:37:33.117   02 Jun 2027 23:38:22.875            49.758                 Moscow          1554.937
       211   02 Jun 2027 23:39:02.597   02 Jun 2027 23:39:45.274            42.677                 Moscow          1333.656
       212   02 Jun 2027 23:43:03.065   02 Jun 2027 23:43:21.347            18.282                 Moscow           571.312
       213   03 Jun 2027 00:57:55.971   03 Jun 2027 00:58:02.833             6.862                Anadyr2           214.438
       214   03 Jun 2027 01:00:30.614   03 Jun 2027 01:00:42.224            11.610                Anadyr2           362.812
       215   03 Jun 2027 01:00:52.097   03 Jun 2027 01:01:18.600            26.503                Anadyr2           828.219
       216   03 Jun 2027 01:02:52.509   03 Jun 2027 01:04:55.459           122.950               Magadan1          3842.188
       217   03 Jun 2027 01:06:34.401   03 Jun 2027 01:07:39.396            64.995               Magadan2          2031.094
       218   03 Jun 2027 01:08:40.495   03 Jun 2027 01:09:48.524            68.029              Murmansk2          2125.906
       219   03 Jun 2027 01:10:16.524   03 Jun 2027 01:10:32.380            15.856              Murmansk1           495.500
       220   03 Jun 2027 01:10:49.930   03 Jun 2027 01:11:00.454            10.524                Novosib           328.875
       221   03 Jun 2027 01:13:21.515   03 Jun 2027 01:13:52.458            30.943                 Moscow           966.969
       222   03 Jun 2027 01:14:47.619   03 Jun 2027 01:14:51.802             4.183                 Moscow           130.719
       223   03 Jun 2027 01:18:07.959   03 Jun 2027 01:19:21.346            73.387              Murmansk2          2293.344
       224   03 Jun 2027 01:37:36.049   03 Jun 2027 01:38:48.663            72.614               CapeTown          2269.188
       225   03 Jun 2027 01:47:06.096   03 Jun 2027 01:47:10.922             4.826               CapeTown           150.813
       226   03 Jun 2027 02:32:34.097   03 Jun 2027 02:34:04.527            90.430                Anadyr2          2825.938
       227   03 Jun 2027 02:34:04.527   03 Jun 2027 02:34:30.303            25.776                Anadyr1           805.500
       228   03 Jun 2027 02:34:48.354   03 Jun 2027 02:35:21.646            33.292               Magadan2          1040.375
       229   03 Jun 2027 02:37:19.427   03 Jun 2027 02:37:46.064            26.637               Magadan2           832.406
       230   03 Jun 2027 02:39:54.211   03 Jun 2027 02:40:55.401            61.190               Magadan2          1912.188
       231   03 Jun 2027 02:44:38.683   03 Jun 2027 02:44:43.177             4.494              Murmansk2           140.437
       232   03 Jun 2027 02:44:43.177   03 Jun 2027 02:45:37.425            54.248              Murmansk1          1695.250
       233   03 Jun 2027 02:46:26.907   03 Jun 2027 02:46:46.933            20.026              Murmansk2           625.812
       234   03 Jun 2027 02:47:53.785   03 Jun 2027 02:48:17.487            23.702                 Moscow           740.688
       235   03 Jun 2027 02:49:43.781   03 Jun 2027 02:50:47.939            64.158                 Moscow          2004.938
       236   03 Jun 2027 03:12:45.723   03 Jun 2027 03:13:16.483            30.760               CapeTown           961.250
       237   03 Jun 2027 04:13:49.591   03 Jun 2027 04:13:59.484             9.893                Anadyr1           309.156
       238   03 Jun 2027 04:14:13.519   03 Jun 2027 04:17:23.409           189.890                Anadyr1          5934.063
       239   03 Jun 2027 04:17:23.409   03 Jun 2027 04:17:32.923             9.514                Anadyr2           297.312
       240   03 Jun 2027 04:17:44.539   03 Jun 2027 04:19:14.734            90.195                Anadyr2          2818.594
       241   03 Jun 2027 04:19:44.643   03 Jun 2027 04:20:24.376            39.733               Magadan2          1241.656
       242   03 Jun 2027 04:20:43.148   03 Jun 2027 04:21:03.877            20.729               Magadan1           647.781
       243   03 Jun 2027 05:01:31.923   03 Jun 2027 05:02:46.813            74.890            RioGallegos          2340.313
       244   03 Jun 2027 05:50:46.807   03 Jun 2027 05:51:21.584            34.777                Irkutsk          1086.781
       245   03 Jun 2027 05:51:45.117   03 Jun 2027 05:52:17.460            32.343                Anadyr1          1010.719
       246   03 Jun 2027 05:52:51.652   03 Jun 2027 05:56:40.813           229.161                Anadyr2          7161.281
       247   03 Jun 2027 05:56:50.387   03 Jun 2027 05:56:51.419             1.032               Magadan1            32.250
       248   03 Jun 2027 05:59:35.838   03 Jun 2027 05:59:46.985            11.147                Norilsk           348.344
       249   03 Jun 2027 07:27:17.264   03 Jun 2027 07:28:06.469            49.205               Magadan2          1537.656
       250   03 Jun 2027 07:28:09.426   03 Jun 2027 07:28:12.962             3.536               Magadan1           110.500
       251   03 Jun 2027 07:28:15.301   03 Jun 2027 07:28:25.725            10.424               Magadan2           325.750
       252   03 Jun 2027 07:28:25.725   03 Jun 2027 07:28:59.056            33.331               Magadan1          1041.594
       253   03 Jun 2027 07:29:06.243   03 Jun 2027 07:30:40.256            94.013               Magadan2          2937.906
       254   03 Jun 2027 07:31:04.519   03 Jun 2027 07:31:08.570             4.051               Magadan2           126.594
       255   03 Jun 2027 07:31:41.715   03 Jun 2027 07:31:50.450             8.735               Magadan2           272.969
       256   03 Jun 2027 07:35:10.917   03 Jun 2027 07:35:33.688            22.771                Norilsk           711.594
       257   03 Jun 2027 08:07:27.261   03 Jun 2027 08:08:20.624            53.363            RioGallegos          1667.594
       258   03 Jun 2027 08:42:23.173   03 Jun 2027 08:43:25.002            61.829                Sumatra          1932.156
       259   03 Jun 2027 08:45:23.591   03 Jun 2027 08:45:25.070             1.479                Sumatra            46.219
       260   03 Jun 2027 08:54:07.215   03 Jun 2027 08:54:53.920            46.705                Sumatra          1459.531
       261   03 Jun 2027 09:03:25.594   03 Jun 2027 09:03:32.799             7.205                Irkutsk           225.156
       262   03 Jun 2027 09:04:22.847   03 Jun 2027 09:04:42.194            19.347                Irkutsk           604.594
       263   03 Jun 2027 09:05:46.601   03 Jun 2027 09:06:19.360            32.759                Norilsk          1023.719
       264   03 Jun 2027 09:06:22.384   03 Jun 2027 09:06:32.671            10.287                Irkutsk           321.469
       265   03 Jun 2027 09:07:06.654   03 Jun 2027 09:07:06.903             0.249                Irkutsk             7.781
       266   03 Jun 2027 09:07:53.870   03 Jun 2027 09:08:21.941            28.071                Irkutsk           877.219
       267   03 Jun 2027 09:11:07.913   03 Jun 2027 09:11:31.817            23.904                Norilsk           747.000
       268   03 Jun 2027 09:46:30.602   03 Jun 2027 09:47:00.065            29.463            RioGallegos           920.719
       269   03 Jun 2027 09:50:38.123   03 Jun 2027 09:50:48.892            10.769            RioGallegos           336.531
       270   03 Jun 2027 09:52:18.592   03 Jun 2027 09:52:23.458             4.866            RioGallegos           152.063
       271   03 Jun 2027 10:21:06.208   03 Jun 2027 10:22:03.852            57.644                Sumatra          1801.375
       272   03 Jun 2027 10:26:29.824   03 Jun 2027 10:26:37.526             7.702                  Delhi           240.688
       273   03 Jun 2027 10:29:21.249   03 Jun 2027 10:29:41.760            20.511                  Delhi           640.969
       274   03 Jun 2027 10:33:27.178   03 Jun 2027 10:33:40.179            13.001                  Delhi           406.281
       275   03 Jun 2027 10:42:07.948   03 Jun 2027 10:42:08.419             0.471                Novosib            14.719
       276   03 Jun 2027 10:43:08.656   03 Jun 2027 10:43:20.051            11.395                Novosib           356.094
       277   03 Jun 2027 10:43:41.882   03 Jun 2027 10:43:50.896             9.014                Novosib           281.688
       278   03 Jun 2027 10:43:53.528   03 Jun 2027 10:43:56.172             2.644                Novosib            82.625
       279   03 Jun 2027 10:43:59.973   03 Jun 2027 10:44:09.193             9.220                Norilsk           288.125
       280   03 Jun 2027 10:44:10.239   03 Jun 2027 10:44:18.946             8.707                Norilsk           272.094
       281   03 Jun 2027 12:07:41.488   03 Jun 2027 12:10:05.271           143.783                  Delhi          4493.219
       282   03 Jun 2027 12:15:48.033   03 Jun 2027 12:17:57.031           128.998                Novosib          4031.187
       283   03 Jun 2027 13:26:10.295   03 Jun 2027 13:29:03.556           173.261               CapeTown          5414.406
       284   03 Jun 2027 13:32:06.906   03 Jun 2027 13:33:41.900            94.994               CapeTown          2968.563
       285   03 Jun 2027 13:51:06.153   03 Jun 2027 13:51:20.653            14.500              Murmansk1           453.125
       286   03 Jun 2027 13:51:28.462   03 Jun 2027 13:52:14.390            45.928              Murmansk2          1435.250
       287   03 Jun 2027 13:53:30.637   03 Jun 2027 13:53:39.221             8.584              Murmansk2           268.250
       288   03 Jun 2027 13:54:56.504   03 Jun 2027 13:55:19.656            23.152              Murmansk1           723.500
       289   03 Jun 2027 13:59:23.265   03 Jun 2027 13:59:48.847            25.582              Murmansk1           799.437
       290   03 Jun 2027 14:01:39.213   03 Jun 2027 14:01:46.537             7.324              Murmansk2           228.875
       291   03 Jun 2027 14:03:06.699   03 Jun 2027 14:03:14.930             8.231              Murmansk1           257.219
       292   03 Jun 2027 14:05:35.764   03 Jun 2027 14:09:14.821           219.057                Anadyr1          6845.531
       293   03 Jun 2027 15:11:52.449   03 Jun 2027 15:13:03.970            71.521               CapeTown          2235.031
       294   03 Jun 2027 15:30:01.611   03 Jun 2027 15:31:16.908            75.297              Murmansk2          2353.031
       295   03 Jun 2027 15:40:58.959   03 Jun 2027 15:42:50.957           111.998                Anadyr1          3499.938
       296   03 Jun 2027 15:42:54.673   03 Jun 2027 15:43:11.741            17.068                Anadyr2           533.375
       297   03 Jun 2027 15:43:51.351   03 Jun 2027 15:43:54.406             3.055                Anadyr2            95.469
       298   03 Jun 2027 15:44:55.465   03 Jun 2027 15:46:19.788            84.323               Magadan2          2635.094
       299   03 Jun 2027 15:47:11.354   03 Jun 2027 15:48:04.036            52.682               Magadan1          1646.313
       300   03 Jun 2027 15:48:36.270   03 Jun 2027 15:48:50.471            14.201               Magadan2           443.781
       301   03 Jun 2027 15:50:10.584   03 Jun 2027 15:50:57.003            46.419               Magadan2          1450.594
       302   03 Jun 2027 17:16:52.218   03 Jun 2027 17:18:34.212           101.994                Anadyr2          3187.313
       303   03 Jun 2027 17:18:41.822   03 Jun 2027 17:18:51.521             9.699                Anadyr1           303.094
       304   03 Jun 2027 17:19:17.855   03 Jun 2027 17:20:59.481           101.626               Magadan2          3175.813
       305   03 Jun 2027 17:21:05.499   03 Jun 2027 17:21:12.830             7.331               Magadan2           229.094
       306   03 Jun 2027 17:21:12.830   03 Jun 2027 17:21:28.173            15.343               Magadan1           479.469
       307   03 Jun 2027 17:23:50.815   03 Jun 2027 17:25:22.672            91.857               Magadan2          2870.531
       308   03 Jun 2027 18:52:44.983   03 Jun 2027 18:54:29.868           104.885                Anadyr2          3277.656
       309   03 Jun 2027 18:54:49.412   03 Jun 2027 18:56:35.215           105.803                Anadyr1          3306.344
       310   03 Jun 2027 18:56:52.799   03 Jun 2027 18:58:55.644           122.845                Norilsk          3838.906
       311   03 Jun 2027 19:01:12.425   03 Jun 2027 19:01:41.706            29.281                Irkutsk           915.031
       312   03 Jun 2027 19:02:49.269   03 Jun 2027 19:03:43.861            54.592                Irkutsk          1706.000
       313   03 Jun 2027 19:04:06.540   03 Jun 2027 19:05:02.094            55.554                Irkutsk          1736.063
       314   03 Jun 2027 19:05:40.014   03 Jun 2027 19:05:56.813            16.799                Irkutsk           524.969
       315   03 Jun 2027 19:47:07.689   03 Jun 2027 19:47:10.361             2.672            RioGallegos            83.500
       316   03 Jun 2027 19:48:29.167   03 Jun 2027 19:49:57.861            88.694            RioGallegos          2771.688
       317   03 Jun 2027 20:30:55.188   03 Jun 2027 20:31:18.989            23.801                Norilsk           743.781
       318   03 Jun 2027 20:31:28.216   03 Jun 2027 20:31:43.630            15.414                Norilsk           481.687
       319   03 Jun 2027 20:31:55.798   03 Jun 2027 20:32:37.845            42.047               Magadan2          1313.969
       320   03 Jun 2027 20:34:11.321   03 Jun 2027 20:34:32.852            21.531               Magadan1           672.844
       321   03 Jun 2027 20:34:39.971   03 Jun 2027 20:36:27.478           107.507                Irkutsk          3359.594
       322   03 Jun 2027 20:36:47.622   03 Jun 2027 20:39:12.690           145.068                Novosib          4533.375
       323   03 Jun 2027 20:40:23.317   03 Jun 2027 20:41:08.751            45.434                Novosib          1419.812
       324   03 Jun 2027 20:48:20.617   03 Jun 2027 20:49:12.815            52.198                Sumatra          1631.188
       325   03 Jun 2027 20:56:45.394   03 Jun 2027 20:57:52.215            66.821                Sumatra          2088.156
       326   03 Jun 2027 22:07:12.033   03 Jun 2027 22:08:29.945            77.912               Magadan1          2434.750
       327   03 Jun 2027 22:10:29.344   03 Jun 2027 22:10:51.287            21.943                Irkutsk           685.719
       328   03 Jun 2027 22:11:56.902   03 Jun 2027 22:13:10.428            73.526                Irkutsk          2297.687
       329   03 Jun 2027 22:17:45.922   03 Jun 2027 22:17:59.992            14.070                Novosib           439.688
       330   03 Jun 2027 22:18:01.202   03 Jun 2027 22:21:36.974           215.772                  Delhi          6742.875
       331   03 Jun 2027 23:42:18.359   03 Jun 2027 23:43:49.354            90.995               Magadan2          2843.594
       332   03 Jun 2027 23:44:52.023   03 Jun 2027 23:49:00.147           248.124              Murmansk1          7753.875
       333   03 Jun 2027 23:50:20.434   03 Jun 2027 23:52:36.095           135.661                 Moscow          4239.406
       334   04 Jun 2027 00:17:40.240   04 Jun 2027 00:18:25.550            45.310               CapeTown          1415.937
       335   04 Jun 2027 00:19:18.881   04 Jun 2027 00:20:14.956            56.075               CapeTown          1752.344
       336   04 Jun 2027 01:14:20.553   04 Jun 2027 01:15:38.838            78.285               Magadan1          2446.406
       337   04 Jun 2027 01:18:08.258   04 Jun 2027 01:18:30.029            21.771               Magadan2           680.344
       338   04 Jun 2027 01:20:18.176   04 Jun 2027 01:20:26.554             8.378                Norilsk           261.812
       339   04 Jun 2027 01:20:42.038   04 Jun 2027 01:22:29.680           107.642              Murmansk2          3363.813
       340   04 Jun 2027 01:22:52.742   04 Jun 2027 01:23:09.967            17.225                Novosib           538.281
       341   04 Jun 2027 01:23:31.793   04 Jun 2027 01:24:36.608            64.815                Novosib          2025.469
       342   04 Jun 2027 01:30:57.932   04 Jun 2027 01:31:19.313            21.381                 Moscow           668.156
       343   04 Jun 2027 01:35:20.344   04 Jun 2027 01:35:37.849            17.505                 Moscow           547.031
       344   04 Jun 2027 01:36:37.356   04 Jun 2027 01:36:42.311             4.955                 Moscow           154.844
       345   04 Jun 2027 01:48:01.292   04 Jun 2027 01:49:30.105            88.813               CapeTown          2775.406
       346   04 Jun 2027 02:44:33.049   04 Jun 2027 02:46:19.462           106.413                Anadyr2          3325.406
       347   04 Jun 2027 02:46:25.855   04 Jun 2027 02:46:34.209             8.354               Magadan2           261.063
       348   04 Jun 2027 02:46:46.716   04 Jun 2027 02:47:34.590            47.874               Magadan1          1496.062
       349   04 Jun 2027 02:48:52.857   04 Jun 2027 02:49:00.570             7.713               Magadan1           241.031
       350   04 Jun 2027 02:49:13.692   04 Jun 2027 02:49:20.183             6.491               Magadan1           202.844
       351   04 Jun 2027 02:51:21.622   04 Jun 2027 02:51:33.247            11.625               Magadan2           363.281
       352   04 Jun 2027 02:52:14.402   04 Jun 2027 02:52:48.777            34.375               Magadan2          1074.219
       353   04 Jun 2027 02:55:11.234   04 Jun 2027 02:55:41.448            30.214                Norilsk           944.188
       354   04 Jun 2027 02:56:40.125   04 Jun 2027 02:57:19.060            38.935              Murmansk1          1216.719
       355   04 Jun 2027 02:57:29.709   04 Jun 2027 02:58:21.628            51.919              Murmansk2          1622.469
       356   04 Jun 2027 03:03:38.637   04 Jun 2027 03:05:36.391           117.754              Murmansk1          3679.813
       357   04 Jun 2027 03:06:29.838   04 Jun 2027 03:06:54.151            24.313                 Moscow           759.781
       358   04 Jun 2027 04:25:30.922   04 Jun 2027 04:26:38.610            67.688                Anadyr2          2115.250
       359   04 Jun 2027 04:26:58.263   04 Jun 2027 04:27:18.827            20.564               Magadan1           642.625
       360   04 Jun 2027 04:27:18.827   04 Jun 2027 04:28:32.713            73.886               Magadan2          2308.937
       361   04 Jun 2027 04:28:58.389   04 Jun 2027 04:30:07.208            68.819               Magadan2          2150.594
       362   04 Jun 2027 04:30:07.208   04 Jun 2027 04:30:33.708            26.500               Magadan1           828.125
       363   04 Jun 2027 06:02:12.158   04 Jun 2027 06:02:19.624             7.466                Irkutsk           233.313
       364   04 Jun 2027 06:02:55.685   04 Jun 2027 06:04:09.654            73.969                Irkutsk          2311.531
       365   04 Jun 2027 06:04:15.924   04 Jun 2027 06:08:01.737           225.813                Anadyr1          7056.656
       366   04 Jun 2027 06:08:30.972   04 Jun 2027 06:08:50.627            19.655                Novosib           614.219
       367   04 Jun 2027 06:08:53.138   04 Jun 2027 06:08:54.239             1.101               Magadan2            34.406
       368   04 Jun 2027 07:37:48.505   04 Jun 2027 07:38:58.017            69.512               Magadan1          2172.250
       369   04 Jun 2027 07:39:20.340   04 Jun 2027 07:39:45.568            25.228               Magadan1           788.375
       370   04 Jun 2027 07:40:11.806   04 Jun 2027 07:40:38.954            27.148                Norilsk           848.375
       371   04 Jun 2027 07:41:07.815   04 Jun 2027 07:41:43.764            35.949               Magadan2          1123.406
       372   04 Jun 2027 07:42:38.132   04 Jun 2027 07:42:51.769            13.637               Magadan2           426.156
       373   04 Jun 2027 07:43:11.231   04 Jun 2027 07:43:30.188            18.957               Magadan1           592.406
       374   04 Jun 2027 07:44:38.490   04 Jun 2027 07:45:23.842            45.352              Murmansk1          1417.250
       375   04 Jun 2027 08:19:35.847   04 Jun 2027 08:19:55.005            19.158            RioGallegos           598.687
       376   04 Jun 2027 08:20:44.491   04 Jun 2027 08:21:10.609            26.118            RioGallegos           816.187
       377   04 Jun 2027 08:54:19.472   04 Jun 2027 08:54:58.439            38.967                Sumatra          1217.719
       378   04 Jun 2027 08:58:01.660   04 Jun 2027 08:58:40.728            39.068                Sumatra          1220.875
       379   04 Jun 2027 09:16:41.196   04 Jun 2027 09:17:14.986            33.790                Irkutsk          1055.937
       380   04 Jun 2027 09:17:22.669   04 Jun 2027 09:18:00.080            37.411                Irkutsk          1169.094
       381   04 Jun 2027 09:18:14.937   04 Jun 2027 09:18:15.068             0.131                Novosib             4.094
       382   04 Jun 2027 09:18:20.166   04 Jun 2027 09:18:35.520            15.354                Irkutsk           479.812
       383   04 Jun 2027 09:18:59.715   04 Jun 2027 09:19:16.855            17.140                Novosib           535.625
       384   04 Jun 2027 09:19:19.024   04 Jun 2027 09:19:27.806             8.782                Norilsk           274.437
       385   04 Jun 2027 09:19:47.649   04 Jun 2027 09:20:13.392            25.743                Norilsk           804.469
       386   04 Jun 2027 09:20:41.502   04 Jun 2027 09:21:42.578            61.076                Norilsk          1908.625
       387   04 Jun 2027 09:59:57.381   04 Jun 2027 10:00:31.445            34.064            RioGallegos          1064.500
       388   04 Jun 2027 10:38:41.642   04 Jun 2027 10:39:23.752            42.110                  Delhi          1315.938
       389   04 Jun 2027 10:41:39.543   04 Jun 2027 10:43:11.460            91.917                  Delhi          2872.406
       390   04 Jun 2027 10:54:06.766   04 Jun 2027 10:54:12.953             6.187                Novosib           193.344
       391   04 Jun 2027 10:55:09.491   04 Jun 2027 10:55:19.674            10.183                Novosib           318.219
       392   04 Jun 2027 10:55:27.362   04 Jun 2027 10:55:33.226             5.864                Norilsk           183.250
       393   04 Jun 2027 10:55:42.358   04 Jun 2027 10:55:49.635             7.277                Norilsk           227.406
       394   04 Jun 2027 10:56:01.126   04 Jun 2027 10:56:04.741             3.615                Novosib           112.969
       395   04 Jun 2027 10:56:11.157   04 Jun 2027 10:56:27.660            16.503                Norilsk           515.719
       396   04 Jun 2027 12:26:00.378   04 Jun 2027 12:27:04.829            64.451                 Moscow          2014.094
       397   04 Jun 2027 12:27:19.988   04 Jun 2027 12:28:34.369            74.381              Murmansk2          2324.406
       398   04 Jun 2027 12:30:13.552   04 Jun 2027 12:32:32.968           139.416                Norilsk          4356.750
       399   04 Jun 2027 12:34:38.509   04 Jun 2027 12:35:30.243            51.734                Norilsk          1616.688
       400   04 Jun 2027 13:37:38.919   04 Jun 2027 13:39:17.140            98.221               CapeTown          3069.406
       401   04 Jun 2027 13:40:19.176   04 Jun 2027 13:40:50.974            31.798               CapeTown           993.688
       402   04 Jun 2027 13:41:05.877   04 Jun 2027 13:42:29.374            83.497               CapeTown          2609.281
       403   04 Jun 2027 13:44:21.410   04 Jun 2027 13:44:28.577             7.167               CapeTown           223.969
       404   04 Jun 2027 14:03:22.093   04 Jun 2027 14:04:13.780            51.687              Murmansk1          1615.219
       405   04 Jun 2027 14:04:18.106   04 Jun 2027 14:05:32.597            74.491              Murmansk2          2327.844
       406   04 Jun 2027 14:06:06.611   04 Jun 2027 14:06:17.296            10.685              Murmansk2           333.906
       407   04 Jun 2027 14:13:06.020   04 Jun 2027 14:13:10.785             4.765              Murmansk1           148.906
       408   04 Jun 2027 14:13:33.178   04 Jun 2027 14:13:45.940            12.762              Murmansk2           398.813
       409   04 Jun 2027 14:17:28.703   04 Jun 2027 14:20:20.404           171.701                Anadyr1          5365.656
       410   04 Jun 2027 14:20:57.654   04 Jun 2027 14:21:18.793            21.139                Anadyr2           660.594
       411   04 Jun 2027 14:22:16.593   04 Jun 2027 14:22:41.172            24.579                Anadyr1           768.094
       412   04 Jun 2027 14:23:58.961   04 Jun 2027 14:24:24.579            25.618                Anadyr2           800.563
       413   04 Jun 2027 15:42:37.484   04 Jun 2027 15:44:12.984            95.500              Murmansk1          2984.375
       414   04 Jun 2027 15:48:27.221   04 Jun 2027 15:48:41.406            14.185              Murmansk2           443.281
       415   04 Jun 2027 15:52:59.304   04 Jun 2027 15:53:49.743            50.439                Anadyr1          1576.219
       416   04 Jun 2027 15:54:14.992   04 Jun 2027 15:54:48.922            33.930                Anadyr2          1060.312
       417   04 Jun 2027 15:55:33.277   04 Jun 2027 15:55:55.732            22.455                Anadyr1           701.719
       418   04 Jun 2027 15:56:07.607   04 Jun 2027 15:57:07.513            59.906                Anadyr1          1872.062
       419   04 Jun 2027 15:57:25.727   04 Jun 2027 16:02:12.753           287.026               Magadan2          8969.562
       420   04 Jun 2027 17:29:38.863   04 Jun 2027 17:29:44.166             5.303                Anadyr2           165.719
       421   04 Jun 2027 17:30:08.311   04 Jun 2027 17:30:32.050            23.739                Anadyr2           741.844
       422   04 Jun 2027 17:31:09.788   04 Jun 2027 17:31:11.832             2.044                Anadyr1            63.875
       423   04 Jun 2027 17:31:16.033   04 Jun 2027 17:33:09.259           113.226               Magadan2          3538.313
       424   04 Jun 2027 17:33:50.012   04 Jun 2027 17:35:19.199            89.187               Magadan1          2787.094
       425   04 Jun 2027 19:04:44.907   04 Jun 2027 19:08:04.147           199.240                Anadyr2          6226.250
       426   04 Jun 2027 19:08:24.254   04 Jun 2027 19:08:29.198             4.944                Anadyr2           154.500
       427   04 Jun 2027 19:08:34.264   04 Jun 2027 19:09:39.795            65.531               Magadan1          2047.844
       428   04 Jun 2027 19:09:39.795   04 Jun 2027 19:09:59.110            19.315               Magadan2           603.594
       429   04 Jun 2027 19:12:27.678   04 Jun 2027 19:15:28.308           180.630                Irkutsk          5644.687
       430   04 Jun 2027 19:16:20.932   04 Jun 2027 19:17:45.562            84.630                Irkutsk          2644.688
       431   04 Jun 2027 19:28:33.346   04 Jun 2027 19:32:23.180           229.834                Sumatra          7182.313
       432   04 Jun 2027 20:46:36.983   04 Jun 2027 20:47:37.049            60.066                Irkutsk          1877.063
       433   04 Jun 2027 20:48:25.661   04 Jun 2027 20:48:51.308            25.647                Irkutsk           801.469
       434   04 Jun 2027 20:48:59.261   04 Jun 2027 20:51:03.668           124.407                Novosib          3887.719
       435   04 Jun 2027 20:53:37.498   04 Jun 2027 20:54:02.001            24.503                Novosib           765.719
       436   04 Jun 2027 21:00:19.710   04 Jun 2027 21:00:41.551            21.841                Sumatra           682.531
       437   04 Jun 2027 21:00:50.934   04 Jun 2027 21:00:53.906             2.972                Sumatra            92.875
       438   04 Jun 2027 21:07:05.639   04 Jun 2027 21:08:55.858           110.219                Sumatra          3444.344
       439   04 Jun 2027 22:22:10.948   04 Jun 2027 22:25:23.295           192.347              Murmansk2          6010.844
       440   04 Jun 2027 22:29:53.177   04 Jun 2027 22:31:13.414            80.237                  Delhi          2507.406
       441   04 Jun 2027 22:32:47.955   04 Jun 2027 22:32:57.139             9.184                  Delhi           287.000
       442   04 Jun 2027 23:48:24.010   04 Jun 2027 23:48:49.743            25.733                Anadyr2           804.156
       443   04 Jun 2027 23:50:08.649   04 Jun 2027 23:50:25.600            16.951                Anadyr1           529.719
       444   04 Jun 2027 23:53:51.835   04 Jun 2027 23:53:54.415             2.580                Anadyr1            80.625
       445   04 Jun 2027 23:53:59.567   04 Jun 2027 23:55:30.917            91.350               Magadan1          2854.688
       446   04 Jun 2027 23:56:19.145   04 Jun 2027 23:56:30.105            10.960               Magadan1           342.500
       447   04 Jun 2027 23:56:47.305   04 Jun 2027 23:57:41.096            53.791               Magadan2          1680.969
       448   04 Jun 2027 23:57:46.098   04 Jun 2027 23:58:50.386            64.288              Murmansk2          2009.000
       449   04 Jun 2027 23:58:53.491   05 Jun 2027 00:00:52.896           119.405              Murmansk1          3731.406
       450   05 Jun 2027 00:00:54.536   05 Jun 2027 00:02:35.241           100.705                 Moscow          3147.031
       451   05 Jun 2027 00:04:15.394   05 Jun 2027 00:04:28.889            13.495                 Moscow           421.719
       452   05 Jun 2027 00:05:35.232   05 Jun 2027 00:05:59.195            23.963                 Moscow           748.844
       453   05 Jun 2027 00:28:06.614   05 Jun 2027 00:29:46.361            99.747               CapeTown          3117.094
       454   05 Jun 2027 00:31:27.888   05 Jun 2027 00:32:39.790            71.902               CapeTown          2246.938
       455   05 Jun 2027 01:25:49.063   05 Jun 2027 01:26:29.652            40.589               Magadan1          1268.406
       456   05 Jun 2027 01:27:08.293   05 Jun 2027 01:27:17.833             9.540               Magadan2           298.125
       457   05 Jun 2027 01:29:36.008   05 Jun 2027 01:30:28.027            52.019               Magadan2          1625.594
       458   05 Jun 2027 01:32:43.676   05 Jun 2027 01:34:26.405           102.729              Murmansk1          3210.281
       459   05 Jun 2027 01:35:53.909   05 Jun 2027 01:35:57.664             3.755                Novosib           117.344
       460   05 Jun 2027 01:35:58.640   05 Jun 2027 01:37:44.521           105.881                 Moscow          3308.781
       461   05 Jun 2027 02:01:20.666   05 Jun 2027 02:02:35.462            74.796               CapeTown          2337.375
       462   05 Jun 2027 02:56:33.864   05 Jun 2027 02:58:03.973            90.109                Anadyr2          2815.906
       463   05 Jun 2027 02:58:05.143   05 Jun 2027 02:59:16.238            71.095               Magadan2          2221.719
       464   05 Jun 2027 03:02:47.321   05 Jun 2027 03:04:21.639            94.318                Anadyr1          2947.438
       465   05 Jun 2027 03:04:21.639   05 Jun 2027 03:04:32.378            10.739                Anadyr2           335.594
       466   05 Jun 2027 03:04:36.857   05 Jun 2027 03:04:51.783            14.926               Magadan1           466.437
       467   05 Jun 2027 03:05:22.603   05 Jun 2027 03:05:47.536            24.933                Anadyr2           779.156
       468   05 Jun 2027 03:06:17.831   05 Jun 2027 03:06:46.349            28.518               Magadan1           891.187
       469   05 Jun 2027 04:39:01.228   05 Jun 2027 04:40:48.069           106.841               Magadan2          3338.781
       470   05 Jun 2027 04:40:52.230   05 Jun 2027 04:41:01.041             8.811               Magadan2           275.344
       471   05 Jun 2027 04:41:13.608   05 Jun 2027 04:42:03.093            49.485                Anadyr2          1546.406
       472   05 Jun 2027 04:42:26.660   05 Jun 2027 04:42:41.132            14.472                Norilsk           452.250
       473   05 Jun 2027 04:42:52.301   05 Jun 2027 04:45:07.637           135.336               Magadan2          4229.250
       474   05 Jun 2027 06:12:48.687   05 Jun 2027 06:14:05.808            77.121               Magadan2          2410.031
       475   05 Jun 2027 06:14:22.719   05 Jun 2027 06:15:00.120            37.401                Norilsk          1168.781
       476   05 Jun 2027 06:15:02.780   05 Jun 2027 06:15:59.689            56.909                Norilsk          1778.406
       477   05 Jun 2027 06:16:16.247   05 Jun 2027 06:16:51.054            34.807                Anadyr2          1087.719
       478   05 Jun 2027 06:16:58.778   05 Jun 2027 06:17:56.439            57.661               Magadan2          1801.906
       479   05 Jun 2027 06:18:06.588   05 Jun 2027 06:18:29.337            22.749                Anadyr1           710.906
       480   05 Jun 2027 06:18:33.276   05 Jun 2027 06:19:37.049            63.773                Anadyr1          1992.906
       481   05 Jun 2027 06:20:02.154   05 Jun 2027 06:20:52.006            49.852               Magadan2          1557.875
       482   05 Jun 2027 07:49:52.955   05 Jun 2027 07:50:57.078            64.123               Magadan1          2003.844
