uniorb/output/strategy_4/Drop/Drop_KinoSat_110303.txt

KinoSat_110303
-------------------------
    Access    *     Start Time (UTCG)     *     Stop Time (UTCG)  *   Duration (s)        *       Station  *  Data (Mbytes)
         1   01 Jun 2027 04:17:48.430   01 Jun 2027 04:20:03.572           135.142               Magadan1         16892.750
         2   01 Jun 2027 04:20:18.386   01 Jun 2027 04:21:35.416            77.030               Magadan1          9628.750
         3   01 Jun 2027 04:22:20.287   01 Jun 2027 04:22:27.516             7.229                Norilsk           903.625
         4   01 Jun 2027 04:22:37.954   01 Jun 2027 04:23:55.760            77.806                Norilsk          9725.750
         5   01 Jun 2027 04:24:24.191   01 Jun 2027 04:24:44.748            20.557                Norilsk          2569.625
         6   01 Jun 2027 04:24:50.438   01 Jun 2027 04:25:58.548            68.110                Norilsk          8513.750
         7   01 Jun 2027 04:57:50.993   01 Jun 2027 04:58:21.215            30.222            RioGallegos          3777.750
         8   01 Jun 2027 05:32:31.748   01 Jun 2027 05:35:13.745           161.997                Sumatra         20249.625
         9   01 Jun 2027 05:42:44.116   01 Jun 2027 05:43:01.302            17.186                  Delhi          2148.250
        10   01 Jun 2027 05:44:00.517   01 Jun 2027 05:45:51.349           110.832                  Delhi         13854.000
        11   01 Jun 2027 05:56:03.864   01 Jun 2027 05:56:38.359            34.495                Irkutsk          4311.875
        12   01 Jun 2027 05:56:49.776   01 Jun 2027 05:57:49.865            60.089                Norilsk          7511.125
        13   01 Jun 2027 05:57:54.489   01 Jun 2027 05:58:38.593            44.104                Irkutsk          5513.000
        14   01 Jun 2027 05:58:50.997   01 Jun 2027 05:59:28.088            37.091              Murmansk1          4636.375
        15   01 Jun 2027 06:39:14.630   01 Jun 2027 06:39:16.899             2.269            RioGallegos           283.625
        16   01 Jun 2027 07:16:50.419   01 Jun 2027 07:19:47.723           177.304                  Delhi         22163.000
        17   01 Jun 2027 07:33:21.775   01 Jun 2027 07:34:41.235            79.460                 Moscow          9932.500
        18   01 Jun 2027 07:35:27.512   01 Jun 2027 07:36:02.591            35.079                Novosib          4384.875
        19   01 Jun 2027 09:07:34.060   01 Jun 2027 09:07:50.785            16.725                 Moscow          2090.625
        20   01 Jun 2027 09:07:55.255   01 Jun 2027 09:09:21.379            86.124              Murmansk2         10765.500
        21   01 Jun 2027 09:09:41.228   01 Jun 2027 09:10:09.623            28.395                 Moscow          3549.375
        22   01 Jun 2027 09:10:42.997   01 Jun 2027 09:14:01.898           198.901                 Moscow         24862.625
        23   01 Jun 2027 09:14:11.987   01 Jun 2027 09:17:31.014           199.027              Murmansk2         24878.375
        24   01 Jun 2027 10:15:44.897   01 Jun 2027 10:22:22.967           398.070               CapeTown         49758.750
        25   01 Jun 2027 10:55:39.816   01 Jun 2027 10:57:35.877           116.061                Anadyr2         14507.625
        26   01 Jun 2027 10:57:35.877   01 Jun 2027 11:01:38.932           243.055                Anadyr1         30381.875
        27   01 Jun 2027 12:34:38.172   01 Jun 2027 12:35:53.492            75.320               Magadan1          9415.000
        28   01 Jun 2027 12:38:57.385   01 Jun 2027 12:42:21.117           203.732               Magadan2         25466.500
        29   01 Jun 2027 15:05:31.220   01 Jun 2027 15:06:09.365            38.145            RioGallegos          4768.125
        30   01 Jun 2027 15:50:32.041   01 Jun 2027 15:54:06.058           214.017                Irkutsk         26752.125
        31   01 Jun 2027 15:55:08.277   01 Jun 2027 15:57:53.578           165.301                Irkutsk         20662.625
        32   01 Jun 2027 16:06:19.831   01 Jun 2027 16:08:05.576           105.745                Sumatra         13218.125
        33   01 Jun 2027 17:25:44.421   01 Jun 2027 17:27:40.404           115.983                Novosib         14497.875
        34   01 Jun 2027 17:31:30.281   01 Jun 2027 17:34:21.684           171.403                Novosib         21425.375
        35   01 Jun 2027 19:08:04.090   01 Jun 2027 19:08:43.016            38.926                  Delhi          1011.750
        36   02 Jun 2027 04:35:09.289   02 Jun 2027 04:37:49.767           160.478                Norilsk         20059.750
        37   02 Jun 2027 05:44:35.019   02 Jun 2027 05:46:29.405           114.386                Sumatra         14298.250
        38   02 Jun 2027 05:54:09.510   02 Jun 2027 05:55:13.615            64.105                  Delhi          8013.125
        39   02 Jun 2027 05:58:28.468   02 Jun 2027 06:00:43.783           135.315                  Delhi         16914.375
        40   02 Jun 2027 06:09:38.285   02 Jun 2027 06:10:05.851            27.566                Norilsk          3445.750
        41   02 Jun 2027 06:10:26.260   02 Jun 2027 06:12:31.346           125.086                Novosib         15635.750
        42   02 Jun 2027 06:12:37.486   02 Jun 2027 06:18:01.698           324.212              Murmansk1         40526.500
        43   02 Jun 2027 06:51:34.248   02 Jun 2027 06:53:17.340           103.092            RioGallegos         12886.500
        44   02 Jun 2027 07:29:03.511   02 Jun 2027 07:33:42.098           278.587                  Delhi         34823.375
        45   02 Jun 2027 07:37:05.119   02 Jun 2027 07:39:16.479           131.360                Novosib         16420.000
        46   02 Jun 2027 07:46:34.501   02 Jun 2027 07:47:55.255            80.754                Novosib         10094.250
        47   02 Jun 2027 07:47:59.445   02 Jun 2027 07:49:55.981           116.536                 Moscow         14567.000
        48   02 Jun 2027 07:50:05.830   02 Jun 2027 07:51:49.985           104.155              Murmansk1         13019.375
        49   02 Jun 2027 07:51:49.985   02 Jun 2027 07:51:59.709             9.724              Murmansk2          1215.500
        50   02 Jun 2027 07:53:37.377   02 Jun 2027 07:53:38.106             0.729              Murmansk1            91.125
        51   02 Jun 2027 09:16:38.354   02 Jun 2027 09:17:23.899            45.545              Murmansk1          5693.125
        52   02 Jun 2027 09:17:39.162   02 Jun 2027 09:18:19.238            40.076                 Moscow          5009.500
        53   02 Jun 2027 09:21:46.951   02 Jun 2027 09:27:26.260           339.309                Norilsk         42413.625
        54   02 Jun 2027 09:27:36.503   02 Jun 2027 09:29:32.627           116.124              Murmansk2         14515.500
        55   02 Jun 2027 10:28:40.087   02 Jun 2027 10:29:46.084            65.997               CapeTown          8249.625
        56   02 Jun 2027 10:31:12.147   02 Jun 2027 10:33:46.439           154.292               CapeTown         19286.500
        57   02 Jun 2027 10:53:57.416   02 Jun 2027 10:54:51.396            53.980              Murmansk2          6747.500
        58   02 Jun 2027 10:55:39.724   02 Jun 2027 10:55:44.883             5.159              Murmansk2           644.875
        59   02 Jun 2027 10:55:54.527   02 Jun 2027 10:56:18.668            24.141              Murmansk2          3017.625
        60   02 Jun 2027 10:56:18.668   02 Jun 2027 11:02:49.042           390.374              Murmansk1         48796.750
        61   02 Jun 2027 11:07:35.012   02 Jun 2027 11:12:54.331           319.319                Anadyr2         39914.875
        62   02 Jun 2027 11:13:07.347   02 Jun 2027 11:15:50.345           162.998                Anadyr1         20374.750
        63   02 Jun 2027 12:46:22.314   02 Jun 2027 12:48:11.047           108.733               Magadan2         13591.625
        64   02 Jun 2027 12:48:11.047   02 Jun 2027 12:49:56.933           105.886               Magadan1         13235.750
        65   02 Jun 2027 12:49:56.933   02 Jun 2027 12:51:53.567           116.634               Magadan2         14579.250
        66   02 Jun 2027 15:15:30.442   02 Jun 2027 15:18:27.059           176.617            RioGallegos         22077.125
        67   02 Jun 2027 16:02:06.252   02 Jun 2027 16:05:57.758           231.506                Irkutsk         28938.250
        68   02 Jun 2027 16:17:07.765   02 Jun 2027 16:19:46.536           158.771                Sumatra         19846.375
        69   02 Jun 2027 17:37:30.303   02 Jun 2027 17:39:44.651           134.348                Novosib         16793.500
        70   02 Jun 2027 17:47:42.656   02 Jun 2027 17:50:48.787           186.131                  Delhi         23266.375
        71   02 Jun 2027 19:20:00.660   02 Jun 2027 19:21:24.382            83.722                  Delhi         10465.250
        72   02 Jun 2027 20:47:07.773   02 Jun 2027 20:47:45.112            37.339              Murmansk2          4667.375
        73   02 Jun 2027 20:50:52.435   02 Jun 2027 20:53:29.275           156.840                 Moscow         19605.000
        74   02 Jun 2027 22:50:04.083   02 Jun 2027 22:50:39.338            35.255               CapeTown          4020.750
        75   03 Jun 2027 03:11:05.185   03 Jun 2027 03:20:31.966           566.781              Murmansk1         70847.625
        76   03 Jun 2027 03:45:59.792   03 Jun 2027 03:50:01.006           241.214            RioGallegos         30151.750
        77   03 Jun 2027 04:22:41.599   03 Jun 2027 04:25:39.578           177.979                Sumatra         22247.375
        78   03 Jun 2027 04:47:04.883   03 Jun 2027 04:51:29.276           264.393              Murmansk1         33049.125
        79   03 Jun 2027 04:51:29.276   03 Jun 2027 04:54:53.465           204.189              Murmansk2         25523.625
        80   03 Jun 2027 05:22:21.639   03 Jun 2027 05:25:56.399           214.760            RioGallegos         26845.000
        81   03 Jun 2027 05:26:39.141   03 Jun 2027 05:26:43.856             4.715            RioGallegos           589.375
        82   03 Jun 2027 05:56:44.076   03 Jun 2027 05:57:57.418            73.342                Sumatra          9167.750
        83   03 Jun 2027 05:59:15.781   03 Jun 2027 05:59:31.667            15.886                Sumatra          1985.750
        84   03 Jun 2027 06:11:19.653   03 Jun 2027 06:12:19.774            60.121                  Delhi          7515.125
        85   03 Jun 2027 06:12:48.802   03 Jun 2027 06:13:08.197            19.395                Novosib          2424.375
        86   03 Jun 2027 06:13:49.476   03 Jun 2027 06:15:33.234           103.758                Irkutsk         12969.750
        87   03 Jun 2027 06:16:12.595   03 Jun 2027 06:16:51.482            38.887                Novosib          4860.875
        88   03 Jun 2027 06:21:25.549   03 Jun 2027 06:21:29.794             4.245              Murmansk1           530.625
        89   03 Jun 2027 06:22:45.617   03 Jun 2027 06:23:17.451            31.834                Norilsk          3979.250
        90   03 Jun 2027 06:23:22.940   03 Jun 2027 06:29:41.308           378.368              Murmansk1         47296.000
        91   03 Jun 2027 07:41:23.117   03 Jun 2027 07:51:18.714           595.597                  Delhi         74449.625
        92   03 Jun 2027 07:51:47.070   03 Jun 2027 07:53:22.345            95.275                Novosib         11909.375
        93   03 Jun 2027 07:58:31.994   03 Jun 2027 08:03:25.502           293.508                Norilsk         36688.500
        94   03 Jun 2027 08:03:42.677   03 Jun 2027 08:05:18.281            95.604              Murmansk2         11950.500
        95   03 Jun 2027 08:05:32.517   03 Jun 2027 08:05:38.609             6.092              Murmansk2           761.500
        96   03 Jun 2027 09:25:12.608   03 Jun 2027 09:30:10.218           297.610                 Moscow         37201.250
        97   03 Jun 2027 09:30:17.933   03 Jun 2027 09:31:10.002            52.069              Murmansk2          6508.625
        98   03 Jun 2027 09:33:11.922   03 Jun 2027 09:40:46.550           454.628              Murmansk2         56828.500
        99   03 Jun 2027 10:44:21.660   03 Jun 2027 10:45:08.160            46.500               CapeTown          5812.500
       100   03 Jun 2027 11:06:18.090   03 Jun 2027 11:07:33.004            74.914              Murmansk2          9364.250
       101   03 Jun 2027 11:07:33.004   03 Jun 2027 11:08:20.334            47.330              Murmansk1          5916.250
       102   03 Jun 2027 11:08:42.659   03 Jun 2027 11:09:12.343            29.684              Murmansk1          3710.500
       103   03 Jun 2027 11:09:37.551   03 Jun 2027 11:09:49.072            11.521              Murmansk1          1440.125
       104   03 Jun 2027 11:09:58.583   03 Jun 2027 11:10:12.882            14.299              Murmansk1          1787.375
       105   03 Jun 2027 11:10:34.559   03 Jun 2027 11:11:05.997            31.438              Murmansk1          3929.750
       106   03 Jun 2027 11:12:24.774   03 Jun 2027 11:14:58.854           154.080              Murmansk1         19260.000
       107   03 Jun 2027 11:15:26.388   03 Jun 2027 11:16:10.758            44.370              Murmansk2          5546.250
       108   03 Jun 2027 11:19:31.545   03 Jun 2027 11:21:06.785            95.240                Anadyr1         11905.000
       109   03 Jun 2027 11:22:17.997   03 Jun 2027 11:24:45.815           147.818                Anadyr2         18477.250
       110   03 Jun 2027 11:26:21.281   03 Jun 2027 11:27:05.695            44.414                Anadyr1          5551.750
       111   03 Jun 2027 12:14:55.246   03 Jun 2027 12:15:26.112            30.866               CapeTown          3858.250
       112   03 Jun 2027 12:17:12.130   03 Jun 2027 12:19:34.481           142.351               CapeTown         17793.875
       113   03 Jun 2027 12:46:25.127   03 Jun 2027 12:47:13.018            47.891              Murmansk2          5986.375
       114   03 Jun 2027 12:58:10.695   03 Jun 2027 13:02:27.860           257.165               Magadan1         32145.625
       115   03 Jun 2027 14:33:26.825   03 Jun 2027 14:33:27.282             0.457               Magadan2            57.125
       116   03 Jun 2027 14:43:01.470   03 Jun 2027 14:43:46.258            44.788               Magadan2          5598.500
       117   03 Jun 2027 15:26:46.631   03 Jun 2027 15:30:15.206           208.575            RioGallegos         26071.875
       118   03 Jun 2027 16:13:47.786   03 Jun 2027 16:15:12.494            84.708                Irkutsk         10588.500
       119   03 Jun 2027 16:16:00.140   03 Jun 2027 16:17:51.603           111.463                Irkutsk         13932.875
       120   03 Jun 2027 16:29:43.723   03 Jun 2027 16:31:34.174           110.451                Sumatra         13806.375
       121   03 Jun 2027 17:49:19.707   03 Jun 2027 17:49:58.180            38.473                Novosib          4809.125
       122   03 Jun 2027 17:51:59.955   03 Jun 2027 17:52:53.012            53.057                Novosib          6632.125
       123   03 Jun 2027 17:58:30.368   03 Jun 2027 18:01:20.415           170.047                  Delhi         21255.875
       124   03 Jun 2027 19:32:00.603   03 Jun 2027 19:32:42.060            41.457                  Delhi          5182.125
       125   03 Jun 2027 21:02:43.957   03 Jun 2027 21:05:34.966           171.009                 Moscow         21376.125
       126   03 Jun 2027 21:29:24.304   03 Jun 2027 21:30:21.529            57.225               CapeTown          7153.125
       127   04 Jun 2027 03:21:57.757   04 Jun 2027 03:22:10.297            12.540                Irkutsk          1567.500
       128   04 Jun 2027 03:23:01.209   04 Jun 2027 03:27:49.221           288.012              Murmansk2         36001.500
       129   04 Jun 2027 03:27:49.221   04 Jun 2027 03:29:04.518            75.297              Murmansk1          9412.125
       130   04 Jun 2027 03:57:52.610   04 Jun 2027 04:00:03.768           131.158            RioGallegos         16394.750
       131   04 Jun 2027 04:34:31.154   04 Jun 2027 04:35:39.521            68.367                Sumatra          8545.875
       132   04 Jun 2027 04:40:31.124   04 Jun 2027 04:41:52.010            80.886                Sumatra         10110.750
       133   04 Jun 2027 04:58:52.858   04 Jun 2027 05:03:21.980           269.122              Murmansk1         33640.250
       134   04 Jun 2027 05:03:21.980   04 Jun 2027 05:06:46.020           204.040              Murmansk2         25505.000
       135   04 Jun 2027 05:36:38.089   04 Jun 2027 05:37:24.499            46.410            RioGallegos          5801.250
       136   04 Jun 2027 05:38:40.788   04 Jun 2027 05:38:54.053            13.265            RioGallegos          1658.125
       137   04 Jun 2027 06:08:59.513   04 Jun 2027 06:09:34.419            34.906                Sumatra          4363.250
       138   04 Jun 2027 06:11:17.899   04 Jun 2027 06:13:32.714           134.815                Sumatra         16851.875
       139   04 Jun 2027 06:17:22.521   04 Jun 2027 06:17:26.967             4.446                  Delhi           555.750
       140   04 Jun 2027 06:23:42.985   04 Jun 2027 06:25:38.481           115.496                Novosib         14437.000
       141   04 Jun 2027 06:25:49.459   04 Jun 2027 06:26:39.385            49.926                Irkutsk          6240.750
       142   04 Jun 2027 06:27:34.425   04 Jun 2027 06:27:51.472            17.047                Irkutsk          2130.875
       143   04 Jun 2027 06:28:29.268   04 Jun 2027 06:29:08.236            38.968                Novosib          4871.000
       144   04 Jun 2027 06:29:46.766   04 Jun 2027 06:30:08.025            21.259                Irkutsk          2657.375
       145   04 Jun 2027 06:34:17.534   04 Jun 2027 06:34:41.853            24.319                Norilsk          3039.875
       146   04 Jun 2027 06:34:51.996   04 Jun 2027 06:37:31.567           159.571                 Moscow         19946.375
       147   04 Jun 2027 06:37:33.560   04 Jun 2027 06:40:21.727           168.167              Murmansk2         21020.875
       148   04 Jun 2027 06:41:45.086   04 Jun 2027 06:41:56.804            11.718              Murmansk2          1464.750
       149   04 Jun 2027 07:53:50.370   04 Jun 2027 07:55:36.175           105.805                  Delhi         13225.625
       150   04 Jun 2027 07:56:22.528   04 Jun 2027 07:56:41.466            18.938                  Delhi          2367.250
       151   04 Jun 2027 07:57:33.877   04 Jun 2027 07:57:53.267            19.390                  Delhi          2423.750
       152   04 Jun 2027 08:02:12.759   04 Jun 2027 08:05:44.687           211.928                Novosib         26491.000
       153   04 Jun 2027 08:10:48.031   04 Jun 2027 08:11:32.629            44.598                Novosib          5574.750
       154   04 Jun 2027 08:11:33.620   04 Jun 2027 08:14:04.331           150.711                 Moscow         18838.875
       155   04 Jun 2027 08:14:07.754   04 Jun 2027 08:17:39.357           211.603              Murmansk2         26450.375
       156   04 Jun 2027 09:37:50.716   04 Jun 2027 09:42:08.749           258.033                 Moscow         32254.125
       157   04 Jun 2027 09:42:35.965   04 Jun 2027 09:44:00.098            84.133              Murmansk1         10516.625
       158   04 Jun 2027 09:44:24.742   04 Jun 2027 09:44:44.918            20.176              Murmansk2          2522.000
       159   04 Jun 2027 09:45:13.817   04 Jun 2027 09:45:32.538            18.721              Murmansk2          2340.125
       160   04 Jun 2027 09:45:32.538   04 Jun 2027 09:45:35.921             3.383              Murmansk1           422.875
       161   04 Jun 2027 09:46:28.779   04 Jun 2027 09:47:31.068            62.289              Murmansk1          7786.125
       162   04 Jun 2027 09:48:56.313   04 Jun 2027 09:49:37.059            40.746              Murmansk2          5093.250
       163   04 Jun 2027 09:50:32.886   04 Jun 2027 09:51:11.491            38.605              Murmansk2          4825.625
       164   04 Jun 2027 09:57:11.666   04 Jun 2027 10:01:11.703           240.037                Anadyr2         30004.625
       165   04 Jun 2027 11:18:41.040   04 Jun 2027 11:19:36.605            55.565              Murmansk2          6945.625
       166   04 Jun 2027 11:24:54.273   04 Jun 2027 11:27:10.488           136.215              Murmansk2         17026.875
       167   04 Jun 2027 11:31:29.114   04 Jun 2027 11:32:45.949            76.835                Anadyr2          9604.375
       168   04 Jun 2027 11:34:27.705   04 Jun 2027 11:36:06.294            98.589                Anadyr2         12323.625
       169   04 Jun 2027 11:39:22.906   04 Jun 2027 11:39:33.475            10.569                Anadyr2          1321.125
       170   04 Jun 2027 11:40:55.187   04 Jun 2027 11:41:02.304             7.117                Anadyr2           889.625
       171   04 Jun 2027 12:28:37.323   04 Jun 2027 12:29:28.861            51.538               CapeTown          6442.250
       172   04 Jun 2027 12:30:12.462   04 Jun 2027 12:31:02.932            50.470               CapeTown          6308.750
       173   04 Jun 2027 12:34:37.704   04 Jun 2027 12:36:39.673           121.969               CapeTown         15246.125
       174   04 Jun 2027 12:59:15.790   04 Jun 2027 13:00:37.783            81.993              Murmansk2         10249.125
       175   04 Jun 2027 13:10:01.993   04 Jun 2027 13:14:25.122           263.129               Magadan1         32891.125
       176   04 Jun 2027 15:38:18.510   04 Jun 2027 15:42:06.295           227.785            RioGallegos         28473.125
       177   04 Jun 2027 16:26:01.951   04 Jun 2027 16:28:07.655           125.704                Irkutsk         15713.000
       178   04 Jun 2027 16:40:49.194   04 Jun 2027 16:41:33.827            44.633                Sumatra          5579.125
       179   04 Jun 2027 16:42:47.212   04 Jun 2027 16:43:27.778            40.566                Sumatra          5070.750
       180   04 Jun 2027 16:46:34.267   04 Jun 2027 16:47:03.650            29.383                Sumatra          3672.875
       181   04 Jun 2027 18:01:11.705   04 Jun 2027 18:02:29.631            77.926                Novosib          9740.750
       182   04 Jun 2027 18:04:05.022   04 Jun 2027 18:04:07.431             2.409                Novosib           301.125
       183   04 Jun 2027 18:07:51.213   04 Jun 2027 18:10:22.477           151.264                Novosib         18908.000
       184   04 Jun 2027 18:11:19.690   04 Jun 2027 18:13:08.202           108.512                  Delhi         13564.000
       185   04 Jun 2027 18:17:43.589   04 Jun 2027 18:19:04.486            80.897                  Delhi         10112.125
       186   04 Jun 2027 21:13:22.824   04 Jun 2027 21:15:49.405           146.581              Murmansk1         18322.625
       187   04 Jun 2027 21:39:43.020   04 Jun 2027 21:40:34.775            51.755               CapeTown          6469.375
       188   04 Jun 2027 21:41:23.915   04 Jun 2027 21:43:08.247           104.332               CapeTown         13041.500
       189   05 Jun 2027 03:35:12.793   05 Jun 2027 03:37:20.817           128.024                Norilsk         16003.000
       190   05 Jun 2027 04:45:31.580   05 Jun 2027 04:47:04.342            92.762                Sumatra         11595.250
       191   05 Jun 2027 05:10:58.260   05 Jun 2027 05:11:37.071            38.811              Murmansk2          4851.375
       192   05 Jun 2027 05:11:38.346   05 Jun 2027 05:15:14.702           216.356                Norilsk         27044.500
       193   05 Jun 2027 05:15:19.330   05 Jun 2027 05:17:23.770           124.440              Murmansk1         15555.000
       194   05 Jun 2027 05:49:25.485   05 Jun 2027 05:50:09.271            43.786            RioGallegos          5473.250
       195   05 Jun 2027 05:50:54.078   05 Jun 2027 05:51:00.772             6.694            RioGallegos           836.750
       196   05 Jun 2027 05:53:47.860   05 Jun 2027 05:54:35.615            47.755            RioGallegos          5969.375
       197   05 Jun 2027 06:22:57.227   05 Jun 2027 06:24:26.182            88.955                Sumatra         11119.375
       198   05 Jun 2027 06:27:25.781   05 Jun 2027 06:28:14.099            48.318                Sumatra          6039.750
       199   05 Jun 2027 06:29:08.262   05 Jun 2027 06:31:26.278           138.016                  Delhi         17252.000
       200   05 Jun 2027 06:35:50.397   05 Jun 2027 06:38:14.497           144.100                Novosib         18012.500
       201   05 Jun 2027 06:39:13.349   05 Jun 2027 06:39:42.633            29.284                Irkutsk          3660.500
       202   05 Jun 2027 06:40:40.244   05 Jun 2027 06:42:02.320            82.076                Irkutsk         10259.500
       203   05 Jun 2027 06:46:41.498   05 Jun 2027 06:49:40.105           178.607                 Moscow         22325.875
       204   05 Jun 2027 06:50:04.020   05 Jun 2027 06:51:58.804           114.784                Norilsk         14348.000
       205   05 Jun 2027 08:06:27.285   05 Jun 2027 08:10:07.550           220.265                  Delhi         27533.125
       206   05 Jun 2027 08:15:14.022   05 Jun 2027 08:18:11.505           177.483                Novosib         22185.375
       207   05 Jun 2027 08:22:58.100   05 Jun 2027 08:27:57.283           299.183                Norilsk         37397.875
       208   05 Jun 2027 08:28:18.861   05 Jun 2027 08:29:40.321            81.460              Murmansk2         10182.500
       209   05 Jun 2027 09:49:29.317   05 Jun 2027 09:54:37.540           308.223                 Moscow         38527.875
       210   05 Jun 2027 09:54:44.676   05 Jun 2027 09:57:40.053           175.377              Murmansk1         21922.125
       211   05 Jun 2027 10:00:43.705   05 Jun 2027 10:02:14.505            90.800                Norilsk         11350.000
       212   05 Jun 2027 10:08:41.125   05 Jun 2027 10:12:35.922           234.797                Anadyr1         29349.625
       213   05 Jun 2027 10:12:54.751   05 Jun 2027 10:14:21.978            87.227                Anadyr2         10903.375
       214   05 Jun 2027 11:31:06.375   05 Jun 2027 11:32:23.605            77.230              Murmansk2          9653.750
       215   05 Jun 2027 11:39:42.915   05 Jun 2027 11:40:07.644            24.729              Murmansk2          3091.125
       216   05 Jun 2027 11:40:56.960   05 Jun 2027 11:41:31.231            34.271              Murmansk2          4283.875
       217   05 Jun 2027 11:43:27.508   05 Jun 2027 11:48:35.065           307.557                Anadyr2         38444.625
       218   05 Jun 2027 12:41:01.318   05 Jun 2027 12:41:27.167            25.849               CapeTown          3231.125
       219   05 Jun 2027 12:41:50.886   05 Jun 2027 12:42:18.049            27.163               CapeTown          3395.375
       220   05 Jun 2027 12:44:29.125   05 Jun 2027 12:46:26.076           116.951               CapeTown         14618.875
       221   05 Jun 2027 13:12:15.317   05 Jun 2027 13:13:14.836            59.519              Murmansk1          7439.875
       222   05 Jun 2027 13:21:55.450   05 Jun 2027 13:26:23.291           267.841               Magadan1         33480.125
       223   05 Jun 2027 15:49:58.552   05 Jun 2027 15:53:59.684           241.132            RioGallegos         30141.500
       224   05 Jun 2027 16:37:23.737   05 Jun 2027 16:40:11.794           168.057                Irkutsk         21007.125
       225   05 Jun 2027 16:41:42.126   05 Jun 2027 16:41:44.196             2.070                Irkutsk           258.750
       226   05 Jun 2027 16:46:29.320   05 Jun 2027 16:46:51.889            22.569                Irkutsk          2821.125
       227   05 Jun 2027 16:51:20.156   05 Jun 2027 16:53:17.048           116.892                Sumatra         14611.500
       228   05 Jun 2027 16:56:24.650   05 Jun 2027 16:57:57.796            93.146                Sumatra         11643.250
       229   05 Jun 2027 18:14:56.035   05 Jun 2027 18:15:14.038            18.003                Novosib          2250.375
       230   05 Jun 2027 18:21:15.213   05 Jun 2027 18:25:00.267           225.054                  Delhi         28131.750
       231   05 Jun 2027 18:27:55.562   05 Jun 2027 18:28:25.518            29.956                  Delhi          3744.500
       232   05 Jun 2027 19:53:48.698   05 Jun 2027 19:55:28.130            99.432                 Moscow         12429.000
       233   05 Jun 2027 21:26:32.874   05 Jun 2027 21:28:44.581           131.707                 Moscow         16463.375
       234   05 Jun 2027 21:52:53.502   05 Jun 2027 21:53:20.649            27.147               CapeTown          3393.375
       235   05 Jun 2027 21:57:54.318   05 Jun 2027 22:00:07.635           133.317               CapeTown         16520.250
       236   06 Jun 2027 03:47:17.302   06 Jun 2027 03:48:10.957            53.655                Novosib          6706.875
       237   06 Jun 2027 03:48:32.353   06 Jun 2027 03:49:10.214            37.861                Norilsk          4732.625
       238   06 Jun 2027 04:57:10.620   06 Jun 2027 04:59:06.788           116.168                Sumatra         14521.000
       239   06 Jun 2027 05:11:16.623   06 Jun 2027 05:12:03.199            46.576                  Delhi          5822.000
       240   06 Jun 2027 05:23:06.813   06 Jun 2027 05:23:33.333            26.520                Novosib          3315.000
       241   06 Jun 2027 05:23:33.998   06 Jun 2027 05:28:01.042           267.044              Murmansk2         33380.500
       242   06 Jun 2027 06:01:25.498   06 Jun 2027 06:02:14.284            48.786            RioGallegos          6098.250
       243   06 Jun 2027 06:02:32.437   06 Jun 2027 06:03:05.199            32.762            RioGallegos          4095.250
       244   06 Jun 2027 06:05:43.540   06 Jun 2027 06:06:37.935            54.395            RioGallegos          6799.375
       245   06 Jun 2027 06:07:49.556   06 Jun 2027 06:07:54.507             4.951            RioGallegos           618.875
       246   06 Jun 2027 06:33:55.248   06 Jun 2027 06:36:09.753           134.505                Sumatra         16813.125
       247   06 Jun 2027 06:38:58.742   06 Jun 2027 06:40:30.237            91.495                Sumatra         11436.875
       248   06 Jun 2027 06:42:28.944   06 Jun 2027 06:42:32.829             3.885                  Delhi           485.625
       249   06 Jun 2027 06:43:05.325   06 Jun 2027 06:44:15.287            69.962                  Delhi          8745.250
       250   06 Jun 2027 06:48:01.008   06 Jun 2027 06:50:03.806           122.798                Novosib         15349.750
       251   06 Jun 2027 06:50:40.562   06 Jun 2027 06:52:41.847           121.285                Irkutsk         15160.625
       252   06 Jun 2027 06:53:26.791   06 Jun 2027 06:53:59.430            32.639                 Moscow          4079.875
       253   06 Jun 2027 06:58:48.260   06 Jun 2027 07:01:05.950           137.690              Murmansk1         17211.250
       254   06 Jun 2027 07:01:21.370   06 Jun 2027 07:01:47.629            26.259                 Moscow          3282.375
       255   06 Jun 2027 07:02:24.638   06 Jun 2027 07:03:33.975            69.337              Murmansk2          8667.125
       256   06 Jun 2027 07:04:04.276   06 Jun 2027 07:04:05.115             0.839                Norilsk           104.875
       257   06 Jun 2027 08:19:17.813   06 Jun 2027 08:22:28.523           190.710                  Delhi         23838.750
       258   06 Jun 2027 08:27:50.811   06 Jun 2027 08:30:08.931           138.120                Novosib         17265.000
       259   06 Jun 2027 08:34:22.821   06 Jun 2027 08:35:01.427            38.606                 Moscow          4825.750
       260   06 Jun 2027 08:35:31.559   06 Jun 2027 08:40:54.725           323.166              Murmansk2         40395.750
       261   06 Jun 2027 08:40:54.725   06 Jun 2027 08:41:41.472            46.747              Murmansk1          5843.375
       262   06 Jun 2027 10:01:42.605   06 Jun 2027 10:06:14.443           271.838                 Moscow         33979.750
       263   06 Jun 2027 10:08:27.143   06 Jun 2027 10:09:10.002            42.859              Murmansk1          5357.375
       264   06 Jun 2027 10:11:56.693   06 Jun 2027 10:12:49.264            52.571              Murmansk1          6571.375
       265   06 Jun 2027 10:12:59.493   06 Jun 2027 10:14:54.827           115.334              Murmansk2         14416.750
       266   06 Jun 2027 10:15:20.029   06 Jun 2027 10:15:51.381            31.352              Murmansk1          3919.000
       267   06 Jun 2027 10:20:22.607   06 Jun 2027 10:27:08.842           406.235                Anadyr2         50779.375
       268   06 Jun 2027 11:44:25.144   06 Jun 2027 11:44:59.696            34.552              Murmansk1          4319.000
       269   06 Jun 2027 11:45:12.180   06 Jun 2027 11:45:31.322            19.142              Murmansk1          2392.750
       270   06 Jun 2027 11:45:55.831   06 Jun 2027 11:46:35.623            39.792              Murmansk1          4974.000
       271   06 Jun 2027 11:47:19.342   06 Jun 2027 11:48:13.529            54.187              Murmansk1          6773.375
       272   06 Jun 2027 11:55:26.563   06 Jun 2027 11:56:22.200            55.637                Anadyr2          6954.625
       273   06 Jun 2027 11:57:26.321   06 Jun 2027 12:00:07.237           160.916                Anadyr1         20114.500
       274   06 Jun 2027 12:01:30.724   06 Jun 2027 12:02:10.792            40.068               Magadan2          5008.500
       275   06 Jun 2027 12:04:54.882   06 Jun 2027 12:05:50.858            55.976                Anadyr1          6997.000
       276   06 Jun 2027 12:51:51.833   06 Jun 2027 12:52:41.287            49.454               CapeTown          6181.750
       277   06 Jun 2027 12:54:04.319   06 Jun 2027 12:55:58.386           114.067               CapeTown         14258.375
       278   06 Jun 2027 13:33:50.558   06 Jun 2027 13:35:41.970           111.412               Magadan2         13926.500
       279   06 Jun 2027 13:36:51.528   06 Jun 2027 13:38:49.611           118.083               Magadan1         14760.375
       280   06 Jun 2027 16:01:43.791   06 Jun 2027 16:04:15.336           151.545            RioGallegos         18943.125
       281   06 Jun 2027 16:04:41.620   06 Jun 2027 16:07:41.150           179.530            RioGallegos         22441.250
       282   06 Jun 2027 16:49:15.973   06 Jun 2027 16:51:03.462           107.489                Irkutsk         13436.125
       283   06 Jun 2027 16:54:06.355   06 Jun 2027 16:55:59.831           113.476                Novosib         14184.500
       284   06 Jun 2027 17:03:02.809   06 Jun 2027 17:04:53.968           111.159                Sumatra         13894.875
       285   06 Jun 2027 17:14:03.144   06 Jun 2027 17:15:21.270            78.126                Sumatra          9765.750
       286   06 Jun 2027 18:32:52.932   06 Jun 2027 18:35:09.511           136.579                  Delhi         17072.375
       287   06 Jun 2027 18:36:49.440   06 Jun 2027 18:36:56.062             6.622                  Delhi           827.750
       288   06 Jun 2027 20:04:54.694   06 Jun 2027 20:07:49.546           174.852                 Moscow         21856.500
       289   06 Jun 2027 21:43:06.085   06 Jun 2027 21:45:00.763           114.678                 Moscow         14334.750
       290   06 Jun 2027 22:05:07.757   06 Jun 2027 22:06:58.851           111.094               CapeTown         13886.750
       291   07 Jun 2027 03:59:19.801   07 Jun 2027 04:00:18.305            58.504                Novosib          7313.000
       292   07 Jun 2027 04:00:18.572   07 Jun 2027 04:03:28.995           190.423              Murmansk2         23802.875
       293   07 Jun 2027 05:08:56.605   07 Jun 2027 05:09:57.547            60.942                Sumatra          7617.750
       294   07 Jun 2027 05:10:38.865   07 Jun 2027 05:11:43.335            64.470                Sumatra          8058.750
       295   07 Jun 2027 05:22:02.405   07 Jun 2027 05:22:43.101            40.696                  Delhi          5087.000
       296   07 Jun 2027 05:24:24.185   07 Jun 2027 05:26:37.825           133.640                  Delhi         16705.000
       297   07 Jun 2027 05:34:49.766   07 Jun 2027 05:35:01.736            11.970                Irkutsk          1496.250
       298   07 Jun 2027 05:35:02.845   07 Jun 2027 05:36:18.620            75.775                 Moscow          9471.875
       299   07 Jun 2027 05:36:25.496   07 Jun 2027 05:40:01.042           215.546              Murmansk2         26943.250
       300   07 Jun 2027 05:40:01.042   07 Jun 2027 05:41:28.096            87.054              Murmansk1         10881.750
       301   07 Jun 2027 06:46:42.551   07 Jun 2027 06:47:54.865            72.314                Sumatra          9039.250
       302   07 Jun 2027 06:52:56.075   07 Jun 2027 06:54:36.336           100.261                  Delhi         12532.625
       303   07 Jun 2027 07:00:15.015   07 Jun 2027 07:01:45.997            90.982                Novosib         11372.750
       304   07 Jun 2027 07:02:35.811   07 Jun 2027 07:05:15.375           159.564                Irkutsk         19945.500
       305   07 Jun 2027 07:05:21.549   07 Jun 2027 07:05:32.539            10.990                 Moscow          1373.750
       306   07 Jun 2027 07:10:43.987   07 Jun 2027 07:13:11.769           147.782              Murmansk1         18472.750
       307   07 Jun 2027 07:13:17.650   07 Jun 2027 07:13:54.350            36.700                 Moscow          4587.500
       308   07 Jun 2027 07:14:27.481   07 Jun 2027 07:15:23.529            56.048              Murmansk1          7006.000
       309   07 Jun 2027 07:16:03.673   07 Jun 2027 07:16:06.821             3.148                Norilsk           393.500
       310   07 Jun 2027 07:17:48.017   07 Jun 2027 07:17:53.096             5.079              Murmansk1           634.875
       311   07 Jun 2027 08:32:32.220   07 Jun 2027 08:34:57.444           145.224                  Delhi         18153.000
       312   07 Jun 2027 08:36:14.372   07 Jun 2027 08:37:32.315            77.943                  Delhi          9742.875
       313   07 Jun 2027 08:37:39.401   07 Jun 2027 08:38:24.913            45.512                  Delhi          5689.000
       314   07 Jun 2027 08:46:47.148   07 Jun 2027 08:47:02.926            15.778                Norilsk          1972.250
       315   07 Jun 2027 08:47:16.375   07 Jun 2027 08:51:54.898           278.523                Norilsk         34815.375
       316   07 Jun 2027 08:52:03.021   07 Jun 2027 08:53:42.774            99.753              Murmansk1         12469.125
       317   07 Jun 2027 09:53:08.972   07 Jun 2027 10:00:46.790           457.818               CapeTown         57227.250
       318   07 Jun 2027 10:13:59.471   07 Jun 2027 10:23:16.349           556.878                 Moscow         69609.750
       319   07 Jun 2027 10:23:21.390   07 Jun 2027 10:27:46.704           265.314              Murmansk1         33164.250
       320   07 Jun 2027 10:28:33.451   07 Jun 2027 10:29:31.049            57.598              Murmansk1          7199.750
       321   07 Jun 2027 10:32:09.996   07 Jun 2027 10:36:27.076           257.080                Anadyr2         32135.000
       322   07 Jun 2027 10:36:47.735   07 Jun 2027 10:40:05.055           197.320                Anadyr1         24665.000
       323   07 Jun 2027 11:57:00.664   07 Jun 2027 11:57:18.360            17.696              Murmansk1          2212.000
       324   07 Jun 2027 11:57:48.822   07 Jun 2027 11:58:37.518            48.696              Murmansk1          6087.000
       325   07 Jun 2027 11:59:21.589   07 Jun 2027 11:59:46.546            24.957              Murmansk1          3119.625
       326   07 Jun 2027 12:00:22.507   07 Jun 2027 12:00:57.105            34.598              Murmansk2          4324.750
       327   07 Jun 2027 12:02:59.855   07 Jun 2027 12:03:09.337             9.482              Murmansk1          1185.250
       328   07 Jun 2027 12:07:26.157   07 Jun 2027 12:08:15.055            48.898                Anadyr1          6112.250
       329   07 Jun 2027 12:09:45.412   07 Jun 2027 12:11:36.365           110.953                Anadyr2         13869.125
       330   07 Jun 2027 12:11:50.837   07 Jun 2027 12:14:26.725           155.888               Magadan2         19486.000
       331   07 Jun 2027 13:45:46.972   07 Jun 2027 13:47:16.858            89.886               Magadan2         11235.750
       332   07 Jun 2027 13:53:24.178   07 Jun 2027 13:54:41.886            77.708               Magadan1          9713.500
       333   07 Jun 2027 15:28:45.803   07 Jun 2027 15:31:06.511           140.708                Irkutsk         17588.500
       334   07 Jun 2027 16:14:42.977   07 Jun 2027 16:16:19.122            96.145            RioGallegos         12018.125
       335   07 Jun 2027 16:17:46.234   07 Jun 2027 16:19:14.953            88.719            RioGallegos         11089.875
       336   07 Jun 2027 17:01:10.240   07 Jun 2027 17:03:13.981           123.741                Irkutsk         15467.625
       337   07 Jun 2027 17:03:22.431   07 Jun 2027 17:06:16.701           174.270                Novosib         21783.750
       338   07 Jun 2027 17:16:21.130   07 Jun 2027 17:17:48.732            87.602                Sumatra         10950.250
       339   07 Jun 2027 18:40:02.760   07 Jun 2027 18:41:35.440            92.680                Novosib         11585.000
       340   07 Jun 2027 18:44:36.885   07 Jun 2027 18:46:44.479           127.594                  Delhi         15949.250
       341   07 Jun 2027 18:52:07.994   07 Jun 2027 18:54:02.168           114.174                  Delhi         14271.750
       342   07 Jun 2027 20:17:08.134   07 Jun 2027 20:19:40.536           152.402                 Moscow         19050.250
       343   07 Jun 2027 22:14:36.849   07 Jun 2027 22:15:00.364            23.515               CapeTown          2939.375
       344   07 Jun 2027 22:17:04.282   07 Jun 2027 22:17:18.401            14.119               CapeTown          1764.875
       345   07 Jun 2027 22:18:51.756   07 Jun 2027 22:19:01.605             9.849               CapeTown          1231.125
       346   07 Jun 2027 22:21:39.595   07 Jun 2027 22:22:12.418            32.823               CapeTown           516.125
       347   08 Jun 2027 04:11:21.500   08 Jun 2027 04:11:40.243            18.743                Norilsk          2342.875
       348   08 Jun 2027 04:11:43.467   08 Jun 2027 04:12:24.876            41.409                Novosib          5176.125
       349   08 Jun 2027 04:12:31.816   08 Jun 2027 04:14:35.153           123.337              Murmansk2         15417.125
       350   08 Jun 2027 05:20:48.692   08 Jun 2027 05:22:42.832           114.140                Sumatra         14267.500
       351   08 Jun 2027 05:31:42.613   08 Jun 2027 05:34:21.502           158.889                  Delhi         19861.125
       352   08 Jun 2027 05:47:00.631   08 Jun 2027 05:49:37.812           157.181              Murmansk2         19647.625
       353   08 Jun 2027 05:49:59.893   08 Jun 2027 05:54:23.552           263.659              Murmansk2         32957.375
       354   08 Jun 2027 06:59:58.666   08 Jun 2027 07:02:28.703           150.037                Sumatra         18754.625
       355   08 Jun 2027 07:03:53.035   08 Jun 2027 07:05:16.206            83.171                Sumatra         10396.375
       356   08 Jun 2027 07:05:55.128   08 Jun 2027 07:06:50.995            55.867                  Delhi          6983.375
       357   08 Jun 2027 07:11:20.462   08 Jun 2027 07:13:00.505           100.043                  Delhi         12505.375
       358   08 Jun 2027 07:13:57.560   08 Jun 2027 07:14:37.871            40.311                  Delhi          5038.875
       359   08 Jun 2027 07:14:50.502   08 Jun 2027 07:16:52.943           122.441                Novosib         15305.125
       360   08 Jun 2027 07:17:02.490   08 Jun 2027 07:17:56.036            53.546                Irkutsk          6693.250
       361   08 Jun 2027 07:18:21.241   08 Jun 2027 07:18:54.257            33.016                 Moscow          4127.000
       362   08 Jun 2027 07:23:01.936   08 Jun 2027 07:26:00.592           178.656                Norilsk         22332.000
       363   08 Jun 2027 07:26:27.834   08 Jun 2027 07:28:37.603           129.769              Murmansk2         16221.125
       364   08 Jun 2027 07:29:49.349   08 Jun 2027 07:29:52.673             3.324              Murmansk2           415.500
       365   08 Jun 2027 08:59:17.000   08 Jun 2027 09:03:52.106           275.106                Norilsk         34388.250
       366   08 Jun 2027 09:03:53.699   08 Jun 2027 09:05:44.213           110.514              Murmansk2         13814.250
       367   08 Jun 2027 10:04:27.945   08 Jun 2027 10:13:38.836           550.891               CapeTown         68861.375
       368   08 Jun 2027 10:26:20.222   08 Jun 2027 10:33:20.957           420.735                 Moscow         52591.875
       369   08 Jun 2027 10:33:24.022   08 Jun 2027 10:36:46.589           202.567              Murmansk1         25320.875
       370   08 Jun 2027 10:37:40.760   08 Jun 2027 10:38:02.378            21.618              Murmansk1          2702.250
       371   08 Jun 2027 10:38:26.452   08 Jun 2027 10:38:49.352            22.900              Murmansk1          2862.500
       372   08 Jun 2027 10:40:56.046   08 Jun 2027 10:41:36.755            40.709              Murmansk1          5088.625
       373   08 Jun 2027 10:44:00.993   08 Jun 2027 10:52:46.342           525.349                Anadyr2         65668.625
       374   08 Jun 2027 12:08:38.327   08 Jun 2027 12:12:58.576           260.249              Murmansk2         32531.125
       375   08 Jun 2027 12:20:05.014   08 Jun 2027 12:20:09.835             4.821                Anadyr2           602.625
       376   08 Jun 2027 12:23:15.120   08 Jun 2027 12:26:58.600           223.480               Magadan2         27935.000
       377   08 Jun 2027 13:57:44.443   08 Jun 2027 13:58:59.596            75.153               Magadan1          9394.125
       378   08 Jun 2027 14:00:04.218   08 Jun 2027 14:00:55.836            51.618               Magadan2          6452.250
       379   08 Jun 2027 14:07:12.423   08 Jun 2027 14:07:17.585             5.162               Magadan1           645.250
       380   08 Jun 2027 15:39:25.224   08 Jun 2027 15:45:00.243           335.019                Irkutsk         41877.375
       381   08 Jun 2027 16:27:11.214   08 Jun 2027 16:28:19.561            68.347            RioGallegos          8543.375
       382   08 Jun 2027 17:13:06.164   08 Jun 2027 17:14:45.638            99.474                Irkutsk         12434.250
       383   08 Jun 2027 17:15:40.895   08 Jun 2027 17:18:08.206           147.311                Novosib         18413.875
       384   08 Jun 2027 17:19:18.048   08 Jun 2027 17:22:08.047           169.999                Novosib         21249.875
       385   08 Jun 2027 18:56:01.334   08 Jun 2027 18:56:10.736             9.402                Novosib          1175.250
       386   08 Jun 2027 18:56:25.746   08 Jun 2027 18:58:37.227           131.481                  Delhi         16435.125
       387   08 Jun 2027 19:04:06.095   08 Jun 2027 19:04:45.259            39.164                  Delhi          4895.500
       388   08 Jun 2027 19:07:51.917   08 Jun 2027 19:08:50.324            58.407                  Delhi          7300.875
       389   08 Jun 2027 20:27:33.133   08 Jun 2027 20:31:33.755           240.622                 Moscow         22561.125
       390   09 Jun 2027 04:23:22.729   09 Jun 2027 04:23:39.632            16.903                Norilsk          2112.875
       391   09 Jun 2027 04:23:39.635   09 Jun 2027 04:24:30.790            51.155                Novosib          6394.375
       392   09 Jun 2027 04:24:37.529   09 Jun 2027 04:26:31.823           114.294              Murmansk2         14286.750
       393   09 Jun 2027 05:32:46.461   09 Jun 2027 05:35:27.736           161.275                Sumatra         20159.375
       394   09 Jun 2027 05:42:58.273   09 Jun 2027 05:43:11.842            13.569                  Delhi          1696.125
       395   09 Jun 2027 05:44:15.476   09 Jun 2027 05:44:49.968            34.492                  Delhi          4311.500
       396   09 Jun 2027 05:48:51.113   09 Jun 2027 05:50:43.628           112.515                  Delhi         14064.375
       397   09 Jun 2027 05:58:32.776   09 Jun 2027 05:59:09.356            36.580                 Moscow          4572.500
       398   09 Jun 2027 05:59:21.241   09 Jun 2027 06:01:10.334           109.093                 Moscow         13636.625
       399   09 Jun 2027 06:01:17.247   09 Jun 2027 06:04:41.282           204.035              Murmansk1         25504.375
       400   09 Jun 2027 06:04:41.282   09 Jun 2027 06:06:19.648            98.366              Murmansk2         12295.750
       401   09 Jun 2027 07:17:05.273   09 Jun 2027 07:21:59.160           293.887                  Delhi         36735.875
       402   09 Jun 2027 07:24:54.250   09 Jun 2027 07:29:04.192           249.942                Novosib         31242.750
       403   09 Jun 2027 07:29:17.311   09 Jun 2027 07:30:09.229            51.918                 Moscow          6489.750
       404   09 Jun 2027 07:34:49.146   09 Jun 2027 07:35:22.961            33.815                Novosib          4226.875
       405   09 Jun 2027 07:35:25.505   09 Jun 2027 07:38:05.840           160.335                 Moscow         20041.875
       406   09 Jun 2027 07:38:06.294   09 Jun 2027 07:40:12.757           126.463              Murmansk1         15807.875
       407   09 Jun 2027 07:40:54.534   09 Jun 2027 07:41:27.875            33.341              Murmansk2          4167.625
       408   09 Jun 2027 07:41:50.819   09 Jun 2027 07:41:52.591             1.772              Murmansk2           221.500
       409   09 Jun 2027 09:11:19.023   09 Jun 2027 09:15:47.684           268.661                Norilsk         33582.625
       410   09 Jun 2027 09:15:49.192   09 Jun 2027 09:17:45.747           116.555              Murmansk1         14569.375
       411   09 Jun 2027 10:15:59.255   09 Jun 2027 10:26:22.904           623.649               CapeTown         77956.125
       412   09 Jun 2027 10:38:45.246   09 Jun 2027 10:42:46.323           241.077                 Moscow         30134.625
       413   09 Jun 2027 10:42:56.784   09 Jun 2027 10:46:13.474           196.690              Murmansk1         24586.250
       414   09 Jun 2027 10:46:20.653   09 Jun 2027 10:50:55.706           275.053              Murmansk2         34381.625
       415   09 Jun 2027 10:51:02.157   09 Jun 2027 10:51:41.156            38.999              Murmansk1          4874.875
       416   09 Jun 2027 10:55:54.435   09 Jun 2027 11:04:29.371           514.936                Anadyr2         64367.000
       417   09 Jun 2027 12:21:15.087   09 Jun 2027 12:22:40.174            85.087              Murmansk1         10635.875
       418   09 Jun 2027 12:31:26.555   09 Jun 2027 12:32:06.040            39.485                Anadyr2          4935.625
       419   09 Jun 2027 12:34:52.605   09 Jun 2027 12:36:08.882            76.277               Magadan2          9534.625
       420   09 Jun 2027 12:39:11.465   09 Jun 2027 12:42:36.551           205.086               Magadan1         25635.750
       421   09 Jun 2027 14:19:14.291   09 Jun 2027 14:19:16.516             2.225               Magadan1           278.125
       422   09 Jun 2027 15:05:38.250   09 Jun 2027 15:06:32.242            53.992            RioGallegos          6749.000
       423   09 Jun 2027 15:50:46.297   09 Jun 2027 15:55:23.654           277.357                Irkutsk         34669.625
       424   09 Jun 2027 16:06:33.227   09 Jun 2027 16:08:20.007           106.780                Sumatra         13347.500
       425   09 Jun 2027 17:25:58.888   09 Jun 2027 17:27:55.663           116.775                Novosib         14596.875
       426   09 Jun 2027 17:30:01.818   09 Jun 2027 17:31:45.541           103.723                Novosib         12965.375
       427   09 Jun 2027 17:38:47.438   09 Jun 2027 17:40:30.730           103.292                Sumatra         12911.500
       428   09 Jun 2027 19:05:44.557   09 Jun 2027 19:07:45.864           121.307                Novosib         15163.375
       429   09 Jun 2027 19:08:18.722   09 Jun 2027 19:10:11.686           112.964                  Delhi         14120.500
       430   09 Jun 2027 20:39:02.365   09 Jun 2027 20:40:00.161            57.796              Murmansk2          7224.500
       431   09 Jun 2027 20:41:13.848   09 Jun 2027 20:43:28.733           134.885                 Moscow         16860.625
       432   09 Jun 2027 21:07:28.231   09 Jun 2027 21:07:45.332            17.101               CapeTown          2137.625
       433   09 Jun 2027 22:14:25.666   09 Jun 2027 22:15:19.576            53.910                 Moscow          3756.750
       434   10 Jun 2027 04:35:24.140   10 Jun 2027 04:36:28.479            64.339                Norilsk          8042.375
       435   10 Jun 2027 04:36:31.441   10 Jun 2027 04:38:16.785           105.344              Murmansk1         13168.000
       436   10 Jun 2027 05:44:49.816   10 Jun 2027 05:46:43.576           113.760                Sumatra         14220.000
       437   10 Jun 2027 05:55:28.640   10 Jun 2027 05:57:56.006           147.366                  Delhi         18420.750
       438   10 Jun 2027 06:09:53.030   10 Jun 2027 06:10:19.333            26.303              Murmansk2          3287.875
       439   10 Jun 2027 06:11:06.193   10 Jun 2027 06:11:32.063            25.870                Norilsk          3233.750
       440   10 Jun 2027 06:11:41.844   10 Jun 2027 06:13:24.862           103.018                 Moscow         12877.250
       441   10 Jun 2027 06:13:41.346   10 Jun 2027 06:16:50.926           189.580              Murmansk2         23697.500
       442   10 Jun 2027 06:51:50.770   10 Jun 2027 06:53:32.553           101.783            RioGallegos         12722.875
       443   10 Jun 2027 07:29:18.452   10 Jun 2027 07:33:56.740           278.288                  Delhi         34786.000
       444   10 Jun 2027 07:37:20.228   10 Jun 2027 07:41:18.868           238.640                Novosib         29830.000
       445   10 Jun 2027 07:41:41.109   10 Jun 2027 07:41:53.701            12.592                 Moscow          1574.000
       446   10 Jun 2027 07:46:49.931   10 Jun 2027 07:48:09.852            79.921                Novosib          9990.125
       447   10 Jun 2027 07:48:14.873   10 Jun 2027 07:50:10.752           115.879                 Moscow         14484.875
       448   10 Jun 2027 07:50:20.430   10 Jun 2027 07:52:04.704           104.274              Murmansk1         13034.250
       449   10 Jun 2027 07:53:52.396   10 Jun 2027 07:53:52.819             0.423              Murmansk2            52.875
       450   10 Jun 2027 09:17:38.697   10 Jun 2027 09:18:43.693            64.996              Murmansk1          8124.500
       451   10 Jun 2027 09:21:56.036   10 Jun 2027 09:26:17.418           261.382                 Moscow         32672.750
       452   10 Jun 2027 09:26:41.939   10 Jun 2027 09:27:40.869            58.930                Norilsk          7366.250
       453   10 Jun 2027 09:27:52.548   10 Jun 2027 09:29:47.361           114.813              Murmansk2         14351.625
       454   10 Jun 2027 10:27:38.431   10 Jun 2027 10:34:00.498           382.067               CapeTown         47758.375
       455   10 Jun 2027 10:51:58.167   10 Jun 2027 10:55:03.905           185.738                 Moscow         23217.250
       456   10 Jun 2027 10:55:06.608   10 Jun 2027 10:57:25.875           139.267              Murmansk2         17408.375
       457   10 Jun 2027 10:57:25.875   10 Jun 2027 10:58:18.531            52.656              Murmansk1          6582.000
       458   10 Jun 2027 10:59:27.455   10 Jun 2027 11:00:22.676            55.221              Murmansk1          6902.625
       459   10 Jun 2027 11:01:06.059   10 Jun 2027 11:02:57.637           111.578              Murmansk1         13947.250
       460   10 Jun 2027 11:07:49.655   10 Jun 2027 11:09:57.301           127.646                Anadyr2         15955.750
       461   10 Jun 2027 11:10:21.274   10 Jun 2027 11:16:05.309           344.035                Anadyr1         43004.375
       462   10 Jun 2027 12:33:55.564   10 Jun 2027 12:34:41.694            46.130              Murmansk2          5766.250
       463   10 Jun 2027 12:44:52.023   10 Jun 2027 12:45:06.497            14.474                Anadyr2          1809.250
       464   10 Jun 2027 12:46:36.822   10 Jun 2027 12:47:55.663            78.841               Magadan2          9855.125
       465   10 Jun 2027 12:48:26.371   10 Jun 2027 12:50:46.449           140.078               Magadan1         17509.750
       466   10 Jun 2027 12:52:08.858   10 Jun 2027 12:52:43.146            34.288               Magadan2          4286.000
       467   10 Jun 2027 14:21:41.851   10 Jun 2027 14:22:37.676            55.825               Magadan1          6978.125
       468   10 Jun 2027 14:28:48.709   10 Jun 2027 14:29:42.973            54.264               Magadan2          6783.000
       469   10 Jun 2027 15:15:44.315   10 Jun 2027 15:18:41.640           177.325            RioGallegos         22165.625
       470   10 Jun 2027 16:02:20.646   10 Jun 2027 16:04:04.318           103.672                Irkutsk         12959.000
       471   10 Jun 2027 16:07:52.722   10 Jun 2027 16:09:22.581            89.859                Irkutsk         11232.375
       472   10 Jun 2027 16:17:21.659   10 Jun 2027 16:20:01.092           159.433                Sumatra         19929.125
       473   10 Jun 2027 17:37:44.832   10 Jun 2027 17:40:00.297           135.465                Novosib         16933.125
       474   10 Jun 2027 17:47:55.933   10 Jun 2027 17:49:52.270           116.337                  Delhi         14542.125
       475   10 Jun 2027 17:51:04.203   10 Jun 2027 17:53:00.144           115.941                  Delhi         14492.625
       476   10 Jun 2027 19:20:15.341   10 Jun 2027 19:21:04.974            49.633                  Delhi          6204.125
       477   10 Jun 2027 19:21:38.579   10 Jun 2027 19:22:29.300            50.721                  Delhi          6340.125
       478   10 Jun 2027 20:48:04.691   10 Jun 2027 20:48:08.059             3.368              Murmansk2           421.000
       479   10 Jun 2027 20:51:06.999   10 Jun 2027 20:53:44.410           157.411                 Moscow         19676.375
       480   10 Jun 2027 22:50:18.812   10 Jun 2027 22:50:52.942            34.130               CapeTown          4266.250
       481   11 Jun 2027 03:11:20.566   11 Jun 2027 03:20:46.491           565.925              Murmansk2         70740.625
       482   11 Jun 2027 03:46:14.373   11 Jun 2027 03:50:15.760           241.387            RioGallegos         30173.375
