uniorb/output/strategy_4/Drop/Drop_KinoSat_111104.txt

KinoSat_111104
-------------------------
    Access    *     Start Time (UTCG)     *     Stop Time (UTCG)  *   Duration (s)        *       Station  *  Data (Mbytes)
         1   01 Jun 2027 03:34:44.165   01 Jun 2027 03:36:00.449            76.284                Anadyr1          2383.875
         2   01 Jun 2027 03:37:32.108   01 Jun 2027 03:37:46.269            14.161               Magadan2           442.531
         3   01 Jun 2027 03:46:22.875   01 Jun 2027 03:47:30.116            67.241                 Moscow          2101.281
         4   01 Jun 2027 03:48:04.921   01 Jun 2027 03:49:35.721            90.800              Murmansk2          2837.500
         5   01 Jun 2027 03:50:34.305   01 Jun 2027 03:50:57.056            22.751              Murmansk1           710.969
         6   01 Jun 2027 05:08:55.270   01 Jun 2027 05:09:30.696            35.426               Magadan1          1107.063
         7   01 Jun 2027 05:09:42.649   01 Jun 2027 05:09:47.412             4.763               Magadan1           148.844
         8   01 Jun 2027 05:09:47.412   01 Jun 2027 05:09:50.519             3.107               Magadan2            97.094
         9   01 Jun 2027 05:10:00.197   01 Jun 2027 05:12:17.982           137.785                Anadyr2          4305.781
        10   01 Jun 2027 05:12:19.017   01 Jun 2027 05:12:55.352            36.335                Anadyr1          1135.469
        11   01 Jun 2027 05:13:31.014   01 Jun 2027 05:13:37.384             6.370               Magadan2           199.063
        12   01 Jun 2027 05:13:43.477   01 Jun 2027 05:14:52.724            69.247               Magadan2          2163.969
        13   01 Jun 2027 05:15:34.321   01 Jun 2027 05:15:44.298             9.977                Anadyr1           311.781
        14   01 Jun 2027 06:45:00.546   01 Jun 2027 06:46:08.845            68.299                Anadyr1          2134.344
        15   01 Jun 2027 06:46:19.931   01 Jun 2027 06:46:27.301             7.370               Magadan1           230.313
        16   01 Jun 2027 06:46:28.817   01 Jun 2027 06:47:46.887            78.070                Norilsk          2439.688
        17   01 Jun 2027 06:47:49.283   01 Jun 2027 06:48:26.148            36.865               Magadan1          1152.031
        18   01 Jun 2027 06:48:26.148   01 Jun 2027 06:48:35.213             9.065               Magadan2           283.281
        19   01 Jun 2027 06:48:42.291   01 Jun 2027 06:49:03.621            21.330                Norilsk           666.563
        20   01 Jun 2027 06:49:12.117   01 Jun 2027 06:49:38.368            26.251               Magadan1           820.344
        21   01 Jun 2027 06:49:50.178   01 Jun 2027 06:50:42.000            51.822                Anadyr2          1619.438
        22   01 Jun 2027 06:50:42.703   01 Jun 2027 06:52:42.413           119.710              Murmansk2          3740.937
        23   01 Jun 2027 07:26:58.401   01 Jun 2027 07:28:15.144            76.743            RioGallegos          2398.219
        24   01 Jun 2027 08:21:28.571   01 Jun 2027 08:22:10.137            41.566                Novosib          1298.937
        25   01 Jun 2027 08:22:24.085   01 Jun 2027 08:22:46.120            22.035                Novosib           688.594
        26   01 Jun 2027 08:22:47.912   01 Jun 2027 08:25:23.490           155.578               Magadan1          4861.812
        27   01 Jun 2027 08:25:46.128   01 Jun 2027 08:26:16.189            30.061               Magadan1           939.406
        28   01 Jun 2027 08:26:27.538   01 Jun 2027 08:27:00.153            32.615                Norilsk          1019.219
        29   01 Jun 2027 08:27:22.248   01 Jun 2027 08:28:47.384            85.136              Murmansk2          2660.500
        30   01 Jun 2027 08:30:04.991   01 Jun 2027 08:30:21.214            16.223              Murmansk2           506.969
        31   01 Jun 2027 09:01:50.491   01 Jun 2027 09:03:55.175           124.684            RioGallegos          3896.375
        32   01 Jun 2027 09:36:47.480   01 Jun 2027 09:40:16.784           209.304                Sumatra          6540.750
        33   01 Jun 2027 09:59:12.263   01 Jun 2027 10:00:22.682            70.419                Irkutsk          2200.594
        34   01 Jun 2027 10:00:32.591   01 Jun 2027 10:00:37.276             4.685                Irkutsk           146.406
        35   01 Jun 2027 10:00:40.523   01 Jun 2027 10:02:32.096           111.573              Murmansk2          3486.656
        36   01 Jun 2027 10:02:33.320   01 Jun 2027 10:03:38.247            64.927                Novosib          2028.969
        37   01 Jun 2027 10:45:02.375   01 Jun 2027 10:45:25.401            23.026            RioGallegos           719.562
        38   01 Jun 2027 11:15:23.518   01 Jun 2027 11:16:46.278            82.760                Sumatra          2586.250
        39   01 Jun 2027 11:18:57.179   01 Jun 2027 11:19:38.125            40.946                Sumatra          1279.563
        40   01 Jun 2027 11:24:05.607   01 Jun 2027 11:25:10.057            64.450                  Delhi          2014.062
        41   01 Jun 2027 11:37:03.736   01 Jun 2027 11:39:59.288           175.552              Murmansk2          5486.000
        42   01 Jun 2027 11:40:05.844   01 Jun 2027 11:40:47.409            41.565              Murmansk2          1298.906
        43   01 Jun 2027 11:40:52.511   01 Jun 2027 11:41:54.544            62.033                 Moscow          1938.531
        44   01 Jun 2027 13:01:49.103   01 Jun 2027 13:04:55.152           186.049                  Delhi          5814.031
        45   01 Jun 2027 13:07:33.893   01 Jun 2027 13:08:23.500            49.607                 Moscow          1550.219
        46   01 Jun 2027 13:08:43.260   01 Jun 2027 13:11:14.681           151.421              Murmansk1          4731.906
        47   01 Jun 2027 13:11:14.681   01 Jun 2027 13:12:04.760            50.079              Murmansk2          1564.969
        48   01 Jun 2027 13:16:31.296   01 Jun 2027 13:16:55.677            24.381                Norilsk           761.906
        49   01 Jun 2027 14:20:36.746   01 Jun 2027 14:23:22.209           165.463               CapeTown          5170.719
        50   01 Jun 2027 14:25:31.090   01 Jun 2027 14:26:34.233            63.143               CapeTown          1973.219
        51   01 Jun 2027 14:45:28.635   01 Jun 2027 14:46:47.076            78.441              Murmansk2          2451.281
        52   01 Jun 2027 14:47:28.390   01 Jun 2027 14:48:03.074            34.684              Murmansk1          1083.875
        53   01 Jun 2027 14:48:19.022   01 Jun 2027 14:48:44.148            25.126              Murmansk1           785.187
        54   01 Jun 2027 14:49:59.253   01 Jun 2027 14:50:21.159            21.906              Murmansk2           684.562
        55   01 Jun 2027 14:54:09.294   01 Jun 2027 14:54:21.283            11.989              Murmansk1           374.656
        56   01 Jun 2027 14:59:59.667   01 Jun 2027 15:01:51.102           111.435                Anadyr2          3482.344
        57   01 Jun 2027 15:02:43.142   01 Jun 2027 15:03:36.200            53.058                Anadyr1          1658.062
        58   01 Jun 2027 15:05:22.865   01 Jun 2027 15:06:05.449            42.584                Anadyr2          1330.750
        59   01 Jun 2027 15:55:11.267   01 Jun 2027 15:57:01.529           110.262               CapeTown          3445.688
        60   01 Jun 2027 16:24:22.275   01 Jun 2027 16:25:56.525            94.250              Murmansk1          2945.312
        61   01 Jun 2027 16:29:41.512   01 Jun 2027 16:29:48.499             6.987              Murmansk1           218.344
        62   01 Jun 2027 16:32:00.417   01 Jun 2027 16:32:33.976            33.559              Murmansk2          1048.719
        63   01 Jun 2027 16:35:22.572   01 Jun 2027 16:35:32.865            10.293                Anadyr2           321.656
        64   01 Jun 2027 16:35:32.865   01 Jun 2027 16:36:35.934            63.069                Anadyr1          1970.906
        65   01 Jun 2027 16:36:53.916   01 Jun 2027 16:37:25.213            31.297                Anadyr1           978.031
        66   01 Jun 2027 16:39:20.887   01 Jun 2027 16:40:12.057            51.170               Magadan1          1599.063
        67   01 Jun 2027 16:41:10.787   01 Jun 2027 16:43:07.292           116.505               Magadan1          3640.781
        68   01 Jun 2027 16:43:07.292   01 Jun 2027 16:43:17.084             9.792               Magadan2           306.000
        69   01 Jun 2027 17:38:53.875   01 Jun 2027 17:39:06.943            13.068               CapeTown           408.375
        70   01 Jun 2027 18:11:15.938   01 Jun 2027 18:15:20.989           245.051                Anadyr1          7657.844
        71   01 Jun 2027 18:15:54.356   01 Jun 2027 18:18:51.357           177.001               Magadan1          5531.281
        72   01 Jun 2027 18:23:47.054   01 Jun 2027 18:24:06.667            19.613               Magadan1           612.906
        73   01 Jun 2027 18:24:28.674   01 Jun 2027 18:24:43.394            14.720               Magadan1           460.000
        74   01 Jun 2027 18:25:32.666   01 Jun 2027 18:25:43.676            11.010               Magadan2           344.062
        75   01 Jun 2027 19:47:08.989   01 Jun 2027 19:51:14.901           245.912                Anadyr2          7684.750
        76   01 Jun 2027 19:51:15.752   01 Jun 2027 19:53:40.000           144.248               Magadan1          4507.750
        77   01 Jun 2027 19:53:44.323   01 Jun 2027 19:54:36.137            51.814               Magadan2          1619.187
        78   01 Jun 2027 19:55:40.094   01 Jun 2027 19:56:46.691            66.597                Irkutsk          2081.156
        79   01 Jun 2027 19:57:31.769   01 Jun 2027 19:58:03.359            31.590                Irkutsk           987.188
        80   01 Jun 2027 19:59:34.237   01 Jun 2027 20:00:27.155            52.918                Irkutsk          1653.688
        81   01 Jun 2027 20:41:23.373   01 Jun 2027 20:41:49.309            25.936            RioGallegos           810.500
        82   01 Jun 2027 20:42:27.364   01 Jun 2027 20:42:46.986            19.622            RioGallegos           613.187
        83   01 Jun 2027 20:49:51.879   01 Jun 2027 20:50:26.558            34.679            RioGallegos          1083.719
        84   01 Jun 2027 21:22:39.139   01 Jun 2027 21:22:50.122            10.983                Anadyr2           343.219
        85   01 Jun 2027 21:22:55.903   01 Jun 2027 21:23:03.850             7.947                Anadyr2           248.344
        86   01 Jun 2027 21:23:47.605   01 Jun 2027 21:24:54.997            67.392                Anadyr2          2106.000
        87   01 Jun 2027 21:25:00.581   01 Jun 2027 21:28:50.266           229.685                Norilsk          7177.656
        88   01 Jun 2027 21:30:22.212   01 Jun 2027 21:31:48.802            86.590                Novosib          2705.938
        89   01 Jun 2027 21:35:06.241   01 Jun 2027 21:35:45.692            39.451                Novosib          1232.844
        90   01 Jun 2027 21:42:44.729   01 Jun 2027 21:43:29.616            44.887                Sumatra          1402.719
        91   01 Jun 2027 21:51:19.705   01 Jun 2027 21:51:33.526            13.821                Sumatra           431.906
        92   01 Jun 2027 21:52:17.718   01 Jun 2027 21:52:44.332            26.614                Sumatra           831.687
        93   01 Jun 2027 22:57:10.383   01 Jun 2027 22:59:25.066           134.683                Anadyr1          4208.844
        94   01 Jun 2027 22:59:51.304   01 Jun 2027 23:00:13.269            21.965                Anadyr1           686.406
        95   01 Jun 2027 23:00:59.128   01 Jun 2027 23:02:54.078           114.950                Norilsk          3592.188
        96   01 Jun 2027 23:03:07.039   01 Jun 2027 23:03:23.013            15.974               Magadan2           499.187
        97   01 Jun 2027 23:04:52.961   01 Jun 2027 23:05:33.803            40.842                Irkutsk          1276.313
        98   01 Jun 2027 23:05:34.704   01 Jun 2027 23:06:21.839            47.135                Novosib          1472.969
        99   01 Jun 2027 23:07:31.201   01 Jun 2027 23:07:41.882            10.681                Novosib           333.781
       100   01 Jun 2027 23:08:16.627   01 Jun 2027 23:08:37.424            20.797                Novosib           649.906
       101   01 Jun 2027 23:12:25.716   01 Jun 2027 23:14:55.056           149.340                  Delhi          4666.875
       102   01 Jun 2027 23:53:29.861   01 Jun 2027 23:53:40.241            10.380            RioGallegos           324.375
       103   01 Jun 2027 23:55:59.081   01 Jun 2027 23:56:24.782            25.701            RioGallegos           803.156
       104   02 Jun 2027 00:30:35.594   02 Jun 2027 00:31:41.763            66.169                Anadyr2          2067.781
       105   02 Jun 2027 00:31:41.763   02 Jun 2027 00:32:46.369            64.606                Anadyr1          2018.938
       106   02 Jun 2027 00:33:20.680   02 Jun 2027 00:33:55.807            35.127                Anadyr2          1097.719
       107   02 Jun 2027 00:36:44.961   02 Jun 2027 00:39:20.984           156.023               Magadan2          4875.719
       108   02 Jun 2027 00:39:20.984   02 Jun 2027 00:40:07.504            46.520               Magadan1          1453.750
       109   02 Jun 2027 00:40:27.858   02 Jun 2027 00:42:00.997            93.139              Murmansk2          2910.594
       110   02 Jun 2027 00:43:35.482   02 Jun 2027 00:45:05.739            90.257                 Moscow          2820.531
       111   02 Jun 2027 00:54:53.978   02 Jun 2027 00:55:52.425            58.447                  Delhi          1826.469
       112   02 Jun 2027 01:12:15.721   02 Jun 2027 01:12:50.873            35.152               CapeTown          1098.500
       113   02 Jun 2027 02:04:07.592   02 Jun 2027 02:05:25.775            78.183                Anadyr2          2443.219
       114   02 Jun 2027 02:05:52.082   02 Jun 2027 02:06:47.629            55.547                Anadyr1          1735.844
       115   02 Jun 2027 02:07:20.492   02 Jun 2027 02:07:29.802             9.310                Anadyr1           290.937
       116   02 Jun 2027 02:07:37.001   02 Jun 2027 02:07:38.641             1.640                Anadyr2            51.250
       117   02 Jun 2027 02:08:28.420   02 Jun 2027 02:08:44.259            15.839                Anadyr2           494.969
       118   02 Jun 2027 02:08:47.613   02 Jun 2027 02:10:07.238            79.625               Magadan1          2488.281
       119   02 Jun 2027 02:12:29.687   02 Jun 2027 02:12:37.034             7.347               Magadan1           229.594
       120   02 Jun 2027 02:12:55.766   02 Jun 2027 02:13:01.430             5.664               Magadan1           177.000
       121   02 Jun 2027 02:14:04.652   02 Jun 2027 02:14:10.572             5.920               Magadan1           185.000
       122   02 Jun 2027 02:15:05.569   02 Jun 2027 02:16:40.051            94.482              Murmansk2          2952.562
       123   02 Jun 2027 02:17:16.391   02 Jun 2027 02:17:51.737            35.346                Novosib          1104.562
       124   02 Jun 2027 02:20:46.559   02 Jun 2027 02:20:54.492             7.933                 Moscow           247.906
       125   02 Jun 2027 02:21:23.179   02 Jun 2027 02:21:50.200            27.021                 Moscow           844.406
       126   02 Jun 2027 02:25:32.256   02 Jun 2027 02:25:54.247            21.991                 Moscow           687.219
       127   02 Jun 2027 02:29:50.814   02 Jun 2027 02:30:04.288            13.474                 Moscow           421.063
       128   02 Jun 2027 02:45:20.257   02 Jun 2027 02:45:44.795            24.538               CapeTown           766.813
       129   02 Jun 2027 02:48:37.884   02 Jun 2027 02:49:20.463            42.579               CapeTown          1330.594
       130   02 Jun 2027 02:51:26.147   02 Jun 2027 02:51:53.884            27.737               CapeTown           866.781
       131   02 Jun 2027 03:45:13.638   02 Jun 2027 03:46:23.140            69.502               Magadan1          2171.937
       132   02 Jun 2027 03:46:32.481   02 Jun 2027 03:47:59.946            87.465               Magadan2          2733.281
       133   02 Jun 2027 03:48:01.916   02 Jun 2027 03:49:12.120            70.204                Anadyr1          2193.875
       134   02 Jun 2027 03:49:48.844   02 Jun 2027 03:49:57.862             9.018               Magadan1           281.813
       135   02 Jun 2027 03:50:28.018   02 Jun 2027 03:50:47.185            19.167               Magadan1           598.969
       136   02 Jun 2027 03:51:49.571   02 Jun 2027 03:51:52.612             3.041                Anadyr1            95.031
       137   02 Jun 2027 04:03:50.069   02 Jun 2027 04:03:59.948             9.879              Murmansk2           308.719
       138   02 Jun 2027 05:22:07.311   02 Jun 2027 05:25:34.052           206.741               Magadan2          6460.656
       139   02 Jun 2027 05:26:53.033   02 Jun 2027 05:27:08.154            15.121               Magadan2           472.531
       140   02 Jun 2027 06:57:24.698   02 Jun 2027 06:58:07.774            43.076                Irkutsk          1346.125
       141   02 Jun 2027 06:58:18.724   02 Jun 2027 06:59:33.341            74.617               Magadan2          2331.781
       142   02 Jun 2027 06:59:46.744   02 Jun 2027 07:01:05.060            78.316                Novosib          2447.375
       143   02 Jun 2027 07:01:11.508   02 Jun 2027 07:01:38.016            26.508               Magadan2           828.375
       144   02 Jun 2027 07:01:38.016   02 Jun 2027 07:03:18.405           100.389               Magadan1          3137.156
       145   02 Jun 2027 08:34:48.619   02 Jun 2027 08:36:35.888           107.269               Magadan2          3352.156
       146   02 Jun 2027 08:37:21.096   02 Jun 2027 08:37:56.695            35.599               Magadan1          1112.469
       147   02 Jun 2027 08:38:13.136   02 Jun 2027 08:38:56.505            43.369                Irkutsk          1355.281
       148   02 Jun 2027 09:48:43.396   02 Jun 2027 09:49:43.139            59.743                Sumatra          1866.969
       149   02 Jun 2027 09:51:52.312   02 Jun 2027 09:52:49.796            57.484                Sumatra          1796.375
       150   02 Jun 2027 10:11:20.381   02 Jun 2027 10:11:40.924            20.543                Irkutsk           641.969
       151   02 Jun 2027 10:11:58.459   02 Jun 2027 10:12:20.388            21.929                Novosib           685.281
       152   02 Jun 2027 10:12:40.502   02 Jun 2027 10:12:42.172             1.670                Irkutsk            52.188
       153   02 Jun 2027 10:12:45.739   02 Jun 2027 10:13:20.229            34.490                Irkutsk          1077.813
       154   02 Jun 2027 10:13:23.692   02 Jun 2027 10:14:12.084            48.392                Novosib          1512.250
       155   02 Jun 2027 10:14:26.662   02 Jun 2027 10:14:34.321             7.659                Norilsk           239.344
       156   02 Jun 2027 10:14:38.931   02 Jun 2027 10:14:54.894            15.963                Novosib           498.844
       157   02 Jun 2027 10:14:59.343   02 Jun 2027 10:15:10.829            11.486                Norilsk           358.937
       158   02 Jun 2027 10:53:47.657   02 Jun 2027 10:53:57.712            10.055            RioGallegos           314.219
       159   02 Jun 2027 10:54:34.570   02 Jun 2027 10:55:15.633            41.063            RioGallegos          1283.219
       160   02 Jun 2027 10:57:01.815   02 Jun 2027 10:57:51.730            49.915            RioGallegos          1559.844
       161   02 Jun 2027 11:35:02.473   02 Jun 2027 11:36:03.755            61.282                  Delhi          1915.062
       162   02 Jun 2027 11:47:03.680   02 Jun 2027 11:47:22.615            18.935                Novosib           591.719
       163   02 Jun 2027 11:48:26.711   02 Jun 2027 11:48:45.166            18.455                Norilsk           576.719
       164   02 Jun 2027 11:49:15.966   02 Jun 2027 11:49:36.666            20.700                Novosib           646.875
       165   02 Jun 2027 11:49:38.127   02 Jun 2027 11:50:01.722            23.595                Norilsk           737.344
       166   02 Jun 2027 11:50:24.984   02 Jun 2027 11:50:29.950             4.966                Norilsk           155.188
       167   02 Jun 2027 11:50:33.928   02 Jun 2027 11:50:38.769             4.841                Norilsk           151.281
       168   02 Jun 2027 11:50:39.614   02 Jun 2027 11:50:49.063             9.449                Novosib           295.281
       169   02 Jun 2027 13:17:19.957   02 Jun 2027 13:21:16.521           236.564                 Moscow          7392.625
       170   02 Jun 2027 13:21:38.097   02 Jun 2027 13:24:01.627           143.530              Murmansk2          4485.313
       171   02 Jun 2027 13:24:33.422   02 Jun 2027 13:24:43.862            10.440                Norilsk           326.250
       172   02 Jun 2027 13:25:51.332   02 Jun 2027 13:26:30.398            39.066                Norilsk          1220.813
       173   02 Jun 2027 13:28:27.011   02 Jun 2027 13:28:33.654             6.643                Norilsk           207.594
       174   02 Jun 2027 13:30:15.002   02 Jun 2027 13:30:29.765            14.763                Norilsk           461.344
       175   02 Jun 2027 14:32:04.588   02 Jun 2027 14:35:08.234           183.646               CapeTown          5738.937
       176   02 Jun 2027 14:36:24.065   02 Jun 2027 14:37:17.615            53.550               CapeTown          1673.437
       177   02 Jun 2027 14:57:44.470   02 Jun 2027 14:58:58.215            73.745              Murmansk1          2304.531
       178   02 Jun 2027 15:00:20.461   02 Jun 2027 15:02:01.165           100.704              Murmansk1          3147.000
       179   02 Jun 2027 15:11:52.553   02 Jun 2027 15:14:49.028           176.475                Anadyr1          5514.844
       180   02 Jun 2027 16:16:26.738   02 Jun 2027 16:17:01.314            34.576               CapeTown          1080.500
       181   02 Jun 2027 16:36:57.925   02 Jun 2027 16:38:47.102           109.177              Murmansk2          3411.781
       182   02 Jun 2027 16:39:30.602   02 Jun 2027 16:40:04.236            33.634              Murmansk1          1051.062
       183   02 Jun 2027 16:47:22.976   02 Jun 2027 16:49:44.582           141.606                Anadyr2          4425.187
       184   02 Jun 2027 16:50:55.259   02 Jun 2027 16:52:09.507            74.248               Magadan2          2320.250
       185   02 Jun 2027 16:53:05.232   02 Jun 2027 16:54:00.040            54.808               Magadan1          1712.750
       186   02 Jun 2027 16:55:00.016   02 Jun 2027 16:55:09.480             9.464               Magadan1           295.750
       187   02 Jun 2027 16:55:18.836   02 Jun 2027 16:56:13.706            54.870               Magadan1          1714.687
       188   02 Jun 2027 18:23:17.413   02 Jun 2027 18:25:36.986           139.573                Anadyr1          4361.656
       189   02 Jun 2027 18:25:39.841   02 Jun 2027 18:27:56.977           137.136               Magadan2          4285.500
       190   02 Jun 2027 18:28:12.673   02 Jun 2027 18:28:40.824            28.151               Magadan1           879.719
       191   02 Jun 2027 18:29:20.841   02 Jun 2027 18:30:44.523            83.682               Magadan2          2615.062
       192   02 Jun 2027 19:59:09.026   02 Jun 2027 20:01:55.726           166.700                Anadyr1          5209.375
       193   02 Jun 2027 20:02:04.531   02 Jun 2027 20:04:32.957           148.426               Magadan2          4638.313
       194   02 Jun 2027 20:04:46.513   02 Jun 2027 20:05:25.672            39.159               Magadan2          1223.719
       195   02 Jun 2027 20:06:53.584   02 Jun 2027 20:09:46.325           172.741                Irkutsk          5398.156
       196   02 Jun 2027 20:11:33.710   02 Jun 2027 20:12:44.093            70.383                Irkutsk          2199.469
       197   02 Jun 2027 20:23:06.187   02 Jun 2027 20:24:12.818            66.631                Sumatra          2082.219
       198   02 Jun 2027 21:37:01.768   02 Jun 2027 21:39:02.305           120.537                Norilsk          3766.781
       199   02 Jun 2027 21:40:01.271   02 Jun 2027 21:40:27.911            26.640               Magadan2           832.500
       200   02 Jun 2027 21:41:00.914   02 Jun 2027 21:42:29.552            88.638                Irkutsk          2769.937
       201   02 Jun 2027 21:45:24.597   02 Jun 2027 21:46:14.711            50.114                Novosib          1566.063
       202   02 Jun 2027 21:54:43.453   02 Jun 2027 21:55:13.783            30.330                Sumatra           947.813
       203   02 Jun 2027 21:56:40.916   02 Jun 2027 21:57:29.740            48.824                Sumatra          1525.750
       204   02 Jun 2027 22:01:24.699   02 Jun 2027 22:03:04.931           100.232                Sumatra          3132.250
       205   02 Jun 2027 23:08:55.619   02 Jun 2027 23:09:19.146            23.527                Anadyr1           735.219
       206   02 Jun 2027 23:09:45.897   02 Jun 2027 23:11:03.440            77.543                Anadyr2          2423.219
       207   02 Jun 2027 23:13:01.149   02 Jun 2027 23:13:15.905            14.756                Norilsk           461.125
       208   02 Jun 2027 23:13:37.478   02 Jun 2027 23:14:56.446            78.968               Magadan2          2467.750
       209   02 Jun 2027 23:16:35.851   02 Jun 2027 23:18:59.813           143.962              Murmansk2          4498.813
       210   02 Jun 2027 23:24:17.458   02 Jun 2027 23:25:23.909            66.451                  Delhi          2076.594
       211   02 Jun 2027 23:28:27.994   02 Jun 2027 23:30:23.871           115.877                  Delhi          3621.156
       212   03 Jun 2027 00:42:16.753   03 Jun 2027 00:42:31.790            15.037                Anadyr2           469.906
       213   03 Jun 2027 00:44:46.772   03 Jun 2027 00:45:06.419            19.647                Anadyr1           613.969
       214   03 Jun 2027 00:47:39.858   03 Jun 2027 00:48:01.755            21.897                Anadyr1           684.281
       215   03 Jun 2027 00:48:01.755   03 Jun 2027 00:48:07.363             5.608                Anadyr2           175.250
       216   03 Jun 2027 00:48:26.528   03 Jun 2027 00:51:11.561           165.033               Magadan1          5157.281
       217   03 Jun 2027 00:51:14.699   03 Jun 2027 00:52:29.469            74.770              Murmansk1          2336.563
       218   03 Jun 2027 00:55:01.424   03 Jun 2027 00:55:28.702            27.278                Novosib           852.438
       219   03 Jun 2027 00:56:02.456   03 Jun 2027 00:56:14.331            11.875              Murmansk2           371.094
       220   03 Jun 2027 00:56:23.788   03 Jun 2027 00:56:54.380            30.592              Murmansk2           956.000
       221   03 Jun 2027 00:58:44.582   03 Jun 2027 00:58:51.944             7.362                 Moscow           230.062
       222   03 Jun 2027 00:59:54.545   03 Jun 2027 01:00:04.165             9.620                 Moscow           300.625
       223   03 Jun 2027 01:00:59.041   03 Jun 2027 01:01:37.207            38.166                 Moscow          1192.688
       224   03 Jun 2027 01:22:36.719   03 Jun 2027 01:23:50.616            73.897               CapeTown          2309.281
       225   03 Jun 2027 01:28:04.048   03 Jun 2027 01:28:56.966            52.918               CapeTown          1653.688
       226   03 Jun 2027 02:15:55.387   03 Jun 2027 02:16:40.693            45.306                Anadyr1          1415.812
       227   03 Jun 2027 02:18:23.974   03 Jun 2027 02:18:33.670             9.696                Anadyr1           303.000
       228   03 Jun 2027 02:18:47.974   03 Jun 2027 02:19:14.571            26.597                Anadyr2           831.156
       229   03 Jun 2027 02:20:16.003   03 Jun 2027 02:21:36.347            80.344               Magadan1          2510.750
       230   03 Jun 2027 02:24:47.558   03 Jun 2027 02:25:13.369            25.811                Norilsk           806.594
       231   03 Jun 2027 02:27:07.283   03 Jun 2027 02:28:45.581            98.298              Murmansk1          3071.813
       232   03 Jun 2027 02:29:49.023   03 Jun 2027 02:30:07.044            18.021                Novosib           563.156
       233   03 Jun 2027 02:32:20.008   03 Jun 2027 02:32:23.318             3.310                 Moscow           103.438
       234   03 Jun 2027 02:32:29.184   03 Jun 2027 02:32:34.032             4.848                 Moscow           151.500
       235   03 Jun 2027 02:33:44.327   03 Jun 2027 02:33:46.867             2.540                Novosib            79.375
       236   03 Jun 2027 02:34:17.351   03 Jun 2027 02:34:50.096            32.745                Novosib          1023.281
       237   03 Jun 2027 02:41:20.060   03 Jun 2027 02:41:36.804            16.744                 Moscow           523.250
       238   03 Jun 2027 02:54:18.273   03 Jun 2027 02:55:11.451            53.178               CapeTown          1661.813
       239   03 Jun 2027 03:03:02.062   03 Jun 2027 03:03:50.180            48.118               CapeTown          1503.688
       240   03 Jun 2027 03:57:07.827   03 Jun 2027 03:57:48.716            40.889               Magadan1          1277.781
       241   03 Jun 2027 03:57:48.716   03 Jun 2027 03:57:50.742             2.026               Magadan2            63.312
       242   03 Jun 2027 03:58:12.762   03 Jun 2027 04:03:54.064           341.302                Anadyr2         10665.687
       243   03 Jun 2027 05:33:21.365   03 Jun 2027 05:35:52.431           151.066                Anadyr1          4720.812
       244   03 Jun 2027 05:36:11.643   03 Jun 2027 05:39:31.376           199.733               Magadan2          6241.656
       245   03 Jun 2027 07:07:48.850   03 Jun 2027 07:08:03.692            14.842               Magadan2           463.812
       246   03 Jun 2027 07:08:10.295   03 Jun 2027 07:08:41.651            31.356               Magadan1           979.875
       247   03 Jun 2027 07:09:15.220   03 Jun 2027 07:10:09.446            54.226                Anadyr2          1694.563
       248   03 Jun 2027 07:10:18.719   03 Jun 2027 07:11:23.104            64.385                Anadyr1          2012.031
       249   03 Jun 2027 07:11:33.115   03 Jun 2027 07:12:28.414            55.299               Magadan1          1728.094
       250   03 Jun 2027 07:12:37.108   03 Jun 2027 07:12:43.941             6.833                Anadyr1           213.531
       251   03 Jun 2027 07:12:43.941   03 Jun 2027 07:13:28.053            44.112                Anadyr2          1378.500
       252   03 Jun 2027 07:13:38.154   03 Jun 2027 07:15:16.332            98.178               Magadan2          3068.063
       253   03 Jun 2027 08:30:42.738   03 Jun 2027 08:31:45.066            62.328                Sumatra          1947.750
       254   03 Jun 2027 08:44:04.235   03 Jun 2027 08:44:07.859             3.624               Magadan2           113.250
       255   03 Jun 2027 08:45:43.222   03 Jun 2027 08:45:53.439            10.217               Magadan2           319.281
       256   03 Jun 2027 08:46:37.096   03 Jun 2027 08:47:52.857            75.761               Magadan2          2367.531
       257   03 Jun 2027 08:49:01.587   03 Jun 2027 08:49:27.620            26.033                Irkutsk           813.531
       258   03 Jun 2027 08:50:00.105   03 Jun 2027 08:50:30.476            30.371                Irkutsk           949.094
       259   03 Jun 2027 08:50:42.470   03 Jun 2027 08:50:50.785             8.315                Irkutsk           259.844
       260   03 Jun 2027 08:52:12.336   03 Jun 2027 08:52:21.000             8.664                Norilsk           270.750
       261   03 Jun 2027 09:26:10.902   03 Jun 2027 09:26:11.672             0.770            RioGallegos            24.062
       262   03 Jun 2027 09:26:42.462   03 Jun 2027 09:27:16.265            33.803            RioGallegos          1056.344
       263   03 Jun 2027 09:27:47.761   03 Jun 2027 09:29:00.590            72.829            RioGallegos          2275.906
       264   03 Jun 2027 10:07:16.324   03 Jun 2027 10:08:15.349            59.025                Sumatra          1844.531
       265   03 Jun 2027 10:11:16.845   03 Jun 2027 10:11:29.794            12.949                  Delhi           404.656
       266   03 Jun 2027 10:20:39.961   03 Jun 2027 10:21:09.219            29.258                  Delhi           914.312
       267   03 Jun 2027 10:24:33.704   03 Jun 2027 10:24:53.592            19.888                Irkutsk           621.500
       268   03 Jun 2027 10:25:06.243   03 Jun 2027 10:25:08.212             1.969                Irkutsk            61.531
       269   03 Jun 2027 10:25:22.072   03 Jun 2027 10:26:28.993            66.921                Irkutsk          2091.281
       270   03 Jun 2027 10:26:44.003   03 Jun 2027 10:26:53.116             9.113                Novosib           284.781
       271   03 Jun 2027 10:27:44.877   03 Jun 2027 10:28:08.412            23.535                Novosib           735.469
       272   03 Jun 2027 11:07:07.094   03 Jun 2027 11:07:53.996            46.902            RioGallegos          1465.687
       273   03 Jun 2027 11:09:33.681   03 Jun 2027 11:10:22.878            49.197            RioGallegos          1537.406
       274   03 Jun 2027 11:45:10.043   03 Jun 2027 11:45:49.620            39.577                  Delhi          1236.781
       275   03 Jun 2027 11:48:36.004   03 Jun 2027 11:50:00.882            84.878                  Delhi          2652.438
       276   03 Jun 2027 12:00:28.824   03 Jun 2027 12:00:42.191            13.367                Norilsk           417.719
       277   03 Jun 2027 12:01:11.030   03 Jun 2027 12:01:35.528            24.498                Novosib           765.563
       278   03 Jun 2027 12:01:46.038   03 Jun 2027 12:02:46.403            60.365                Novosib          1886.406
       279   03 Jun 2027 12:03:39.979   03 Jun 2027 12:04:10.034            30.055                Novosib           939.219
       280   03 Jun 2027 12:07:28.577   03 Jun 2027 12:07:41.896            13.319                Norilsk           416.219
       281   03 Jun 2027 13:29:19.887   03 Jun 2027 13:33:08.890           229.003                 Moscow          7156.344
       282   03 Jun 2027 13:33:16.627   03 Jun 2027 13:33:25.450             8.823              Murmansk2           275.719
       283   03 Jun 2027 13:33:25.450   03 Jun 2027 13:33:53.029            27.579              Murmansk1           861.844
       284   03 Jun 2027 13:35:05.754   03 Jun 2027 13:36:07.956            62.202              Murmansk1          1943.812
       285   03 Jun 2027 13:37:38.442   03 Jun 2027 13:38:03.862            25.420                Norilsk           794.375
       286   03 Jun 2027 13:38:53.995   03 Jun 2027 13:40:05.537            71.542                Norilsk          2235.687
       287   03 Jun 2027 14:43:41.478   03 Jun 2027 14:45:17.066            95.588               CapeTown          2987.125
       288   03 Jun 2027 14:46:58.499   03 Jun 2027 14:48:18.612            80.113               CapeTown          2503.531
       289   03 Jun 2027 15:07:00.750   03 Jun 2027 15:07:36.184            35.434                 Moscow          1107.313
       290   03 Jun 2027 15:10:02.364   03 Jun 2027 15:10:16.695            14.331              Murmansk1           447.844
       291   03 Jun 2027 15:10:20.702   03 Jun 2027 15:10:35.907            15.205              Murmansk1           475.156
       292   03 Jun 2027 15:14:03.073   03 Jun 2027 15:15:20.941            77.868              Murmansk2          2433.375
       293   03 Jun 2027 15:19:54.736   03 Jun 2027 15:20:10.456            15.720              Murmansk1           491.250
       294   03 Jun 2027 15:23:47.402   03 Jun 2027 15:24:43.197            55.795                Anadyr1          1743.594
       295   03 Jun 2027 15:25:09.795   03 Jun 2027 15:26:12.589            62.794                Anadyr2          1962.313
       296   03 Jun 2027 15:28:39.104   03 Jun 2027 15:28:45.964             6.860                Anadyr1           214.375
       297   03 Jun 2027 15:29:07.835   03 Jun 2027 15:29:44.302            36.467                Anadyr1          1139.594
       298   03 Jun 2027 15:32:56.548   03 Jun 2027 15:33:38.595            42.047                Anadyr1          1313.969
       299   03 Jun 2027 16:28:20.840   03 Jun 2027 16:28:35.629            14.789               CapeTown           462.156
       300   03 Jun 2027 16:29:23.124   03 Jun 2027 16:30:11.347            48.223               CapeTown          1506.969
       301   03 Jun 2027 16:49:37.086   03 Jun 2027 16:51:13.505            96.419              Murmansk1          3013.094
       302   03 Jun 2027 16:54:09.180   03 Jun 2027 16:54:20.669            11.489              Murmansk2           359.031
       303   03 Jun 2027 16:55:49.601   03 Jun 2027 16:56:04.420            14.819              Murmansk2           463.094
       304   03 Jun 2027 16:59:23.685   03 Jun 2027 17:00:37.383            73.698                Anadyr2          2303.062
       305   03 Jun 2027 17:01:01.746   03 Jun 2027 17:01:45.944            44.198                Anadyr2          1381.187
       306   03 Jun 2027 17:02:37.787   03 Jun 2027 17:02:54.919            17.132               Magadan2           535.375
       307   03 Jun 2027 17:04:54.135   03 Jun 2027 17:05:30.722            36.587               Magadan1          1143.344
       308   03 Jun 2027 17:05:30.722   03 Jun 2027 17:06:02.536            31.814               Magadan2           994.188
       309   03 Jun 2027 17:07:11.364   03 Jun 2027 17:07:20.819             9.455               Magadan1           295.469
       310   03 Jun 2027 18:35:18.849   03 Jun 2027 18:37:36.798           137.949                Anadyr2          4310.906
       311   03 Jun 2027 18:37:38.808   03 Jun 2027 18:40:50.374           191.566               Magadan2          5986.437
       312   03 Jun 2027 18:40:50.374   03 Jun 2027 18:40:52.850             2.476               Magadan1            77.375
       313   03 Jun 2027 18:40:57.240   03 Jun 2027 18:41:08.575            11.335               Magadan1           354.219
       314   03 Jun 2027 18:42:34.356   03 Jun 2027 18:43:05.932            31.576               Magadan1           986.750
       315   03 Jun 2027 18:44:12.287   03 Jun 2027 18:44:44.042            31.755               Magadan1           992.344
       316   03 Jun 2027 18:45:48.199   03 Jun 2027 18:45:52.865             4.666               Magadan1           145.813
       317   03 Jun 2027 18:48:01.884   03 Jun 2027 18:48:33.937            32.053               Magadan1          1001.656
       318   03 Jun 2027 19:32:02.122   03 Jun 2027 19:34:15.271           133.149            RioGallegos          4160.906
       319   03 Jun 2027 20:11:08.669   03 Jun 2027 20:13:11.564           122.895                Anadyr1          3840.469
       320   03 Jun 2027 20:13:20.519   03 Jun 2027 20:14:25.845            65.326                Norilsk          2041.438
       321   03 Jun 2027 20:15:30.731   03 Jun 2027 20:16:41.545            70.814                Norilsk          2212.938
       322   03 Jun 2027 20:16:50.274   03 Jun 2027 20:17:06.226            15.952                Norilsk           498.500
       323   03 Jun 2027 20:18:24.622   03 Jun 2027 20:19:17.288            52.666                Irkutsk          1645.813
       324   03 Jun 2027 20:19:47.165   03 Jun 2027 20:21:27.992           100.827                Irkutsk          3150.844
       325   03 Jun 2027 20:22:50.660   03 Jun 2027 20:23:10.799            20.139                Irkutsk           629.344
       326   03 Jun 2027 20:23:45.403   03 Jun 2027 20:25:15.501            90.098                Irkutsk          2815.563
       327   03 Jun 2027 20:33:39.679   03 Jun 2027 20:33:54.774            15.095                Sumatra           471.719
       328   03 Jun 2027 20:36:20.870   03 Jun 2027 20:36:59.391            38.521                Sumatra          1203.781
       329   03 Jun 2027 20:37:55.233   03 Jun 2027 20:38:50.877            55.644                Sumatra          1738.875
       330   03 Jun 2027 21:49:04.022   03 Jun 2027 21:50:07.315            63.293                Norilsk          1977.906
       331   03 Jun 2027 21:50:54.292   03 Jun 2027 21:51:02.259             7.967                Norilsk           248.969
       332   03 Jun 2027 21:52:59.175   03 Jun 2027 21:54:26.500            87.325                Irkutsk          2728.906
       333   03 Jun 2027 21:55:10.721   03 Jun 2027 21:57:19.987           129.266                Novosib          4039.562
       334   03 Jun 2027 22:04:33.325   03 Jun 2027 22:05:40.014            66.689                  Delhi          2084.031
       335   03 Jun 2027 23:20:39.754   03 Jun 2027 23:21:06.654            26.900                Anadyr2           840.625
       336   03 Jun 2027 23:21:34.843   03 Jun 2027 23:22:51.100            76.257                Anadyr1          2383.031
       337   03 Jun 2027 23:25:03.131   03 Jun 2027 23:25:16.950            13.819                Norilsk           431.844
       338   03 Jun 2027 23:25:37.754   03 Jun 2027 23:26:28.440            50.686               Magadan1          1583.937
       339   03 Jun 2027 23:26:28.440   03 Jun 2027 23:27:02.411            33.971               Magadan2          1061.594
       340   03 Jun 2027 23:28:09.372   03 Jun 2027 23:30:00.083           110.711              Murmansk2          3459.719
       341   03 Jun 2027 23:30:00.083   03 Jun 2027 23:32:52.427           172.344              Murmansk1          5385.750
       342   04 Jun 2027 00:53:58.231   04 Jun 2027 00:54:20.371            22.140                Anadyr2           691.875
       343   04 Jun 2027 00:55:04.430   04 Jun 2027 00:55:44.261            39.831                Anadyr2          1244.719
       344   04 Jun 2027 00:55:44.261   04 Jun 2027 00:56:37.898            53.637                Anadyr1          1676.156
       345   04 Jun 2027 01:00:03.836   04 Jun 2027 01:01:38.766            94.930               Magadan2          2966.563
       346   04 Jun 2027 01:01:49.127   04 Jun 2027 01:03:49.127           120.000               Magadan2          3750.000
       347   04 Jun 2027 01:03:49.954   04 Jun 2027 01:05:22.818            92.864              Murmansk1          2902.000
       348   04 Jun 2027 01:11:55.282   04 Jun 2027 01:12:03.065             7.783                 Moscow           243.219
       349   04 Jun 2027 01:12:24.927   04 Jun 2027 01:12:30.469             5.542                 Moscow           173.187
       350   04 Jun 2027 01:14:24.025   04 Jun 2027 01:15:06.410            42.385                  Delhi          1324.531
       351   04 Jun 2027 01:33:32.641   04 Jun 2027 01:34:18.631            45.990               CapeTown          1437.188
       352   04 Jun 2027 01:39:11.296   04 Jun 2027 01:40:00.582            49.286               CapeTown          1540.187
       353   04 Jun 2027 02:27:44.544   04 Jun 2027 02:28:46.802            62.258                Anadyr1          1945.563
       354   04 Jun 2027 02:29:07.849   04 Jun 2027 02:29:26.341            18.492                Anadyr1           577.875
       355   04 Jun 2027 02:30:20.992   04 Jun 2027 02:30:24.726             3.734                Anadyr2           116.687
       356   04 Jun 2027 02:30:45.316   04 Jun 2027 02:31:00.808            15.492                Anadyr2           484.125
       357   04 Jun 2027 02:31:45.126   04 Jun 2027 02:33:04.572            79.446               Magadan1          2482.688
       358   04 Jun 2027 02:36:50.617   04 Jun 2027 02:37:08.005            17.388                Norilsk           543.375
       359   04 Jun 2027 02:37:37.452   04 Jun 2027 02:38:09.137            31.685                Norilsk           990.156
       360   04 Jun 2027 02:39:09.067   04 Jun 2027 02:39:32.228            23.161              Murmansk2           723.781
       361   04 Jun 2027 02:39:45.322   04 Jun 2027 02:40:49.485            64.163              Murmansk1          2005.094
       362   04 Jun 2027 02:42:32.410   04 Jun 2027 02:43:04.893            32.483                Novosib          1015.094
       363   04 Jun 2027 02:44:47.128   04 Jun 2027 02:44:55.003             7.875                Novosib           246.094
       364   04 Jun 2027 02:51:14.155   04 Jun 2027 02:51:57.818            43.663                 Moscow          1364.469
       365   04 Jun 2027 03:07:18.329   04 Jun 2027 03:09:02.071           103.742               CapeTown          3241.937
       366   04 Jun 2027 04:09:27.339   04 Jun 2027 04:09:46.109            18.770               Magadan2           586.563
       367   04 Jun 2027 04:09:46.109   04 Jun 2027 04:11:45.624           119.515               Magadan1          3734.844
       368   04 Jun 2027 04:11:58.706   04 Jun 2027 04:14:39.380           160.674                Anadyr1          5021.062
       369   04 Jun 2027 05:47:41.568   04 Jun 2027 05:47:46.883             5.315               Magadan2           166.094
       370   04 Jun 2027 05:47:57.512   04 Jun 2027 05:51:42.622           225.110                Anadyr1          7034.687
       371   04 Jun 2027 07:20:56.293   04 Jun 2027 07:21:09.632            13.339               Magadan2           416.844
       372   04 Jun 2027 07:21:11.046   04 Jun 2027 07:21:20.849             9.803               Magadan2           306.344
       373   04 Jun 2027 07:21:20.849   04 Jun 2027 07:21:48.668            27.819               Magadan1           869.344
       374   04 Jun 2027 07:21:56.487   04 Jun 2027 07:22:23.686            27.199               Magadan1           849.969
       375   04 Jun 2027 07:22:56.589   04 Jun 2027 07:23:14.323            17.734                Anadyr1           554.187
       376   04 Jun 2027 07:23:14.323   04 Jun 2027 07:24:19.501            65.178                Anadyr2          2036.813
       377   04 Jun 2027 07:24:35.233   04 Jun 2027 07:25:33.526            58.293               Magadan1          1821.656
       378   04 Jun 2027 07:25:40.868   04 Jun 2027 07:25:48.446             7.578               Magadan2           236.813
       379   04 Jun 2027 07:26:16.498   04 Jun 2027 07:26:17.846             1.348                Anadyr2            42.125
       380   04 Jun 2027 07:26:23.665   04 Jun 2027 07:27:13.275            49.610               Magadan1          1550.312
       381   04 Jun 2027 08:02:14.654   04 Jun 2027 08:02:40.181            25.527            RioGallegos           797.719
       382   04 Jun 2027 08:39:09.959   04 Jun 2027 08:40:23.682            73.723                Sumatra          2303.844
       383   04 Jun 2027 08:57:41.199   04 Jun 2027 08:57:56.308            15.109               Magadan1           472.156
       384   04 Jun 2027 08:58:20.266   04 Jun 2027 08:58:35.196            14.930               Magadan1           466.562
       385   04 Jun 2027 08:59:21.764   04 Jun 2027 08:59:24.977             3.213                Irkutsk           100.406
       386   04 Jun 2027 08:59:25.352   04 Jun 2027 08:59:57.239            31.887                Norilsk           996.469
       387   04 Jun 2027 09:01:10.916   04 Jun 2027 09:01:25.337            14.421                Irkutsk           450.656
       388   04 Jun 2027 09:02:14.596   04 Jun 2027 09:02:28.093            13.497                Irkutsk           421.781
       389   04 Jun 2027 09:02:31.092   04 Jun 2027 09:02:33.420             2.328                Norilsk            72.750
       390   04 Jun 2027 09:02:44.506   04 Jun 2027 09:03:15.369            30.863                Irkutsk           964.469
       391   04 Jun 2027 09:38:26.958   04 Jun 2027 09:38:52.708            25.750            RioGallegos           804.687
       392   04 Jun 2027 09:41:10.938   04 Jun 2027 09:41:13.337             2.399            RioGallegos            74.969
       393   04 Jun 2027 09:45:07.397   04 Jun 2027 09:45:27.455            20.058            RioGallegos           626.812
       394   04 Jun 2027 10:12:52.151   04 Jun 2027 10:13:14.377            22.226                Sumatra           694.563
       395   04 Jun 2027 10:15:01.867   04 Jun 2027 10:15:46.625            44.758                Sumatra          1398.688
       396   04 Jun 2027 10:22:02.591   04 Jun 2027 10:22:32.497            29.906                  Delhi           934.563
       397   04 Jun 2027 10:22:54.075   04 Jun 2027 10:23:38.712            44.637                  Delhi          1394.906
       398   04 Jun 2027 10:35:07.720   04 Jun 2027 10:35:18.440            10.720                Irkutsk           335.000
       399   04 Jun 2027 10:36:18.787   04 Jun 2027 10:36:29.673            10.886                Novosib           340.188
       400   04 Jun 2027 10:36:40.118   04 Jun 2027 10:36:42.973             2.855                Novosib            89.219
       401   04 Jun 2027 10:36:53.042   04 Jun 2027 10:37:04.939            11.897                Novosib           371.781
       402   04 Jun 2027 10:37:05.703   04 Jun 2027 10:37:08.204             2.501                Norilsk            78.156
       403   04 Jun 2027 10:37:26.483   04 Jun 2027 10:37:40.306            13.823                Novosib           431.969
       404   04 Jun 2027 10:37:46.675   04 Jun 2027 10:38:30.637            43.962                Norilsk          1373.812
       405   04 Jun 2027 10:38:36.220   04 Jun 2027 10:38:58.799            22.579                Norilsk           705.594
       406   04 Jun 2027 11:57:27.501   04 Jun 2027 11:59:09.007           101.506                  Delhi          3172.062
       407   04 Jun 2027 12:02:01.835   04 Jun 2027 12:02:40.697            38.862                  Delhi          1214.438
       408   04 Jun 2027 12:06:34.004   04 Jun 2027 12:06:57.953            23.949                Novosib           748.406
       409   04 Jun 2027 12:09:14.547   04 Jun 2027 12:09:54.273            39.726                Novosib          1241.437
       410   04 Jun 2027 12:13:08.990   04 Jun 2027 12:13:14.427             5.437                Novosib           169.906
       411   04 Jun 2027 12:14:52.559   04 Jun 2027 12:15:38.221            45.662                Novosib          1426.937
       412   04 Jun 2027 13:41:22.719   04 Jun 2027 13:43:32.641           129.922                 Moscow          4060.063
       413   04 Jun 2027 13:44:13.632   04 Jun 2027 13:44:36.259            22.627                 Moscow           707.094
       414   04 Jun 2027 13:44:53.461   04 Jun 2027 13:47:02.316           128.855              Murmansk2          4026.719
       415   04 Jun 2027 13:47:02.316   04 Jun 2027 13:47:59.139            56.823              Murmansk1          1775.719
       416   04 Jun 2027 13:50:07.121   04 Jun 2027 13:51:28.123            81.002                Norilsk          2531.313
       417   04 Jun 2027 14:55:24.669   04 Jun 2027 14:56:17.509            52.840               CapeTown          1651.250
       418   04 Jun 2027 14:57:12.233   04 Jun 2027 14:58:01.010            48.777               CapeTown          1524.281
       419   04 Jun 2027 14:58:52.320   04 Jun 2027 14:59:31.619            39.299               CapeTown          1228.094
       420   04 Jun 2027 15:05:57.556   04 Jun 2027 15:07:06.405            68.849               CapeTown          2151.531
       421   04 Jun 2027 15:22:22.405   04 Jun 2027 15:22:32.760            10.355              Murmansk2           323.594
       422   04 Jun 2027 15:22:36.340   04 Jun 2027 15:23:12.919            36.579              Murmansk1          1143.094
       423   04 Jun 2027 15:26:25.787   04 Jun 2027 15:27:37.466            71.679              Murmansk1          2239.969
       424   04 Jun 2027 15:35:43.699   04 Jun 2027 15:38:13.141           149.442                Anadyr2          4670.063
       425   04 Jun 2027 15:45:14.605   04 Jun 2027 15:45:21.043             6.438                Anadyr1           201.188
       426   04 Jun 2027 15:45:47.046   04 Jun 2027 15:45:59.328            12.282                Anadyr1           383.812
       427   04 Jun 2027 16:40:47.818   04 Jun 2027 16:41:08.923            21.105               CapeTown           659.531
       428   04 Jun 2027 17:02:20.378   04 Jun 2027 17:04:49.787           149.409              Murmansk2          4669.031
       429   04 Jun 2027 17:06:12.162   04 Jun 2027 17:07:44.651            92.489              Murmansk2          2890.281
       430   04 Jun 2027 17:12:33.413   04 Jun 2027 17:12:37.732             4.319                Anadyr1           134.969
       431   04 Jun 2027 17:14:25.153   04 Jun 2027 17:16:40.953           135.800               Magadan1          4243.750
       432   04 Jun 2027 17:23:19.496   04 Jun 2027 17:23:46.256            26.760               Magadan2           836.250
       433   04 Jun 2027 18:47:20.205   04 Jun 2027 18:51:11.739           231.534                Anadyr2          7235.437
       434   04 Jun 2027 18:51:12.850   04 Jun 2027 18:53:30.580           137.730               Magadan2          4304.063
       435   04 Jun 2027 19:00:03.896   04 Jun 2027 19:00:36.619            32.723               Magadan1          1022.594
       436   04 Jun 2027 19:43:09.308   04 Jun 2027 19:45:56.899           167.591            RioGallegos          5237.219
       437   04 Jun 2027 19:49:23.175   04 Jun 2027 19:49:47.636            24.461            RioGallegos           764.406
       438   04 Jun 2027 20:23:07.858   04 Jun 2027 20:23:43.949            36.091                Anadyr1          1127.844
       439   04 Jun 2027 20:25:17.489   04 Jun 2027 20:27:32.123           134.634                Norilsk          4207.312
       440   04 Jun 2027 20:27:58.026   04 Jun 2027 20:28:35.874            37.848                Norilsk          1182.750
       441   04 Jun 2027 20:30:04.319   04 Jun 2027 20:31:27.056            82.737                Irkutsk          2585.531
       442   04 Jun 2027 20:34:34.080   04 Jun 2027 20:34:56.303            22.223                Irkutsk           694.469
       443   04 Jun 2027 20:35:26.017   04 Jun 2027 20:36:30.093            64.076                Irkutsk          2002.375
       444   04 Jun 2027 20:44:45.326   04 Jun 2027 20:47:00.876           135.550                Sumatra          4235.937
       445   04 Jun 2027 20:50:45.484   04 Jun 2027 20:51:32.773            47.289                Sumatra          1477.781
       446   04 Jun 2027 22:01:28.809   04 Jun 2027 22:01:40.523            11.714                Norilsk           366.062
       447   04 Jun 2027 22:02:19.493   04 Jun 2027 22:02:59.034            39.541                Norilsk          1235.656
       448   04 Jun 2027 22:03:13.865   04 Jun 2027 22:04:04.530            50.665               Magadan2          1583.281
       449   04 Jun 2027 22:04:58.523   04 Jun 2027 22:06:20.359            81.836                Irkutsk          2557.375
       450   04 Jun 2027 22:11:39.278   04 Jun 2027 22:12:50.264            70.986                Novosib          2218.312
       451   04 Jun 2027 22:15:00.781   04 Jun 2027 22:17:11.628           130.847                  Delhi          4088.969
       452   04 Jun 2027 23:33:22.476   04 Jun 2027 23:34:35.567            73.091                Anadyr1          2284.094
       453   04 Jun 2027 23:37:22.667   04 Jun 2027 23:37:33.404            10.737                Norilsk           335.531
       454   04 Jun 2027 23:37:36.998   04 Jun 2027 23:38:56.591            79.593               Magadan1          2487.281
       455   04 Jun 2027 23:39:54.731   04 Jun 2027 23:41:43.142           108.411              Murmansk1          3387.844
       456   04 Jun 2027 23:42:28.475   04 Jun 2027 23:43:27.811            59.336              Murmansk2          1854.250
       457   04 Jun 2027 23:44:30.001   04 Jun 2027 23:45:48.432            78.431              Murmansk1          2450.969
       458   05 Jun 2027 00:30:15.968   05 Jun 2027 00:31:03.326            47.358            RioGallegos          1479.938
       459   05 Jun 2027 01:05:40.211   05 Jun 2027 01:07:05.253            85.042                Anadyr2          2657.563
       460   05 Jun 2027 01:07:45.591   05 Jun 2027 01:08:24.500            38.909                Anadyr1          1215.906
       461   05 Jun 2027 01:11:37.557   05 Jun 2027 01:13:28.454           110.897               Magadan1          3465.531
       462   05 Jun 2027 01:13:45.084   05 Jun 2027 01:15:22.782            97.698               Magadan2          3053.062
       463   05 Jun 2027 01:15:28.565   05 Jun 2027 01:16:01.304            32.739              Murmansk1          1023.094
       464   05 Jun 2027 01:16:17.356   05 Jun 2027 01:17:28.367            71.011              Murmansk1          2219.094
       465   05 Jun 2027 01:27:24.588   05 Jun 2027 01:27:53.956            29.368                  Delhi           917.750
       466   05 Jun 2027 01:31:12.675   05 Jun 2027 01:31:24.054            11.379                  Delhi           355.594
       467   05 Jun 2027 01:44:44.083   05 Jun 2027 01:46:02.492            78.409               CapeTown          2450.281
       468   05 Jun 2027 01:53:23.910   05 Jun 2027 01:53:47.337            23.427               CapeTown           732.094
       469   05 Jun 2027 02:39:35.139   05 Jun 2027 02:41:29.511           114.372                Anadyr2          3574.125
       470   05 Jun 2027 02:43:15.236   05 Jun 2027 02:43:49.185            33.949               Magadan1          1060.906
       471   05 Jun 2027 02:44:22.605   05 Jun 2027 02:44:53.568            30.963               Magadan2           967.594
       472   05 Jun 2027 02:47:13.305   05 Jun 2027 02:47:26.675            13.370               Magadan2           417.813
       473   05 Jun 2027 02:48:34.472   05 Jun 2027 02:48:52.230            17.758                Norilsk           554.938
       474   05 Jun 2027 02:49:03.025   05 Jun 2027 02:49:28.930            25.905                Norilsk           809.531
       475   05 Jun 2027 02:51:10.878   05 Jun 2027 02:52:22.274            71.396              Murmansk1          2231.125
       476   05 Jun 2027 02:53:48.125   05 Jun 2027 02:54:27.365            39.240                Novosib          1226.250
       477   05 Jun 2027 02:54:45.382   05 Jun 2027 02:55:30.279            44.897                 Moscow          1403.031
       478   05 Jun 2027 03:00:42.581   05 Jun 2027 03:01:22.481            39.900                 Moscow          1246.875
       479   05 Jun 2027 03:01:28.763   05 Jun 2027 03:03:59.223           150.460                 Moscow          4701.875
       480   05 Jun 2027 03:18:17.873   05 Jun 2027 03:20:43.517           145.644               CapeTown          4551.375
       481   05 Jun 2027 04:15:04.896   05 Jun 2027 04:16:17.702            72.806                Anadyr2          2275.188
       482   05 Jun 2027 04:16:17.702   05 Jun 2027 04:17:01.836            44.134                Anadyr1          1379.187
