uniorb/output/strategy_4/Drop/Drop_KinoSat_110408.txt

KinoSat_110408
-------------------------
    Access    *     Start Time (UTCG)     *     Stop Time (UTCG)  *   Duration (s)        *       Station  *  Data (Mbytes)
         1   01 Jun 2027 03:22:01.289   01 Jun 2027 03:22:22.246            20.957               Magadan1          2619.625
         2   01 Jun 2027 03:22:41.546   01 Jun 2027 03:22:51.670            10.124               Magadan1          1265.500
         3   01 Jun 2027 03:22:51.670   01 Jun 2027 03:23:07.097            15.427               Magadan2          1928.375
         4   01 Jun 2027 03:23:12.009   01 Jun 2027 03:23:21.523             9.514                Anadyr1          1189.250
         5   01 Jun 2027 03:23:24.962   01 Jun 2027 03:24:34.543            69.581                Anadyr1          8697.625
         6   01 Jun 2027 03:24:47.173   01 Jun 2027 03:25:19.721            32.548                Anadyr2          4068.500
         7   01 Jun 2027 03:25:45.065   01 Jun 2027 03:26:55.288            70.223               Magadan2          8777.875
         8   01 Jun 2027 03:26:58.066   01 Jun 2027 03:27:01.975             3.909                Anadyr2           488.625
         9   01 Jun 2027 03:27:10.338   01 Jun 2027 03:28:29.002            78.664                Anadyr1          9833.000
        10   01 Jun 2027 03:29:11.646   01 Jun 2027 03:29:44.832            33.186               Magadan1          4148.250
        11   01 Jun 2027 03:29:48.046   01 Jun 2027 03:29:51.274             3.228                Anadyr2           403.500
        12   01 Jun 2027 03:30:05.910   01 Jun 2027 03:30:23.975            18.065               Magadan2          2258.125
        13   01 Jun 2027 04:43:49.323   01 Jun 2027 04:44:56.291            66.968                Sumatra          8371.000
        14   01 Jun 2027 04:46:56.786   01 Jun 2027 04:47:19.223            22.437                Sumatra          2804.625
        15   01 Jun 2027 05:00:51.928   01 Jun 2027 05:01:29.944            38.016               Magadan1          4752.000
        16   01 Jun 2027 05:01:39.642   01 Jun 2027 05:02:27.677            48.035                Irkutsk          6004.375
        17   01 Jun 2027 05:02:36.806   01 Jun 2027 05:02:59.051            22.245                Norilsk          2780.625
        18   01 Jun 2027 05:03:07.768   01 Jun 2027 05:05:14.206           126.438                Irkutsk         15804.750
        19   01 Jun 2027 05:05:45.840   01 Jun 2027 05:06:08.098            22.258                Novosib          2782.250
        20   01 Jun 2027 05:06:18.207   01 Jun 2027 05:06:40.084            21.877                Novosib          2734.625
        21   01 Jun 2027 05:06:53.263   01 Jun 2027 05:06:56.192             2.929              Murmansk1           366.125
        22   01 Jun 2027 05:41:14.629   01 Jun 2027 05:41:47.555            32.926            RioGallegos          4115.750
        23   01 Jun 2027 06:15:51.264   01 Jun 2027 06:17:58.630           127.366                Sumatra         15920.750
        24   01 Jun 2027 06:25:48.503   01 Jun 2027 06:26:17.439            28.936                  Delhi          3617.000
        25   01 Jun 2027 06:27:06.892   01 Jun 2027 06:29:00.984           114.092                  Delhi         14261.500
        26   01 Jun 2027 06:38:35.736   01 Jun 2027 06:39:06.559            30.823                Irkutsk          3852.875
        27   01 Jun 2027 06:39:14.647   01 Jun 2027 06:39:49.941            35.294                Novosib          4411.750
        28   01 Jun 2027 06:39:50.941   01 Jun 2027 06:40:50.456            59.515              Murmansk1          7439.375
        29   01 Jun 2027 06:41:09.728   01 Jun 2027 06:41:35.902            26.174              Murmansk1          3271.750
        30   01 Jun 2027 06:41:51.929   01 Jun 2027 06:42:42.281            50.352                Norilsk          6294.000
        31   01 Jun 2027 06:42:59.617   01 Jun 2027 06:43:23.875            24.258                 Moscow          3032.250
        32   01 Jun 2027 06:43:26.026   01 Jun 2027 06:43:46.745            20.719                 Moscow          2589.875
        33   01 Jun 2027 08:00:13.707   01 Jun 2027 08:01:24.227            70.520                  Delhi          8815.000
        34   01 Jun 2027 08:15:54.875   01 Jun 2027 08:17:10.491            75.616                Novosib          9452.000
        35   01 Jun 2027 08:17:16.778   01 Jun 2027 08:18:28.059            71.281                Novosib          8910.125
        36   01 Jun 2027 09:52:20.070   01 Jun 2027 09:52:47.768            27.698                 Moscow          3462.250
        37   01 Jun 2027 09:52:57.906   01 Jun 2027 09:53:10.527            12.621              Murmansk1          1577.625
        38   01 Jun 2027 09:53:26.620   01 Jun 2027 10:00:50.539           443.919              Murmansk1         55489.875
        39   01 Jun 2027 10:58:54.912   01 Jun 2027 11:00:57.331           122.419               CapeTown         15302.375
        40   01 Jun 2027 11:01:53.475   01 Jun 2027 11:05:35.078           221.603               CapeTown         27700.375
        41   01 Jun 2027 11:38:56.747   01 Jun 2027 11:41:33.607           156.860                Anadyr1         19607.500
        42   01 Jun 2027 11:41:51.283   01 Jun 2027 11:43:20.165            88.882                Anadyr2         11110.250
        43   01 Jun 2027 11:44:09.729   01 Jun 2027 11:44:24.799            15.070                Anadyr1          1883.750
        44   01 Jun 2027 11:47:59.206   01 Jun 2027 11:48:39.535            40.329                Anadyr2          5041.125
        45   01 Jun 2027 13:17:50.381   01 Jun 2027 13:21:26.071           215.690               Magadan2         26961.250
        46   01 Jun 2027 15:47:35.991   01 Jun 2027 15:49:51.324           135.333            RioGallegos         16916.625
        47   01 Jun 2027 16:33:39.873   01 Jun 2027 16:38:28.061           288.188                Irkutsk         36023.500
        48   01 Jun 2027 16:40:04.276   01 Jun 2027 16:41:34.463            90.187                Irkutsk         11273.375
        49   01 Jun 2027 16:49:06.520   01 Jun 2027 16:51:12.951           126.431                Sumatra         15803.875
        50   01 Jun 2027 18:10:30.186   01 Jun 2027 18:12:40.737           130.551                Novosib         16318.875
        51   01 Jun 2027 18:20:43.377   01 Jun 2027 18:21:08.044            24.667                  Delhi          3083.375
        52   01 Jun 2027 21:18:34.344   01 Jun 2027 21:20:08.773            94.429              Murmansk1         11803.625
        53   01 Jun 2027 21:22:17.885   01 Jun 2027 21:24:27.840           129.955                 Moscow          8794.251
        54   02 Jun 2027 03:39:58.623   02 Jun 2027 03:40:34.322            35.699               Magadan2          4462.375
        55   02 Jun 2027 03:40:49.518   02 Jun 2027 03:41:42.291            52.773               Magadan2          6596.625
        56   02 Jun 2027 03:41:47.655   02 Jun 2027 03:42:02.808            15.153               Magadan2          1894.125
        57   02 Jun 2027 03:42:06.351   02 Jun 2027 03:42:21.047            14.696               Magadan2          1837.000
        58   02 Jun 2027 04:54:33.167   02 Jun 2027 04:54:54.353            21.186                Sumatra          2648.250
        59   02 Jun 2027 05:13:44.425   02 Jun 2027 05:15:04.999            80.574                Irkutsk         10071.750
        60   02 Jun 2027 05:16:53.218   02 Jun 2027 05:18:22.137            88.919                Irkutsk         11114.875
        61   02 Jun 2027 05:18:40.770   02 Jun 2027 05:24:48.635           367.865              Murmansk1         45983.125
        62   02 Jun 2027 05:25:18.048   02 Jun 2027 05:26:06.904            48.856              Murmansk1          6107.000
        63   02 Jun 2027 05:26:06.904   02 Jun 2027 05:26:17.336            10.432              Murmansk2          1304.000
        64   02 Jun 2027 05:53:29.447   02 Jun 2027 05:56:02.040           152.593            RioGallegos         19074.125
        65   02 Jun 2027 06:05:20.762   02 Jun 2027 06:05:36.251            15.489            RioGallegos          1936.125
        66   02 Jun 2027 06:27:56.737   02 Jun 2027 06:29:37.936           101.199                Sumatra         12649.875
        67   02 Jun 2027 06:30:55.953   02 Jun 2027 06:33:01.932           125.979                Sumatra         15747.375
        68   02 Jun 2027 06:52:47.644   02 Jun 2027 06:53:01.708            14.064                Irkutsk          1758.000
        69   02 Jun 2027 06:54:13.934   02 Jun 2027 06:55:50.582            96.648                Novosib         12081.000
        70   02 Jun 2027 06:55:59.677   02 Jun 2027 06:56:33.841            34.164                 Moscow          4270.500
        71   02 Jun 2027 06:56:39.089   02 Jun 2027 06:58:58.792           139.703                Norilsk         17462.875
        72   02 Jun 2027 06:59:00.188   02 Jun 2027 07:01:04.690           124.502              Murmansk2         15562.750
        73   02 Jun 2027 07:01:04.690   02 Jun 2027 07:01:19.510            14.820              Murmansk1          1852.500
        74   02 Jun 2027 07:36:02.322   02 Jun 2027 07:37:09.797            67.475            RioGallegos          8434.375
        75   02 Jun 2027 08:12:29.224   02 Jun 2027 08:17:21.534           292.310                  Delhi         36538.750
        76   02 Jun 2027 08:18:18.241   02 Jun 2027 08:19:10.030            51.789                  Delhi          6473.625
        77   02 Jun 2027 08:20:35.455   02 Jun 2027 08:25:07.926           272.471                Novosib         34058.875
        78   02 Jun 2027 08:29:55.941   02 Jun 2027 08:30:11.296            15.355                 Moscow          1919.375
        79   02 Jun 2027 08:30:14.699   02 Jun 2027 08:33:16.918           182.219                Norilsk         22777.375
        80   02 Jun 2027 08:33:24.837   02 Jun 2027 08:36:57.189           212.352              Murmansk2         26544.000
        81   02 Jun 2027 09:59:59.191   02 Jun 2027 10:00:41.936            42.745              Murmansk1          5343.125
        82   02 Jun 2027 10:00:41.936   02 Jun 2027 10:01:12.407            30.471              Murmansk2          3808.875
        83   02 Jun 2027 10:04:55.264   02 Jun 2027 10:11:57.453           422.189              Murmansk1         52773.625
        84   02 Jun 2027 10:11:57.453   02 Jun 2027 10:12:52.162            54.709              Murmansk2          6838.625
        85   02 Jun 2027 11:15:19.417   02 Jun 2027 11:16:49.240            89.823               CapeTown         11227.875
        86   02 Jun 2027 11:34:31.967   02 Jun 2027 11:38:25.945           233.978                 Moscow         29247.250
        87   02 Jun 2027 11:38:29.083   02 Jun 2027 11:48:22.776           593.693              Murmansk1         74211.625
        88   02 Jun 2027 11:50:52.487   02 Jun 2027 11:54:39.102           226.615                Anadyr1         28326.875
        89   02 Jun 2027 11:58:33.110   02 Jun 2027 11:59:59.821            86.711                Anadyr2         10838.875
        90   02 Jun 2027 13:29:36.356   02 Jun 2027 13:31:00.597            84.241               Magadan2         10530.125
        91   02 Jun 2027 13:31:00.597   02 Jun 2027 13:33:26.710           146.113               Magadan1         18264.125
        92   02 Jun 2027 15:58:29.593   02 Jun 2027 16:01:36.531           186.938            RioGallegos         23367.250
        93   02 Jun 2027 16:45:29.113   02 Jun 2027 16:48:47.638           198.525                Irkutsk         24815.625
        94   02 Jun 2027 16:50:55.926   02 Jun 2027 16:51:51.840            55.914                Irkutsk          6989.250
        95   02 Jun 2027 17:00:05.909   02 Jun 2027 17:02:55.554           169.645                Sumatra         21205.625
        96   02 Jun 2027 17:07:24.385   02 Jun 2027 17:09:05.702           101.317                Sumatra         12664.625
        97   02 Jun 2027 18:24:42.404   02 Jun 2027 18:24:53.974            11.570                Novosib          1446.250
        98   02 Jun 2027 18:30:28.065   02 Jun 2027 18:32:08.591           100.526                  Delhi         12565.750
        99   02 Jun 2027 21:31:55.380   02 Jun 2027 21:33:23.279            87.899              Murmansk1         10987.375
       100   02 Jun 2027 21:38:14.869   02 Jun 2027 21:38:22.191             7.322                 Moscow           915.250
       101   02 Jun 2027 21:39:34.298   02 Jun 2027 21:40:55.880            81.582                 Moscow         10197.750
       102   02 Jun 2027 22:00:03.342   02 Jun 2027 22:02:28.794           145.452               CapeTown         18181.500
       103   02 Jun 2027 22:05:00.320   02 Jun 2027 22:05:06.842             6.522               CapeTown           815.250
       104   02 Jun 2027 22:06:51.437   02 Jun 2027 22:08:17.956            86.519               CapeTown          1650.875
       105   03 Jun 2027 03:53:18.027   03 Jun 2027 03:53:35.864            17.837               Magadan2          2229.625
       106   03 Jun 2027 03:54:21.532   03 Jun 2027 03:58:12.039           230.507              Murmansk1         28813.375
       107   03 Jun 2027 05:05:43.095   03 Jun 2027 05:08:49.328           186.233                Sumatra         23279.125
       108   03 Jun 2027 05:30:19.166   03 Jun 2027 05:31:46.826            87.660                Novosib         10957.500
       109   03 Jun 2027 05:31:53.030   03 Jun 2027 05:35:20.444           207.414                Norilsk         25926.750
       110   03 Jun 2027 05:35:23.939   03 Jun 2027 05:38:09.421           165.482              Murmansk1         20685.250
       111   03 Jun 2027 06:08:28.344   03 Jun 2027 06:08:56.429            28.085            RioGallegos          3510.625
       112   03 Jun 2027 06:09:19.735   03 Jun 2027 06:09:48.954            29.219            RioGallegos          3652.375
       113   03 Jun 2027 06:17:03.928   03 Jun 2027 06:17:30.192            26.264            RioGallegos          3283.000
       114   03 Jun 2027 06:40:08.169   03 Jun 2027 06:42:45.955           157.786                Sumatra         19723.250
       115   03 Jun 2027 06:52:48.724   03 Jun 2027 06:54:29.192           100.468                  Delhi         12558.500
       116   03 Jun 2027 06:54:58.862   03 Jun 2027 06:56:11.699            72.837                Novosib          9104.625
       117   03 Jun 2027 06:57:21.946   03 Jun 2027 06:59:08.351           106.405                Irkutsk         13300.625
       118   03 Jun 2027 06:59:36.583   03 Jun 2027 07:00:07.549            30.966                Novosib          3870.750
       119   03 Jun 2027 07:05:37.205   03 Jun 2027 07:07:50.972           133.767                Novosib         16720.875
       120   03 Jun 2027 07:08:05.058   03 Jun 2027 07:13:17.002           311.944              Murmansk2         38993.000
       121   03 Jun 2027 08:24:51.627   03 Jun 2027 08:29:35.175           283.548                  Delhi         35443.500
       122   03 Jun 2027 08:29:44.170   03 Jun 2027 08:30:52.050            67.880                  Delhi          8485.000
       123   03 Jun 2027 08:32:18.190   03 Jun 2027 08:32:24.195             6.005                  Delhi           750.625
       124   03 Jun 2027 08:33:34.153   03 Jun 2027 08:36:29.657           175.504                Novosib         21938.000
       125   03 Jun 2027 08:36:34.725   03 Jun 2027 08:37:22.140            47.415                 Moscow          5926.875
       126   03 Jun 2027 08:41:42.323   03 Jun 2027 08:45:24.152           221.829              Murmansk2         27728.625
       127   03 Jun 2027 08:45:24.152   03 Jun 2027 08:48:57.783           213.631              Murmansk1         26703.875
       128   03 Jun 2027 10:11:47.211   03 Jun 2027 10:13:34.658           107.447                 Moscow         13430.875
       129   03 Jun 2027 10:13:48.567   03 Jun 2027 10:15:07.564            78.997              Murmansk1          9874.625
       130   03 Jun 2027 10:15:17.958   03 Jun 2027 10:15:56.834            38.876              Murmansk2          4859.500
       131   03 Jun 2027 10:16:23.861   03 Jun 2027 10:18:53.256           149.395              Murmansk1         18674.375
       132   03 Jun 2027 10:18:53.256   03 Jun 2027 10:22:09.838           196.582              Murmansk2         24572.750
       133   03 Jun 2027 10:22:12.458   03 Jun 2027 10:22:35.667            23.209              Murmansk2          2901.125
       134   03 Jun 2027 10:29:06.073   03 Jun 2027 10:31:29.586           143.513                Anadyr2         17939.125
       135   03 Jun 2027 11:28:16.045   03 Jun 2027 11:28:17.812             1.767               CapeTown           220.875
       136   03 Jun 2027 11:49:45.678   03 Jun 2027 11:50:50.058            64.380              Murmansk1          8047.500
       137   03 Jun 2027 11:50:50.058   03 Jun 2027 11:54:52.276           242.218              Murmansk2         30277.250
       138   03 Jun 2027 11:55:09.239   03 Jun 2027 11:55:57.235            47.996              Murmansk2          5999.500
       139   03 Jun 2027 11:56:19.260   03 Jun 2027 11:58:30.002           130.742              Murmansk1         16342.750
       140   03 Jun 2027 11:59:14.143   03 Jun 2027 11:59:39.074            24.931              Murmansk1          3116.375
       141   03 Jun 2027 12:05:25.361   03 Jun 2027 12:07:18.806           113.445                Anadyr2         14180.625
       142   03 Jun 2027 13:41:25.974   03 Jun 2027 13:43:33.004           127.030               Magadan2         15878.750
       143   03 Jun 2027 13:43:33.004   03 Jun 2027 13:45:27.745           114.741               Magadan1         14342.625
       144   03 Jun 2027 13:48:47.409   03 Jun 2027 13:50:14.369            86.960               Magadan1         10870.000
       145   03 Jun 2027 16:09:53.407   03 Jun 2027 16:13:25.414           212.007            RioGallegos         26500.875
       146   03 Jun 2027 16:16:11.609   03 Jun 2027 16:17:38.561            86.952            RioGallegos         10869.000
       147   03 Jun 2027 16:59:31.606   03 Jun 2027 17:00:49.744            78.138                Irkutsk          9767.250
       148   03 Jun 2027 17:11:23.759   03 Jun 2027 17:16:10.064           286.305                Sumatra         35788.125
       149   03 Jun 2027 18:36:44.625   03 Jun 2027 18:36:49.136             4.511                Novosib           563.875
       150   03 Jun 2027 18:41:28.023   03 Jun 2027 18:43:28.348           120.325                Novosib         15040.625
       151   03 Jun 2027 18:44:18.340   03 Jun 2027 18:44:29.624            11.284                  Delhi          1410.500
       152   03 Jun 2027 18:46:36.956   03 Jun 2027 18:48:47.868           130.912                  Delhi         16364.000
       153   03 Jun 2027 21:44:55.244   03 Jun 2027 21:47:30.186           154.942              Murmansk1         19367.750
       154   03 Jun 2027 21:50:58.122   03 Jun 2027 21:53:10.969           132.847                 Moscow         16605.875
       155   03 Jun 2027 22:17:10.982   03 Jun 2027 22:18:44.884            93.902               CapeTown          1701.750
       156   04 Jun 2027 04:06:36.164   04 Jun 2027 04:07:15.974            39.810                Novosib          4976.250
       157   04 Jun 2027 05:17:07.302   04 Jun 2027 05:18:04.370            57.068                Sumatra          7133.500
       158   04 Jun 2027 05:20:20.267   04 Jun 2027 05:20:41.374            21.107                Sumatra          2638.375
       159   04 Jun 2027 05:23:45.222   04 Jun 2027 05:24:25.159            39.937                Sumatra          4992.125
       160   04 Jun 2027 05:42:16.946   04 Jun 2027 05:46:51.533           274.587              Murmansk1         34323.375
       161   04 Jun 2027 05:46:51.533   04 Jun 2027 05:47:34.738            43.205              Murmansk2          5400.625
       162   04 Jun 2027 05:48:45.653   04 Jun 2027 05:50:02.260            76.607              Murmansk2          9575.875
       163   04 Jun 2027 06:18:12.224   04 Jun 2027 06:19:54.192           101.968            RioGallegos         12746.000
       164   04 Jun 2027 06:20:33.367   04 Jun 2027 06:20:57.682            24.315            RioGallegos          3039.375
       165   04 Jun 2027 06:21:54.892   04 Jun 2027 06:22:26.891            31.999            RioGallegos          3999.875
       166   04 Jun 2027 06:52:26.344   04 Jun 2027 06:54:29.612           123.268                Sumatra         15408.500
       167   04 Jun 2027 06:55:26.967   04 Jun 2027 06:56:44.084            77.117                Sumatra          9639.625
       168   04 Jun 2027 06:59:08.913   04 Jun 2027 06:59:48.542            39.629                Sumatra          4953.625
       169   04 Jun 2027 07:00:35.181   04 Jun 2027 07:00:35.390             0.209                  Delhi            26.125
       170   04 Jun 2027 07:02:46.553   04 Jun 2027 07:03:11.170            24.617                  Delhi          3077.125
       171   04 Jun 2027 07:05:14.179   04 Jun 2027 07:05:48.147            33.968                  Delhi          4246.000
       172   04 Jun 2027 07:07:04.386   04 Jun 2027 07:08:11.916            67.530                Novosib          8441.250
       173   04 Jun 2027 07:08:20.300   04 Jun 2027 07:11:28.977           188.677                Irkutsk         23584.625
       174   04 Jun 2027 07:12:08.089   04 Jun 2027 07:12:41.706            33.617                Norilsk          4202.125
       175   04 Jun 2027 07:17:58.805   04 Jun 2027 07:23:48.272           349.467              Murmansk2         43683.375
       176   04 Jun 2027 07:23:48.272   04 Jun 2027 07:24:41.577            53.305              Murmansk1          6663.125
       177   04 Jun 2027 07:24:51.596   04 Jun 2027 07:25:15.012            23.416              Murmansk1          2927.000
       178   04 Jun 2027 08:37:22.325   04 Jun 2027 08:39:42.967           140.642                  Delhi         17580.250
       179   04 Jun 2027 08:39:57.358   04 Jun 2027 08:41:25.945            88.587                  Delhi         11073.375
       180   04 Jun 2027 08:45:47.861   04 Jun 2027 08:49:24.461           216.600                Novosib         27075.000
       181   04 Jun 2027 08:49:26.711   04 Jun 2027 08:49:34.311             7.600                Norilsk           950.000
       182   04 Jun 2027 08:53:45.000   04 Jun 2027 08:54:45.288            60.288                Novosib          7536.000
       183   04 Jun 2027 08:54:45.853   04 Jun 2027 09:00:35.612           349.759              Murmansk1         43719.875
       184   04 Jun 2027 09:00:35.612   04 Jun 2027 09:00:58.602            22.990              Murmansk2          2873.750
       185   04 Jun 2027 10:24:13.066   04 Jun 2027 10:25:36.487            83.421              Murmansk2         10427.625
       186   04 Jun 2027 10:25:36.487   04 Jun 2027 10:28:52.251           195.764              Murmansk1         24470.500
       187   04 Jun 2027 10:29:03.595   04 Jun 2027 10:29:29.786            26.191              Murmansk1          3273.875
       188   04 Jun 2027 10:31:03.472   04 Jun 2027 10:34:04.893           181.421                Norilsk         22677.625
       189   04 Jun 2027 10:40:16.648   04 Jun 2027 10:45:00.281           283.633                Anadyr1         35454.125
       190   04 Jun 2027 12:02:09.530   04 Jun 2027 12:03:18.809            69.279              Murmansk1          8659.875
       191   04 Jun 2027 12:03:18.809   04 Jun 2027 12:05:36.446           137.637              Murmansk2         17204.625
       192   04 Jun 2027 12:08:15.811   04 Jun 2027 12:08:27.907            12.096              Murmansk2          1512.000
       193   04 Jun 2027 12:15:41.322   04 Jun 2027 12:16:07.887            26.565                Anadyr2          3320.625
       194   04 Jun 2027 13:53:18.169   04 Jun 2027 13:57:37.105           258.936               Magadan1         32367.000
       195   04 Jun 2027 13:59:26.270   04 Jun 2027 13:59:56.729            30.459               Magadan2          3807.375
       196   04 Jun 2027 14:00:48.348   04 Jun 2027 14:02:14.470            86.122               Magadan2         10765.250
       197   04 Jun 2027 16:21:28.958   04 Jun 2027 16:27:03.677           334.719            RioGallegos         41839.875
       198   04 Jun 2027 16:28:12.082   04 Jun 2027 16:28:13.267             1.185            RioGallegos           148.125
       199   04 Jun 2027 17:12:42.098   04 Jun 2027 17:14:38.467           116.369                Irkutsk         14546.125
       200   04 Jun 2027 17:24:20.104   04 Jun 2027 17:26:39.542           139.438                Sumatra         17429.750
       201   04 Jun 2027 17:27:15.491   04 Jun 2027 17:27:28.574            13.083                Sumatra          1635.375
       202   04 Jun 2027 17:29:05.436   04 Jun 2027 17:29:49.546            44.110                Sumatra          5513.750
       203   04 Jun 2027 18:44:28.087   04 Jun 2027 18:45:59.322            91.235                Novosib         11404.375
       204   04 Jun 2027 18:47:11.736   04 Jun 2027 18:48:47.355            95.619                Novosib         11952.375
       205   04 Jun 2027 18:52:51.758   04 Jun 2027 18:54:26.106            94.348                  Delhi         11793.500
       206   04 Jun 2027 20:25:32.890   04 Jun 2027 20:26:14.502            41.612              Murmansk1          5201.500
       207   04 Jun 2027 21:54:23.781   04 Jun 2027 21:55:13.202            49.421              Murmansk1          6177.625
       208   04 Jun 2027 21:57:54.489   04 Jun 2027 21:59:49.988           115.499                 Moscow         14437.375
       209   04 Jun 2027 22:04:06.100   04 Jun 2027 22:05:56.739           110.639              Murmansk1          7279.625
       210   05 Jun 2027 05:28:41.418   05 Jun 2027 05:30:31.495           110.077                Sumatra         13759.625
       211   05 Jun 2027 05:43:06.533   05 Jun 2027 05:44:07.995            61.462                  Delhi          7682.750
       212   05 Jun 2027 05:53:47.333   05 Jun 2027 06:01:09.854           442.521              Murmansk1         55315.125
       213   05 Jun 2027 06:01:09.854   05 Jun 2027 06:01:55.841            45.987              Murmansk2          5748.375
       214   05 Jun 2027 06:39:22.205   05 Jun 2027 06:40:28.199            65.994            RioGallegos          8249.250
       215   05 Jun 2027 07:05:47.169   05 Jun 2027 07:06:05.907            18.738                Sumatra          2342.250
       216   05 Jun 2027 07:07:10.720   05 Jun 2027 07:08:33.384            82.664                Sumatra         10333.000
       217   05 Jun 2027 07:12:00.533   05 Jun 2027 07:14:13.524           132.991                Sumatra         16623.875
       218   05 Jun 2027 07:15:20.109   05 Jun 2027 07:16:03.863            43.754                  Delhi          5469.250
       219   05 Jun 2027 07:16:43.747   05 Jun 2027 07:16:57.846            14.099                  Delhi          1762.375
       220   05 Jun 2027 07:19:13.018   05 Jun 2027 07:22:15.933           182.915                Novosib         22864.375
       221   05 Jun 2027 07:22:31.689   05 Jun 2027 07:23:54.335            82.646                Irkutsk         10330.750
       222   05 Jun 2027 07:24:04.205   05 Jun 2027 07:25:24.456            80.251                 Moscow         10031.375
       223   05 Jun 2027 07:30:01.631   05 Jun 2027 07:33:02.090           180.459                 Moscow         22557.375
       224   05 Jun 2027 07:33:05.207   05 Jun 2027 07:35:29.773           144.566              Murmansk1         18070.750
       225   05 Jun 2027 07:35:29.773   05 Jun 2027 07:37:13.499           103.726              Murmansk2         12965.750
       226   05 Jun 2027 08:50:03.868   05 Jun 2027 08:52:00.238           116.370                  Delhi         14546.250
       227   05 Jun 2027 08:52:22.479   05 Jun 2027 08:53:43.788            81.309                  Delhi         10163.625
       228   05 Jun 2027 08:58:00.068   05 Jun 2027 08:58:25.155            25.087                  Delhi          3135.875
       229   05 Jun 2027 08:58:35.355   05 Jun 2027 09:01:26.569           171.214                Novosib         21401.750
       230   05 Jun 2027 09:05:46.610   05 Jun 2027 09:06:03.590            16.980                Novosib          2122.500
       231   05 Jun 2027 09:06:28.167   05 Jun 2027 09:11:11.386           283.219                Norilsk         35402.375
       232   05 Jun 2027 09:11:15.775   05 Jun 2027 09:12:59.632           103.857              Murmansk2         12982.125
       233   05 Jun 2027 10:36:22.615   05 Jun 2027 10:39:03.865           161.250              Murmansk2         20156.250
       234   05 Jun 2027 10:43:33.704   05 Jun 2027 10:46:06.080           152.376              Murmansk2         19047.000
       235   05 Jun 2027 10:51:52.011   05 Jun 2027 10:55:47.125           235.114                Anadyr1         29389.250
       236   05 Jun 2027 10:57:42.170   05 Jun 2027 10:58:03.644            21.474                Anadyr2          2684.250
       237   05 Jun 2027 12:14:35.824   05 Jun 2027 12:21:05.485           389.661              Murmansk1         48707.625
       238   05 Jun 2027 12:26:45.990   05 Jun 2027 12:28:32.140           106.150                Anadyr1         13268.750
       239   05 Jun 2027 12:29:42.170   05 Jun 2027 12:31:18.770            96.600                Anadyr1         12075.000
       240   05 Jun 2027 14:05:12.301   05 Jun 2027 14:09:30.772           258.471               Magadan2         32308.875
       241   05 Jun 2027 16:33:11.247   05 Jun 2027 16:35:15.239           123.992            RioGallegos         15499.000
       242   05 Jun 2027 16:35:29.934   05 Jun 2027 16:39:22.319           232.385            RioGallegos         29048.125
       243   05 Jun 2027 17:23:18.396   05 Jun 2027 17:23:50.423            32.027                Irkutsk          4003.375
       244   05 Jun 2027 17:24:43.514   05 Jun 2027 17:26:02.777            79.263                Novosib          9907.875
       245   05 Jun 2027 17:34:31.475   05 Jun 2027 17:36:22.213           110.738                Sumatra         13842.250
       246   05 Jun 2027 17:36:44.340   05 Jun 2027 17:38:21.796            97.456                Sumatra         12182.000
       247   05 Jun 2027 18:56:22.733   05 Jun 2027 18:58:23.252           120.519                Novosib         15064.875
       248   05 Jun 2027 19:04:24.612   05 Jun 2027 19:06:23.190           118.578                  Delhi         14822.250
       249   05 Jun 2027 19:10:04.500   05 Jun 2027 19:11:10.592            66.092                  Delhi          8261.500
       250   05 Jun 2027 20:34:50.984   05 Jun 2027 20:35:08.608            17.624              Murmansk2          2203.000
       251   05 Jun 2027 20:36:09.537   05 Jun 2027 20:38:25.414           135.877                 Moscow         15954.500
       252   06 Jun 2027 04:25:39.249   06 Jun 2027 04:26:36.370            57.121                Irkutsk          7140.125
       253   06 Jun 2027 05:43:32.326   06 Jun 2027 05:44:42.418            70.092                Sumatra          8761.500
       254   06 Jun 2027 05:52:47.082   06 Jun 2027 05:53:03.347            16.265                  Delhi          2033.125
       255   06 Jun 2027 06:06:10.092   06 Jun 2027 06:06:22.059            11.967                Irkutsk          1495.875
       256   06 Jun 2027 06:06:27.514   06 Jun 2027 06:11:24.733           297.219                Norilsk         37152.375
       257   06 Jun 2027 06:11:38.661   06 Jun 2027 06:13:50.152           131.491              Murmansk2         16436.375
       258   06 Jun 2027 06:43:16.629   06 Jun 2027 06:46:04.050           167.421            RioGallegos         20927.625
       259   06 Jun 2027 06:46:36.338   06 Jun 2027 06:47:00.327            23.989            RioGallegos          2998.625
       260   06 Jun 2027 07:17:30.323   06 Jun 2027 07:21:21.233           230.910                Sumatra         28863.750
       261   06 Jun 2027 07:25:38.987   06 Jun 2027 07:26:35.403            56.416                  Delhi          7052.000
       262   06 Jun 2027 07:27:12.562   06 Jun 2027 07:27:50.667            38.105                  Delhi          4763.125
       263   06 Jun 2027 07:28:35.976   06 Jun 2027 07:29:10.979            35.003                  Delhi          4375.375
       264   06 Jun 2027 07:31:24.923   06 Jun 2027 07:34:08.249           163.326                Novosib         20415.750
       265   06 Jun 2027 07:34:33.903   06 Jun 2027 07:37:07.107           153.204                Irkutsk         19150.500
       266   06 Jun 2027 07:41:44.830   06 Jun 2027 07:42:08.217            23.387                 Moscow          2923.375
       267   06 Jun 2027 07:42:17.036   06 Jun 2027 07:45:28.477           191.441                Norilsk         23930.125
       268   06 Jun 2027 07:45:35.733   06 Jun 2027 07:47:27.211           111.478              Murmansk1         13934.750
       269   06 Jun 2027 07:48:53.333   06 Jun 2027 07:49:12.436            19.103              Murmansk1          2387.875
       270   06 Jun 2027 09:03:01.734   06 Jun 2027 09:06:08.929           187.195                  Delhi         23399.375
       271   06 Jun 2027 09:11:34.552   06 Jun 2027 09:13:14.997           100.445                Novosib         12555.625
       272   06 Jun 2027 09:17:29.451   06 Jun 2027 09:18:01.836            32.385                Norilsk          4048.125
       273   06 Jun 2027 09:18:48.653   06 Jun 2027 09:23:14.781           266.128                Norilsk         33266.000
       274   06 Jun 2027 09:23:59.582   06 Jun 2027 09:25:00.833            61.251              Murmansk1          7656.375
       275   06 Jun 2027 10:47:02.218   06 Jun 2027 10:48:20.529            78.311                 Moscow          9788.875
       276   06 Jun 2027 10:48:33.981   06 Jun 2027 10:52:00.533           206.552              Murmansk2         25819.000
       277   06 Jun 2027 10:52:00.533   06 Jun 2027 10:52:32.338            31.805              Murmansk1          3975.625
       278   06 Jun 2027 10:53:08.960   06 Jun 2027 10:53:59.017            50.057              Murmansk1          6257.125
       279   06 Jun 2027 10:56:46.232   06 Jun 2027 10:57:18.508            32.276              Murmansk1          4034.500
       280   06 Jun 2027 10:59:19.460   06 Jun 2027 11:00:15.025            55.565              Murmansk1          6945.625
       281   06 Jun 2027 11:00:34.103   06 Jun 2027 11:00:44.395            10.292              Murmansk1          1286.500
       282   06 Jun 2027 11:00:58.621   06 Jun 2027 11:00:58.730             0.109              Murmansk1            13.625
       283   06 Jun 2027 11:03:36.162   06 Jun 2027 11:09:50.295           374.133                Anadyr2         46766.625
       284   06 Jun 2027 12:26:06.687   06 Jun 2027 12:28:32.592           145.905                 Moscow         18238.125
       285   06 Jun 2027 12:28:36.894   06 Jun 2027 12:29:52.329            75.435              Murmansk1          9429.375
       286   06 Jun 2027 12:38:49.328   06 Jun 2027 12:39:49.254            59.926                Anadyr2          7490.750
       287   06 Jun 2027 12:43:48.662   06 Jun 2027 12:46:29.567           160.905               Magadan1         20113.125
       288   06 Jun 2027 14:17:07.938   06 Jun 2027 14:18:48.379           100.441               Magadan2         12555.125
       289   06 Jun 2027 14:21:32.677   06 Jun 2027 14:22:30.414            57.737               Magadan2          7217.125
       290   06 Jun 2027 16:44:58.027   06 Jun 2027 16:50:51.211           353.184            RioGallegos         44148.000
       291   06 Jun 2027 17:34:28.509   06 Jun 2027 17:39:52.478           323.969                Novosib         40496.125
       292   06 Jun 2027 17:47:57.869   06 Jun 2027 17:50:46.218           168.349                Sumatra         21043.625
       293   06 Jun 2027 19:16:04.945   06 Jun 2027 19:17:47.363           102.418                  Delhi         12802.250
       294   06 Jun 2027 20:43:29.192   06 Jun 2027 20:44:41.078            71.886              Murmansk2          8985.750
       295   06 Jun 2027 20:47:29.377   06 Jun 2027 20:50:24.962           175.585                 Moscow         21948.125
       296   07 Jun 2027 04:42:33.096   07 Jun 2027 04:47:32.126           299.030                Norilsk         37378.750
       297   07 Jun 2027 04:49:59.303   07 Jun 2027 04:50:59.969            60.666              Murmansk1          7583.250
       298   07 Jun 2027 05:17:11.139   07 Jun 2027 05:18:55.041           103.902            RioGallegos         12987.750
       299   07 Jun 2027 05:19:23.077   07 Jun 2027 05:20:25.487            62.410            RioGallegos          7801.250
       300   07 Jun 2027 05:21:28.547   07 Jun 2027 05:22:15.648            47.101            RioGallegos          5887.625
       301   07 Jun 2027 05:26:03.818   07 Jun 2027 05:26:32.201            28.383            RioGallegos          3547.875
       302   07 Jun 2027 05:52:11.707   07 Jun 2027 05:53:07.148            55.441                Sumatra          6930.125
       303   07 Jun 2027 05:55:06.527   07 Jun 2027 05:56:29.210            82.683                Sumatra         10335.375
       304   07 Jun 2027 06:03:35.071   07 Jun 2027 06:05:15.802           100.731                  Delhi         12591.375
       305   07 Jun 2027 06:05:54.445   07 Jun 2027 06:10:39.883           285.438                Irkutsk         35679.750
       306   07 Jun 2027 06:11:16.816   07 Jun 2027 06:11:45.998            29.182                Novosib          3647.750
       307   07 Jun 2027 06:18:12.758   07 Jun 2027 06:18:19.384             6.626                Irkutsk           828.250
       308   07 Jun 2027 06:18:28.369   07 Jun 2027 06:19:52.919            84.550                 Moscow         10568.750
       309   07 Jun 2027 06:19:58.030   07 Jun 2027 06:25:35.526           337.496              Murmansk1         42187.000
       310   07 Jun 2027 06:55:59.855   07 Jun 2027 06:59:29.340           209.485            RioGallegos         26185.625
       311   07 Jun 2027 07:30:25.942   07 Jun 2027 07:33:42.107           196.165                Sumatra         24520.625
       312   07 Jun 2027 07:36:15.028   07 Jun 2027 07:38:29.007           133.979                  Delhi         16747.375
       313   07 Jun 2027 07:43:40.296   07 Jun 2027 07:47:01.871           201.575                Novosib         25196.875
       314   07 Jun 2027 07:47:36.076   07 Jun 2027 07:48:16.907            40.831                 Moscow          5103.875
       315   07 Jun 2027 07:48:39.242   07 Jun 2027 07:49:28.066            48.824                Irkutsk          6103.000
       316   07 Jun 2027 07:54:04.877   07 Jun 2027 07:55:44.142            99.265                Novosib         12408.125
       317   07 Jun 2027 07:55:59.323   07 Jun 2027 07:58:39.746           160.423                Norilsk         20052.875
       318   07 Jun 2027 07:58:42.418   07 Jun 2027 07:59:08.469            26.051              Murmansk1          3256.375
       319   07 Jun 2027 08:00:54.499   07 Jun 2027 08:01:11.773            17.274              Murmansk1          2159.250
       320   07 Jun 2027 09:16:33.548   07 Jun 2027 09:18:43.094           129.546                  Delhi         16193.250
       321   07 Jun 2027 09:20:43.820   07 Jun 2027 09:21:06.639            22.819                  Delhi          2852.375
       322   07 Jun 2027 09:29:27.143   07 Jun 2027 09:30:17.520            50.377                 Moscow          6297.125
       323   07 Jun 2027 09:30:49.069   07 Jun 2027 09:35:12.723           263.654                Norilsk         32956.750
       324   07 Jun 2027 09:35:49.938   07 Jun 2027 09:37:02.176            72.238              Murmansk2          9029.750
       325   07 Jun 2027 10:36:10.032   07 Jun 2027 10:44:29.341           499.309               CapeTown         62413.625
       326   07 Jun 2027 10:57:25.928   07 Jun 2027 11:07:17.969           592.041                 Moscow         74005.125
       327   07 Jun 2027 11:07:40.437   07 Jun 2027 11:13:00.228           319.791              Murmansk1         39973.875
       328   07 Jun 2027 11:15:25.114   07 Jun 2027 11:21:13.941           348.827                Anadyr1         43603.375
       329   07 Jun 2027 11:22:25.603   07 Jun 2027 11:23:40.506            74.903                Anadyr2          9362.875
       330   07 Jun 2027 12:10:05.255   07 Jun 2027 12:15:02.688           297.433               CapeTown         37179.125
       331   07 Jun 2027 12:39:36.391   07 Jun 2027 12:39:59.911            23.520              Murmansk2          2940.000
       332   07 Jun 2027 12:51:27.365   07 Jun 2027 12:53:10.955           103.590                Anadyr1         12948.750
       333   07 Jun 2027 12:54:53.613   07 Jun 2027 12:57:41.203           167.590               Magadan2         20948.750
       334   07 Jun 2027 14:29:04.777   07 Jun 2027 14:30:36.337            91.560               Magadan2         11445.000
       335   07 Jun 2027 14:32:01.458   07 Jun 2027 14:33:34.178            92.720               Magadan1         11590.000
       336   07 Jun 2027 16:11:22.804   07 Jun 2027 16:13:55.023           152.219                Irkutsk         19027.375
       337   07 Jun 2027 16:56:48.080   07 Jun 2027 16:58:13.446            85.366            RioGallegos         10670.750
       338   07 Jun 2027 17:44:27.369   07 Jun 2027 17:46:52.735           145.366                Irkutsk         18170.750
       339   07 Jun 2027 17:48:54.213   07 Jun 2027 17:49:26.992            32.779                Novosib          4097.375
       340   07 Jun 2027 17:50:05.781   07 Jun 2027 17:52:07.516           121.735                Novosib         15216.875
       341   07 Jun 2027 19:27:50.910   07 Jun 2027 19:32:07.969           257.059                  Delhi         32132.375
       342   07 Jun 2027 20:54:38.760   07 Jun 2027 20:54:42.607             3.847              Murmansk2           480.875
       343   07 Jun 2027 20:55:14.809   07 Jun 2027 20:56:10.206            55.397              Murmansk1          6924.625
       344   07 Jun 2027 20:59:03.799   07 Jun 2027 21:02:25.259           201.460                 Moscow         25182.500
       345   08 Jun 2027 03:17:08.844   08 Jun 2027 03:17:47.436            38.592                Norilsk          4824.000
       346   08 Jun 2027 03:18:07.637   08 Jun 2027 03:18:19.507            11.870                Anadyr1          1483.750
       347   08 Jun 2027 03:18:28.036   08 Jun 2027 03:18:40.585            12.549               Magadan2          1568.625
       348   08 Jun 2027 03:18:45.474   08 Jun 2027 03:22:58.098           252.624              Murmansk2         31578.000
       349   08 Jun 2027 04:54:34.157   08 Jun 2027 04:59:32.499           298.342                Norilsk         37292.750
       350   08 Jun 2027 04:59:43.622   08 Jun 2027 05:02:49.898           186.276              Murmansk2         23284.500
       351   08 Jun 2027 05:29:18.457   08 Jun 2027 05:34:51.012           332.555            RioGallegos         41569.375
       352   08 Jun 2027 05:36:45.399   08 Jun 2027 05:37:31.816            46.417            RioGallegos          5802.125
       353   08 Jun 2027 05:37:46.287   08 Jun 2027 05:38:10.745            24.458            RioGallegos          3057.250
       354   08 Jun 2027 06:04:06.020   08 Jun 2027 06:05:53.922           107.902                Sumatra         13487.750
       355   08 Jun 2027 06:14:42.867   08 Jun 2027 06:17:29.754           166.887                  Delhi         20860.875
       356   08 Jun 2027 06:18:09.456   08 Jun 2027 06:22:45.333           275.877                Irkutsk         34484.625
       357   08 Jun 2027 06:29:15.805   08 Jun 2027 06:30:05.134            49.329                Novosib          6166.125
       358   08 Jun 2027 06:30:32.362   08 Jun 2027 06:37:40.854           428.492              Murmansk2         53561.500
       359   08 Jun 2027 07:08:53.931   08 Jun 2027 07:11:09.721           135.790            RioGallegos         16973.750
       360   08 Jun 2027 07:11:28.602   08 Jun 2027 07:12:00.493            31.891            RioGallegos          3986.375
       361   08 Jun 2027 07:44:07.471   08 Jun 2027 07:46:12.015           124.544                Sumatra         15568.000
       362   08 Jun 2027 07:51:26.553   08 Jun 2027 07:53:57.949           151.396                  Delhi         18924.500
       363   08 Jun 2027 07:58:08.803   08 Jun 2027 08:01:56.717           227.914                Novosib         28489.250
       364   08 Jun 2027 08:06:13.194   08 Jun 2027 08:09:21.471           188.277                 Moscow         23534.625
       365   08 Jun 2027 08:09:34.277   08 Jun 2027 08:11:16.854           102.577              Murmansk2         12822.125
       366   08 Jun 2027 08:12:55.817   08 Jun 2027 08:13:11.472            15.655              Murmansk2          1956.875
       367   08 Jun 2027 09:32:42.466   08 Jun 2027 09:33:11.954            29.488                 Moscow          3686.000
       368   08 Jun 2027 09:42:48.980   08 Jun 2027 09:47:09.344           260.364                Norilsk         32545.500
       369   08 Jun 2027 09:47:25.190   08 Jun 2027 09:49:03.642            98.452              Murmansk2         12306.500
       370   08 Jun 2027 10:47:34.580   08 Jun 2027 10:56:48.282           553.702               CapeTown         69212.750
       371   08 Jun 2027 11:09:48.272   08 Jun 2027 11:19:43.845           595.573                 Moscow         74446.625
       372   08 Jun 2027 11:19:44.052   08 Jun 2027 11:25:01.602           317.550              Murmansk1         39693.750
       373   08 Jun 2027 11:27:17.143   08 Jun 2027 11:36:19.809           542.666                Anadyr2         67833.250
       374   08 Jun 2027 12:22:08.074   08 Jun 2027 12:27:14.046           305.972               CapeTown         38246.500
       375   08 Jun 2027 12:29:35.994   08 Jun 2027 12:30:19.819            43.825               CapeTown          5478.125
       376   08 Jun 2027 12:31:09.822   08 Jun 2027 12:31:46.839            37.017               CapeTown          4627.125
       377   08 Jun 2027 12:52:11.118   08 Jun 2027 12:55:25.204           194.086              Murmansk2         24260.750
       378   08 Jun 2027 13:06:24.301   08 Jun 2027 13:10:26.642           242.341               Magadan2         30292.625
       379   08 Jun 2027 14:45:34.375   08 Jun 2027 14:46:18.056            43.681               Magadan1          5460.125
       380   08 Jun 2027 16:22:26.800   08 Jun 2027 16:26:09.571           222.771                Irkutsk         27846.375
       381   08 Jun 2027 16:28:15.207   08 Jun 2027 16:28:48.409            33.202                Irkutsk          4150.250
       382   08 Jun 2027 16:39:04.085   08 Jun 2027 16:41:41.184           157.099                Sumatra         19637.375
       383   08 Jun 2027 17:57:28.793   08 Jun 2027 18:00:54.654           205.861                Novosib         25732.625
       384   08 Jun 2027 19:41:41.656   08 Jun 2027 19:43:09.743            88.087                  Delhi         11010.875
       385   08 Jun 2027 21:06:37.587   08 Jun 2027 21:07:53.300            75.713              Murmansk1          9464.125
       386   08 Jun 2027 21:10:45.725   08 Jun 2027 21:14:26.224           220.499                 Moscow         27562.375
       387   08 Jun 2027 21:16:29.267   08 Jun 2027 21:17:45.176            75.909                 Moscow          9488.625
       388   08 Jun 2027 21:38:18.787   08 Jun 2027 21:38:21.398             2.611               CapeTown           326.375
       389   08 Jun 2027 21:40:42.275   08 Jun 2027 21:41:31.388            49.113               CapeTown          6139.125
       390   09 Jun 2027 03:29:19.876   09 Jun 2027 03:29:49.346            29.470                Norilsk          3683.750
       391   09 Jun 2027 03:30:40.772   09 Jun 2027 03:35:51.871           311.099                Norilsk         38887.375
       392   09 Jun 2027 03:35:54.958   09 Jun 2027 03:40:25.893           270.935              Murmansk2         33866.875
       393   09 Jun 2027 04:05:51.370   09 Jun 2027 04:07:01.273            69.903            RioGallegos          8737.875
       394   09 Jun 2027 04:44:02.719   09 Jun 2027 04:45:11.656            68.937                Sumatra          8617.125
       395   09 Jun 2027 05:06:35.412   09 Jun 2027 05:11:33.131           297.719                Norilsk         37214.875
       396   09 Jun 2027 05:11:45.739   09 Jun 2027 05:14:40.521           174.782              Murmansk2         21847.750
       397   09 Jun 2027 05:41:29.426   09 Jun 2027 05:45:48.947           259.521            RioGallegos         32440.125
       398   09 Jun 2027 05:49:32.797   09 Jun 2027 05:50:16.672            43.875            RioGallegos          5484.375
       399   09 Jun 2027 06:16:05.940   09 Jun 2027 06:19:08.700           182.760                Sumatra         22845.000
       400   09 Jun 2027 06:26:02.702   09 Jun 2027 06:26:32.417            29.715                  Delhi          3714.375
       401   09 Jun 2027 06:27:21.695   09 Jun 2027 06:29:15.535           113.840                  Delhi         14230.000
       402   09 Jun 2027 06:30:28.586   09 Jun 2027 06:34:54.232           265.646                Irkutsk         33205.750
       403   09 Jun 2027 06:41:36.468   09 Jun 2027 06:42:17.435            40.967                Novosib          5120.875
       404   09 Jun 2027 06:42:34.662   09 Jun 2027 06:47:30.042           295.380                Norilsk         36922.500
       405   09 Jun 2027 06:47:41.767   09 Jun 2027 06:48:54.603            72.836              Murmansk1          9104.500
       406   09 Jun 2027 06:49:00.394   09 Jun 2027 06:49:05.740             5.346              Murmansk1           668.250
       407   09 Jun 2027 06:49:14.976   09 Jun 2027 06:49:37.186            22.210              Murmansk1          2776.250
       408   09 Jun 2027 07:22:06.046   09 Jun 2027 07:24:38.413           152.367            RioGallegos         19045.875
       409   09 Jun 2027 08:00:28.507   09 Jun 2027 08:06:34.944           366.437                  Delhi         45804.625
       410   09 Jun 2027 08:08:22.649   09 Jun 2027 08:13:22.463           299.814                Novosib         37476.750
       411   09 Jun 2027 08:18:07.738   09 Jun 2027 08:23:27.830           320.092              Murmansk2         40011.500
       412   09 Jun 2027 08:23:27.830   09 Jun 2027 08:25:11.509           103.679              Murmansk1         12959.875
       413   09 Jun 2027 09:48:09.431   09 Jun 2027 09:49:00.572            51.141              Murmansk2          6392.625
       414   09 Jun 2027 09:54:02.259   09 Jun 2027 09:59:04.081           301.822                Norilsk         37727.750
       415   09 Jun 2027 09:59:14.440   09 Jun 2027 10:01:05.199           110.759              Murmansk2         13844.875
       416   09 Jun 2027 10:59:09.280   09 Jun 2027 11:05:49.020           399.740               CapeTown         49967.500
       417   09 Jun 2027 11:22:15.095   09 Jun 2027 11:26:21.114           246.019                 Moscow         30752.375
       418   09 Jun 2027 11:26:56.679   09 Jun 2027 11:32:30.922           334.243              Murmansk2         41780.375
       419   09 Jun 2027 11:32:30.922   09 Jun 2027 11:36:22.015           231.093              Murmansk1         28886.625
       420   09 Jun 2027 11:39:11.321   09 Jun 2027 11:44:25.813           314.492                Anadyr1         39311.500
       421   09 Jun 2027 12:34:13.652   09 Jun 2027 12:36:25.806           132.154               CapeTown         16519.250
       422   09 Jun 2027 12:37:08.496   09 Jun 2027 12:37:26.097            17.601               CapeTown          2200.125
       423   09 Jun 2027 13:04:49.249   09 Jun 2027 13:06:39.212           109.963              Murmansk1         13745.375
       424   09 Jun 2027 13:18:04.813   09 Jun 2027 13:19:16.782            71.969               Magadan2          8996.125
       425   09 Jun 2027 13:19:16.782   09 Jun 2027 13:22:59.233           222.451               Magadan1         27806.375
       426   09 Jun 2027 15:47:49.314   09 Jun 2027 15:50:05.787           136.473            RioGallegos         17059.125
       427   09 Jun 2027 16:33:54.177   09 Jun 2027 16:37:01.347           187.170                Irkutsk         23396.250
       428   09 Jun 2027 16:40:19.311   09 Jun 2027 16:41:49.783            90.472                Irkutsk         11309.000
       429   09 Jun 2027 16:49:20.229   09 Jun 2027 16:51:27.361           127.132                Sumatra         15891.500
       430   09 Jun 2027 18:10:45.984   09 Jun 2027 18:12:55.750           129.766                Novosib         16220.750
       431   09 Jun 2027 18:20:53.356   09 Jun 2027 18:21:22.380            29.024                  Delhi          3628.000
       432   09 Jun 2027 21:18:37.094   09 Jun 2027 21:21:02.700           145.606              Murmansk1         18200.750
       433   09 Jun 2027 21:22:32.378   09 Jun 2027 21:24:42.835           130.457                 Moscow         16307.125
       434   09 Jun 2027 21:28:52.083   09 Jun 2027 21:29:44.957            52.874                 Moscow          6609.250
       435   09 Jun 2027 21:49:09.177   09 Jun 2027 21:50:29.972            80.795               CapeTown         10099.375
       436   09 Jun 2027 21:53:28.092   09 Jun 2027 21:55:08.450           100.358               CapeTown         12544.750
       437   10 Jun 2027 03:42:38.997   10 Jun 2027 03:47:49.983           310.986                Norilsk         38873.250
       438   10 Jun 2027 03:47:50.587   10 Jun 2027 03:50:47.368           176.781              Murmansk2         22097.625
       439   10 Jun 2027 04:54:47.062   10 Jun 2027 04:57:17.850           150.788                Sumatra         18848.500
       440   10 Jun 2027 05:18:36.839   10 Jun 2027 05:23:34.012           297.173                Norilsk         37146.625
       441   10 Jun 2027 05:23:41.307   10 Jun 2027 05:26:31.870           170.563              Murmansk2         21320.375
       442   10 Jun 2027 05:53:44.298   10 Jun 2027 05:56:16.500           152.202            RioGallegos         19025.250
       443   10 Jun 2027 05:56:19.872   10 Jun 2027 05:57:08.950            49.078            RioGallegos          6134.750
       444   10 Jun 2027 06:28:11.477   10 Jun 2027 06:29:52.211           100.734                Sumatra         12591.750
       445   10 Jun 2027 06:30:54.078   10 Jun 2027 06:33:16.471           142.393                Sumatra         17799.125
       446   10 Jun 2027 06:42:36.867   10 Jun 2027 06:43:12.565            35.698                  Delhi          4462.250
       447   10 Jun 2027 06:43:17.657   10 Jun 2027 06:47:06.765           229.108                Irkutsk         28638.500
       448   10 Jun 2027 06:47:44.480   10 Jun 2027 06:48:08.449            23.969                Novosib          2996.125
       449   10 Jun 2027 06:53:00.615   10 Jun 2027 06:53:26.322            25.707                Novosib          3213.375
       450   10 Jun 2027 06:54:21.718   10 Jun 2027 07:01:14.050           412.332              Murmansk1         51541.500
       451   10 Jun 2027 07:01:14.050   10 Jun 2027 07:01:34.113            20.063              Murmansk2          2507.875
       452   10 Jun 2027 07:36:20.742   10 Jun 2027 07:37:25.041            64.299            RioGallegos          8037.375
       453   10 Jun 2027 08:12:44.100   10 Jun 2027 08:15:59.135           195.035                  Delhi         24379.375
       454   10 Jun 2027 08:17:35.238   10 Jun 2027 08:19:25.591           110.353                  Delhi         13794.125
       455   10 Jun 2027 08:20:35.101   10 Jun 2027 08:20:43.902             8.801                  Delhi          1100.125
       456   10 Jun 2027 08:20:50.473   10 Jun 2027 08:25:28.108           277.635                Novosib         34704.375
       457   10 Jun 2027 08:30:10.794   10 Jun 2027 08:30:29.575            18.781                 Moscow          2347.625
       458   10 Jun 2027 08:30:30.012   10 Jun 2027 08:33:31.743           181.731                Norilsk         22716.375
       459   10 Jun 2027 08:33:39.734   10 Jun 2027 08:35:38.810           119.076              Murmansk2         14884.500
       460   10 Jun 2027 08:36:58.825   10 Jun 2027 08:37:11.834            13.009              Murmansk1          1626.125
       461   10 Jun 2027 09:56:43.559   10 Jun 2027 09:56:56.814            13.255                 Moscow          1656.875
       462   10 Jun 2027 09:57:22.353   10 Jun 2027 09:57:57.497            35.144                 Moscow          4393.000
       463   10 Jun 2027 10:00:13.896   10 Jun 2027 10:01:27.374            73.478              Murmansk1          9184.750
       464   10 Jun 2027 10:01:27.374   10 Jun 2027 10:01:51.842            24.468              Murmansk2          3058.500
       465   10 Jun 2027 10:05:11.874   10 Jun 2027 10:12:12.143           420.269              Murmansk2         52533.625
       466   10 Jun 2027 10:12:12.143   10 Jun 2027 10:13:06.822            54.679              Murmansk1          6834.875
       467   10 Jun 2027 11:12:26.327   10 Jun 2027 11:13:06.558            40.231               CapeTown          5028.875
       468   10 Jun 2027 11:14:54.345   10 Jun 2027 11:17:03.419           129.074               CapeTown         16134.250
       469   10 Jun 2027 11:34:47.041   10 Jun 2027 11:38:40.822           233.781                 Moscow         29222.625
       470   10 Jun 2027 11:38:56.025   10 Jun 2027 11:47:30.614           514.589              Murmansk2         64323.625
       471   10 Jun 2027 11:48:21.662   10 Jun 2027 11:48:37.556            15.894              Murmansk1          1986.750
       472   10 Jun 2027 11:51:07.079   10 Jun 2027 11:56:29.467           322.388                Anadyr1         40298.500
       473   10 Jun 2027 12:46:22.146   10 Jun 2027 12:47:30.473            68.327               CapeTown          8540.875
       474   10 Jun 2027 12:48:55.797   10 Jun 2027 12:49:44.576            48.779               CapeTown          6097.375
       475   10 Jun 2027 12:50:06.052   10 Jun 2027 12:50:21.358            15.306               CapeTown          1913.250
       476   10 Jun 2027 12:51:13.376   10 Jun 2027 12:51:35.455            22.079               CapeTown          2759.875
       477   10 Jun 2027 12:54:11.908   10 Jun 2027 12:56:05.785           113.877               CapeTown         14234.625
       478   10 Jun 2027 13:29:50.846   10 Jun 2027 13:31:33.972           103.126               Magadan1         12890.750
       479   10 Jun 2027 13:35:27.279   10 Jun 2027 13:36:59.069            91.790               Magadan2         11473.750
       480   10 Jun 2027 15:58:43.661   10 Jun 2027 16:01:51.052           187.391            RioGallegos         23423.875
       481   10 Jun 2027 16:04:22.885   10 Jun 2027 16:04:49.411            26.526            RioGallegos          3315.750
       482   10 Jun 2027 16:45:46.421   10 Jun 2027 16:49:02.658           196.237                Irkutsk         24529.625
