uniorb/output/strategy_4/Drop/Drop_KinoSat_110601.txt

KinoSat_110601
-------------------------
    Access    *     Start Time (UTCG)     *     Stop Time (UTCG)  *   Duration (s)        *       Station  *  Data (Mbytes)
         1   01 Jun 2027 04:21:35.416   01 Jun 2027 04:22:37.746            62.330               Magadan1          1947.812
         2   01 Jun 2027 04:22:43.954   01 Jun 2027 04:24:22.622            98.668                Anadyr2          3083.375
         3   01 Jun 2027 04:24:23.920   01 Jun 2027 04:25:34.934            71.014                Anadyr2          2219.187
         4   01 Jun 2027 04:25:38.608   01 Jun 2027 04:27:21.644           103.036               Magadan2          3219.875
         5   01 Jun 2027 04:27:48.975   01 Jun 2027 04:28:07.825            18.850                Anadyr1           589.063
         6   01 Jun 2027 05:05:52.068   01 Jun 2027 05:06:17.719            25.651            RioGallegos           801.594
         7   01 Jun 2027 05:06:39.366   01 Jun 2027 05:07:35.813            56.447            RioGallegos          1763.969
         8   01 Jun 2027 05:59:35.708   01 Jun 2027 06:02:06.920           151.212               Magadan2          4725.375
         9   01 Jun 2027 06:02:23.899   01 Jun 2027 06:02:41.693            17.794              Murmansk2           556.062
        10   01 Jun 2027 06:02:41.693   01 Jun 2027 06:03:24.584            42.891              Murmansk1          1340.344
        11   01 Jun 2027 06:03:26.780   01 Jun 2027 06:04:30.977            64.197                Irkutsk          2006.156
        12   01 Jun 2027 06:06:10.037   01 Jun 2027 06:06:20.720            10.683                Norilsk           333.844
        13   01 Jun 2027 06:39:16.899   01 Jun 2027 06:40:32.516            75.617            RioGallegos          2363.031
        14   01 Jun 2027 06:44:13.168   01 Jun 2027 06:44:26.385            13.217            RioGallegos           413.031
        15   01 Jun 2027 07:14:06.225   01 Jun 2027 07:14:48.586            42.361                Sumatra          1323.781
        16   01 Jun 2027 07:15:07.921   01 Jun 2027 07:16:12.878            64.957                Sumatra          2029.906
        17   01 Jun 2027 07:17:12.572   01 Jun 2027 07:17:15.979             3.407                Sumatra           106.469
        18   01 Jun 2027 07:22:05.637   01 Jun 2027 07:23:39.603            93.966                Sumatra          2936.437
        19   01 Jun 2027 07:24:49.317   01 Jun 2027 07:26:34.902           105.585                  Delhi          3299.531
        20   01 Jun 2027 07:29:20.120   01 Jun 2027 07:29:35.198            15.078                  Delhi           471.188
        21   01 Jun 2027 07:32:54.728   01 Jun 2027 07:32:54.879             0.151                  Delhi             4.719
        22   01 Jun 2027 07:36:09.878   01 Jun 2027 07:37:28.334            78.456                Irkutsk          2451.750
        23   01 Jun 2027 07:38:06.758   01 Jun 2027 07:39:06.421            59.663                 Moscow          1864.469
        24   01 Jun 2027 07:39:19.110   01 Jun 2027 07:39:26.061             6.951                Norilsk           217.219
        25   01 Jun 2027 07:39:27.876   01 Jun 2027 07:41:33.132           125.256                 Moscow          3914.250
        26   01 Jun 2027 07:41:35.807   01 Jun 2027 07:41:37.882             2.075              Murmansk2            64.844
        27   01 Jun 2027 07:41:39.968   01 Jun 2027 07:42:02.026            22.058                Novosib           689.312
        28   01 Jun 2027 07:42:03.992   01 Jun 2027 07:42:15.051            11.059                Norilsk           345.594
        29   01 Jun 2027 07:44:18.532   01 Jun 2027 07:44:37.627            19.095                Norilsk           596.719
        30   01 Jun 2027 08:18:44.961   01 Jun 2027 08:20:01.971            77.010            RioGallegos          2406.563
        31   01 Jun 2027 08:26:01.437   01 Jun 2027 08:26:13.733            12.296            RioGallegos           384.250
        32   01 Jun 2027 08:53:45.728   01 Jun 2027 08:55:26.967           101.239                Sumatra          3163.719
        33   01 Jun 2027 08:58:17.795   01 Jun 2027 09:00:15.108           117.313                  Delhi          3666.031
        34   01 Jun 2027 09:14:58.984   01 Jun 2027 09:15:14.314            15.330              Murmansk1           479.063
        35   01 Jun 2027 09:15:31.097   01 Jun 2027 09:17:33.888           122.791                Novosib          3837.219
        36   01 Jun 2027 09:17:35.841   01 Jun 2027 09:18:41.308            65.467                 Moscow          2045.844
        37   01 Jun 2027 09:18:46.354   01 Jun 2027 09:18:49.891             3.537              Murmansk1           110.531
        38   01 Jun 2027 09:18:59.941   01 Jun 2027 09:19:01.053             1.112              Murmansk1            34.750
        39   01 Jun 2027 09:19:06.802   01 Jun 2027 09:19:20.172            13.370              Murmansk1           417.813
        40   01 Jun 2027 10:47:40.118   01 Jun 2027 10:48:36.882            56.764              Murmansk1          1773.875
        41   01 Jun 2027 10:48:36.882   01 Jun 2027 10:49:27.451            50.569              Murmansk2          1580.281
        42   01 Jun 2027 10:49:33.113   01 Jun 2027 10:50:35.956            62.843              Murmansk2          1963.844
        43   01 Jun 2027 10:50:46.370   01 Jun 2027 10:52:15.006            88.636              Murmansk2          2769.875
        44   01 Jun 2027 10:52:28.338   01 Jun 2027 10:53:19.892            51.554              Murmansk1          1611.063
        45   01 Jun 2027 10:54:20.677   01 Jun 2027 10:54:45.441            24.764              Murmansk2           773.875
        46   01 Jun 2027 10:56:47.043   01 Jun 2027 10:57:36.188            49.145              Murmansk1          1535.781
        47   01 Jun 2027 11:57:38.719   01 Jun 2027 12:05:02.002           443.283               CapeTown         13852.594
        48   01 Jun 2027 12:22:59.838   01 Jun 2027 12:26:05.586           185.748              Murmansk1          5804.625
        49   01 Jun 2027 12:27:19.403   01 Jun 2027 12:27:49.076            29.673              Murmansk1           927.281
        50   01 Jun 2027 12:37:17.883   01 Jun 2027 12:46:14.132           536.249                Anadyr2         16757.781
        51   01 Jun 2027 14:12:44.853   01 Jun 2027 14:14:36.843           111.990                Anadyr1          3499.687
        52   01 Jun 2027 14:16:27.530   01 Jun 2027 14:23:14.130           406.600               Magadan1         12706.250
        53   01 Jun 2027 15:51:02.583   01 Jun 2027 15:53:27.228           144.645               Magadan2          4520.156
        54   01 Jun 2027 15:56:05.293   01 Jun 2027 15:57:57.213           111.920               Magadan1          3497.500
        55   01 Jun 2027 17:24:30.448   01 Jun 2027 17:25:17.933            47.485                Anadyr1          1483.906
        56   01 Jun 2027 17:26:50.692   01 Jun 2027 17:28:18.520            87.828               Magadan1          2744.625
        57   01 Jun 2027 17:29:37.424   01 Jun 2027 17:33:08.099           210.675                Norilsk          6583.594
        58   01 Jun 2027 17:34:22.037   01 Jun 2027 17:38:37.616           255.579                Irkutsk          7986.844
        59   01 Jun 2027 17:49:30.064   01 Jun 2027 17:52:30.075           180.011                Sumatra          5625.344
        60   01 Jun 2027 19:07:31.469   01 Jun 2027 19:14:59.331           447.862                Novosib         13995.688
        61   01 Jun 2027 20:42:22.990   01 Jun 2027 20:44:20.929           117.939              Murmansk1          3685.594
        62   01 Jun 2027 20:52:26.963   01 Jun 2027 20:53:04.946            37.983                  Delhi          1186.969
        63   01 Jun 2027 21:00:38.641   01 Jun 2027 21:02:02.147            83.506                  Delhi          2609.563
        64   01 Jun 2027 22:16:37.448   01 Jun 2027 22:18:13.422            95.974              Murmansk2          2999.187
        65   01 Jun 2027 22:19:00.032   01 Jun 2027 22:22:21.646           201.614              Murmansk1          6300.437
        66   01 Jun 2027 22:22:27.408   01 Jun 2027 22:27:06.002           278.594                 Moscow          8706.062
        67   01 Jun 2027 22:48:31.056   01 Jun 2027 22:53:56.419           325.363               CapeTown         10167.594
        68   02 Jun 2027 00:29:12.824   02 Jun 2027 00:29:41.383            28.559               CapeTown           892.469
        69   02 Jun 2027 01:20:10.263   02 Jun 2027 01:20:12.300             2.037               Magadan1            63.656
        70   02 Jun 2027 01:20:50.276   02 Jun 2027 01:21:04.409            14.133               Magadan2           441.656
        71   02 Jun 2027 01:21:23.027   02 Jun 2027 01:21:26.835             3.808               Magadan2           119.000
        72   02 Jun 2027 01:22:38.975   02 Jun 2027 01:23:12.843            33.868               Magadan1          1058.375
        73   02 Jun 2027 01:28:26.413   02 Jun 2027 01:30:36.624           130.211              Murmansk2          4069.094
        74   02 Jun 2027 01:34:16.382   02 Jun 2027 01:34:23.966             7.584                 Moscow           237.000
        75   02 Jun 2027 01:36:03.488   02 Jun 2027 01:36:20.675            17.187                 Moscow           537.094
        76   02 Jun 2027 01:40:01.279   02 Jun 2027 01:40:05.523             4.244                 Moscow           132.625
        77   02 Jun 2027 01:40:33.592   02 Jun 2027 01:41:11.186            37.594                 Moscow          1174.812
        78   02 Jun 2027 01:57:28.847   02 Jun 2027 01:58:44.096            75.249               CapeTown          2351.531
        79   02 Jun 2027 02:52:03.854   02 Jun 2027 02:54:39.274           155.420               Magadan1          4856.875
        80   02 Jun 2027 02:54:41.531   02 Jun 2027 02:55:16.487            34.956               Magadan2          1092.375
        81   02 Jun 2027 02:57:59.555   02 Jun 2027 02:58:21.372            21.817               Magadan1           681.781
        82   02 Jun 2027 03:00:04.636   02 Jun 2027 03:00:18.807            14.171                Anadyr2           442.844
        83   02 Jun 2027 03:00:26.923   02 Jun 2027 03:01:45.651            78.728               Magadan1          2460.250
        84   02 Jun 2027 03:02:10.894   02 Jun 2027 03:05:05.332           174.438                Anadyr1          5451.187
        85   02 Jun 2027 03:43:56.109   02 Jun 2027 03:47:42.204           226.095            RioGallegos          7065.469
        86   02 Jun 2027 04:32:42.025   02 Jun 2027 04:33:35.476            53.451                Irkutsk          1670.344
        87   02 Jun 2027 04:34:07.808   02 Jun 2027 04:34:08.763             0.955                Anadyr2            29.844
        88   02 Jun 2027 04:34:09.894   02 Jun 2027 04:35:15.359            65.465               Magadan2          2045.781
        89   02 Jun 2027 04:35:33.821   02 Jun 2027 04:36:23.414            49.593               Magadan2          1549.781
        90   02 Jun 2027 04:36:24.088   02 Jun 2027 04:36:58.112            34.024                Anadyr2          1063.250
        91   02 Jun 2027 04:37:06.469   02 Jun 2027 04:39:25.934           139.465                Irkutsk          4358.281
        92   02 Jun 2027 04:39:50.097   02 Jun 2027 04:40:07.761            17.664                Anadyr1           552.000
        93   02 Jun 2027 04:40:21.884   02 Jun 2027 04:40:38.654            16.770               Magadan2           524.062
        94   02 Jun 2027 05:57:08.216   02 Jun 2027 05:59:09.410           121.194                Sumatra          3787.313
        95   02 Jun 2027 06:12:08.412   02 Jun 2027 06:12:55.437            47.025                Irkutsk          1469.531
        96   02 Jun 2027 06:13:22.737   02 Jun 2027 06:16:21.294           178.557                Irkutsk          5579.906
        97   02 Jun 2027 07:49:01.315   02 Jun 2027 07:50:17.779            76.464                Irkutsk          2389.500
        98   02 Jun 2027 07:50:45.021   02 Jun 2027 07:51:37.821            52.800                Novosib          1650.000
        99   02 Jun 2027 07:53:12.129   02 Jun 2027 07:54:03.730            51.601                Novosib          1612.531
       100   02 Jun 2027 07:54:16.393   02 Jun 2027 07:55:37.664            81.271              Murmansk1          2539.719
       101   02 Jun 2027 08:31:53.618   02 Jun 2027 08:34:08.968           135.350            RioGallegos          4229.687
       102   02 Jun 2027 09:28:14.547   02 Jun 2027 09:28:36.961            22.414                Novosib           700.437
       103   02 Jun 2027 11:06:26.556   02 Jun 2027 11:06:39.077            12.521                Norilsk           391.281
       104   02 Jun 2027 12:32:10.639   02 Jun 2027 12:32:33.199            22.560                 Moscow           705.000
       105   02 Jun 2027 12:33:11.510   02 Jun 2027 12:34:16.011            64.501                 Moscow          2015.656
       106   02 Jun 2027 12:35:00.620   02 Jun 2027 12:36:32.555            91.935                 Moscow          2872.969
       107   02 Jun 2027 12:36:49.092   02 Jun 2027 12:37:26.865            37.773              Murmansk2          1180.406
       108   02 Jun 2027 12:37:52.899   02 Jun 2027 12:39:13.445            80.546              Murmansk1          2517.062
       109   02 Jun 2027 12:40:02.720   02 Jun 2027 12:40:24.895            22.175              Murmansk1           692.969
       110   02 Jun 2027 12:40:47.951   02 Jun 2027 12:41:04.578            16.627              Murmansk1           519.594
       111   02 Jun 2027 12:49:11.796   02 Jun 2027 12:51:45.469           153.673                Anadyr1          4802.281
       112   02 Jun 2027 12:52:28.927   02 Jun 2027 12:54:50.369           141.442                Anadyr2          4420.062
       113   02 Jun 2027 12:55:40.825   02 Jun 2027 12:58:49.523           188.698                Anadyr1          5896.813
       114   02 Jun 2027 14:24:45.293   02 Jun 2027 14:26:00.369            75.076                Anadyr2          2346.125
       115   02 Jun 2027 14:28:06.972   02 Jun 2027 14:36:06.953           479.981               Magadan1         14999.406
       116   02 Jun 2027 16:03:01.104   02 Jun 2027 16:04:19.215            78.111               Magadan2          2440.969
       117   02 Jun 2027 16:07:20.878   02 Jun 2027 16:07:34.775            13.897               Magadan2           434.281
       118   02 Jun 2027 16:14:51.085   02 Jun 2027 16:15:07.933            16.848               Magadan2           526.500
       119   02 Jun 2027 16:58:05.997   02 Jun 2027 17:00:50.006           164.009            RioGallegos          5125.281
       120   02 Jun 2027 17:38:45.233   02 Jun 2027 17:39:41.972            56.739                Norilsk          1773.094
       121   02 Jun 2027 17:42:57.491   02 Jun 2027 17:44:24.067            86.576                Norilsk          2705.500
       122   02 Jun 2027 17:44:44.320   02 Jun 2027 17:51:39.068           414.748                Irkutsk         12960.875
       123   02 Jun 2027 17:59:31.104   02 Jun 2027 18:06:21.927           410.823                Sumatra         12838.219
       124   02 Jun 2027 19:21:16.275   02 Jun 2027 19:25:27.663           251.388                Novosib          7855.875
       125   02 Jun 2027 20:53:42.273   02 Jun 2027 20:57:45.587           243.314              Murmansk1          7603.563
       126   02 Jun 2027 22:28:36.870   02 Jun 2027 22:30:24.105           107.235              Murmansk1          3351.094
       127   02 Jun 2027 22:30:36.321   02 Jun 2027 22:34:00.190           203.869              Murmansk1          6370.906
       128   02 Jun 2027 22:34:03.074   02 Jun 2027 22:35:46.540           103.466                 Moscow          3233.312
       129   02 Jun 2027 22:35:48.059   02 Jun 2027 22:40:35.002           286.943                 Moscow          8966.969
       130   02 Jun 2027 22:59:17.634   02 Jun 2027 23:06:46.274           448.640               CapeTown         14020.000
       131   03 Jun 2027 02:10:23.923   03 Jun 2027 02:11:45.951            82.028               CapeTown          2563.375
       132   03 Jun 2027 03:04:51.623   03 Jun 2027 03:05:22.851            31.228               Magadan2           975.875
       133   03 Jun 2027 03:08:04.742   03 Jun 2027 03:08:20.473            15.731               Magadan1           491.594
       134   03 Jun 2027 03:09:12.552   03 Jun 2027 03:09:30.518            17.966               Magadan1           561.437
       135   03 Jun 2027 03:10:30.264   03 Jun 2027 03:11:24.130            53.866                Anadyr1          1683.312
       136   03 Jun 2027 03:11:24.130   03 Jun 2027 03:12:43.943            79.813                Anadyr2          2494.156
       137   03 Jun 2027 03:12:46.360   03 Jun 2027 03:13:48.418            62.058               Magadan2          1939.313
       138   03 Jun 2027 03:14:00.086   03 Jun 2027 03:16:08.113           128.027               Magadan2          4000.844
       139   03 Jun 2027 03:16:08.113   03 Jun 2027 03:16:54.006            45.893               Magadan1          1434.156
       140   03 Jun 2027 04:47:04.163   03 Jun 2027 04:47:14.705            10.542                Irkutsk           329.437
       141   03 Jun 2027 04:47:21.978   03 Jun 2027 04:51:25.402           243.424                Irkutsk          7607.000
       142   03 Jun 2027 04:52:16.087   03 Jun 2027 04:52:35.864            19.777               Magadan1           618.031
       143   03 Jun 2027 06:22:17.041   03 Jun 2027 06:22:31.694            14.653               Magadan2           457.906
       144   03 Jun 2027 06:23:33.091   03 Jun 2027 06:23:40.691             7.600               Magadan1           237.500
       145   03 Jun 2027 06:23:51.558   03 Jun 2027 06:24:19.919            28.361               Magadan1           886.281
       146   03 Jun 2027 06:25:34.368   03 Jun 2027 06:25:39.820             5.452               Magadan1           170.375
       147   03 Jun 2027 06:25:40.902   03 Jun 2027 06:26:09.197            28.295               Magadan1           884.219
       148   03 Jun 2027 06:28:22.338   03 Jun 2027 06:28:28.459             6.121                Norilsk           191.281
       149   03 Jun 2027 06:28:34.113   03 Jun 2027 06:29:13.361            39.248                Norilsk          1226.500
       150   03 Jun 2027 08:01:59.458   03 Jun 2027 08:02:20.459            21.001              Murmansk1           656.281
       151   03 Jun 2027 08:02:44.732   03 Jun 2027 08:03:04.939            20.207                Irkutsk           631.469
       152   03 Jun 2027 08:04:11.733   03 Jun 2027 08:04:23.591            11.858                Novosib           370.562
       153   03 Jun 2027 08:06:14.577   03 Jun 2027 08:06:36.418            21.841              Murmansk2           682.531
       154   03 Jun 2027 08:45:46.718   03 Jun 2027 08:46:26.097            39.379            RioGallegos          1230.594
       155   03 Jun 2027 09:28:34.069   03 Jun 2027 09:28:45.873            11.804                  Delhi           368.875
       156   03 Jun 2027 09:40:40.646   03 Jun 2027 09:40:45.730             5.084                Novosib           158.875
       157   03 Jun 2027 11:18:59.353   03 Jun 2027 11:19:20.680            21.327                Norilsk           666.469
       158   03 Jun 2027 12:44:41.793   03 Jun 2027 12:45:19.337            37.544                 Moscow          1173.250
       159   03 Jun 2027 12:46:21.911   03 Jun 2027 12:46:59.867            37.956                 Moscow          1186.125
       160   03 Jun 2027 12:47:35.830   03 Jun 2027 12:49:28.045           112.215              Murmansk1          3506.719
       161   03 Jun 2027 12:51:08.234   03 Jun 2027 12:52:04.174            55.940              Murmansk2          1748.125
       162   03 Jun 2027 12:57:04.313   03 Jun 2027 12:57:14.572            10.259              Murmansk2           320.594
       163   03 Jun 2027 13:01:07.350   03 Jun 2027 13:03:14.244           126.894                Anadyr2          3965.438
       164   03 Jun 2027 13:04:48.760   03 Jun 2027 13:06:41.137           112.377                Anadyr2          3511.781
       165   03 Jun 2027 14:27:24.711   03 Jun 2027 14:28:33.310            68.599              Murmansk2          2143.719
       166   03 Jun 2027 14:28:52.841   03 Jun 2027 14:29:51.858            59.017              Murmansk2          1844.281
       167   03 Jun 2027 14:36:46.004   03 Jun 2027 14:37:59.874            73.870                Anadyr2          2308.438
       168   03 Jun 2027 14:38:15.197   03 Jun 2027 14:39:35.883            80.686                Anadyr1          2521.437
       169   03 Jun 2027 14:39:48.564   03 Jun 2027 14:39:54.045             5.481                Anadyr1           171.281
       170   03 Jun 2027 14:40:36.951   03 Jun 2027 14:40:44.110             7.159                Anadyr2           223.719
       171   03 Jun 2027 14:40:53.591   03 Jun 2027 14:45:56.846           303.255               Magadan2          9476.719
       172   03 Jun 2027 14:45:57.679   03 Jun 2027 14:48:51.084           173.405               Magadan1          5418.906
       173   03 Jun 2027 16:15:00.311   03 Jun 2027 16:16:27.990            87.679               Magadan1          2739.969
       174   03 Jun 2027 16:17:22.807   03 Jun 2027 16:17:56.758            33.951               Magadan2          1060.969
       175   03 Jun 2027 16:18:59.622   03 Jun 2027 16:19:09.827            10.205               Magadan2           318.906
       176   03 Jun 2027 16:25:22.939   03 Jun 2027 16:25:51.014            28.075               Magadan1           877.344
       177   03 Jun 2027 17:08:50.235   03 Jun 2027 17:14:37.913           347.678            RioGallegos         10864.938
       178   03 Jun 2027 17:50:41.273   03 Jun 2027 17:50:52.664            11.391                Norilsk           355.969
       179   03 Jun 2027 17:51:58.183   03 Jun 2027 17:52:39.412            41.229                Norilsk          1288.406
       180   03 Jun 2027 17:55:34.306   03 Jun 2027 18:03:10.443           456.137                Irkutsk         14254.281
       181   03 Jun 2027 18:10:27.021   03 Jun 2027 18:19:19.948           532.927                Sumatra         16653.969
       182   03 Jun 2027 19:34:30.737   03 Jun 2027 19:36:59.356           148.619                Novosib          4644.344
       183   03 Jun 2027 19:40:52.816   03 Jun 2027 19:46:43.798           350.982                  Delhi         10968.187
       184   03 Jun 2027 21:05:23.341   03 Jun 2027 21:10:46.416           323.075              Murmansk2         10096.094
       185   03 Jun 2027 22:43:38.517   03 Jun 2027 22:45:58.651           140.134              Murmansk1          4379.187
       186   03 Jun 2027 22:51:37.454   03 Jun 2027 22:52:38.414            60.960                 Moscow          1905.000
       187   03 Jun 2027 23:10:23.859   03 Jun 2027 23:18:23.569           479.710               CapeTown         14990.937
       188   04 Jun 2027 03:16:00.065   04 Jun 2027 03:16:01.653             1.588               Magadan2            49.625
       189   04 Jun 2027 03:16:14.473   04 Jun 2027 03:17:34.495            80.022               Magadan2          2500.688
       190   04 Jun 2027 03:22:54.978   04 Jun 2027 03:26:56.996           242.018               Magadan2          7563.062
       191   04 Jun 2027 03:27:00.580   04 Jun 2027 03:27:55.026            54.446                Anadyr2          1701.438
       192   04 Jun 2027 03:27:58.073   04 Jun 2027 03:28:25.916            27.843               Magadan2           870.094
       193   04 Jun 2027 04:11:59.921   04 Jun 2027 04:12:34.131            34.210            RioGallegos          1069.062
       194   04 Jun 2027 04:57:07.033   04 Jun 2027 05:00:16.158           189.125                Irkutsk          5910.156
       195   04 Jun 2027 05:00:50.525   04 Jun 2027 05:00:56.122             5.597                Irkutsk           174.906
       196   04 Jun 2027 05:03:00.528   04 Jun 2027 05:03:39.461            38.933                Irkutsk          1216.656
       197   04 Jun 2027 05:04:01.323   04 Jun 2027 05:04:18.724            17.401                Irkutsk           543.781
       198   04 Jun 2027 05:04:19.831   04 Jun 2027 05:04:31.963            12.132               Magadan1           379.125
       199   04 Jun 2027 06:39:47.924   04 Jun 2027 06:40:40.155            52.231                Novosib          1632.219
       200   04 Jun 2027 08:13:35.590   04 Jun 2027 08:14:34.959            59.369                Irkutsk          1855.281
       201   04 Jun 2027 08:15:10.125   04 Jun 2027 08:15:17.391             7.266                Irkutsk           227.063
       202   04 Jun 2027 08:16:13.375   04 Jun 2027 08:16:15.482             2.107                Novosib            65.844
       203   04 Jun 2027 08:18:13.224   04 Jun 2027 08:19:02.801            49.577              Murmansk2          1549.281
       204   04 Jun 2027 09:39:57.726   04 Jun 2027 09:41:29.403            91.677                  Delhi          2864.906
       205   04 Jun 2027 09:52:55.557   04 Jun 2027 09:53:10.111            14.554                Norilsk           454.813
       206   04 Jun 2027 12:57:18.867   04 Jun 2027 12:57:44.999            26.132                 Moscow           816.625
       207   04 Jun 2027 12:58:27.251   04 Jun 2027 12:58:58.226            30.975                 Moscow           967.969
       208   04 Jun 2027 12:59:39.154   04 Jun 2027 13:00:22.603            43.449                 Moscow          1357.781
       209   04 Jun 2027 13:00:36.742   04 Jun 2027 13:01:22.667            45.925                 Moscow          1435.156
       210   04 Jun 2027 13:01:27.408   04 Jun 2027 13:01:48.206            20.798              Murmansk1           649.937
       211   04 Jun 2027 13:02:10.738   04 Jun 2027 13:02:35.797            25.059              Murmansk2           783.094
       212   04 Jun 2027 13:04:05.740   04 Jun 2027 13:04:17.355            11.615              Murmansk2           362.969
       213   04 Jun 2027 13:04:41.767   04 Jun 2027 13:04:56.190            14.423              Murmansk2           450.719
       214   04 Jun 2027 13:08:02.704   04 Jun 2027 13:08:58.631            55.927              Murmansk2          1747.719
       215   04 Jun 2027 13:17:56.075   04 Jun 2027 13:18:34.418            38.343                Anadyr2          1198.219
       216   04 Jun 2027 13:20:08.123   04 Jun 2027 13:21:19.240            71.117                Anadyr2          2222.406
       217   04 Jun 2027 14:08:31.705   04 Jun 2027 14:09:19.490            47.785               CapeTown          1493.281
       218   04 Jun 2027 14:40:10.910   04 Jun 2027 14:42:17.005           126.095              Murmansk2          3940.469
       219   04 Jun 2027 14:42:17.005   04 Jun 2027 14:42:32.076            15.071              Murmansk1           470.969
       220   04 Jun 2027 14:42:45.365   04 Jun 2027 14:43:55.124            69.759              Murmansk2          2179.969
       221   04 Jun 2027 14:48:46.930   04 Jun 2027 14:49:45.903            58.973                Anadyr2          1842.906
       222   04 Jun 2027 14:51:41.566   04 Jun 2027 14:57:33.617           352.051               Magadan2         11001.594
       223   04 Jun 2027 14:57:47.684   04 Jun 2027 15:01:28.712           221.028               Magadan1          6907.125
       224   04 Jun 2027 16:27:00.112   04 Jun 2027 16:28:23.065            82.953               Magadan2          2592.281
       225   04 Jun 2027 17:20:11.740   04 Jun 2027 17:27:45.368           453.628            RioGallegos         14175.875
       226   04 Jun 2027 18:04:42.473   04 Jun 2027 18:06:31.712           109.239                Norilsk          3413.719
       227   04 Jun 2027 18:07:17.218   04 Jun 2027 18:08:31.241            74.023                Irkutsk          2313.219
       228   04 Jun 2027 18:10:15.054   04 Jun 2027 18:13:28.276           193.222                Irkutsk          6038.188
       229   04 Jun 2027 18:21:42.955   04 Jun 2027 18:21:46.418             3.463                Sumatra           108.219
       230   04 Jun 2027 18:23:47.417   04 Jun 2027 18:29:20.042           332.625                Sumatra         10394.531
       231   04 Jun 2027 19:44:22.166   04 Jun 2027 19:46:17.589           115.423                Novosib          3606.969
       232   04 Jun 2027 19:51:50.577   04 Jun 2027 19:59:58.521           487.944                  Delhi         15248.250
       233   04 Jun 2027 21:17:11.780   04 Jun 2027 21:17:41.755            29.975              Murmansk2           936.719
       234   04 Jun 2027 21:18:26.854   04 Jun 2027 21:23:37.821           310.967              Murmansk1          9717.719
       235   04 Jun 2027 22:56:30.721   04 Jun 2027 22:59:21.232           170.511              Murmansk1          5328.469
       236   04 Jun 2027 23:04:42.310   04 Jun 2027 23:05:45.117            62.807                 Moscow          1962.719
       237   04 Jun 2027 23:21:41.825   04 Jun 2027 23:21:50.417             8.592               CapeTown           268.500
       238   04 Jun 2027 23:22:07.601   04 Jun 2027 23:24:02.916           115.315               CapeTown          3603.594
       239   04 Jun 2027 23:25:34.716   04 Jun 2027 23:28:59.345           204.629               CapeTown          6394.656
       240   05 Jun 2027 01:53:06.840   05 Jun 2027 01:53:20.671            13.831               Magadan1           432.219
       241   05 Jun 2027 01:54:28.083   05 Jun 2027 01:54:35.248             7.165               Magadan2           223.906
       242   05 Jun 2027 01:54:35.248   05 Jun 2027 01:54:45.629            10.381               Magadan1           324.406
       243   05 Jun 2027 01:55:19.637   05 Jun 2027 01:56:03.673            44.036               Magadan1          1376.125
       244   05 Jun 2027 02:04:29.299   05 Jun 2027 02:05:37.031            67.732              Murmansk1          2116.625
       245   05 Jun 2027 02:06:10.009   05 Jun 2027 02:06:13.001             2.992              Murmansk2            93.500
       246   05 Jun 2027 02:06:25.243   05 Jun 2027 02:06:56.388            31.145              Murmansk2           973.281
       247   05 Jun 2027 02:07:58.830   05 Jun 2027 02:08:50.877            52.047                 Moscow          1626.469
       248   05 Jun 2027 02:14:44.523   05 Jun 2027 02:15:01.818            17.295                 Moscow           540.469
       249   05 Jun 2027 03:28:01.772   05 Jun 2027 03:28:17.191            15.419               Magadan2           481.844
       250   05 Jun 2027 03:30:25.935   05 Jun 2027 03:31:27.650            61.715                Anadyr2          1928.594
       251   05 Jun 2027 03:32:25.423   05 Jun 2027 03:32:29.551             4.128               Magadan2           129.000
       252   05 Jun 2027 03:32:59.222   05 Jun 2027 03:33:04.848             5.626                Anadyr2           175.812
       253   05 Jun 2027 03:33:14.407   05 Jun 2027 03:33:50.810            36.403               Magadan2          1137.594
       254   05 Jun 2027 03:34:48.449   05 Jun 2027 03:36:15.490            87.041               Magadan2          2720.031
       255   05 Jun 2027 03:36:15.490   05 Jun 2027 03:37:34.548            79.058               Magadan1          2470.563
       256   05 Jun 2027 03:37:39.463   05 Jun 2027 03:37:53.804            14.341               Magadan1           448.156
       257   05 Jun 2027 03:38:11.649   05 Jun 2027 03:40:56.190           164.541               Magadan1          5141.906
       258   05 Jun 2027 04:22:23.334   05 Jun 2027 04:24:57.970           154.636            RioGallegos          4832.375
       259   05 Jun 2027 05:10:18.899   05 Jun 2027 05:11:04.965            46.066                Irkutsk          1439.563
       260   05 Jun 2027 05:11:33.275   05 Jun 2027 05:11:43.760            10.485                Irkutsk           327.656
       261   05 Jun 2027 05:11:46.108   05 Jun 2027 05:12:47.151            61.043                Irkutsk          1907.594
       262   05 Jun 2027 05:13:28.130   05 Jun 2027 05:13:34.967             6.837                Irkutsk           213.656
       263   05 Jun 2027 05:14:38.917   05 Jun 2027 05:15:34.855            55.938                Irkutsk          1748.062
       264   05 Jun 2027 06:52:28.180   05 Jun 2027 06:53:03.422            35.242                Norilsk          1101.312
       265   05 Jun 2027 08:24:32.887   05 Jun 2027 08:24:46.496            13.609                Novosib           425.281
       266   05 Jun 2027 08:24:47.855   05 Jun 2027 08:24:51.192             3.337                Irkutsk           104.281
       267   05 Jun 2027 08:25:04.189   05 Jun 2027 08:25:16.293            12.104              Murmansk1           378.250
       268   05 Jun 2027 08:25:24.275   05 Jun 2027 08:25:39.836            15.561              Murmansk1           486.281
       269   05 Jun 2027 08:25:54.938   05 Jun 2027 08:25:56.690             1.752              Murmansk1            54.750
       270   05 Jun 2027 08:25:59.745   05 Jun 2027 08:26:47.575            47.830                Irkutsk          1494.687
       271   05 Jun 2027 08:27:28.109   05 Jun 2027 08:27:39.859            11.750                Irkutsk           367.188
       272   05 Jun 2027 08:27:48.532   05 Jun 2027 08:28:05.841            17.309                Novosib           540.906
       273   05 Jun 2027 08:30:57.674   05 Jun 2027 08:31:07.229             9.555                 Moscow           298.594
       274   05 Jun 2027 09:51:03.397   05 Jun 2027 09:53:14.808           131.411                  Delhi          4106.594
       275   05 Jun 2027 10:00:57.870   05 Jun 2027 10:00:58.277             0.407              Murmansk1            12.719
       276   05 Jun 2027 10:01:37.671   05 Jun 2027 10:01:57.062            19.391              Murmansk1           605.969
       277   05 Jun 2027 10:05:14.885   05 Jun 2027 10:05:41.204            26.319                Norilsk           822.469
       278   05 Jun 2027 13:12:33.899   05 Jun 2027 13:13:14.836            40.937              Murmansk1          1279.281
       279   05 Jun 2027 13:13:29.644   05 Jun 2027 13:13:39.173             9.529              Murmansk1           297.781
       280   05 Jun 2027 13:14:11.397   05 Jun 2027 13:14:37.439            26.042              Murmansk1           813.813
       281   05 Jun 2027 13:22:28.739   05 Jun 2027 13:22:39.339            10.600              Murmansk1           331.250
       282   05 Jun 2027 13:22:50.290   05 Jun 2027 13:23:04.432            14.142              Murmansk1           441.937
       283   05 Jun 2027 13:25:01.948   05 Jun 2027 13:26:42.707           100.759                Anadyr2          3148.719
       284   05 Jun 2027 13:28:51.206   05 Jun 2027 13:29:19.688            28.482                Anadyr2           890.063
       285   05 Jun 2027 13:33:36.462   05 Jun 2027 13:34:35.737            59.275                Anadyr2          1852.344
       286   05 Jun 2027 14:20:46.688   05 Jun 2027 14:21:18.414            31.726               CapeTown           991.437
       287   05 Jun 2027 14:22:17.521   05 Jun 2027 14:23:29.606            72.085               CapeTown          2252.656
       288   05 Jun 2027 14:53:03.464   05 Jun 2027 14:55:10.422           126.958              Murmansk2          3967.437
       289   05 Jun 2027 14:55:23.532   05 Jun 2027 14:55:56.953            33.421              Murmansk1          1044.406
       290   05 Jun 2027 15:00:48.024   05 Jun 2027 15:01:58.530            70.506                Anadyr2          2203.312
       291   05 Jun 2027 15:02:52.095   05 Jun 2027 15:03:43.766            51.671                Anadyr1          1614.719
       292   05 Jun 2027 15:03:58.643   05 Jun 2027 15:04:17.111            18.468                Anadyr2           577.125
       293   05 Jun 2027 15:04:33.535   05 Jun 2027 15:04:45.771            12.236                Anadyr2           382.375
       294   05 Jun 2027 15:05:12.528   05 Jun 2027 15:06:45.369            92.841                Anadyr2          2901.281
       295   05 Jun 2027 15:07:02.983   05 Jun 2027 15:09:35.568           152.585               Magadan1          4768.281
       296   05 Jun 2027 15:10:22.553   05 Jun 2027 15:14:01.068           218.515               Magadan1          6828.594
       297   05 Jun 2027 16:39:00.418   05 Jun 2027 16:39:28.133            27.715               Magadan2           866.094
       298   05 Jun 2027 16:41:18.989   05 Jun 2027 16:42:28.689            69.700               Magadan2          2178.125
       299   05 Jun 2027 16:43:24.399   05 Jun 2027 16:44:21.431            57.032               Magadan1          1782.250
       300   05 Jun 2027 17:31:46.126   05 Jun 2027 17:38:28.448           402.322            RioGallegos         12572.562
       301   05 Jun 2027 18:14:37.414   05 Jun 2027 18:15:38.176            60.762                Norilsk          1898.812
       302   05 Jun 2027 18:16:51.828   05 Jun 2027 18:19:43.534           171.706                Norilsk          5365.813
       303   05 Jun 2027 18:19:44.432   05 Jun 2027 18:20:20.127            35.695                Irkutsk          1115.469
       304   05 Jun 2027 18:20:57.027   05 Jun 2027 18:22:24.847            87.820                Irkutsk          2744.375
       305   05 Jun 2027 18:23:21.322   05 Jun 2027 18:23:24.478             3.156                Irkutsk            98.625
       306   05 Jun 2027 18:33:11.157   05 Jun 2027 18:36:42.040           210.883                Sumatra          6590.094
       307   05 Jun 2027 18:37:59.304   05 Jun 2027 18:40:05.682           126.378                Sumatra          3949.313
       308   05 Jun 2027 19:54:43.304   05 Jun 2027 19:56:56.026           132.722                Novosib          4147.563
       309   05 Jun 2027 20:03:10.454   05 Jun 2027 20:10:43.471           453.017                  Delhi         14156.781
       310   05 Jun 2027 21:29:04.164   05 Jun 2027 21:36:23.211           439.047              Murmansk2         13720.219
       311   05 Jun 2027 23:10:01.230   05 Jun 2027 23:10:30.293            29.063                 Moscow           908.219
       312   05 Jun 2027 23:33:08.403   05 Jun 2027 23:36:22.653           194.250               CapeTown          6070.312
       313   05 Jun 2027 23:38:27.819   05 Jun 2027 23:40:00.567            92.748               CapeTown          2898.375
       314   06 Jun 2027 00:47:03.291   06 Jun 2027 00:47:40.869            37.578                 Moscow          1174.313
       315   06 Jun 2027 00:52:59.437   06 Jun 2027 00:53:03.958             4.521                 Moscow           141.281
       316   06 Jun 2027 00:54:31.854   06 Jun 2027 00:54:33.214             1.360                 Moscow            42.500
       317   06 Jun 2027 01:07:53.568   06 Jun 2027 01:09:09.834            76.266               CapeTown          2383.313
       318   06 Jun 2027 01:10:45.148   06 Jun 2027 01:11:07.085            21.937               CapeTown           685.531
       319   06 Jun 2027 01:16:58.212   06 Jun 2027 01:17:40.618            42.406               CapeTown          1325.187
       320   06 Jun 2027 02:04:52.923   06 Jun 2027 02:06:47.154           114.231               Magadan2          3569.719
       321   06 Jun 2027 02:07:22.198   06 Jun 2027 02:07:32.699            10.501               Magadan2           328.156
       322   06 Jun 2027 02:09:48.375   06 Jun 2027 02:10:14.773            26.398               Magadan1           824.938
       323   06 Jun 2027 02:13:03.100   06 Jun 2027 02:13:50.018            46.918               Magadan1          1466.188
       324   06 Jun 2027 02:16:29.816   06 Jun 2027 02:17:11.095            41.279              Murmansk2          1289.969
       325   06 Jun 2027 02:19:00.408   06 Jun 2027 02:19:21.510            21.102              Murmansk1           659.438
       326   06 Jun 2027 02:20:04.581   06 Jun 2027 02:20:47.028            42.447                 Moscow          1326.469
       327   06 Jun 2027 02:21:01.663   06 Jun 2027 02:21:10.123             8.460                 Moscow           264.375
       328   06 Jun 2027 02:22:00.139   06 Jun 2027 02:22:19.003            18.864                 Moscow           589.500
       329   06 Jun 2027 02:26:21.678   06 Jun 2027 02:26:55.211            33.533                 Moscow          1047.906
       330   06 Jun 2027 03:40:05.981   06 Jun 2027 03:40:19.834            13.853               Magadan1           432.906
       331   06 Jun 2027 03:42:55.022   06 Jun 2027 03:43:24.924            29.902                Anadyr2           934.437
       332   06 Jun 2027 03:44:14.868   06 Jun 2027 03:44:22.515             7.647                Anadyr1           238.969
       333   06 Jun 2027 03:44:22.515   06 Jun 2027 03:45:01.899            39.384                Anadyr2          1230.750
       334   06 Jun 2027 03:46:30.447   06 Jun 2027 03:46:39.771             9.324               Magadan2           291.375
       335   06 Jun 2027 03:47:09.090   06 Jun 2027 03:52:56.713           347.623               Magadan2         10863.219
       336   06 Jun 2027 04:32:45.410   06 Jun 2027 04:34:05.006            79.596            RioGallegos          2487.375
       337   06 Jun 2027 05:24:46.903   06 Jun 2027 05:28:05.152           198.249                Irkutsk          6195.281
       338   06 Jun 2027 07:00:46.383   06 Jun 2027 07:01:01.360            14.977                Novosib           468.031
       339   06 Jun 2027 07:02:39.925   06 Jun 2027 07:02:42.643             2.718                Irkutsk            84.938
       340   06 Jun 2027 07:04:28.531   06 Jun 2027 07:04:59.402            30.871                Norilsk           964.719
       341   06 Jun 2027 07:47:11.948   06 Jun 2027 07:47:37.854            25.906            RioGallegos           809.563
       342   06 Jun 2027 08:21:17.503   06 Jun 2027 08:22:26.560            69.057                Sumatra          2158.031
       343   06 Jun 2027 08:37:24.514   06 Jun 2027 08:37:28.927             4.413              Murmansk1           137.906
       344   06 Jun 2027 08:37:42.126   06 Jun 2027 08:37:54.735            12.609              Murmansk1           394.031
       345   06 Jun 2027 08:38:05.684   06 Jun 2027 08:38:20.735            15.051              Murmansk1           470.344
       346   06 Jun 2027 08:39:06.064   06 Jun 2027 08:39:09.483             3.419                Novosib           106.844
       347   06 Jun 2027 08:40:26.909   06 Jun 2027 08:40:29.811             2.902                Norilsk            90.687
       348   06 Jun 2027 08:46:58.681   06 Jun 2027 08:47:06.401             7.720              Murmansk2           241.250
       349   06 Jun 2027 10:01:15.382   06 Jun 2027 10:03:47.336           151.954                  Delhi          4748.563
       350   06 Jun 2027 10:08:10.467   06 Jun 2027 10:08:20.380             9.913                  Delhi           309.781
       351   06 Jun 2027 10:13:38.505   06 Jun 2027 10:13:48.362             9.857              Murmansk1           308.031
       352   06 Jun 2027 10:18:25.736   06 Jun 2027 10:18:26.480             0.744                Norilsk            23.250
       353   06 Jun 2027 12:04:54.882   06 Jun 2027 12:05:00.732             5.850                Anadyr1           182.813
       354   06 Jun 2027 13:22:57.958   06 Jun 2027 13:24:28.012            90.054                 Moscow          2814.188
       355   06 Jun 2027 13:24:38.572   06 Jun 2027 13:25:09.806            31.234                 Moscow           976.062
       356   06 Jun 2027 13:25:29.916   06 Jun 2027 13:26:12.310            42.394              Murmansk1          1324.813
       357   06 Jun 2027 13:27:52.319   06 Jun 2027 13:28:09.123            16.804              Murmansk1           525.125
       358   06 Jun 2027 13:29:46.952   06 Jun 2027 13:29:59.122            12.170              Murmansk2           380.312
       359   06 Jun 2027 13:31:37.327   06 Jun 2027 13:32:03.509            26.182              Murmansk2           818.188
       360   06 Jun 2027 13:34:15.480   06 Jun 2027 13:34:27.356            11.876              Murmansk2           371.125
       361   06 Jun 2027 13:34:59.698   06 Jun 2027 13:35:04.336             4.638              Murmansk2           144.938
       362   06 Jun 2027 13:37:00.511   06 Jun 2027 13:38:33.621            93.110                Anadyr2          2909.688
       363   06 Jun 2027 13:38:43.549   06 Jun 2027 13:39:12.793            29.244                Anadyr1           913.875
       364   06 Jun 2027 13:40:52.469   06 Jun 2027 13:41:19.889            27.420                Anadyr1           856.875
       365   06 Jun 2027 13:42:07.144   06 Jun 2027 13:42:25.976            18.832                Anadyr2           588.500
       366   06 Jun 2027 13:43:28.544   06 Jun 2027 13:44:03.182            34.638                Anadyr2          1082.437
       367   06 Jun 2027 13:45:37.717   06 Jun 2027 13:45:49.741            12.024                Anadyr2           375.750
       368   06 Jun 2027 13:45:49.741   06 Jun 2027 13:46:34.354            44.613                Anadyr1          1394.156
       369   06 Jun 2027 14:41:27.450   06 Jun 2027 14:42:00.879            33.429               CapeTown          1044.656
       370   06 Jun 2027 15:06:06.406   06 Jun 2027 15:09:48.031           221.625              Murmansk1          6925.781
       371   06 Jun 2027 15:12:49.232   06 Jun 2027 15:14:56.446           127.214                Anadyr1          3975.438
       372   06 Jun 2027 15:15:27.366   06 Jun 2027 15:17:48.507           141.141               Magadan1          4410.656
       373   06 Jun 2027 15:19:04.271   06 Jun 2027 15:21:05.586           121.315               Magadan2          3791.094
       374   06 Jun 2027 15:22:23.647   06 Jun 2027 15:23:51.695            88.048               Magadan1          2751.500
       375   06 Jun 2027 15:24:11.071   06 Jun 2027 15:26:28.905           137.834               Magadan1          4307.313
       376   06 Jun 2027 16:55:07.393   06 Jun 2027 16:55:17.008             9.615               Magadan2           300.469
       377   06 Jun 2027 16:56:56.561   06 Jun 2027 16:57:56.525            59.964               Magadan1          1873.875
       378   06 Jun 2027 17:43:27.684   06 Jun 2027 17:49:43.074           375.390            RioGallegos         11730.937
       379   06 Jun 2027 18:26:36.828   06 Jun 2027 18:27:57.777            80.949                Norilsk          2529.656
       380   06 Jun 2027 18:28:59.524   06 Jun 2027 18:30:15.255            75.731                Norilsk          2366.594
       381   06 Jun 2027 18:30:54.833   06 Jun 2027 18:32:05.959            71.126                Irkutsk          2222.687
       382   06 Jun 2027 18:33:03.427   06 Jun 2027 18:34:27.619            84.192                Irkutsk          2631.000
       383   06 Jun 2027 18:34:33.265   06 Jun 2027 18:35:48.651            75.386                Novosib          2355.813
       384   06 Jun 2027 18:44:48.307   06 Jun 2027 18:46:23.536            95.229                Sumatra          2975.906
       385   06 Jun 2027 18:48:39.993   06 Jun 2027 18:50:35.540           115.547                Sumatra          3610.844
       386   06 Jun 2027 18:51:00.699   06 Jun 2027 18:51:16.447            15.748                Sumatra           492.125
       387   06 Jun 2027 20:06:37.731   06 Jun 2027 20:07:56.820            79.089                Novosib          2471.531
       388   06 Jun 2027 20:08:35.294   06 Jun 2027 20:08:51.262            15.968                Novosib           499.000
       389   06 Jun 2027 20:14:42.100   06 Jun 2027 20:18:06.096           203.996                  Delhi          6374.875
       390   06 Jun 2027 20:18:18.487   06 Jun 2027 20:21:28.097           189.610                  Delhi          5925.312
       391   06 Jun 2027 21:40:59.017   06 Jun 2027 21:49:04.052           485.035              Murmansk1         15157.344
       392   06 Jun 2027 21:50:50.200   06 Jun 2027 21:51:08.356            18.156                 Moscow           567.375
       393   06 Jun 2027 23:20:41.980   06 Jun 2027 23:21:14.611            32.631                 Moscow          1019.719
       394   06 Jun 2027 23:24:19.283   06 Jun 2027 23:26:46.665           147.382                 Moscow          4605.688
       395   06 Jun 2027 23:44:41.982   06 Jun 2027 23:46:17.286            95.304               CapeTown          2978.250
       396   06 Jun 2027 23:48:15.529   06 Jun 2027 23:50:12.675           117.146               CapeTown          3660.812
       397   07 Jun 2027 00:55:49.811   07 Jun 2027 00:56:53.112            63.301                 Moscow          1978.156
       398   07 Jun 2027 01:04:56.612   07 Jun 2027 01:05:05.035             8.423                 Moscow           263.219
       399   07 Jun 2027 01:06:09.910   07 Jun 2027 01:06:32.638            22.728                 Moscow           710.250
       400   07 Jun 2027 01:20:09.862   07 Jun 2027 01:20:58.636            48.774               CapeTown          1524.187
       401   07 Jun 2027 01:22:37.405   07 Jun 2027 01:22:43.217             5.812               CapeTown           181.625
       402   07 Jun 2027 01:23:58.088   07 Jun 2027 01:24:19.076            20.988               CapeTown           655.875
       403   07 Jun 2027 01:27:00.131   07 Jun 2027 01:28:11.393            71.262               CapeTown          2226.938
       404   07 Jun 2027 02:16:41.070   07 Jun 2027 02:17:55.651            74.581               Magadan2          2330.656
       405   07 Jun 2027 02:18:23.998   07 Jun 2027 02:19:09.623            45.625               Magadan2          1425.781
       406   07 Jun 2027 02:21:50.356   07 Jun 2027 02:22:06.052            15.696               Magadan1           490.500
       407   07 Jun 2027 02:24:32.032   07 Jun 2027 02:24:56.282            24.250                Norilsk           757.812
       408   07 Jun 2027 02:25:21.449   07 Jun 2027 02:25:53.845            32.396                Norilsk          1012.375
       409   07 Jun 2027 02:28:30.056   07 Jun 2027 02:29:12.231            42.175              Murmansk1          1317.969
       410   07 Jun 2027 02:30:59.620   07 Jun 2027 02:31:10.399            10.779              Murmansk2           336.844
       411   07 Jun 2027 02:32:10.961   07 Jun 2027 02:33:40.577            89.616                 Moscow          2800.500
       412   07 Jun 2027 02:39:56.025   07 Jun 2027 02:41:27.486            91.461                 Moscow          2858.156
       413   07 Jun 2027 03:11:36.412   07 Jun 2027 03:12:17.605            41.193            RioGallegos          1287.281
       414   07 Jun 2027 03:12:24.780   07 Jun 2027 03:13:19.210            54.430            RioGallegos          1700.937
       415   07 Jun 2027 03:59:01.865   07 Jun 2027 03:59:19.641            17.776               Magadan1           555.500
       416   07 Jun 2027 03:59:19.641   07 Jun 2027 04:04:41.102           321.461               Magadan2         10045.656
       417   07 Jun 2027 04:04:47.615   07 Jun 2027 04:04:51.515             3.900                Anadyr1           121.875
       418   07 Jun 2027 04:43:33.840   07 Jun 2027 04:44:58.119            84.279            RioGallegos          2633.719
       419   07 Jun 2027 04:47:14.813   07 Jun 2027 04:47:31.937            17.124            RioGallegos           535.125
       420   07 Jun 2027 05:36:30.248   07 Jun 2027 05:36:49.872            19.624                Irkutsk           613.250
       421   07 Jun 2027 05:37:33.423   07 Jun 2027 05:38:22.457            49.034                Irkutsk          1532.313
       422   07 Jun 2027 05:38:49.202   07 Jun 2027 05:40:10.270            81.068               Magadan2          2533.375
       423   07 Jun 2027 05:45:03.313   07 Jun 2027 05:45:25.120            21.807                Norilsk           681.469
       424   07 Jun 2027 07:13:03.330   07 Jun 2027 07:13:21.435            18.105                Novosib           565.781
       425   07 Jun 2027 07:13:24.307   07 Jun 2027 07:13:34.791            10.484              Murmansk2           327.625
       426   07 Jun 2027 07:13:46.499   07 Jun 2027 07:14:16.981            30.482                Novosib           952.562
       427   07 Jun 2027 07:14:38.071   07 Jun 2027 07:14:50.589            12.518                Irkutsk           391.188
       428   07 Jun 2027 07:15:08.287   07 Jun 2027 07:15:53.301            45.014                Irkutsk          1406.687
       429   07 Jun 2027 07:16:19.767   07 Jun 2027 07:16:28.953             9.186                Norilsk           287.062
       430   07 Jun 2027 07:56:56.919   07 Jun 2027 07:57:12.528            15.609            RioGallegos           487.781
       431   07 Jun 2027 07:57:56.006   07 Jun 2027 07:58:23.935            27.929            RioGallegos           872.781
       432   07 Jun 2027 08:27:38.901   07 Jun 2027 08:28:23.095            44.194                Sumatra          1381.063
       433   07 Jun 2027 08:30:50.824   07 Jun 2027 08:31:52.558            61.734                Sumatra          1929.187
       434   07 Jun 2027 08:48:36.349   07 Jun 2027 08:48:37.735             1.386                Novosib            43.313
       435   07 Jun 2027 08:49:05.108   07 Jun 2027 08:49:17.418            12.310              Murmansk2           384.688
       436   07 Jun 2027 08:49:24.388   07 Jun 2027 08:49:29.445             5.057              Murmansk2           158.031
       437   07 Jun 2027 08:49:51.752   07 Jun 2027 08:50:07.889            16.137                Novosib           504.281
       438   07 Jun 2027 08:50:35.174   07 Jun 2027 08:51:02.784            27.610                Novosib           862.812
       439   07 Jun 2027 08:51:09.422   07 Jun 2027 08:51:23.675            14.253                Novosib           445.406
       440   07 Jun 2027 08:52:30.322   07 Jun 2027 08:52:32.646             2.324                Novosib            72.625
       441   07 Jun 2027 10:13:07.144   07 Jun 2027 10:16:00.897           173.753                  Delhi          5429.781
       442   07 Jun 2027 10:20:06.013   07 Jun 2027 10:20:14.165             8.152                  Delhi           254.750
       443   07 Jun 2027 10:30:51.465   07 Jun 2027 10:31:00.279             8.814                Norilsk           275.437
       444   07 Jun 2027 12:05:29.541   07 Jun 2027 12:06:05.857            36.316              Murmansk2          1134.875
       445   07 Jun 2027 12:06:53.652   07 Jun 2027 12:07:18.094            24.442              Murmansk1           763.813
       446   07 Jun 2027 12:08:13.009   07 Jun 2027 12:08:31.510            18.501              Murmansk1           578.156
       447   07 Jun 2027 12:10:31.914   07 Jun 2027 12:10:33.553             1.639              Murmansk1            51.219
       448   07 Jun 2027 12:10:48.085   07 Jun 2027 12:11:12.893            24.808              Murmansk1           775.250
       449   07 Jun 2027 12:17:32.519   07 Jun 2027 12:20:08.677           156.158                Anadyr1          4879.937
       450   07 Jun 2027 13:37:15.112   07 Jun 2027 13:37:29.714            14.602              Murmansk2           456.312
       451   07 Jun 2027 13:38:54.260   07 Jun 2027 13:39:39.608            45.348              Murmansk2          1417.125
       452   07 Jun 2027 13:41:05.332   07 Jun 2027 13:41:28.011            22.679              Murmansk1           708.719
       453   07 Jun 2027 13:42:00.625   07 Jun 2027 13:42:34.482            33.857              Murmansk1          1058.031
       454   07 Jun 2027 13:44:04.332   07 Jun 2027 13:44:10.957             6.625              Murmansk2           207.031
       455   07 Jun 2027 13:44:45.923   07 Jun 2027 13:45:44.072            58.149              Murmansk1          1817.156
       456   07 Jun 2027 13:46:53.483   07 Jun 2027 13:47:03.653            10.170              Murmansk2           317.812
       457   07 Jun 2027 13:48:59.700   07 Jun 2027 13:50:27.011            87.311                Anadyr1          2728.469
       458   07 Jun 2027 13:51:04.683   07 Jun 2027 13:51:31.211            26.528                Anadyr2           829.000
       459   07 Jun 2027 13:52:53.039   07 Jun 2027 13:53:11.005            17.966                Anadyr2           561.437
       460   07 Jun 2027 13:53:20.409   07 Jun 2027 13:53:56.547            36.138                Anadyr1          1129.313
       461   07 Jun 2027 13:54:16.242   07 Jun 2027 13:56:42.038           145.796               Magadan2          4556.125
       462   07 Jun 2027 15:19:41.164   07 Jun 2027 15:20:08.614            27.450              Murmansk2           857.813
       463   07 Jun 2027 15:20:19.330   07 Jun 2027 15:20:56.466            37.136              Murmansk1          1160.500
       464   07 Jun 2027 15:24:50.528   07 Jun 2027 15:26:34.995           104.467                Anadyr1          3264.594
       465   07 Jun 2027 15:27:02.531   07 Jun 2027 15:27:38.602            36.071                Anadyr2          1127.219
       466   07 Jun 2027 15:28:59.474   07 Jun 2027 15:31:05.861           126.387               Magadan2          3949.594
       467   07 Jun 2027 15:31:05.861   07 Jun 2027 15:33:11.020           125.159               Magadan1          3911.219
       468   07 Jun 2027 15:34:22.341   07 Jun 2027 15:35:54.070            91.729               Magadan2          2866.531
       469   07 Jun 2027 17:03:02.249   07 Jun 2027 17:05:01.379           119.130               Magadan1          3722.813
       470   07 Jun 2027 17:06:39.043   07 Jun 2027 17:07:33.057            54.014                Norilsk          1687.937
       471   07 Jun 2027 17:15:33.886   07 Jun 2027 17:15:39.634             5.748               Magadan1           179.625
       472   07 Jun 2027 17:55:13.953   07 Jun 2027 17:58:32.458           198.505            RioGallegos          6203.281
       473   07 Jun 2027 17:59:24.870   07 Jun 2027 18:01:14.265           109.395            RioGallegos          3418.594
       474   07 Jun 2027 18:38:47.454   07 Jun 2027 18:40:15.379            87.925                Norilsk          2747.656
       475   07 Jun 2027 18:40:27.170   07 Jun 2027 18:42:37.373           130.203                Norilsk          4068.844
       476   07 Jun 2027 18:42:47.621   07 Jun 2027 18:43:48.720            61.099                Irkutsk          1909.344
       477   07 Jun 2027 18:44:42.972   07 Jun 2027 18:45:06.499            23.527                Irkutsk           735.219
       478   07 Jun 2027 18:46:28.785   07 Jun 2027 18:49:55.929           207.144                Novosib          6473.250
       479   07 Jun 2027 18:58:05.085   07 Jun 2027 18:59:13.384            68.299                Sumatra          2134.344
       480   07 Jun 2027 19:00:43.530   07 Jun 2027 19:01:09.394            25.864                Sumatra           808.250
       481   07 Jun 2027 20:19:40.191   07 Jun 2027 20:20:56.201            76.010                Novosib          2375.312
       482   07 Jun 2027 20:22:52.942   07 Jun 2027 20:24:06.396            73.454                Novosib          2295.438
