uniorb/output/strategy_4/Drop/Drop_KinoSat_112009.txt

KinoSat_112009
-------------------------
    Access    *     Start Time (UTCG)     *     Stop Time (UTCG)  *   Duration (s)        *       Station  *  Data (Mbytes)
         1   01 Jun 2027 03:56:42.660   01 Jun 2027 03:57:34.342            51.682                Novosib          1615.063
         2   01 Jun 2027 03:57:34.532   01 Jun 2027 03:59:12.608            98.076                Norilsk          3064.875
         3   01 Jun 2027 03:59:14.867   01 Jun 2027 03:59:23.560             8.693                Norilsk           271.656
         4   01 Jun 2027 03:59:33.022   01 Jun 2027 04:00:30.832            57.810              Murmansk1          1806.563
         5   01 Jun 2027 04:00:38.103   01 Jun 2027 04:01:27.209            49.106                Norilsk          1534.562
         6   01 Jun 2027 04:01:44.263   01 Jun 2027 04:02:30.890            46.627                  Delhi          1457.094
         7   01 Jun 2027 04:03:20.289   01 Jun 2027 04:03:24.154             3.865                Norilsk           120.781
         8   01 Jun 2027 04:03:33.883   01 Jun 2027 04:03:36.504             2.621                Irkutsk            81.906
         9   01 Jun 2027 04:03:54.408   01 Jun 2027 04:04:22.881            28.473                Novosib           889.781
        10   01 Jun 2027 04:04:38.050   01 Jun 2027 04:06:11.237            93.187                  Delhi          2912.094
        11   01 Jun 2027 04:10:02.439   01 Jun 2027 04:11:26.337            83.898                  Delhi          2621.813
        12   01 Jun 2027 04:45:04.359   01 Jun 2027 04:47:35.529           151.170            RioGallegos          4724.063
        13   01 Jun 2027 05:35:38.367   01 Jun 2027 05:36:00.175            21.808              Murmansk1           681.500
        14   01 Jun 2027 05:36:00.175   01 Jun 2027 05:36:26.877            26.702              Murmansk2           834.438
        15   01 Jun 2027 05:36:28.235   01 Jun 2027 05:38:07.247            99.012                Novosib          3094.125
        16   01 Jun 2027 05:38:12.457   01 Jun 2027 05:39:11.890            59.433              Murmansk1          1857.281
        17   01 Jun 2027 05:39:28.094   01 Jun 2027 05:39:53.221            25.127              Murmansk2           785.219
        18   01 Jun 2027 05:40:04.440   01 Jun 2027 05:40:50.870            46.430                Novosib          1450.938
        19   01 Jun 2027 05:56:54.600   01 Jun 2027 05:59:58.648           184.048               CapeTown          5751.500
        20   01 Jun 2027 06:02:13.240   01 Jun 2027 06:02:48.009            34.769               CapeTown          1086.531
        21   01 Jun 2027 06:03:33.597   01 Jun 2027 06:04:20.993            47.396               CapeTown          1481.125
        22   01 Jun 2027 06:06:47.397   01 Jun 2027 06:07:35.870            48.473               CapeTown          1514.781
        23   01 Jun 2027 07:12:49.018   01 Jun 2027 07:13:15.034            26.016              Murmansk2           813.000
        24   01 Jun 2027 07:13:32.171   01 Jun 2027 07:13:54.153            21.982                 Moscow           686.938
        25   01 Jun 2027 07:14:00.887   01 Jun 2027 07:14:13.144            12.257              Murmansk1           383.031
        26   01 Jun 2027 07:14:13.144   01 Jun 2027 07:15:17.028            63.884              Murmansk2          1996.375
        27   01 Jun 2027 07:15:17.028   01 Jun 2027 07:15:41.321            24.293              Murmansk1           759.156
        28   01 Jun 2027 07:15:46.345   01 Jun 2027 07:17:02.778            76.433                 Moscow          2388.531
        29   01 Jun 2027 07:17:27.404   01 Jun 2027 07:17:37.843            10.439                 Moscow           326.219
        30   01 Jun 2027 07:17:45.893   01 Jun 2027 07:18:07.894            22.001                 Moscow           687.531
        31   01 Jun 2027 07:32:03.435   01 Jun 2027 07:37:02.133           298.698               CapeTown          9334.313
        32   01 Jun 2027 08:35:40.871   01 Jun 2027 08:37:00.642            79.771                Anadyr1          2492.844
        33   01 Jun 2027 08:37:09.923   01 Jun 2027 08:37:38.887            28.964                Anadyr1           905.125
        34   01 Jun 2027 08:40:33.069   01 Jun 2027 08:41:22.447            49.378                Anadyr2          1543.062
        35   01 Jun 2027 10:07:32.585   01 Jun 2027 10:12:43.867           311.282                Anadyr1          9727.562
        36   01 Jun 2027 10:14:14.178   01 Jun 2027 10:16:58.748           164.570                Anadyr1          5142.813
        37   01 Jun 2027 11:42:30.531   01 Jun 2027 11:44:19.651           109.120               Magadan1          3410.000
        38   01 Jun 2027 11:46:13.743   01 Jun 2027 11:52:19.450           365.707               Magadan2         11428.344
        39   01 Jun 2027 14:15:14.946   01 Jun 2027 14:15:23.970             9.024            RioGallegos           282.000
        40   01 Jun 2027 14:41:46.529   01 Jun 2027 14:46:22.533           276.004                Sumatra          8625.125
        41   01 Jun 2027 14:48:56.855   01 Jun 2027 14:49:14.772            17.917                Sumatra           559.906
        42   01 Jun 2027 14:56:29.266   01 Jun 2027 15:02:16.755           347.489                Irkutsk         10859.031
        43   01 Jun 2027 16:25:16.145   01 Jun 2027 16:33:12.437           476.292                  Delhi         14884.125
        44   01 Jun 2027 16:33:36.253   01 Jun 2027 16:40:35.476           419.223                Novosib         13100.719
        45   01 Jun 2027 19:47:33.110   01 Jun 2027 19:53:41.539           368.429                 Moscow         11513.406
        46   01 Jun 2027 19:53:47.767   01 Jun 2027 19:54:17.289            29.522              Murmansk2           922.563
        47   01 Jun 2027 20:59:02.690   01 Jun 2027 21:03:19.528           256.838               CapeTown          8026.188
        48   01 Jun 2027 21:30:39.449   01 Jun 2027 21:33:51.565           192.116              Murmansk1          6003.625
        49   02 Jun 2027 02:46:55.032   02 Jun 2027 02:54:52.107           477.075                Sumatra         14908.594
        50   02 Jun 2027 04:09:31.142   02 Jun 2027 04:09:48.647            17.505                Novosib           547.031
        51   02 Jun 2027 04:09:51.501   02 Jun 2027 04:10:09.603            18.102                Novosib           565.687
        52   02 Jun 2027 04:10:18.155   02 Jun 2027 04:14:28.561           250.406                Norilsk          7825.188
        53   02 Jun 2027 04:15:05.181   02 Jun 2027 04:16:12.790            67.609                Irkutsk          2112.781
        54   02 Jun 2027 04:17:03.488   02 Jun 2027 04:17:23.958            20.470                Novosib           639.688
        55   02 Jun 2027 04:18:19.225   02 Jun 2027 04:18:35.069            15.844                Novosib           495.125
        56   02 Jun 2027 04:21:05.666   02 Jun 2027 04:25:45.276           279.610                  Delhi          8737.813
        57   02 Jun 2027 05:48:28.679   02 Jun 2027 05:50:51.173           142.494                Novosib          4452.937
        58   02 Jun 2027 05:51:13.964   02 Jun 2027 05:51:44.144            30.180                Novosib           943.125
        59   02 Jun 2027 05:55:01.041   02 Jun 2027 05:56:23.531            82.490                 Moscow          2577.813
        60   02 Jun 2027 06:16:07.011   02 Jun 2027 06:16:52.635            45.624               CapeTown          1425.750
        61   02 Jun 2027 06:18:47.421   02 Jun 2027 06:19:49.019            61.598               CapeTown          1924.937
        62   02 Jun 2027 07:23:31.813   02 Jun 2027 07:24:14.442            42.629                Norilsk          1332.156
        63   02 Jun 2027 07:24:23.363   02 Jun 2027 07:24:36.302            12.939                Norilsk           404.344
        64   02 Jun 2027 07:24:54.508   02 Jun 2027 07:27:09.379           134.871              Murmansk1          4214.719
        65   02 Jun 2027 07:30:38.813   02 Jun 2027 07:31:55.466            76.653                 Moscow          2395.406
        66   02 Jun 2027 07:45:53.015   02 Jun 2027 07:51:35.140           342.125               CapeTown         10691.406
        67   02 Jun 2027 08:49:04.039   02 Jun 2027 08:51:27.051           143.012                Anadyr1          4469.125
        68   02 Jun 2027 08:51:27.051   02 Jun 2027 08:52:19.812            52.761                Anadyr2          1648.781
        69   02 Jun 2027 10:24:19.541   02 Jun 2027 10:24:23.425             3.884                Anadyr1           121.375
        70   02 Jun 2027 10:25:28.269   02 Jun 2027 10:25:45.480            17.211               Magadan1           537.844
        71   02 Jun 2027 10:26:02.670   02 Jun 2027 10:26:56.550            53.880               Magadan1          1683.750
        72   02 Jun 2027 10:28:33.670   02 Jun 2027 10:28:53.663            19.993                Anadyr1           624.781
        73   02 Jun 2027 11:55:08.953   02 Jun 2027 11:58:50.540           221.587               Magadan1          6924.594
        74   02 Jun 2027 11:59:06.193   02 Jun 2027 12:04:09.294           303.101               Magadan1          9471.906
        75   02 Jun 2027 13:21:23.255   02 Jun 2027 13:22:28.675            65.420                Sumatra          2044.375
        76   02 Jun 2027 13:28:03.872   02 Jun 2027 13:28:29.709            25.837                Irkutsk           807.406
        77   02 Jun 2027 13:29:41.465   02 Jun 2027 13:30:35.022            53.557                Novosib          1673.656
        78   02 Jun 2027 13:32:07.179   02 Jun 2027 13:32:37.096            29.917                Irkutsk           934.906
        79   02 Jun 2027 13:37:48.285   02 Jun 2027 13:38:18.746            30.461                Irkutsk           951.906
        80   02 Jun 2027 13:41:17.665   02 Jun 2027 13:41:56.920            39.255                Norilsk          1226.719
        81   02 Jun 2027 13:43:44.871   02 Jun 2027 13:43:56.186            11.315                Norilsk           353.594
        82   02 Jun 2027 13:44:55.219   02 Jun 2027 13:45:41.966            46.747                Norilsk          1460.844
        83   02 Jun 2027 14:17:49.546   02 Jun 2027 14:24:12.932           383.386            RioGallegos         11980.813
        84   02 Jun 2027 14:52:10.118   02 Jun 2027 15:00:24.924           494.806                Sumatra         15462.687
        85   02 Jun 2027 15:07:56.471   02 Jun 2027 15:14:46.410           409.939                Irkutsk         12810.594
        86   02 Jun 2027 16:37:51.642   02 Jun 2027 16:44:16.433           384.791                  Delhi         12024.719
        87   02 Jun 2027 16:46:18.368   02 Jun 2027 16:52:02.618           344.250                Novosib         10757.813
        88   02 Jun 2027 20:01:00.918   02 Jun 2027 20:04:49.474           228.556                 Moscow          7142.375
        89   02 Jun 2027 20:05:22.362   02 Jun 2027 20:07:51.184           148.822              Murmansk1          4650.688
        90   02 Jun 2027 21:09:57.656   02 Jun 2027 21:17:37.862           460.206               CapeTown         14381.437
        91   03 Jun 2027 00:19:07.520   03 Jun 2027 00:20:10.248            62.728            RioGallegos          1960.250
        92   03 Jun 2027 00:20:58.398   03 Jun 2027 00:21:29.327            30.929            RioGallegos           966.531
        93   03 Jun 2027 00:28:12.414   03 Jun 2027 00:28:35.197            22.783            RioGallegos           711.969
        94   03 Jun 2027 01:00:23.549   03 Jun 2027 01:00:56.383            32.834                Anadyr1          1026.063
        95   03 Jun 2027 01:01:18.600   03 Jun 2027 01:01:50.882            32.282                Anadyr1          1008.812
        96   03 Jun 2027 01:01:50.882   03 Jun 2027 01:01:52.185             1.303                Anadyr2            40.719
        97   03 Jun 2027 01:02:14.022   03 Jun 2027 01:02:54.122            40.100                Anadyr2          1253.125
        98   03 Jun 2027 01:03:01.919   03 Jun 2027 01:04:19.355            77.436                Norilsk          2419.875
        99   03 Jun 2027 01:04:55.459   03 Jun 2027 01:06:31.234            95.775               Magadan1          2992.969
       100   03 Jun 2027 01:06:45.019   03 Jun 2027 01:07:56.220            71.201                Irkutsk          2225.031
       101   03 Jun 2027 01:08:20.402   03 Jun 2027 01:09:35.698            75.296                Novosib          2353.000
       102   03 Jun 2027 01:20:28.413   03 Jun 2027 01:21:19.730            51.317                Sumatra          1603.656
       103   03 Jun 2027 01:23:38.585   03 Jun 2027 01:24:07.683            29.098                Sumatra           909.313
       104   03 Jun 2027 01:27:21.966   03 Jun 2027 01:28:39.200            77.234                Sumatra          2413.563
       105   03 Jun 2027 01:56:54.871   03 Jun 2027 01:57:31.572            36.701            RioGallegos          1146.906
       106   03 Jun 2027 02:04:07.025   03 Jun 2027 02:04:41.002            33.977            RioGallegos          1061.781
       107   03 Jun 2027 02:35:51.860   03 Jun 2027 02:36:37.027            45.167                Anadyr1          1411.469
       108   03 Jun 2027 02:38:35.502   03 Jun 2027 02:39:34.577            59.075                Norilsk          1846.094
       109   03 Jun 2027 02:39:53.696   03 Jun 2027 02:40:08.383            14.687                Norilsk           458.969
       110   03 Jun 2027 02:42:29.305   03 Jun 2027 02:45:00.198           150.893                Irkutsk          4715.406
       111   03 Jun 2027 02:47:54.522   03 Jun 2027 02:48:46.382            51.860                Irkutsk          1620.625
       112   03 Jun 2027 02:53:43.950   03 Jun 2027 02:54:35.179            51.229                  Delhi          1600.906
       113   03 Jun 2027 02:58:40.983   03 Jun 2027 03:05:51.546           430.563                Sumatra         13455.094
       114   03 Jun 2027 04:21:18.457   03 Jun 2027 04:22:58.609           100.152              Murmansk1          3129.750
       115   03 Jun 2027 04:23:01.237   03 Jun 2027 04:27:50.217           288.980                Irkutsk          9030.625
       116   03 Jun 2027 04:27:51.826   03 Jun 2027 04:28:01.351             9.525                Novosib           297.656
       117   03 Jun 2027 04:28:53.667   03 Jun 2027 04:29:26.254            32.587                Novosib          1018.344
       118   03 Jun 2027 04:30:36.727   03 Jun 2027 04:33:49.900           193.173                  Delhi          6036.656
       119   03 Jun 2027 05:59:07.270   03 Jun 2027 06:00:14.014            66.744                Novosib          2085.750
       120   03 Jun 2027 06:01:24.734   03 Jun 2027 06:03:32.323           127.589                Novosib          3987.156
       121   03 Jun 2027 06:05:52.661   03 Jun 2027 06:06:11.362            18.701                 Moscow           584.406
       122   03 Jun 2027 06:06:44.531   03 Jun 2027 06:07:29.976            45.445                 Moscow          1420.156
       123   03 Jun 2027 06:20:14.790   03 Jun 2027 06:22:49.123           154.333               CapeTown          4822.906
       124   03 Jun 2027 06:26:59.229   03 Jun 2027 06:27:46.539            47.310               CapeTown          1478.437
       125   03 Jun 2027 07:23:48.321   03 Jun 2027 07:23:56.855             8.534               Magadan1           266.687
       126   03 Jun 2027 07:23:57.909   03 Jun 2027 07:24:31.913            34.004                Anadyr1          1062.625
       127   03 Jun 2027 07:24:31.913   03 Jun 2027 07:25:37.207            65.294                Anadyr2          2040.437
       128   03 Jun 2027 07:35:33.688   03 Jun 2027 07:35:52.739            19.051                Norilsk           595.344
       129   03 Jun 2027 07:36:24.710   03 Jun 2027 07:36:24.784             0.074                Norilsk             2.312
       130   03 Jun 2027 07:37:36.185   03 Jun 2027 07:37:43.873             7.688              Murmansk1           240.250
       131   03 Jun 2027 07:37:48.639   03 Jun 2027 07:38:25.167            36.528                 Moscow          1141.500
       132   03 Jun 2027 07:56:51.677   03 Jun 2027 08:02:44.329           352.652               CapeTown         11020.375
       133   03 Jun 2027 08:57:49.342   03 Jun 2027 08:58:37.657            48.315                Anadyr2          1509.844
       134   03 Jun 2027 08:59:27.396   03 Jun 2027 09:00:01.301            33.905               Magadan2          1059.531
       135   03 Jun 2027 09:01:11.931   03 Jun 2027 09:01:58.711            46.780               Magadan1          1461.875
       136   03 Jun 2027 09:02:11.797   03 Jun 2027 09:02:57.747            45.950               Magadan1          1435.937
       137   03 Jun 2027 09:45:32.980   03 Jun 2027 09:45:47.432            14.452            RioGallegos           451.625
       138   03 Jun 2027 10:33:03.668   03 Jun 2027 10:33:05.810             2.142               Magadan1            66.937
       139   03 Jun 2027 10:34:44.546   03 Jun 2027 10:35:13.731            29.185               Magadan2           912.031
       140   03 Jun 2027 10:36:02.356   03 Jun 2027 10:37:57.231           114.875               Magadan1          3589.844
       141   03 Jun 2027 10:38:16.582   03 Jun 2027 10:38:39.926            23.344               Magadan2           729.500
       142   03 Jun 2027 10:38:52.070   03 Jun 2027 10:40:59.267           127.197               Magadan1          3974.906
       143   03 Jun 2027 12:04:23.536   03 Jun 2027 12:05:05.107            41.571                Irkutsk          1299.094
       144   03 Jun 2027 12:05:25.954   03 Jun 2027 12:05:53.612            27.658                Irkutsk           864.313
       145   03 Jun 2027 12:07:53.937   03 Jun 2027 12:15:55.304           481.367               Magadan2         15042.719
       146   03 Jun 2027 13:55:22.899   03 Jun 2027 13:55:32.101             9.202                Norilsk           287.563
       147   03 Jun 2027 13:55:52.487   03 Jun 2027 13:57:43.351           110.864                Norilsk          3464.500
       148   03 Jun 2027 14:30:37.424   03 Jun 2027 14:38:22.012           464.588            RioGallegos         14518.375
       149   03 Jun 2027 15:05:21.264   03 Jun 2027 15:11:08.493           347.229                Sumatra         10850.906
       150   03 Jun 2027 15:21:15.999   03 Jun 2027 15:25:59.503           283.504                Irkutsk          8859.500
       151   03 Jun 2027 16:52:07.992   03 Jun 2027 16:54:15.568           127.576                  Delhi          3986.750
       152   03 Jun 2027 16:59:57.186   03 Jun 2027 17:03:00.236           183.050                Novosib          5720.313
       153   03 Jun 2027 20:14:05.993   03 Jun 2027 20:16:57.135           171.142              Murmansk2          5348.188
       154   03 Jun 2027 20:17:19.025   03 Jun 2027 20:19:38.087           139.062              Murmansk2          4345.687
       155   03 Jun 2027 20:20:46.904   03 Jun 2027 20:22:15.166            88.262              Murmansk1          2758.187
       156   03 Jun 2027 20:23:00.059   03 Jun 2027 20:23:07.457             7.398              Murmansk1           231.187
       157   03 Jun 2027 21:22:46.181   03 Jun 2027 21:28:27.037           340.856               CapeTown         10651.750
       158   03 Jun 2027 23:36:49.334   03 Jun 2027 23:40:29.237           219.903                Anadyr1          6871.969
       159   03 Jun 2027 23:40:38.083   03 Jun 2027 23:42:18.359           100.276               Magadan2          3133.625
       160   03 Jun 2027 23:42:23.316   03 Jun 2027 23:42:32.331             9.015               Magadan1           281.719
       161   03 Jun 2027 23:43:58.954   03 Jun 2027 23:44:40.030            41.076               Magadan2          1283.625
       162   03 Jun 2027 23:45:01.716   03 Jun 2027 23:45:43.888            42.172                Irkutsk          1317.875
       163   03 Jun 2027 23:46:39.710   03 Jun 2027 23:46:58.276            18.566                Irkutsk           580.188
       164   03 Jun 2027 23:48:10.955   03 Jun 2027 23:48:26.721            15.766                Irkutsk           492.687
       165   03 Jun 2027 23:49:32.814   03 Jun 2027 23:50:04.706            31.892                Irkutsk           996.625
       166   04 Jun 2027 00:30:59.523   04 Jun 2027 00:34:30.419           210.896            RioGallegos          6590.500
       167   04 Jun 2027 00:40:29.011   04 Jun 2027 00:41:07.179            38.168            RioGallegos          1192.750
       168   04 Jun 2027 01:12:19.590   04 Jun 2027 01:13:00.281            40.691                Anadyr2          1271.594
       169   04 Jun 2027 01:13:48.095   04 Jun 2027 01:14:14.712            26.617                Anadyr2           831.781
       170   04 Jun 2027 01:14:37.970   04 Jun 2027 01:14:54.264            16.294                Norilsk           509.187
       171   04 Jun 2027 01:15:00.334   04 Jun 2027 01:15:10.783            10.449                Norilsk           326.531
       172   04 Jun 2027 01:15:13.647   04 Jun 2027 01:16:45.266            91.619               Magadan2          2863.094
       173   04 Jun 2027 01:16:54.794   04 Jun 2027 01:17:03.385             8.591               Magadan2           268.469
       174   04 Jun 2027 01:18:30.029   04 Jun 2027 01:18:47.318            17.289               Magadan2           540.281
       175   04 Jun 2027 01:19:17.390   04 Jun 2027 01:20:33.683            76.293                Irkutsk          2384.156
       176   04 Jun 2027 01:21:42.190   04 Jun 2027 01:22:34.064            51.874                Novosib          1621.062
       177   04 Jun 2027 01:23:22.774   04 Jun 2027 01:23:31.793             9.019                Novosib           281.844
       178   04 Jun 2027 01:25:26.577   04 Jun 2027 01:25:56.642            30.065                Novosib           939.531
       179   04 Jun 2027 01:26:11.453   04 Jun 2027 01:26:19.232             7.779                Irkutsk           243.094
       180   04 Jun 2027 01:29:36.444   04 Jun 2027 01:29:41.078             4.634                Irkutsk           144.813
       181   04 Jun 2027 01:32:23.016   04 Jun 2027 01:33:32.533            69.517                Sumatra          2172.406
       182   04 Jun 2027 01:35:17.807   04 Jun 2027 01:36:26.372            68.565                Sumatra          2142.656
       183   04 Jun 2027 01:44:16.772   04 Jun 2027 01:45:06.600            49.828                Sumatra          1557.125
       184   04 Jun 2027 02:10:14.718   04 Jun 2027 02:10:36.608            21.890            RioGallegos           684.062
       185   04 Jun 2027 02:18:21.337   04 Jun 2027 02:18:38.692            17.355            RioGallegos           542.344
       186   04 Jun 2027 02:19:06.720   04 Jun 2027 02:19:15.723             9.003            RioGallegos           281.344
       187   04 Jun 2027 02:47:20.974   04 Jun 2027 02:47:53.268            32.294                Anadyr2          1009.188
       188   04 Jun 2027 02:49:35.270   04 Jun 2027 02:49:39.571             4.301                Anadyr1           134.406
       189   04 Jun 2027 02:50:12.507   04 Jun 2027 02:50:15.431             2.924                Anadyr1            91.375
       190   04 Jun 2027 02:50:38.007   04 Jun 2027 02:51:42.250            64.243                Norilsk          2007.594
       191   04 Jun 2027 02:51:46.202   04 Jun 2027 02:52:01.413            15.211                Norilsk           475.344
       192   04 Jun 2027 02:54:31.409   04 Jun 2027 02:56:28.572           117.163                Novosib          3661.344
       193   04 Jun 2027 02:56:42.082   04 Jun 2027 02:57:11.921            29.839                Irkutsk           932.469
       194   04 Jun 2027 02:58:55.912   04 Jun 2027 02:59:14.728            18.816                Irkutsk           588.000
       195   04 Jun 2027 03:00:03.429   04 Jun 2027 03:00:46.890            43.461                Irkutsk          1358.156
       196   04 Jun 2027 03:00:58.353   04 Jun 2027 03:01:28.099            29.746                Irkutsk           929.562
       197   04 Jun 2027 03:01:39.334   04 Jun 2027 03:02:09.111            29.777                Novosib           930.531
       198   04 Jun 2027 03:03:05.108   04 Jun 2027 03:03:50.244            45.136                  Delhi          1410.500
       199   04 Jun 2027 03:12:21.307   04 Jun 2027 03:16:05.396           224.089                Sumatra          7002.781
       200   04 Jun 2027 03:43:13.738   04 Jun 2027 03:46:08.771           175.033            RioGallegos          5469.781
       201   04 Jun 2027 03:46:31.766   04 Jun 2027 03:47:26.565            54.799            RioGallegos          1712.469
       202   04 Jun 2027 04:32:05.790   04 Jun 2027 04:32:15.383             9.593                Irkutsk           299.781
       203   04 Jun 2027 04:34:16.889   04 Jun 2027 04:35:10.701            53.812              Murmansk1          1681.625
       204   04 Jun 2027 04:35:13.185   04 Jun 2027 04:38:17.940           184.755                Irkutsk          5773.594
       205   04 Jun 2027 04:38:28.524   04 Jun 2027 04:46:54.873           506.349                  Delhi         15823.406
       206   04 Jun 2027 06:13:39.443   04 Jun 2027 06:13:52.782            13.339                 Moscow           416.844
       207   04 Jun 2027 06:14:51.574   04 Jun 2027 06:15:18.480            26.906              Murmansk1           840.812
       208   04 Jun 2027 06:15:27.027   04 Jun 2027 06:15:47.753            20.726              Murmansk1           647.688
       209   04 Jun 2027 06:18:05.918   04 Jun 2027 06:18:47.437            41.519                 Moscow          1297.469
       210   04 Jun 2027 06:32:03.230   04 Jun 2027 06:34:48.579           165.349               CapeTown          5167.156
       211   04 Jun 2027 07:35:05.018   04 Jun 2027 07:35:21.411            16.393                Anadyr1           512.281
       212   04 Jun 2027 07:35:25.305   04 Jun 2027 07:35:28.976             3.671               Magadan1           114.719
       213   04 Jun 2027 07:35:35.098   04 Jun 2027 07:35:46.688            11.590                Anadyr2           362.188
       214   04 Jun 2027 07:35:52.153   04 Jun 2027 07:36:41.605            49.452                Anadyr1          1545.375
       215   04 Jun 2027 07:37:22.686   04 Jun 2027 07:37:48.505            25.819               Magadan2           806.844
       216   04 Jun 2027 07:38:11.265   04 Jun 2027 07:38:46.913            35.648                Anadyr2          1114.000
       217   04 Jun 2027 07:49:33.644   04 Jun 2027 07:49:56.830            23.186              Murmansk2           724.563
       218   04 Jun 2027 08:09:28.522   04 Jun 2027 08:13:11.123           222.601               CapeTown          6956.281
       219   04 Jun 2027 08:13:54.432   04 Jun 2027 08:16:15.395           140.963               CapeTown          4405.094
       220   04 Jun 2027 09:09:24.559   04 Jun 2027 09:10:13.041            48.482                Anadyr1          1515.062
       221   04 Jun 2027 09:11:29.444   04 Jun 2027 09:11:34.760             5.316               Magadan1           166.125
       222   04 Jun 2027 09:11:40.620   04 Jun 2027 09:11:53.790            13.170                Anadyr1           411.562
       223   04 Jun 2027 09:12:07.580   04 Jun 2027 09:13:10.606            63.026               Magadan2          1969.563
       224   04 Jun 2027 09:13:54.518   04 Jun 2027 09:13:59.223             4.705               Magadan1           147.031
       225   04 Jun 2027 09:15:20.040   04 Jun 2027 09:15:27.901             7.861               Magadan2           245.656
       226   04 Jun 2027 09:16:45.184   04 Jun 2027 09:17:08.848            23.664               Magadan1           739.500
       227   04 Jun 2027 09:56:36.620   04 Jun 2027 09:57:49.756            73.136            RioGallegos          2285.500
       228   04 Jun 2027 10:44:40.619   04 Jun 2027 10:45:46.579            65.960               Magadan2          2061.250
       229   04 Jun 2027 10:47:11.165   04 Jun 2027 10:47:39.700            28.535               Magadan1           891.719
       230   04 Jun 2027 10:47:39.700   04 Jun 2027 10:47:55.635            15.935               Magadan2           497.969
       231   04 Jun 2027 10:50:30.847   04 Jun 2027 10:50:33.624             2.777               Magadan1            86.781
       232   04 Jun 2027 10:50:45.908   04 Jun 2027 10:51:49.008            63.100               Magadan1          1971.875
       233   04 Jun 2027 10:52:06.860   04 Jun 2027 10:52:23.078            16.218                Norilsk           506.812
       234   04 Jun 2027 10:52:25.544   04 Jun 2027 10:53:16.550            51.006                Norilsk          1593.938
       235   04 Jun 2027 11:30:14.527   04 Jun 2027 11:30:27.684            13.157            RioGallegos           411.156
       236   04 Jun 2027 11:32:47.987   04 Jun 2027 11:33:02.531            14.544            RioGallegos           454.500
       237   04 Jun 2027 12:07:25.813   04 Jun 2027 12:08:01.813            36.000                Sumatra          1125.000
       238   04 Jun 2027 12:16:13.825   04 Jun 2027 12:18:18.632           124.807                Irkutsk          3900.219
       239   04 Jun 2027 12:20:47.700   04 Jun 2027 12:27:35.359           407.659               Magadan1         12739.344
       240   04 Jun 2027 13:41:32.033   04 Jun 2027 13:42:33.434            61.401                Sumatra          1918.781
       241   04 Jun 2027 13:55:19.106   04 Jun 2027 13:57:30.877           131.771                Irkutsk          4117.844
       242   04 Jun 2027 14:43:38.280   04 Jun 2027 14:50:14.916           396.636            RioGallegos         12394.875
       243   04 Jun 2027 15:35:59.857   04 Jun 2027 15:37:29.917            90.060                Novosib          2814.375
       244   04 Jun 2027 17:08:24.231   04 Jun 2027 17:09:38.858            74.627                 Moscow          2332.094
       245   04 Jun 2027 17:11:31.591   04 Jun 2027 17:11:59.013            27.422              Murmansk1           856.938
       246   04 Jun 2027 17:14:18.038   04 Jun 2027 17:15:35.294            77.256                Norilsk          2414.250
       247   04 Jun 2027 17:15:54.977   04 Jun 2027 17:17:06.111            71.134                Norilsk          2222.937
       248   04 Jun 2027 17:18:22.621   04 Jun 2027 17:19:08.077            45.456                Norilsk          1420.500
       249   04 Jun 2027 17:19:48.639   04 Jun 2027 17:20:16.091            27.452                Norilsk           857.875
       250   04 Jun 2027 18:29:07.226   04 Jun 2027 18:30:34.816            87.590               CapeTown          2737.188
       251   04 Jun 2027 18:44:16.523   04 Jun 2027 18:45:11.453            54.930                 Moscow          1716.563
       252   04 Jun 2027 18:47:26.551   04 Jun 2027 18:48:03.904            37.353              Murmansk2          1167.281
       253   04 Jun 2027 18:49:04.866   04 Jun 2027 18:49:34.793            29.927                 Moscow           935.219
       254   04 Jun 2027 18:51:39.108   04 Jun 2027 18:52:21.462            42.354              Murmansk1          1323.563
       255   04 Jun 2027 18:56:28.679   04 Jun 2027 18:57:13.432            44.753              Murmansk2          1398.531
       256   04 Jun 2027 19:04:36.011   04 Jun 2027 19:04:43.580             7.569                Anadyr1           236.531
       257   04 Jun 2027 19:08:04.147   04 Jun 2027 19:08:24.254            20.107                Anadyr2           628.344
       258   04 Jun 2027 19:56:28.164   04 Jun 2027 19:58:14.107           105.943               CapeTown          3310.719
       259   04 Jun 2027 19:59:30.370   04 Jun 2027 20:00:34.318            63.948               CapeTown          1998.375
       260   04 Jun 2027 20:26:42.526   04 Jun 2027 20:28:13.515            90.989              Murmansk2          2843.406
       261   04 Jun 2027 20:28:19.455   04 Jun 2027 20:35:05.274           405.819              Murmansk1         12681.844
       262   04 Jun 2027 21:36:31.892   04 Jun 2027 21:38:15.837           103.945               CapeTown          3248.281
       263   04 Jun 2027 22:14:13.779   04 Jun 2027 22:15:25.868            72.089                Anadyr1          2252.781
       264   04 Jun 2027 22:15:44.947   04 Jun 2027 22:16:12.025            27.078                Anadyr1           846.188
       265   04 Jun 2027 22:16:26.488   04 Jun 2027 22:17:04.591            38.103               Magadan2          1190.719
       266   04 Jun 2027 22:17:19.667   04 Jun 2027 22:17:30.886            11.219               Magadan1           350.594
       267   04 Jun 2027 22:17:56.060   04 Jun 2027 22:18:30.012            33.952               Magadan1          1061.000
       268   04 Jun 2027 22:24:46.804   04 Jun 2027 22:25:35.620            48.816               Magadan1          1525.500
       269   04 Jun 2027 23:48:49.743   04 Jun 2027 23:52:39.534           229.791                Anadyr2          7180.969
       270   04 Jun 2027 23:52:46.953   04 Jun 2027 23:54:19.778            92.825               Magadan2          2900.781
       271   04 Jun 2027 23:54:35.018   04 Jun 2027 23:54:48.311            13.293               Magadan2           415.406
       272   04 Jun 2027 23:54:52.616   04 Jun 2027 23:55:04.660            12.044               Magadan2           376.375
       273   04 Jun 2027 23:55:47.540   04 Jun 2027 23:56:19.145            31.605               Magadan1           987.656
       274   04 Jun 2027 23:56:21.970   04 Jun 2027 23:57:49.560            87.590                Irkutsk          2737.188
       275   05 Jun 2027 00:00:25.583   05 Jun 2027 00:01:30.881            65.298                Irkutsk          2040.563
       276   05 Jun 2027 00:12:21.866   05 Jun 2027 00:13:44.518            82.652                Sumatra          2582.875
       277   05 Jun 2027 00:15:05.276   05 Jun 2027 00:16:34.059            88.783                Sumatra          2774.469
       278   05 Jun 2027 00:50:36.177   05 Jun 2027 00:50:40.787             4.610            RioGallegos           144.063
       279   05 Jun 2027 00:50:48.976   05 Jun 2027 00:51:17.893            28.917            RioGallegos           903.656
       280   05 Jun 2027 00:54:15.691   05 Jun 2027 00:54:25.052             9.361            RioGallegos           292.531
       281   05 Jun 2027 01:24:14.638   05 Jun 2027 01:24:58.009            43.371                Anadyr2          1355.344
       282   05 Jun 2027 01:25:04.902   05 Jun 2027 01:25:44.153            39.251                Anadyr1          1226.594
       283   05 Jun 2027 01:26:15.124   05 Jun 2027 01:26:56.796            41.672                Anadyr1          1302.250
       284   05 Jun 2027 01:27:17.059   05 Jun 2027 01:28:07.841            50.782               Magadan1          1586.937
       285   05 Jun 2027 01:28:07.841   05 Jun 2027 01:29:02.188            54.347               Magadan2          1698.344
       286   05 Jun 2027 01:30:28.027   05 Jun 2027 01:30:58.596            30.569               Magadan2           955.281
       287   05 Jun 2027 01:31:33.799   05 Jun 2027 01:32:17.900            44.101                Novosib          1378.156
       288   05 Jun 2027 01:32:24.844   05 Jun 2027 01:33:33.883            69.039                Irkutsk          2157.469
       289   05 Jun 2027 01:35:26.170   05 Jun 2027 01:35:53.909            27.739                Novosib           866.844
       290   05 Jun 2027 01:44:23.353   05 Jun 2027 01:46:28.257           124.904                Sumatra          3903.250
       291   05 Jun 2027 01:53:43.288   05 Jun 2027 01:53:46.159             2.871                Sumatra            89.719
       292   05 Jun 2027 02:18:38.109   05 Jun 2027 02:20:11.826            93.717            RioGallegos          2928.656
       293   05 Jun 2027 02:27:59.698   05 Jun 2027 02:28:15.923            16.225            RioGallegos           507.031
       294   05 Jun 2027 02:30:01.253   05 Jun 2027 02:30:13.974            12.721            RioGallegos           397.531
       295   05 Jun 2027 02:59:53.438   05 Jun 2027 03:01:02.868            69.430                Anadyr1          2169.687
       296   05 Jun 2027 03:06:46.349   05 Jun 2027 03:06:58.397            12.048               Magadan2           376.500
       297   05 Jun 2027 03:07:01.962   05 Jun 2027 03:07:03.135             1.173                Anadyr2            36.656
       298   05 Jun 2027 03:07:12.249   05 Jun 2027 03:09:03.835           111.586               Magadan1          3487.062
       299   05 Jun 2027 03:09:03.835   05 Jun 2027 03:09:29.617            25.782               Magadan2           805.688
       300   05 Jun 2027 03:09:57.090   05 Jun 2027 03:10:26.016            28.926                Norilsk           903.937
       301   05 Jun 2027 03:10:27.888   05 Jun 2027 03:11:01.193            33.305                Irkutsk          1040.781
       302   05 Jun 2027 03:11:24.768   05 Jun 2027 03:12:10.249            45.481                Novosib          1421.281
       303   05 Jun 2027 03:12:15.929   05 Jun 2027 03:13:24.464            68.535                Novosib          2141.719
       304   05 Jun 2027 03:13:49.656   05 Jun 2027 03:14:47.013            57.357                Irkutsk          1792.406
       305   05 Jun 2027 03:14:55.567   05 Jun 2027 03:16:00.590            65.023                Irkutsk          2031.969
       306   05 Jun 2027 03:55:27.479   05 Jun 2027 04:00:11.191           283.712            RioGallegos          8866.000
       307   05 Jun 2027 04:46:36.466   05 Jun 2027 04:46:48.595            12.129                Novosib           379.031
       308   05 Jun 2027 04:46:52.583   05 Jun 2027 04:50:27.400           214.817                Irkutsk          6713.031
       309   05 Jun 2027 04:50:54.536   05 Jun 2027 04:59:34.857           520.321                  Delhi         16260.031
       310   05 Jun 2027 06:24:48.114   05 Jun 2027 06:25:46.688            58.574                 Moscow          1830.437
       311   05 Jun 2027 06:25:58.717   05 Jun 2027 06:26:41.506            42.789                 Moscow          1337.156
       312   05 Jun 2027 06:27:08.706   05 Jun 2027 06:27:14.331             5.625              Murmansk2           175.781
       313   05 Jun 2027 06:28:12.292   05 Jun 2027 06:28:46.032            33.740                 Moscow          1054.375
       314   05 Jun 2027 06:30:16.804   05 Jun 2027 06:30:26.694             9.890                 Moscow           309.062
       315   05 Jun 2027 06:43:56.819   05 Jun 2027 06:47:06.244           189.425               CapeTown          5919.531
       316   05 Jun 2027 07:47:13.852   05 Jun 2027 07:47:40.176            26.324                Anadyr2           822.625
       317   05 Jun 2027 07:47:53.845   05 Jun 2027 07:47:57.199             3.354                Anadyr1           104.813
       318   05 Jun 2027 07:47:59.164   05 Jun 2027 07:48:24.385            25.221               Magadan1           788.156
       319   05 Jun 2027 07:48:32.346   05 Jun 2027 07:48:38.998             6.652               Magadan2           207.875
       320   05 Jun 2027 07:49:36.753   05 Jun 2027 07:50:14.162            37.409                Anadyr2          1169.031
       321   05 Jun 2027 07:51:44.239   05 Jun 2027 07:52:41.399            57.160                Anadyr2          1786.250
       322   05 Jun 2027 08:22:17.760   05 Jun 2027 08:22:42.451            24.691               CapeTown           771.594
       323   05 Jun 2027 08:28:41.706   05 Jun 2027 08:30:41.662           119.956               CapeTown          3748.625
       324   05 Jun 2027 09:21:30.275   05 Jun 2027 09:22:33.758            63.483               Magadan1          1983.844
       325   05 Jun 2027 09:22:39.850   05 Jun 2027 09:23:39.268            59.418                Anadyr2          1856.813
       326   05 Jun 2027 09:24:16.574   05 Jun 2027 09:25:08.391            51.817               Magadan1          1619.281
       327   05 Jun 2027 09:25:16.235   05 Jun 2027 09:25:41.779            25.544               Magadan1           798.250
       328   05 Jun 2027 09:25:52.691   05 Jun 2027 09:27:20.698            88.007               Magadan2          2750.219
       329   05 Jun 2027 10:55:23.861   05 Jun 2027 10:56:26.734            62.873               Magadan2          1964.781
       330   05 Jun 2027 10:57:55.958   05 Jun 2027 10:59:03.110            67.152               Magadan1          2098.500
       331   05 Jun 2027 10:59:03.110   05 Jun 2027 10:59:17.442            14.332               Magadan2           447.875
       332   05 Jun 2027 11:02:37.540   05 Jun 2027 11:03:09.915            32.375               Magadan2          1011.719
       333   05 Jun 2027 11:03:09.915   05 Jun 2027 11:04:56.613           106.698               Magadan1          3334.312
       334   05 Jun 2027 12:17:38.491   05 Jun 2027 12:19:24.175           105.684                Sumatra          3302.625
       335   05 Jun 2027 12:28:07.231   05 Jun 2027 12:29:27.225            79.994                Irkutsk          2499.813
       336   05 Jun 2027 12:33:55.332   05 Jun 2027 12:39:04.451           309.119               Magadan1          9659.969
       337   05 Jun 2027 13:56:52.795   05 Jun 2027 13:57:09.196            16.401                Sumatra           512.531
       338   05 Jun 2027 13:59:21.953   05 Jun 2027 14:00:06.534            44.581                Sumatra          1393.156
       339   05 Jun 2027 14:04:56.150   05 Jun 2027 14:05:37.488            41.338                Irkutsk          1291.812
       340   05 Jun 2027 14:06:33.702   05 Jun 2027 14:06:56.398            22.696                Irkutsk           709.250
       341   05 Jun 2027 14:09:45.465   05 Jun 2027 14:14:46.820           301.355                Irkutsk          9417.344
       342   05 Jun 2027 14:57:04.128   05 Jun 2027 15:01:21.470           257.342            RioGallegos          8041.937
       343   05 Jun 2027 17:18:59.868   05 Jun 2027 17:20:22.929            83.061                 Moscow          2595.656
       344   05 Jun 2027 17:22:28.898   05 Jun 2027 17:23:30.225            61.327              Murmansk1          1916.469
       345   05 Jun 2027 17:27:03.175   05 Jun 2027 17:31:05.942           242.767                Norilsk          7586.469
       346   05 Jun 2027 17:32:11.157   05 Jun 2027 17:33:21.117            69.960                Norilsk          2186.250
       347   05 Jun 2027 18:56:46.112   05 Jun 2027 18:58:19.873            93.761                 Moscow          2930.031
       348   05 Jun 2027 18:59:45.222   05 Jun 2027 19:01:47.402           122.180              Murmansk1          3818.125
       349   05 Jun 2027 19:03:53.103   05 Jun 2027 19:04:02.284             9.181              Murmansk2           286.906
       350   05 Jun 2027 19:04:15.302   05 Jun 2027 19:05:24.393            69.091              Murmansk2          2159.094
       351   05 Jun 2027 20:08:35.922   05 Jun 2027 20:11:20.562           164.640               CapeTown          5145.000
       352   05 Jun 2027 20:17:17.405   05 Jun 2027 20:17:57.395            39.990               CapeTown          1249.688
       353   05 Jun 2027 20:39:22.628   05 Jun 2027 20:45:18.598           355.970              Murmansk2         11124.063
       354   05 Jun 2027 20:45:26.189   05 Jun 2027 20:47:01.629            95.440              Murmansk1          2982.500
       355   05 Jun 2027 22:24:59.274   05 Jun 2027 22:26:14.088            74.814                Anadyr1          2337.937
       356   05 Jun 2027 22:26:29.557   05 Jun 2027 22:28:08.208            98.651                Anadyr1          3082.844
       357   05 Jun 2027 22:28:45.389   05 Jun 2027 22:29:03.409            18.020               Magadan1           563.125
       358   05 Jun 2027 22:29:16.635   05 Jun 2027 22:29:42.420            25.785               Magadan2           805.781
       359   05 Jun 2027 22:30:10.825   05 Jun 2027 22:30:41.209            30.384               Magadan2           949.500
       360   05 Jun 2027 22:35:44.218   05 Jun 2027 22:35:52.649             8.431               Magadan1           263.469
       361   05 Jun 2027 22:36:34.714   05 Jun 2027 22:36:51.383            16.669               Magadan2           520.906
       362   05 Jun 2027 23:21:21.133   05 Jun 2027 23:23:48.421           147.288            RioGallegos          4602.750
       363   05 Jun 2027 23:26:06.130   05 Jun 2027 23:26:29.682            23.552            RioGallegos           736.000
       364   06 Jun 2027 00:00:49.745   06 Jun 2027 00:02:53.207           123.462                Anadyr2          3858.187
       365   06 Jun 2027 00:02:55.544   06 Jun 2027 00:04:45.137           109.593                Norilsk          3424.781
       366   06 Jun 2027 00:05:18.430   06 Jun 2027 00:06:13.920            55.490               Magadan1          1734.063
       367   06 Jun 2027 00:07:56.270   06 Jun 2027 00:08:45.286            49.016                Irkutsk          1531.750
       368   06 Jun 2027 00:09:50.599   06 Jun 2027 00:10:20.603            30.004                Irkutsk           937.625
       369   06 Jun 2027 00:11:35.166   06 Jun 2027 00:12:03.190            28.024                Irkutsk           875.750
       370   06 Jun 2027 00:13:25.815   06 Jun 2027 00:14:40.473            74.658                Irkutsk          2333.063
       371   06 Jun 2027 00:23:04.915   06 Jun 2027 00:25:00.025           115.110                Sumatra          3597.187
       372   06 Jun 2027 00:58:52.214   06 Jun 2027 00:59:34.277            42.063            RioGallegos          1314.469
       373   06 Jun 2027 01:04:01.312   06 Jun 2027 01:04:22.023            20.711            RioGallegos           647.219
       374   06 Jun 2027 01:36:08.610   06 Jun 2027 01:36:20.030            11.420                Anadyr1           356.875
       375   06 Jun 2027 01:36:20.030   06 Jun 2027 01:36:43.447            23.417                Anadyr2           731.781
       376   06 Jun 2027 01:37:38.726   06 Jun 2027 01:38:15.196            36.470                Anadyr1          1139.687
       377   06 Jun 2027 01:38:32.222   06 Jun 2027 01:38:50.790            18.568                Anadyr1           580.250
       378   06 Jun 2027 01:38:58.083   06 Jun 2027 01:39:04.519             6.436                Anadyr2           201.125
       379   06 Jun 2027 01:39:20.459   06 Jun 2027 01:41:28.048           127.589               Magadan1          3987.156
       380   06 Jun 2027 01:42:38.180   06 Jun 2027 01:45:45.296           187.116                Irkutsk          5847.375
       381   06 Jun 2027 01:50:24.360   06 Jun 2027 01:50:25.385             1.025                Irkutsk            32.031
       382   06 Jun 2027 01:53:40.798   06 Jun 2027 01:54:54.626            73.828                  Delhi          2307.125
       383   06 Jun 2027 01:59:28.712   06 Jun 2027 02:01:05.731            97.019                Sumatra          3031.844
       384   06 Jun 2027 02:04:56.511   06 Jun 2027 02:06:12.740            76.229                Sumatra          2382.156
       385   06 Jun 2027 02:41:44.453   06 Jun 2027 02:41:59.692            15.239            RioGallegos           476.219
       386   06 Jun 2027 03:19:07.118   06 Jun 2027 03:20:56.935           109.817               Magadan1          3431.781
       387   06 Jun 2027 03:23:23.599   06 Jun 2027 03:24:18.970            55.371                Norilsk          1730.344
       388   06 Jun 2027 03:24:29.247   06 Jun 2027 03:25:03.376            34.129                Novosib          1066.531
       389   06 Jun 2027 03:25:43.580   06 Jun 2027 03:28:06.132           142.552                Novosib          4454.750
       390   06 Jun 2027 03:28:23.933   06 Jun 2027 03:30:19.136           115.203                Irkutsk          3600.094
       391   06 Jun 2027 03:35:26.166   06 Jun 2027 03:35:59.863            33.697                  Delhi          1053.031
       392   06 Jun 2027 04:07:44.217   06 Jun 2027 04:08:06.878            22.661            RioGallegos           708.156
       393   06 Jun 2027 04:09:09.011   06 Jun 2027 04:12:50.014           221.003            RioGallegos          6906.344
       394   06 Jun 2027 04:14:00.532   06 Jun 2027 04:14:59.867            59.335            RioGallegos          1854.219
       395   06 Jun 2027 04:56:03.288   06 Jun 2027 04:56:18.011            14.723                Irkutsk           460.094
       396   06 Jun 2027 04:58:26.378   06 Jun 2027 05:01:36.058           189.680                Irkutsk          5927.500
       397   06 Jun 2027 05:02:15.597   06 Jun 2027 05:02:36.240            20.643                Novosib           645.094
       398   06 Jun 2027 05:03:30.328   06 Jun 2027 05:11:16.623           466.295                  Delhi         14571.719
       399   06 Jun 2027 06:37:14.016   06 Jun 2027 06:37:47.527            33.511              Murmansk2          1047.219
       400   06 Jun 2027 06:37:53.182   06 Jun 2027 06:38:04.260            11.078                 Moscow           346.188
       401   06 Jun 2027 06:38:12.664   06 Jun 2027 06:38:17.741             5.077              Murmansk2           158.656
       402   06 Jun 2027 06:38:24.596   06 Jun 2027 06:38:33.115             8.519              Murmansk2           266.219
       403   06 Jun 2027 06:39:01.482   06 Jun 2027 06:39:01.854             0.372              Murmansk2            11.625
       404   06 Jun 2027 06:39:12.588   06 Jun 2027 06:39:35.607            23.019                 Moscow           719.344
       405   06 Jun 2027 06:42:59.064   06 Jun 2027 06:43:16.890            17.826                 Moscow           557.062
       406   06 Jun 2027 06:55:55.456   06 Jun 2027 06:59:09.251           193.795               CapeTown          6056.094
       407   06 Jun 2027 07:59:07.982   06 Jun 2027 07:59:55.393            47.411                Anadyr2          1481.594
       408   06 Jun 2027 07:59:55.393   06 Jun 2027 08:00:19.868            24.475                Anadyr1           764.844
       409   06 Jun 2027 08:00:31.700   06 Jun 2027 08:00:34.230             2.530               Magadan2            79.063
       410   06 Jun 2027 08:00:42.871   06 Jun 2027 08:01:26.445            43.574               Magadan2          1361.687
       411   06 Jun 2027 08:02:19.095   06 Jun 2027 08:02:24.486             5.391                Anadyr1           168.469
       412   06 Jun 2027 09:35:10.052   06 Jun 2027 09:35:56.340            46.288                Anadyr1          1446.500
       413   06 Jun 2027 09:36:28.420   06 Jun 2027 09:37:05.097            36.677               Magadan1          1146.156
       414   06 Jun 2027 09:37:16.128   06 Jun 2027 09:37:53.294            37.166               Magadan2          1161.437
       415   06 Jun 2027 09:39:20.823   06 Jun 2027 09:40:32.232            71.409               Magadan1          2231.531
       416   06 Jun 2027 11:05:24.524   06 Jun 2027 11:05:44.588            20.064               Magadan1           627.000
       417   06 Jun 2027 11:07:21.913   06 Jun 2027 11:10:27.349           185.436               Magadan2          5794.875
       418   06 Jun 2027 11:11:02.134   06 Jun 2027 11:11:40.424            38.290               Magadan2          1196.562
       419   06 Jun 2027 11:13:08.897   06 Jun 2027 11:13:09.974             1.077                Irkutsk            33.656
       420   06 Jun 2027 11:13:32.889   06 Jun 2027 11:13:59.140            26.251                Norilsk           820.344
       421   06 Jun 2027 11:14:26.156   06 Jun 2027 11:15:55.741            89.585               Magadan2          2799.531
       422   06 Jun 2027 11:16:09.499   06 Jun 2027 11:16:21.788            12.289                Norilsk           384.031
       423   06 Jun 2027 11:16:40.101   06 Jun 2027 11:17:04.480            24.379                Norilsk           761.844
       424   06 Jun 2027 11:51:52.733   06 Jun 2027 11:53:03.777            71.044            RioGallegos          2220.125
       425   06 Jun 2027 12:28:37.606   06 Jun 2027 12:30:30.930           113.324                Sumatra          3541.375
       426   06 Jun 2027 12:40:03.780   06 Jun 2027 12:41:26.335            82.555                Irkutsk          2579.844
       427   06 Jun 2027 12:43:19.522   06 Jun 2027 12:44:00.548            41.026                Irkutsk          1282.063
       428   06 Jun 2027 12:47:38.908   06 Jun 2027 12:50:00.617           141.709               Magadan1          4428.406
       429   06 Jun 2027 13:30:47.843   06 Jun 2027 13:33:07.549           139.706            RioGallegos          4365.812
       430   06 Jun 2027 14:02:34.727   06 Jun 2027 14:02:50.479            15.752                Sumatra           492.250
       431   06 Jun 2027 14:05:24.695   06 Jun 2027 14:07:20.978           116.283                Sumatra          3633.844
       432   06 Jun 2027 14:17:22.673   06 Jun 2027 14:18:41.098            78.425                Irkutsk          2450.781
       433   06 Jun 2027 14:22:11.881   06 Jun 2027 14:22:49.796            37.915                Irkutsk          1184.844
       434   06 Jun 2027 14:24:54.651   06 Jun 2027 14:26:49.153           114.502                Irkutsk          3578.188
       435   06 Jun 2027 15:47:12.205   06 Jun 2027 15:48:44.077            91.872                  Delhi          2871.000
       436   06 Jun 2027 15:52:27.834   06 Jun 2027 15:52:32.383             4.549                  Delhi           142.156
       437   06 Jun 2027 15:55:22.605   06 Jun 2027 15:57:07.079           104.474                Novosib          3264.812
       438   06 Jun 2027 15:59:16.574   06 Jun 2027 16:00:22.686            66.112                Norilsk          2066.000
       439   06 Jun 2027 16:00:44.530   06 Jun 2027 16:01:01.865            17.335                Novosib           541.719
       440   06 Jun 2027 16:02:08.001   06 Jun 2027 16:05:25.113           197.112                Novosib          6159.750
       441   06 Jun 2027 17:34:34.518   06 Jun 2027 17:35:27.833            53.315              Murmansk2          1666.094
       442   06 Jun 2027 17:36:32.188   06 Jun 2027 17:37:04.430            32.242              Murmansk1          1007.562
       443   06 Jun 2027 17:39:53.459   06 Jun 2027 17:43:04.797           191.338                Norilsk          5979.313
       444   06 Jun 2027 17:44:31.563   06 Jun 2027 17:45:16.811            45.248                Norilsk          1414.000
       445   06 Jun 2027 19:09:21.258   06 Jun 2027 19:15:18.542           357.284                 Moscow         11165.125
       446   06 Jun 2027 20:20:46.827   06 Jun 2027 20:22:03.377            76.550               CapeTown          2392.187
       447   06 Jun 2027 20:25:22.985   06 Jun 2027 20:25:24.089             1.104               CapeTown            34.500
       448   06 Jun 2027 20:27:24.610   06 Jun 2027 20:27:39.510            14.900               CapeTown           465.625
       449   06 Jun 2027 20:28:58.094   06 Jun 2027 20:30:32.193            94.099               CapeTown          2940.594
       450   06 Jun 2027 20:52:06.919   06 Jun 2027 20:58:55.894           408.975              Murmansk2         12780.469
       451   06 Jun 2027 22:37:01.063   06 Jun 2027 22:38:14.288            73.225                Anadyr1          2288.281
       452   06 Jun 2027 22:38:16.481   06 Jun 2027 22:38:29.935            13.454                Anadyr1           420.438
       453   06 Jun 2027 22:39:17.852   06 Jun 2027 22:41:17.078           119.226               Magadan1          3725.812
       454   06 Jun 2027 22:41:28.694   06 Jun 2027 22:41:56.794            28.100               Magadan2           878.125
       455   06 Jun 2027 22:42:43.913   06 Jun 2027 22:43:02.241            18.328               Magadan2           572.750
       456   06 Jun 2027 22:43:29.384   06 Jun 2027 22:44:07.954            38.570               Magadan2          1205.312
       457   06 Jun 2027 22:46:01.560   06 Jun 2027 22:46:14.788            13.228               Magadan2           413.375
       458   06 Jun 2027 22:47:21.513   06 Jun 2027 22:47:23.875             2.362               Magadan1            73.812
       459   06 Jun 2027 22:47:29.620   06 Jun 2027 22:47:42.167            12.547               Magadan2           392.094
       460   06 Jun 2027 22:48:26.267   06 Jun 2027 22:48:31.667             5.400               Magadan2           168.750
       461   06 Jun 2027 23:32:36.963   06 Jun 2027 23:35:27.741           170.778            RioGallegos          5336.813
       462   06 Jun 2027 23:37:37.559   06 Jun 2027 23:37:42.691             5.132            RioGallegos           160.375
       463   06 Jun 2027 23:38:16.469   06 Jun 2027 23:38:54.706            38.237            RioGallegos          1194.906
       464   07 Jun 2027 00:12:49.276   07 Jun 2027 00:14:14.997            85.721                Anadyr2          2678.781
       465   07 Jun 2027 00:14:22.879   07 Jun 2027 00:14:39.496            16.617                Anadyr1           519.281
       466   07 Jun 2027 00:14:53.619   07 Jun 2027 00:17:05.607           131.988                Norilsk          4124.625
       467   07 Jun 2027 00:18:22.427   07 Jun 2027 00:18:29.878             7.451                Norilsk           232.844
       468   07 Jun 2027 00:18:39.148   07 Jun 2027 00:18:45.372             6.224               Magadan1           194.500
       469   07 Jun 2027 00:18:57.428   07 Jun 2027 00:19:15.291            17.863               Magadan1           558.219
       470   07 Jun 2027 00:19:38.110   07 Jun 2027 00:21:50.994           132.884                Irkutsk          4152.625
       471   07 Jun 2027 00:26:05.854   07 Jun 2027 00:26:36.910            31.056                Irkutsk           970.500
       472   07 Jun 2027 00:34:14.844   07 Jun 2027 00:35:54.816            99.972                Sumatra          3124.125
       473   07 Jun 2027 00:40:49.002   07 Jun 2027 00:43:18.891           149.889                Sumatra          4684.031
       474   07 Jun 2027 01:48:01.403   07 Jun 2027 01:48:03.633             2.230                Anadyr2            69.688
       475   07 Jun 2027 01:49:47.725   07 Jun 2027 01:50:14.851            27.126                Anadyr2           847.688
       476   07 Jun 2027 01:50:43.946   07 Jun 2027 01:51:53.585            69.639                Norilsk          2176.219
       477   07 Jun 2027 01:52:09.031   07 Jun 2027 01:52:56.019            46.988               Magadan2          1468.375
       478   07 Jun 2027 01:54:38.270   07 Jun 2027 01:56:47.650           129.380                Irkutsk          4043.125
       479   07 Jun 2027 01:57:53.094   07 Jun 2027 01:58:02.560             9.466                Irkutsk           295.813
       480   07 Jun 2027 01:58:10.552   07 Jun 2027 01:59:04.946            54.394                Novosib          1699.813
       481   07 Jun 2027 02:04:24.616   07 Jun 2027 02:06:18.338           113.722                  Delhi          3553.812
       482   07 Jun 2027 02:08:41.617   07 Jun 2027 02:09:26.690            45.073                Sumatra          1408.531
