uniorb/output/strategy_4/Drop/Drop_KinoSat_110103.txt

KinoSat_110103
-------------------------
    Access    *     Start Time (UTCG)     *     Stop Time (UTCG)  *   Duration (s)        *       Station  *  Data (Mbytes)
         1   01 Jun 2027 04:28:23.880   01 Jun 2027 04:29:25.420            61.540                Novosib          7692.500
         2   01 Jun 2027 04:29:33.469   01 Jun 2027 04:30:44.770            71.301                Novosib          8912.625
         3   01 Jun 2027 04:31:08.628   01 Jun 2027 04:31:33.565            24.937              Murmansk1          3117.125
         4   01 Jun 2027 04:31:48.406   01 Jun 2027 04:32:11.206            22.800                Norilsk          2850.000
         5   01 Jun 2027 04:32:15.393   01 Jun 2027 04:33:41.088            85.695                Novosib         10711.875
         6   01 Jun 2027 04:33:41.856   01 Jun 2027 04:33:54.845            12.989                Novosib          1623.625
         7   01 Jun 2027 05:47:24.563   01 Jun 2027 05:47:54.018            29.455                Sumatra          3681.875
         8   01 Jun 2027 05:50:28.472   01 Jun 2027 05:53:33.153           184.681                  Delhi         23085.125
         9   01 Jun 2027 05:58:17.042   01 Jun 2027 05:59:03.074            46.032                  Delhi          5754.000
        10   01 Jun 2027 06:07:22.898   01 Jun 2027 06:07:53.337            30.439                 Moscow          3804.875
        11   01 Jun 2027 06:08:03.823   01 Jun 2027 06:08:48.233            44.410                Novosib          5551.250
        12   01 Jun 2027 06:09:03.900   01 Jun 2027 06:09:11.145             7.245              Murmansk1           905.625
        13   01 Jun 2027 06:09:18.574   01 Jun 2027 06:09:45.724            27.150                Novosib          3393.750
        14   01 Jun 2027 07:40:37.021   01 Jun 2027 07:42:18.725           101.704              Murmansk2         12713.000
        15   01 Jun 2027 07:42:22.897   01 Jun 2027 07:42:41.061            18.164              Murmansk2          2270.500
        16   01 Jun 2027 07:42:43.000   01 Jun 2027 07:42:47.130             4.130                 Moscow           516.250
        17   01 Jun 2027 07:42:55.664   01 Jun 2027 07:44:00.167            64.503                Norilsk          8062.875
        18   01 Jun 2027 07:44:15.322   01 Jun 2027 07:44:55.886            40.564              Murmansk1          5070.500
        19   01 Jun 2027 07:44:55.886   01 Jun 2027 07:45:11.503            15.617              Murmansk2          1952.125
        20   01 Jun 2027 07:47:20.890   01 Jun 2027 07:47:24.209             3.319                 Moscow           414.875
        21   01 Jun 2027 08:49:34.063   01 Jun 2027 08:57:21.110           467.047               CapeTown         58380.875
        22   01 Jun 2027 12:43:09.483   01 Jun 2027 12:45:42.261           152.778               Magadan2         19097.250
        23   01 Jun 2027 12:47:49.685   01 Jun 2027 12:49:22.556            92.871               Magadan1         11608.875
        24   01 Jun 2027 15:10:46.283   01 Jun 2027 15:13:17.495           151.212            RioGallegos         18901.500
        25   01 Jun 2027 15:58:30.494   01 Jun 2027 15:59:45.269            74.775                Irkutsk          9346.875
        26   01 Jun 2027 16:03:33.763   01 Jun 2027 16:05:06.519            92.756                Irkutsk         11594.500
        27   01 Jun 2027 16:12:12.954   01 Jun 2027 16:14:54.320           161.366                Sumatra         20170.750
        28   01 Jun 2027 16:19:43.396   01 Jun 2027 16:21:50.443           127.047                Sumatra         15880.875
        29   01 Jun 2027 17:34:21.684   01 Jun 2027 17:34:46.885            25.201                Novosib          3150.125
        30   01 Jun 2027 17:41:46.950   01 Jun 2027 17:44:40.482           173.532                  Delhi         20243.500
        31   02 Jun 2027 03:08:34.801   02 Jun 2027 03:08:41.088             6.287              Murmansk2           785.875
        32   02 Jun 2027 03:08:44.633   02 Jun 2027 03:11:29.667           165.034              Murmansk1         20629.250
        33   02 Jun 2027 03:43:40.569   02 Jun 2027 03:43:56.109            15.540            RioGallegos          1942.500
        34   02 Jun 2027 03:44:35.170   02 Jun 2027 03:46:12.195            97.025            RioGallegos         12128.125
        35   02 Jun 2027 04:18:14.401   02 Jun 2027 04:20:26.101           131.700                Sumatra         16462.500
        36   02 Jun 2027 04:41:05.398   02 Jun 2027 04:41:20.393            14.995                Irkutsk          1874.375
        37   02 Jun 2027 04:41:24.226   02 Jun 2027 04:42:23.380            59.154                Norilsk          7394.250
        38   02 Jun 2027 04:42:53.101   02 Jun 2027 04:43:17.940            24.839                Novosib          3104.875
        39   02 Jun 2027 04:43:27.059   02 Jun 2027 04:43:53.930            26.871                Norilsk          3358.875
        40   02 Jun 2027 04:44:03.046   02 Jun 2027 04:46:12.049           129.003                Novosib         16125.375
        41   02 Jun 2027 04:46:16.309   02 Jun 2027 04:49:46.051           209.742              Murmansk1         26217.750
        42   02 Jun 2027 04:50:27.500   02 Jun 2027 04:50:53.585            26.085              Murmansk2          3260.625
        43   02 Jun 2027 05:24:38.452   02 Jun 2027 05:25:17.278            38.826            RioGallegos          4853.250
        44   02 Jun 2027 05:25:58.636   02 Jun 2027 05:26:19.041            20.405            RioGallegos          2550.625
        45   02 Jun 2027 06:02:39.653   02 Jun 2027 06:05:04.250           144.597                  Delhi         18074.625
        46   02 Jun 2027 06:08:45.671   02 Jun 2027 06:10:04.231            78.560                  Delhi          9820.000
        47   02 Jun 2027 06:20:20.558   02 Jun 2027 06:20:52.843            32.285                Norilsk          4035.625
        48   02 Jun 2027 06:20:58.424   02 Jun 2027 06:21:39.097            40.673                Novosib          5084.125
        49   02 Jun 2027 06:21:57.069   02 Jun 2027 06:24:51.404           174.335              Murmansk1         21791.875
        50   02 Jun 2027 06:27:18.420   02 Jun 2027 06:27:19.005             0.585              Murmansk2            73.125
        51   02 Jun 2027 07:46:49.343   02 Jun 2027 07:47:59.445            70.102                 Moscow          8762.750
        52   02 Jun 2027 07:49:55.981   02 Jun 2027 07:50:08.297            12.316                 Moscow          1539.500
        53   02 Jun 2027 07:51:17.061   02 Jun 2027 07:52:50.644            93.583                 Moscow         11697.875
        54   02 Jun 2027 07:55:23.922   02 Jun 2027 07:59:43.592           259.670                 Moscow         32458.750
        55   02 Jun 2027 07:59:57.412   02 Jun 2027 08:03:13.192           195.780              Murmansk2         24472.500
        56   02 Jun 2027 09:01:10.946   02 Jun 2027 09:07:48.199           397.253               CapeTown         49656.625
        57   02 Jun 2027 09:26:22.410   02 Jun 2027 09:26:53.503            31.093                 Moscow          3886.625
        58   02 Jun 2027 09:27:16.472   02 Jun 2027 09:27:45.387            28.915                 Moscow          3614.375
        59   02 Jun 2027 09:29:58.185   02 Jun 2027 09:31:07.559            69.374              Murmansk2          8671.750
        60   02 Jun 2027 09:34:29.101   02 Jun 2027 09:34:36.565             7.464              Murmansk1           933.000
        61   02 Jun 2027 09:34:45.241   02 Jun 2027 09:35:11.218            25.977              Murmansk1          3247.125
        62   02 Jun 2027 09:36:21.103   02 Jun 2027 09:37:21.003            59.900              Murmansk1          7487.500
        63   02 Jun 2027 09:41:17.206   02 Jun 2027 09:46:29.567           312.361                Anadyr2         39045.125
        64   02 Jun 2027 09:48:32.173   02 Jun 2027 09:49:47.603            75.430                Anadyr1          9428.750
        65   02 Jun 2027 11:16:53.248   02 Jun 2027 11:17:39.982            46.734                Anadyr1          5841.750
        66   02 Jun 2027 12:55:08.367   02 Jun 2027 12:55:47.294            38.927               Magadan1          4865.875
        67   02 Jun 2027 12:57:30.190   02 Jun 2027 13:00:03.058           152.868               Magadan2         19108.500
        68   02 Jun 2027 14:31:01.342   02 Jun 2027 14:31:51.884            50.542               Magadan2          6317.750
        69   02 Jun 2027 14:51:31.546   02 Jun 2027 14:52:10.118            38.572                Sumatra          4821.500
        70   02 Jun 2027 15:22:41.392   02 Jun 2027 15:24:28.309           106.917            RioGallegos         13364.625
        71   02 Jun 2027 15:31:18.389   02 Jun 2027 15:32:13.132            54.743            RioGallegos          6842.875
        72   02 Jun 2027 16:10:46.339   02 Jun 2027 16:11:25.595            39.256                Irkutsk          4907.000
        73   02 Jun 2027 16:12:21.486   02 Jun 2027 16:13:32.696            71.210                Irkutsk          8901.250
        74   02 Jun 2027 16:17:31.480   02 Jun 2027 16:17:47.031            15.551                Irkutsk          1943.875
        75   02 Jun 2027 16:24:17.276   02 Jun 2027 16:26:02.563           105.287                Sumatra         13160.875
        76   02 Jun 2027 16:27:19.507   02 Jun 2027 16:29:10.688           111.181                Sumatra         13897.625
        77   02 Jun 2027 17:46:56.138   02 Jun 2027 17:47:25.687            29.549                Novosib          3693.625
        78   02 Jun 2027 17:49:33.063   02 Jun 2027 17:50:15.332            42.269                Novosib          5283.625
        79   02 Jun 2027 17:53:42.429   02 Jun 2027 17:56:16.336           153.907                  Delhi         19238.375
        80   02 Jun 2027 19:31:08.815   02 Jun 2027 19:31:21.851            13.036                  Delhi          1629.500
        81   02 Jun 2027 19:37:24.790   02 Jun 2027 19:38:45.127            80.337                  Delhi         10042.125
        82   02 Jun 2027 20:59:52.150   02 Jun 2027 21:03:08.564           196.414                 Moscow         24551.750
        83   02 Jun 2027 21:28:58.087   02 Jun 2027 21:30:39.423           101.336               CapeTown         12667.000
        84   03 Jun 2027 02:57:07.138   03 Jun 2027 02:58:40.983            93.845                Sumatra         11730.625
        85   03 Jun 2027 03:20:30.634   03 Jun 2027 03:22:15.384           104.750                Norilsk         13093.750
        86   03 Jun 2027 04:30:21.606   03 Jun 2027 04:31:42.653            81.047                Sumatra         10130.875
        87   03 Jun 2027 04:33:15.896   03 Jun 2027 04:35:06.181           110.285                Sumatra         13785.625
        88   03 Jun 2027 04:55:09.294   03 Jun 2027 04:55:25.005            15.711              Murmansk2          1963.875
        89   03 Jun 2027 04:56:29.780   03 Jun 2027 04:57:08.797            39.017              Murmansk1          4877.125
        90   03 Jun 2027 04:57:26.488   03 Jun 2027 04:58:18.213            51.725                Norilsk          6465.625
        91   03 Jun 2027 04:58:18.698   03 Jun 2027 04:58:58.842            40.144                 Moscow          5018.000
        92   03 Jun 2027 04:59:10.535   03 Jun 2027 04:59:42.262            31.727                Norilsk          3965.875
        93   03 Jun 2027 05:00:19.149   03 Jun 2027 05:02:12.450           113.301              Murmansk1         14162.625
        94   03 Jun 2027 06:14:57.105   03 Jun 2027 06:17:18.226           141.121                  Delhi         17640.125
        95   03 Jun 2027 06:23:06.431   03 Jun 2027 06:26:39.074           212.643                Novosib         26580.375
        96   03 Jun 2027 06:26:50.258   03 Jun 2027 06:27:28.969            38.711                 Moscow          4838.875
        97   03 Jun 2027 06:32:15.452   03 Jun 2027 06:35:40.002           204.550                 Moscow         25568.750
        98   03 Jun 2027 06:35:43.019   03 Jun 2027 06:36:57.602            74.583                Norilsk          9322.875
        99   03 Jun 2027 06:37:27.923   03 Jun 2027 06:37:38.048            10.125                Norilsk          1265.625
       100   03 Jun 2027 06:37:58.718   03 Jun 2027 06:38:40.397            41.679              Murmansk1          5209.875
       101   03 Jun 2027 06:38:54.736   03 Jun 2027 06:39:05.571            10.835              Murmansk1          1354.375
       102   03 Jun 2027 08:02:09.227   03 Jun 2027 08:04:56.903           167.676                 Moscow         20959.500
       103   03 Jun 2027 08:07:32.511   03 Jun 2027 08:08:46.183            73.672              Murmansk1          9209.000
       104   03 Jun 2027 08:08:54.667   03 Jun 2027 08:13:01.369           246.702                Norilsk         30837.750
       105   03 Jun 2027 08:13:11.892   03 Jun 2027 08:14:00.619            48.727              Murmansk2          6090.875
       106   03 Jun 2027 08:15:13.721   03 Jun 2027 08:15:14.890             1.169              Murmansk2           146.125
       107   03 Jun 2027 09:17:10.472   03 Jun 2027 09:18:58.769           108.297               CapeTown         13537.125
       108   03 Jun 2027 09:39:52.163   03 Jun 2027 09:42:36.838           164.675              Murmansk1         20584.375
       109   03 Jun 2027 09:42:36.838   03 Jun 2027 09:45:07.504           150.666              Murmansk2         18833.250
       110   03 Jun 2027 09:53:13.404   03 Jun 2027 09:54:55.333           101.929                Anadyr1         12741.125
       111   03 Jun 2027 09:56:34.572   03 Jun 2027 09:58:19.190           104.618                Anadyr2         13077.250
       112   03 Jun 2027 09:58:28.781   03 Jun 2027 10:02:45.886           257.105                Anadyr1         32138.125
       113   03 Jun 2027 11:28:54.120   03 Jun 2027 11:29:04.060             9.940                Anadyr1          1242.500
       114   03 Jun 2027 11:30:08.746   03 Jun 2027 11:30:23.980            15.234                Anadyr1          1904.250
       115   03 Jun 2027 11:31:54.879   03 Jun 2027 11:37:35.025           340.146               Magadan2         42518.250
       116   03 Jun 2027 13:07:07.904   03 Jun 2027 13:07:38.082            30.178               Magadan1          3772.250
       117   03 Jun 2027 13:07:46.377   03 Jun 2027 13:10:09.332           142.955               Magadan2         17869.375
       118   03 Jun 2027 13:10:37.953   03 Jun 2027 13:12:00.115            82.162               Magadan2         10270.250
       119   03 Jun 2027 15:02:37.635   03 Jun 2027 15:05:21.264           163.629                Sumatra         20453.625
       120   03 Jun 2027 15:11:08.493   03 Jun 2027 15:11:17.352             8.859                Sumatra          1107.375
       121   03 Jun 2027 15:34:38.075   03 Jun 2027 15:35:57.908            79.833            RioGallegos          9979.125
       122   03 Jun 2027 15:44:10.907   03 Jun 2027 15:44:13.205             2.298            RioGallegos           287.250
       123   03 Jun 2027 15:44:37.809   03 Jun 2027 15:45:14.908            37.099            RioGallegos          4637.375
       124   03 Jun 2027 16:26:00.414   03 Jun 2027 16:27:22.464            82.050                Irkutsk         10256.250
       125   03 Jun 2027 16:36:27.467   03 Jun 2027 16:37:11.713            44.246                Sumatra          5530.750
       126   03 Jun 2027 16:37:43.759   03 Jun 2027 16:39:27.500           103.741                  Delhi         12967.625
       127   03 Jun 2027 16:44:07.692   03 Jun 2027 16:44:55.758            48.066                Sumatra          6008.250
       128   03 Jun 2027 17:58:21.516   03 Jun 2027 17:58:47.670            26.154                Novosib          3269.250
       129   03 Jun 2027 17:59:58.255   03 Jun 2027 18:01:38.739           100.484                Novosib         12560.500
       130   03 Jun 2027 18:05:41.364   03 Jun 2027 18:07:28.197           106.833                  Delhi         13354.125
       131   03 Jun 2027 19:39:58.258   03 Jun 2027 19:40:02.510             4.252                 Moscow           531.500
       132   03 Jun 2027 19:41:40.965   03 Jun 2027 19:42:25.368            44.403                 Moscow          5550.375
       133   03 Jun 2027 21:10:46.416   03 Jun 2027 21:11:46.384            59.968              Murmansk2          7496.000
       134   03 Jun 2027 21:11:52.977   03 Jun 2027 21:12:13.245            20.268                 Moscow          2533.500
       135   03 Jun 2027 21:17:17.882   03 Jun 2027 21:17:39.127            21.245                 Moscow          2655.625
       136   03 Jun 2027 21:36:32.592   03 Jun 2027 21:37:24.049            51.457               CapeTown          6432.125
       137   03 Jun 2027 21:40:44.817   03 Jun 2027 21:43:37.664           172.847               CapeTown         21605.875
       138   04 Jun 2027 03:08:00.808   04 Jun 2027 03:12:21.307           260.499                Sumatra         15236.874
       139   04 Jun 2027 03:32:49.415   04 Jun 2027 03:33:19.539            30.124                Norilsk          3765.500
       140   04 Jun 2027 04:42:34.957   04 Jun 2027 04:43:11.286            36.329                Sumatra          4541.125
       141   04 Jun 2027 04:44:33.084   04 Jun 2027 04:46:59.837           146.753                Sumatra         18344.125
       142   04 Jun 2027 05:07:55.449   04 Jun 2027 05:08:48.315            52.866              Murmansk1          6608.250
       143   04 Jun 2027 05:08:48.315   04 Jun 2027 05:09:10.912            22.597              Murmansk2          2824.625
       144   04 Jun 2027 05:09:25.907   04 Jun 2027 05:11:09.334           103.427                 Moscow         12928.375
       145   04 Jun 2027 05:12:09.626   04 Jun 2027 05:14:02.079           112.453              Murmansk1         14056.625
       146   04 Jun 2027 06:27:21.783   04 Jun 2027 06:29:04.244           102.461                  Delhi         12807.625
       147   04 Jun 2027 06:35:41.208   04 Jun 2027 06:39:47.924           246.716                Novosib         30839.500
       148   04 Jun 2027 06:44:38.592   04 Jun 2027 06:45:08.900            30.308              Murmansk2          3788.500
       149   04 Jun 2027 06:45:09.087   04 Jun 2027 06:47:44.147           155.060                 Moscow         19382.500
       150   04 Jun 2027 06:47:46.189   04 Jun 2027 06:49:38.666           112.477                Norilsk         14059.625
       151   04 Jun 2027 08:14:04.331   04 Jun 2027 08:16:38.781           154.450                 Moscow         19306.250
       152   04 Jun 2027 08:17:38.221   04 Jun 2027 08:18:35.727            57.506                 Moscow          7188.250
       153   04 Jun 2027 08:18:52.871   04 Jun 2027 08:20:39.346           106.475                 Moscow         13309.375
       154   04 Jun 2027 08:22:38.693   04 Jun 2027 08:25:05.917           147.224              Murmansk2         18403.000
       155   04 Jun 2027 08:31:07.137   04 Jun 2027 08:34:25.063           197.926                Anadyr1         24740.750
       156   04 Jun 2027 09:30:10.648   04 Jun 2027 09:30:25.437            14.789               CapeTown          1848.625
       157   04 Jun 2027 09:58:32.086   04 Jun 2027 10:00:14.353           102.267              Murmansk1         12783.375
       158   04 Jun 2027 10:05:10.727   04 Jun 2027 10:06:20.498            69.771                Anadyr2          8721.375
       159   04 Jun 2027 10:09:17.187   04 Jun 2027 10:14:43.738           326.551                Anadyr1         40818.875
       160   04 Jun 2027 11:43:45.411   04 Jun 2027 11:45:48.365           122.954               Magadan1         15369.250
       161   04 Jun 2027 13:19:07.991   04 Jun 2027 13:19:31.151            23.160               Magadan2          2895.000
       162   04 Jun 2027 13:20:20.003   04 Jun 2027 13:22:18.536           118.533               Magadan1         14816.625
       163   04 Jun 2027 15:13:36.074   04 Jun 2027 15:21:35.615           479.541                Sumatra         59942.625
       164   04 Jun 2027 16:38:43.225   04 Jun 2027 16:41:08.944           145.719                Novosib         18214.875
       165   04 Jun 2027 16:48:33.114   04 Jun 2027 16:52:29.938           236.824                  Delhi         29603.000
       166   04 Jun 2027 18:19:04.486   04 Jun 2027 18:20:52.673           108.187                  Delhi         13523.375
       167   04 Jun 2027 19:52:53.548   04 Jun 2027 19:53:38.871            45.323                 Moscow          5665.375
       168   04 Jun 2027 21:26:14.843   04 Jun 2027 21:27:12.248            57.405                 Moscow          7175.625
       169   04 Jun 2027 21:36:05.317   04 Jun 2027 21:36:45.030            39.713                 Moscow          4964.125
       170   04 Jun 2027 21:47:54.706   04 Jun 2027 21:48:54.567            59.861               CapeTown          7482.625
       171   04 Jun 2027 21:50:24.653   04 Jun 2027 21:50:56.052            31.399               CapeTown          3924.875
       172   04 Jun 2027 21:55:38.736   04 Jun 2027 21:55:43.599             4.863               CapeTown           607.875
       173   04 Jun 2027 21:57:39.057   04 Jun 2027 21:58:10.223            31.166               CapeTown          3895.750
       174   05 Jun 2027 03:19:21.091   05 Jun 2027 03:20:36.016            74.925                Sumatra          9365.625
       175   05 Jun 2027 03:21:54.806   05 Jun 2027 03:26:42.715           287.909                Sumatra          5897.125
       176   05 Jun 2027 04:56:45.882   05 Jun 2027 04:59:02.387           136.505                Sumatra         17063.125
       177   05 Jun 2027 05:20:30.339   05 Jun 2027 05:23:18.346           168.007                 Moscow         21000.875
       178   05 Jun 2027 05:24:00.824   05 Jun 2027 05:24:20.565            19.741              Murmansk2          2467.625
       179   05 Jun 2027 05:24:44.528   05 Jun 2027 05:25:31.813            47.285              Murmansk1          5910.625
       180   05 Jun 2027 06:41:38.389   05 Jun 2027 06:42:01.048            22.659                  Delhi          2832.375
       181   05 Jun 2027 06:48:22.722   05 Jun 2027 06:51:22.882           180.160                Novosib         22520.000
       182   05 Jun 2027 06:51:41.155   05 Jun 2027 06:52:05.922            24.767                 Moscow          3095.875
       183   05 Jun 2027 06:56:07.716   05 Jun 2027 06:56:41.508            33.792                Norilsk          4224.000
       184   05 Jun 2027 06:56:42.304   05 Jun 2027 06:56:57.586            15.282                 Moscow          1910.250
       185   05 Jun 2027 06:56:59.348   05 Jun 2027 07:01:33.339           273.991              Murmansk2         34248.875
       186   05 Jun 2027 08:23:38.971   05 Jun 2027 08:27:37.617           238.646                 Moscow         29830.750
       187   05 Jun 2027 08:29:40.321   05 Jun 2027 08:29:41.761             1.440              Murmansk2           180.000
       188   05 Jun 2027 08:30:12.298   05 Jun 2027 08:31:05.972            53.674              Murmansk2          6709.250
       189   05 Jun 2027 08:31:07.229   05 Jun 2027 08:32:03.920            56.691                 Moscow          7086.375
       190   05 Jun 2027 08:34:38.960   05 Jun 2027 08:36:28.530           109.570              Murmansk2         13696.250
       191   05 Jun 2027 08:42:29.560   05 Jun 2027 08:47:43.298           313.738                Anadyr1         39217.250
       192   05 Jun 2027 10:17:08.935   05 Jun 2027 10:18:00.284            51.349                Anadyr2          6418.625
       193   05 Jun 2027 10:21:54.738   05 Jun 2027 10:23:41.178           106.440                Anadyr1         13305.000
       194   05 Jun 2027 10:24:41.802   05 Jun 2027 10:26:42.521           120.719                Anadyr1         15089.875
       195   05 Jun 2027 12:04:58.513   05 Jun 2027 12:06:21.433            82.920               Magadan1         10365.000
       196   05 Jun 2027 13:31:08.547   05 Jun 2027 13:31:25.958            17.411               Magadan1          2176.375
       197   05 Jun 2027 13:32:48.950   05 Jun 2027 13:33:23.068            34.118               Magadan2          4264.750
       198   05 Jun 2027 13:34:25.033   05 Jun 2027 13:36:16.024           110.991               Magadan1         13873.875
       199   05 Jun 2027 15:12:35.087   05 Jun 2027 15:16:00.067           204.980                Irkutsk         25622.500
       200   05 Jun 2027 15:26:50.282   05 Jun 2027 15:32:03.954           313.672                Sumatra         39209.000
       201   05 Jun 2027 16:55:05.007   05 Jun 2027 17:03:07.732           482.725                  Delhi         60340.625
       202   05 Jun 2027 20:05:26.210   05 Jun 2027 20:05:35.517             9.307                 Moscow          1163.375
       203   05 Jun 2027 20:07:54.706   05 Jun 2027 20:11:13.268           198.562                 Moscow         24820.250
       204   05 Jun 2027 22:00:07.635   05 Jun 2027 22:02:39.730           152.095               CapeTown         15475.750
       205   06 Jun 2027 05:08:19.763   06 Jun 2027 05:09:15.247            55.484                Sumatra          6935.500
       206   06 Jun 2027 05:19:54.824   06 Jun 2027 05:20:22.772            27.948                  Delhi          3493.500
       207   06 Jun 2027 05:21:54.945   06 Jun 2027 05:24:12.931           137.986                  Delhi         17248.250
       208   06 Jun 2027 05:32:36.018   06 Jun 2027 05:35:26.249           170.231                 Moscow         21278.875
       209   06 Jun 2027 05:35:52.761   06 Jun 2027 05:37:37.910           105.149              Murmansk1         13143.625
       210   06 Jun 2027 05:37:41.088   06 Jun 2027 05:37:45.866             4.778                Norilsk           597.250
       211   06 Jun 2027 07:01:03.477   06 Jun 2027 07:01:21.370            17.893                 Moscow          2236.625
       212   06 Jun 2027 07:01:41.755   06 Jun 2027 07:02:18.230            36.475                Novosib          4559.375
       213   06 Jun 2027 07:03:03.985   06 Jun 2027 07:04:04.848            60.863                 Moscow          7607.875
       214   06 Jun 2027 07:08:08.095   06 Jun 2027 07:08:47.161            39.066                 Moscow          4883.250
       215   06 Jun 2027 07:09:00.644   06 Jun 2027 07:09:08.295             7.651                Norilsk           956.375
       216   06 Jun 2027 07:09:11.270   06 Jun 2027 07:10:31.315            80.045              Murmansk2         10005.625
       217   06 Jun 2027 07:10:32.947   06 Jun 2027 07:13:00.099           147.152              Murmansk2         18394.000
       218   06 Jun 2027 08:16:29.903   06 Jun 2027 08:20:25.466           235.563               CapeTown         29445.375
       219   06 Jun 2027 08:35:19.136   06 Jun 2027 08:35:49.636            30.500                 Moscow          3812.500
       220   06 Jun 2027 08:36:01.880   06 Jun 2027 08:37:09.080            67.200                 Moscow          8400.000
       221   06 Jun 2027 08:38:01.149   06 Jun 2027 08:39:40.110            98.961                 Moscow         12370.125
       222   06 Jun 2027 08:42:11.764   06 Jun 2027 08:43:36.181            84.417              Murmansk1         10552.125
       223   06 Jun 2027 08:46:39.505   06 Jun 2027 08:47:55.543            76.038              Murmansk2          9504.750
       224   06 Jun 2027 08:54:08.401   06 Jun 2027 09:00:42.585           394.184                Anadyr1         49273.000
       225   06 Jun 2027 12:04:57.707   06 Jun 2027 12:05:00.732             3.025                Anadyr2           378.125
       226   06 Jun 2027 12:07:16.314   06 Jun 2027 12:08:10.388            54.074                Anadyr2          6759.250
       227   06 Jun 2027 12:08:52.541   06 Jun 2027 12:11:52.526           179.985               Magadan1         22498.125
       228   06 Jun 2027 12:16:19.627   06 Jun 2027 12:17:04.267            44.640               Magadan2          5580.000
       229   06 Jun 2027 13:43:09.512   06 Jun 2027 13:43:22.132            12.620               Magadan1          1577.500
       230   06 Jun 2027 13:46:28.941   06 Jun 2027 13:48:37.390           128.449               Magadan2         16056.125
       231   06 Jun 2027 14:38:15.862   06 Jun 2027 14:38:31.079            15.217            RioGallegos          1902.125
       232   06 Jun 2027 15:27:21.260   06 Jun 2027 15:29:54.043           152.783                Irkutsk         19097.875
       233   06 Jun 2027 15:36:48.776   06 Jun 2027 15:39:12.151           143.375                Sumatra         17921.875
       234   06 Jun 2027 15:42:16.758   06 Jun 2027 15:43:07.601            50.843                Sumatra          6355.375
       235   06 Jun 2027 16:58:31.274   06 Jun 2027 16:58:45.781            14.507                Irkutsk          1813.375
       236   06 Jun 2027 17:00:58.073   06 Jun 2027 17:03:53.243           175.170                Novosib         21896.250
       237   06 Jun 2027 17:06:38.771   06 Jun 2027 17:08:15.296            96.525                Novosib         12065.625
       238   06 Jun 2027 17:09:10.167   06 Jun 2027 17:13:25.407           255.240                  Delhi         31905.000
       239   06 Jun 2027 18:47:22.224   06 Jun 2027 18:48:21.663            59.439                  Delhi          7429.875
       240   06 Jun 2027 20:12:11.561   06 Jun 2027 20:13:33.251            81.690                 Moscow         10211.250
       241   06 Jun 2027 20:14:39.054   06 Jun 2027 20:17:16.674           157.620                 Moscow         19702.500
       242   06 Jun 2027 20:20:58.964   06 Jun 2027 20:21:43.985            45.021                 Moscow          5627.625
       243   06 Jun 2027 22:14:41.116   06 Jun 2027 22:14:51.052             9.936               CapeTown          1242.000
       244   06 Jun 2027 22:16:35.159   06 Jun 2027 22:16:41.469             6.310               CapeTown           788.750
       245   06 Jun 2027 22:19:09.943   06 Jun 2027 22:19:47.185            37.242               CapeTown          1435.874
       246   07 Jun 2027 05:20:06.700   07 Jun 2027 05:21:25.760            79.060                Sumatra          9882.500
       247   07 Jun 2027 05:26:37.825   07 Jun 2027 05:27:20.940            43.115                  Delhi          5389.375
       248   07 Jun 2027 05:31:59.869   07 Jun 2027 05:34:11.543           131.674                  Delhi         16459.250
       249   07 Jun 2027 05:44:32.916   07 Jun 2027 05:45:17.257            44.341              Murmansk2          5542.625
       250   07 Jun 2027 05:45:20.096   07 Jun 2027 05:46:09.046            48.950                Novosib          6118.750
       251   07 Jun 2027 05:46:20.299   07 Jun 2027 05:47:33.285            72.986                 Moscow          9123.250
       252   07 Jun 2027 05:47:45.452   07 Jun 2027 05:50:01.395           135.943              Murmansk2         16992.875
       253   07 Jun 2027 07:11:12.792   07 Jun 2027 07:13:17.650           124.858                 Moscow         15607.250
       254   07 Jun 2027 07:15:11.678   07 Jun 2027 07:15:40.528            28.850                Novosib          3606.250
       255   07 Jun 2027 07:20:05.304   07 Jun 2027 07:20:08.941             3.637                Novosib           454.625
       256   07 Jun 2027 07:20:12.109   07 Jun 2027 07:20:40.412            28.303              Murmansk2          3537.875
       257   07 Jun 2027 07:21:23.394   07 Jun 2027 07:25:37.104           253.710                Norilsk         31713.750
       258   07 Jun 2027 07:25:57.929   07 Jun 2027 07:27:23.569            85.640              Murmansk2         10705.000
       259   07 Jun 2027 08:27:07.068   07 Jun 2027 08:34:05.893           418.825               CapeTown         52353.125
       260   07 Jun 2027 08:50:59.940   07 Jun 2027 08:52:03.021            63.081              Murmansk2          7885.125
       261   07 Jun 2027 08:53:42.774   07 Jun 2027 08:55:18.364            95.590              Murmansk1         11948.750
       262   07 Jun 2027 08:55:18.364   07 Jun 2027 08:57:03.782           105.418              Murmansk2         13177.250
       263   07 Jun 2027 08:58:40.284   07 Jun 2027 09:00:45.345           125.061              Murmansk2         15632.625
       264   07 Jun 2027 09:05:54.355   07 Jun 2027 09:12:02.327           367.972                Anadyr2         45996.500
       265   07 Jun 2027 09:12:49.990   07 Jun 2027 09:13:32.247            42.257                Anadyr1          5282.125
       266   07 Jun 2027 10:30:04.297   07 Jun 2027 10:31:53.966           109.669              Murmansk2         13708.625
       267   07 Jun 2027 10:45:48.378   07 Jun 2027 10:48:07.852           139.474               Magadan2         17434.250
       268   07 Jun 2027 12:19:29.071   07 Jun 2027 12:20:55.427            86.356               Magadan1         10794.500
       269   07 Jun 2027 12:24:33.110   07 Jun 2027 12:24:34.780             1.670               Magadan1           208.750
       270   07 Jun 2027 12:25:22.294   07 Jun 2027 12:28:45.349           203.055               Magadan2         25381.875
       271   07 Jun 2027 14:50:37.369   07 Jun 2027 14:51:44.918            67.549            RioGallegos          8443.625
       272   07 Jun 2027 15:34:52.987   07 Jun 2027 15:37:00.812           127.825                Irkutsk         15978.125
       273   07 Jun 2027 15:44:23.761   07 Jun 2027 15:46:08.845           105.084                Irkutsk         13135.500
       274   07 Jun 2027 15:48:35.949   07 Jun 2027 15:51:26.683           170.734                Sumatra         21341.750
       275   07 Jun 2027 17:10:40.200   07 Jun 2027 17:13:11.975           151.775                Novosib         18971.875
       276   07 Jun 2027 17:18:22.553   07 Jun 2027 17:24:32.254           369.701                  Delhi         46212.625
       277   07 Jun 2027 20:24:09.065   07 Jun 2027 20:25:11.262            62.197                 Moscow          7774.625
       278   07 Jun 2027 20:26:55.302   07 Jun 2027 20:29:09.487           134.185                 Moscow         14877.000
       279   08 Jun 2027 05:38:38.023   08 Jun 2027 05:40:40.848           122.825                  Delhi         15353.125
       280   08 Jun 2027 05:46:23.662   08 Jun 2027 05:48:16.551           112.889                  Delhi         14111.125
       281   08 Jun 2027 05:56:21.821   08 Jun 2027 05:58:05.525           103.704                Novosib         12963.000
       282   08 Jun 2027 05:58:17.195   08 Jun 2027 05:58:52.157            34.962              Murmansk1          4370.250
       283   08 Jun 2027 05:59:30.795   08 Jun 2027 05:59:39.600             8.805                 Moscow          1100.625
       284   08 Jun 2027 06:00:07.246   08 Jun 2027 06:01:05.441            58.195              Murmansk2          7274.375
       285   08 Jun 2027 07:23:07.210   08 Jun 2027 07:23:35.076            27.866                 Moscow          3483.250
       286   08 Jun 2027 07:32:04.770   08 Jun 2027 07:32:37.008            32.238              Murmansk1          4029.750
       287   08 Jun 2027 07:33:29.381   08 Jun 2027 07:37:34.812           245.431                Norilsk         30678.875
       288   08 Jun 2027 07:37:48.988   08 Jun 2027 07:39:25.018            96.030              Murmansk2         12003.750
       289   08 Jun 2027 08:38:20.345   08 Jun 2027 08:47:07.796           527.451               CapeTown         65931.375
       290   08 Jun 2027 08:59:54.370   08 Jun 2027 09:04:12.218           257.848                 Moscow         32231.000
       291   08 Jun 2027 09:05:44.213   08 Jun 2027 09:07:14.543            90.330              Murmansk2         11291.250
       292   08 Jun 2027 09:07:14.543   08 Jun 2027 09:08:39.296            84.753              Murmansk1         10594.125
       293   08 Jun 2027 09:10:41.273   08 Jun 2027 09:10:57.334            16.061              Murmansk2          2007.625
       294   08 Jun 2027 09:11:14.932   08 Jun 2027 09:12:00.447            45.515              Murmansk2          5689.375
       295   08 Jun 2027 09:17:44.453   08 Jun 2027 09:23:21.185           336.732                Anadyr2         42091.500
       296   08 Jun 2027 09:25:02.082   08 Jun 2027 09:26:15.306            73.224                Anadyr1          9153.000
       297   08 Jun 2027 10:42:08.356   08 Jun 2027 10:42:39.904            31.548              Murmansk2          3943.500
       298   08 Jun 2027 10:53:07.282   08 Jun 2027 10:55:33.884           146.602                Anadyr2         18325.250
       299   08 Jun 2027 10:57:05.199   08 Jun 2027 11:00:22.085           196.886               Magadan2         24610.750
       300   08 Jun 2027 12:31:26.289   08 Jun 2027 12:32:31.012            64.723               Magadan2          8090.375
       301   08 Jun 2027 12:36:53.776   08 Jun 2027 12:40:11.886           198.110               Magadan1         24763.750
       302   08 Jun 2027 12:40:39.891   08 Jun 2027 12:40:59.238            19.347               Magadan1          2418.375
       303   08 Jun 2027 14:59:16.070   08 Jun 2027 15:00:44.201            88.131            RioGallegos         11016.375
       304   08 Jun 2027 15:03:35.449   08 Jun 2027 15:04:35.675            60.226            RioGallegos          7528.250
       305   08 Jun 2027 15:46:48.472   08 Jun 2027 15:48:27.281            98.809                Irkutsk         12351.125
       306   08 Jun 2027 15:55:31.427   08 Jun 2027 15:56:20.431            49.004                Irkutsk          6125.500
       307   08 Jun 2027 16:00:29.132   08 Jun 2027 16:04:27.474           238.342                Sumatra         29792.750
       308   08 Jun 2027 16:10:00.408   08 Jun 2027 16:10:02.254             1.846                Sumatra           230.750
       309   08 Jun 2027 17:22:54.079   08 Jun 2027 17:23:36.796            42.717                Novosib          5339.625
       310   08 Jun 2027 17:25:27.464   08 Jun 2027 17:27:37.477           130.013                Novosib         16251.625
       311   08 Jun 2027 17:30:10.007   08 Jun 2027 17:32:40.201           150.194                  Delhi         18774.250
       312   08 Jun 2027 17:35:48.634   08 Jun 2027 17:35:56.547             7.913                  Delhi           989.125
       313   08 Jun 2027 19:06:28.731   08 Jun 2027 19:07:51.917            83.186                  Delhi         10398.250
       314   08 Jun 2027 20:35:14.070   08 Jun 2027 20:35:26.869            12.799              Murmansk1          1599.875
       315   08 Jun 2027 20:36:07.585   08 Jun 2027 20:38:29.921           142.336                 Moscow         17792.000
       316   08 Jun 2027 22:13:31.933   08 Jun 2027 22:14:14.909            42.976              Murmansk2          5372.000
       317   08 Jun 2027 22:19:56.544   08 Jun 2027 22:19:58.540             1.996                 Moscow           249.500
       318   08 Jun 2027 22:37:27.316   08 Jun 2027 22:38:04.479            37.163               CapeTown          3995.125
       319   09 Jun 2027 04:33:01.086   09 Jun 2027 04:33:08.823             7.737              Murmansk1           967.125
       320   09 Jun 2027 05:47:52.636   09 Jun 2027 05:48:39.924            47.288                Sumatra          5911.000
       321   09 Jun 2027 05:50:43.628   09 Jun 2027 05:52:04.588            80.960                  Delhi         10120.000
       322   09 Jun 2027 05:52:58.496   09 Jun 2027 05:55:32.096           153.600                  Delhi         19200.000
       323   09 Jun 2027 06:08:32.264   09 Jun 2027 06:08:45.513            13.249                 Moscow          1656.125
       324   09 Jun 2027 06:08:47.460   09 Jun 2027 06:10:57.820           130.360              Murmansk1         16295.000
       325   09 Jun 2027 06:11:33.056   09 Jun 2027 06:13:52.465           139.409              Murmansk2         17426.125
       326   09 Jun 2027 07:35:04.374   09 Jun 2027 07:35:25.505            21.131                 Moscow          2641.375
       327   09 Jun 2027 07:45:01.785   09 Jun 2027 07:49:31.068           269.283                Norilsk         33660.375
       328   09 Jun 2027 07:49:40.783   09 Jun 2027 07:51:26.572           105.789              Murmansk1         13223.625
       329   09 Jun 2027 08:49:48.466   09 Jun 2027 08:59:52.560           604.094               CapeTown         75511.750
       330   09 Jun 2027 09:12:18.018   09 Jun 2027 09:15:24.811           186.793                 Moscow         23349.125
       331   09 Jun 2027 09:15:29.641   09 Jun 2027 09:15:49.192            19.551              Murmansk2          2443.875
       332   09 Jun 2027 09:16:45.471   09 Jun 2027 09:17:05.008            19.537              Murmansk2          2442.125
       333   09 Jun 2027 09:17:45.747   09 Jun 2027 09:19:35.178           109.431              Murmansk1         13678.875
       334   09 Jun 2027 09:19:40.524   09 Jun 2027 09:21:44.234           123.710              Murmansk2         15463.750
       335   09 Jun 2027 09:22:42.442   09 Jun 2027 09:24:46.179           123.737              Murmansk2         15467.125
       336   09 Jun 2027 09:29:37.289   09 Jun 2027 09:34:58.841           321.552                Anadyr2         40194.000
       337   09 Jun 2027 09:36:56.577   09 Jun 2027 09:38:53.226           116.649                Anadyr1         14581.125
       338   09 Jun 2027 11:05:22.797   09 Jun 2027 11:05:25.030             2.233                Anadyr2           279.125
       339   09 Jun 2027 11:08:39.700   09 Jun 2027 11:12:11.275           211.575               Magadan2         26446.875
       340   09 Jun 2027 12:43:24.426   09 Jun 2027 12:44:14.134            49.708               Magadan1          6213.500
       341   09 Jun 2027 12:47:59.906   09 Jun 2027 12:52:48.409           288.503               Magadan2         36062.875
       342   09 Jun 2027 15:11:01.134   09 Jun 2027 15:13:31.230           150.096            RioGallegos         18762.000
       343   09 Jun 2027 15:58:45.420   09 Jun 2027 15:59:59.640            74.220                Irkutsk          9277.500
       344   09 Jun 2027 16:12:27.966   09 Jun 2027 16:15:08.142           160.176                Sumatra         20022.000
       345   09 Jun 2027 16:19:58.538   09 Jun 2027 16:22:05.555           127.017                Sumatra         15877.125
       346   09 Jun 2027 17:37:18.070   09 Jun 2027 17:37:39.474            21.404                Novosib          2675.500
       347   09 Jun 2027 17:41:38.710   09 Jun 2027 17:44:10.729           152.019                Novosib         19002.375
       348   09 Jun 2027 17:50:09.721   09 Jun 2027 17:51:32.467            82.746                  Delhi         10343.250
       349   09 Jun 2027 20:44:51.925   09 Jun 2027 20:45:30.023            38.098              Murmansk2          4762.250
       350   09 Jun 2027 20:48:06.980   09 Jun 2027 20:48:43.536            36.556                 Moscow          4569.500
       351   09 Jun 2027 20:49:06.399   09 Jun 2027 20:49:35.614            29.215              Murmansk1          3651.875
       352   09 Jun 2027 20:51:17.404   09 Jun 2027 20:53:00.267           102.863                 Moscow         12857.875
       353   09 Jun 2027 21:17:31.188   09 Jun 2027 21:17:54.098            22.910               CapeTown          2863.750
       354   10 Jun 2027 03:08:59.156   10 Jun 2027 03:14:02.430           303.274              Murmansk2         37909.250
       355   10 Jun 2027 04:18:29.481   10 Jun 2027 04:20:40.081           130.600                Sumatra         16325.000
       356   10 Jun 2027 04:26:06.993   10 Jun 2027 04:28:09.351           122.358                Sumatra         15294.750
       357   10 Jun 2027 04:43:35.918   10 Jun 2027 04:44:11.295            35.377                Novosib          4422.125
       358   10 Jun 2027 04:44:56.361   10 Jun 2027 04:50:26.217           329.856              Murmansk1         41232.000
       359   10 Jun 2027 06:02:54.934   10 Jun 2027 06:07:26.420           271.486                  Delhi         33935.750
       360   10 Jun 2027 06:10:52.731   10 Jun 2027 06:14:38.130           225.399                Novosib         28174.875
       361   10 Jun 2027 06:14:42.575   10 Jun 2027 06:16:07.240            84.665                 Moscow         10583.125
       362   10 Jun 2027 06:20:46.094   10 Jun 2027 06:21:14.273            28.179              Murmansk2          3522.375
       363   10 Jun 2027 06:21:20.017   10 Jun 2027 06:21:53.937            33.920                Novosib          4240.000
       364   10 Jun 2027 06:22:14.590   10 Jun 2027 06:23:50.439            95.849                 Moscow         11981.125
       365   10 Jun 2027 06:24:27.088   10 Jun 2027 06:25:40.535            73.447              Murmansk2          9180.875
       366   10 Jun 2027 07:47:04.355   10 Jun 2027 07:48:14.873            70.518                 Moscow          8814.750
       367   10 Jun 2027 07:50:10.752   10 Jun 2027 07:50:23.306            12.554                 Moscow          1569.250
       368   10 Jun 2027 07:51:32.627   10 Jun 2027 07:51:34.861             2.234                 Moscow           279.250
       369   10 Jun 2027 07:52:04.704   10 Jun 2027 07:52:29.219            24.515              Murmansk1          3064.375
       370   10 Jun 2027 07:55:41.609   10 Jun 2027 07:59:58.592           256.983                 Moscow         32122.875
       371   10 Jun 2027 08:00:13.046   10 Jun 2027 08:03:28.213           195.167              Murmansk2         24395.875
       372   10 Jun 2027 09:01:25.505   10 Jun 2027 09:08:01.946           396.441               CapeTown         49555.125
       373   10 Jun 2027 09:27:26.897   10 Jun 2027 09:27:59.984            33.087                 Moscow          4135.875
       374   10 Jun 2027 09:29:02.092   10 Jun 2027 09:29:47.361            45.269              Murmansk1          5658.625
       375   10 Jun 2027 09:29:47.361   10 Jun 2027 09:31:22.218            94.857              Murmansk2         11857.125
       376   10 Jun 2027 09:31:22.218   10 Jun 2027 09:32:36.168            73.950              Murmansk1          9243.750
       377   10 Jun 2027 09:36:44.009   10 Jun 2027 09:37:16.831            32.822              Murmansk1          4102.750
       378   10 Jun 2027 09:37:36.581   10 Jun 2027 09:37:37.858             1.277              Murmansk1           159.625
       379   10 Jun 2027 09:41:32.074   10 Jun 2027 09:46:44.159           312.085                Anadyr1         39010.625
       380   10 Jun 2027 09:48:48.823   10 Jun 2027 09:51:03.469           134.646                Anadyr2         16830.750
       381   10 Jun 2027 11:10:41.800   10 Jun 2027 11:12:26.519           104.719              Murmansk2         13089.875
       382   10 Jun 2027 11:17:08.241   10 Jun 2027 11:17:55.131            46.890                Anadyr1          5861.250
       383   10 Jun 2027 11:20:22.258   10 Jun 2027 11:23:56.368           214.110               Magadan2         26763.750
       384   10 Jun 2027 12:55:23.326   10 Jun 2027 12:56:01.843            38.517               Magadan1          4814.625
       385   10 Jun 2027 12:57:45.819   10 Jun 2027 13:00:17.815           151.996               Magadan2         18999.500
       386   10 Jun 2027 14:31:16.375   10 Jun 2027 14:32:06.428            50.053               Magadan2          6256.625
       387   10 Jun 2027 14:39:18.222   10 Jun 2027 14:40:50.652            92.430               Magadan2         11553.750
       388   10 Jun 2027 14:51:45.214   10 Jun 2027 14:52:33.259            48.045                Sumatra          6005.625
       389   10 Jun 2027 15:22:56.283   10 Jun 2027 15:24:42.478           106.195            RioGallegos         13274.375
       390   10 Jun 2027 16:11:40.058   10 Jun 2027 16:12:37.883            57.825                Irkutsk          7228.125
       391   10 Jun 2027 16:13:47.889   10 Jun 2027 16:15:41.930           114.041                Irkutsk         14255.125
       392   10 Jun 2027 16:24:32.411   10 Jun 2027 16:26:16.657           104.246                Sumatra         13030.750
       393   10 Jun 2027 16:32:13.755   10 Jun 2027 16:34:14.650           120.895                Sumatra         15111.875
       394   10 Jun 2027 17:50:30.753   10 Jun 2027 17:51:28.861            58.108                Novosib          7263.500
       395   10 Jun 2027 17:53:57.353   10 Jun 2027 17:56:30.191           152.838                  Delhi         19104.750
       396   10 Jun 2027 19:31:24.610   10 Jun 2027 19:31:36.109            11.499                  Delhi          1437.375
       397   10 Jun 2027 21:00:07.142   10 Jun 2027 21:03:23.646           196.504                 Moscow         24563.000
       398   10 Jun 2027 21:27:13.560   10 Jun 2027 21:29:12.639           119.079               CapeTown         14884.875
       399   11 Jun 2027 02:57:19.961   11 Jun 2027 02:59:05.529           105.568                Sumatra         13196.000
       400   11 Jun 2027 03:20:46.491   11 Jun 2027 03:21:48.800            62.309              Murmansk2          7788.625
       401   11 Jun 2027 04:30:36.806   11 Jun 2027 04:31:56.842            80.036                Sumatra         10004.500
       402   11 Jun 2027 04:33:30.702   11 Jun 2027 04:35:20.877           110.175                Sumatra         13771.875
       403   11 Jun 2027 04:55:22.371   11 Jun 2027 04:55:39.514            17.143              Murmansk1          2142.875
       404   11 Jun 2027 04:56:44.258   11 Jun 2027 04:57:26.132            41.874              Murmansk2          5234.250
       405   11 Jun 2027 04:57:42.175   11 Jun 2027 04:59:34.744           112.569                Norilsk         14071.125
       406   11 Jun 2027 04:59:59.359   11 Jun 2027 05:01:41.305           101.946                Norilsk         12743.250
       407   11 Jun 2027 05:02:28.830   11 Jun 2027 05:03:13.146            44.316              Murmansk1          5539.500
       408   11 Jun 2027 06:15:12.525   11 Jun 2027 06:17:32.973           140.448                  Delhi         17556.000
       409   11 Jun 2027 06:23:22.072   11 Jun 2027 06:26:54.201           212.129                Novosib         26516.125
       410   11 Jun 2027 06:27:07.736   11 Jun 2027 06:27:45.175            37.439                 Moscow          4679.875
       411   11 Jun 2027 06:32:32.269   11 Jun 2027 06:33:30.493            58.224                 Moscow          7278.000
       412   11 Jun 2027 06:33:32.399   11 Jun 2027 06:37:14.221           221.822                Norilsk         27727.750
       413   11 Jun 2027 06:37:29.129   11 Jun 2027 06:38:13.770            44.641              Murmansk2          5580.125
       414   11 Jun 2027 06:38:55.044   11 Jun 2027 06:39:12.325            17.281              Murmansk2          2160.125
       415   11 Jun 2027 06:39:20.030   11 Jun 2027 06:39:34.454            14.424              Murmansk2          1803.000
       416   11 Jun 2027 08:02:24.225   11 Jun 2027 08:05:15.143           170.918                 Moscow         21364.750
       417   11 Jun 2027 08:07:47.169   11 Jun 2027 08:14:17.824           390.655              Murmansk1         48831.875
       418   11 Jun 2027 08:15:28.441   11 Jun 2027 08:15:29.913             1.472              Murmansk2           184.000
       419   11 Jun 2027 09:17:26.528   11 Jun 2027 09:19:12.908           106.380               CapeTown         13297.500
       420   11 Jun 2027 09:40:07.578   11 Jun 2027 09:41:49.023           101.445              Murmansk1         12680.625
       421   11 Jun 2027 09:42:13.704   11 Jun 2027 09:42:38.225            24.521              Murmansk2          3065.125
       422   11 Jun 2027 09:43:06.077   11 Jun 2027 09:43:23.925            17.848              Murmansk2          2231.000
       423   11 Jun 2027 09:44:18.902   11 Jun 2027 09:45:24.438            65.536              Murmansk2          8192.000
       424   11 Jun 2027 09:53:28.302   11 Jun 2027 09:55:09.311           101.009                Anadyr1         12626.125
       425   11 Jun 2027 09:56:50.189   11 Jun 2027 09:58:33.851           103.662                Anadyr2         12957.750
       426   11 Jun 2027 09:58:44.808   11 Jun 2027 10:03:00.612           255.804                Anadyr1         31975.500
       427   11 Jun 2027 11:29:09.118   11 Jun 2027 11:29:18.733             9.615                Anadyr1          1201.875
       428   11 Jun 2027 11:32:09.611   11 Jun 2027 11:37:57.286           347.675               Magadan1         43459.375
       429   11 Jun 2027 11:38:28.376   11 Jun 2027 11:39:30.501            62.125               Magadan2          7765.625
       430   11 Jun 2027 13:07:22.878   11 Jun 2027 13:07:52.671            29.793               Magadan2          3724.125
       431   11 Jun 2027 13:08:01.605   11 Jun 2027 13:10:24.539           142.934               Magadan1         17866.750
       432   11 Jun 2027 13:10:53.334   11 Jun 2027 13:14:25.533           212.199               Magadan1         26524.875
       433   11 Jun 2027 15:02:49.305   11 Jun 2027 15:05:48.290           178.985                Sumatra         22373.125
       434   11 Jun 2027 15:11:16.709   11 Jun 2027 15:11:31.613            14.904                Sumatra          1863.000
       435   11 Jun 2027 16:36:42.732   11 Jun 2027 16:37:23.303            40.571                Sumatra          5071.375
       436   11 Jun 2027 16:37:56.572   11 Jun 2027 16:39:44.074           107.502                  Delhi         13437.750
       437   11 Jun 2027 17:58:36.511   11 Jun 2027 18:00:13.391            96.880                Novosib         12110.000
       438   11 Jun 2027 18:01:53.813   11 Jun 2027 18:02:13.431            19.618                Novosib          2452.250
       439   11 Jun 2027 18:05:56.359   11 Jun 2027 18:07:42.345           105.986                  Delhi         13248.250
       440   11 Jun 2027 18:09:09.054   11 Jun 2027 18:10:59.453           110.399                  Delhi         13799.875
       441   11 Jun 2027 19:40:13.971   11 Jun 2027 19:42:10.412           116.441                 Moscow         14555.125
       442   11 Jun 2027 21:12:07.984   11 Jun 2027 21:14:06.208           118.224                 Moscow         14778.000
       443   11 Jun 2027 21:41:35.263   11 Jun 2027 21:43:52.611           137.348               CapeTown         17168.500
       444   12 Jun 2027 03:08:10.698   12 Jun 2027 03:12:55.475           284.777                Sumatra         15112.876
       445   12 Jun 2027 03:32:45.940   12 Jun 2027 03:33:08.761            22.821              Murmansk2          2852.625
       446   12 Jun 2027 04:42:50.294   12 Jun 2027 04:43:25.615            35.321                Sumatra          4415.125
       447   12 Jun 2027 04:44:48.213   12 Jun 2027 04:47:15.824           147.611                Sumatra         18451.375
       448   12 Jun 2027 05:07:28.001   12 Jun 2027 05:07:36.215             8.214                 Moscow          1026.750
       449   12 Jun 2027 05:08:14.130   12 Jun 2027 05:08:47.538            33.408              Murmansk2          4176.000
       450   12 Jun 2027 05:08:57.650   12 Jun 2027 05:11:24.493           146.843                 Moscow         18355.375
       451   12 Jun 2027 05:12:24.150   12 Jun 2027 05:14:16.571           112.421              Murmansk1         14052.625
       452   12 Jun 2027 06:27:37.369   12 Jun 2027 06:29:18.888           101.519                  Delhi         12689.875
       453   12 Jun 2027 06:35:56.973   12 Jun 2027 06:39:14.086           197.113                Novosib         24639.125
       454   12 Jun 2027 06:44:59.972   12 Jun 2027 06:46:05.262            65.290              Murmansk1          8161.250
       455   12 Jun 2027 06:46:14.152   12 Jun 2027 06:49:49.766           215.614                Norilsk         26951.750
       456   12 Jun 2027 06:50:01.173   12 Jun 2027 06:51:35.183            94.010              Murmansk1         11751.250
       457   12 Jun 2027 08:11:13.106   12 Jun 2027 08:11:47.759            34.653                 Moscow          4331.625
       458   12 Jun 2027 08:14:19.091   12 Jun 2027 08:20:54.535           395.444                 Moscow         49430.500
       459   12 Jun 2027 08:22:53.334   12 Jun 2027 08:25:20.670           147.336              Murmansk1         18417.000
       460   12 Jun 2027 08:31:20.896   12 Jun 2027 08:34:42.140           201.244                Anadyr1         25155.500
       461   12 Jun 2027 09:30:26.337   12 Jun 2027 09:30:39.777            13.440               CapeTown          1680.000
       462   12 Jun 2027 10:05:25.650   12 Jun 2027 10:09:06.147           220.497                Anadyr2         27562.125
       463   12 Jun 2027 10:09:32.705   12 Jun 2027 10:10:26.390            53.685                Anadyr1          6710.625
       464   12 Jun 2027 10:11:59.497   12 Jun 2027 10:14:58.676           179.179                Anadyr2         22397.375
       465   12 Jun 2027 13:19:22.978   12 Jun 2027 13:22:33.684           190.706               Magadan2         23838.250
       466   12 Jun 2027 13:23:46.677   12 Jun 2027 13:24:12.906            26.229               Magadan2          3278.625
       467   12 Jun 2027 15:03:10.211   12 Jun 2027 15:03:14.031             3.820                Irkutsk           477.500
       468   12 Jun 2027 15:13:50.376   12 Jun 2027 15:21:48.247           477.871                Sumatra         59733.875
       469   12 Jun 2027 16:38:38.252   12 Jun 2027 16:40:35.679           117.427                Novosib         14678.375
       470   12 Jun 2027 16:48:41.436   12 Jun 2027 16:52:46.003           244.567                  Delhi         30570.875
       471   12 Jun 2027 18:17:58.656   12 Jun 2027 18:19:09.472            70.816                  Delhi          8852.000
       472   12 Jun 2027 19:51:45.045   12 Jun 2027 19:53:09.167            84.122                 Moscow         10515.250
       473   12 Jun 2027 21:24:09.436   12 Jun 2027 21:24:22.880            13.444                 Moscow          1680.500
       474   12 Jun 2027 21:33:45.503   12 Jun 2027 21:36:20.289           154.786                 Moscow         19348.250
       475   12 Jun 2027 21:50:39.604   12 Jun 2027 21:52:51.368           131.764               CapeTown         16470.500
       476   13 Jun 2027 03:20:51.644   13 Jun 2027 03:22:12.856            81.212                Sumatra          4664.125
       477   13 Jun 2027 04:57:00.408   13 Jun 2027 04:59:17.276           136.868                Sumatra         17108.500
       478   13 Jun 2027 05:20:46.543   13 Jun 2027 05:23:33.483           166.940                 Moscow         20867.500
       479   13 Jun 2027 05:24:15.358   13 Jun 2027 05:24:38.387            23.029              Murmansk1          2878.625
       480   13 Jun 2027 05:24:59.284   13 Jun 2027 05:25:50.955            51.671              Murmansk1          6458.875
       481   13 Jun 2027 06:48:39.203   13 Jun 2027 06:49:05.455            26.252                 Moscow          3281.500
       482   13 Jun 2027 06:49:13.516   13 Jun 2027 06:51:38.151           144.635                Novosib         18079.375
