uniorb/output/strategy_4/Drop/Drop_KinoSat_110106.txt

KinoSat_110106
-------------------------
    Access    *     Start Time (UTCG)     *     Stop Time (UTCG)  *   Duration (s)        *       Station  *  Data (Mbytes)
         1   01 Jun 2027 03:59:23.560   01 Jun 2027 03:59:48.571            25.011                Norilsk          3126.375
         2   01 Jun 2027 03:59:52.612   01 Jun 2027 04:00:30.734            38.122                Novosib          4765.250
         3   01 Jun 2027 04:00:48.752   01 Jun 2027 04:01:16.044            27.292                Irkutsk          3411.500
         4   01 Jun 2027 04:01:18.655   01 Jun 2027 04:01:34.439            15.784              Murmansk2          1973.000
         5   01 Jun 2027 04:01:44.472   01 Jun 2027 04:02:29.136            44.664              Murmansk2          5583.000
         6   01 Jun 2027 04:02:40.091   01 Jun 2027 04:03:20.289            40.198                Norilsk          5024.750
         7   01 Jun 2027 04:03:24.154   01 Jun 2027 04:03:56.980            32.826                Norilsk          4103.250
         8   01 Jun 2027 04:05:18.842   01 Jun 2027 04:05:28.537             9.695                Norilsk          1211.875
         9   01 Jun 2027 04:06:57.442   01 Jun 2027 04:07:02.873             5.431                Norilsk           678.875
        10   01 Jun 2027 04:08:23.080   01 Jun 2027 04:08:48.416            25.336                Norilsk          3167.000
        11   01 Jun 2027 04:40:35.600   01 Jun 2027 04:40:59.626            24.026            RioGallegos          3003.250
        12   01 Jun 2027 04:41:42.864   01 Jun 2027 04:41:59.600            16.736            RioGallegos          2092.000
        13   01 Jun 2027 04:48:08.595   01 Jun 2027 04:48:39.386            30.791            RioGallegos          3848.875
        14   01 Jun 2027 05:14:48.907   01 Jun 2027 05:16:23.895            94.988                Sumatra         11873.500
        15   01 Jun 2027 05:21:40.806   01 Jun 2027 05:22:31.367            50.561                  Delhi          6320.125
        16   01 Jun 2027 05:27:10.136   01 Jun 2027 05:29:06.927           116.791                  Delhi         14598.875
        17   01 Jun 2027 05:38:43.675   01 Jun 2027 05:38:59.162            15.487                Norilsk          1935.875
        18   01 Jun 2027 05:39:11.890   01 Jun 2027 05:39:53.221            41.331              Murmansk1          5166.375
        19   01 Jun 2027 05:39:54.926   01 Jun 2027 05:40:04.540             9.614                Norilsk          1201.750
        20   01 Jun 2027 05:44:32.866   01 Jun 2027 05:44:54.895            22.029              Murmansk1          2753.625
        21   01 Jun 2027 07:00:17.182   01 Jun 2027 07:02:50.535           153.353                  Delhi         19169.125
        22   01 Jun 2027 07:05:31.346   01 Jun 2027 07:07:09.651            98.305                  Delhi         12288.125
        23   01 Jun 2027 07:13:43.001   01 Jun 2027 07:14:00.887            17.886              Murmansk1          2235.750
        24   01 Jun 2027 07:14:00.887   01 Jun 2027 07:14:08.278             7.391              Murmansk2           923.875
        25   01 Jun 2027 07:14:21.725   01 Jun 2027 07:14:47.150            25.425                Novosib          3178.125
        26   01 Jun 2027 07:14:49.003   01 Jun 2027 07:15:46.345            57.342                 Moscow          7167.750
        27   01 Jun 2027 07:16:03.513   01 Jun 2027 07:16:39.990            36.477                Norilsk          4559.625
        28   01 Jun 2027 07:16:58.858   01 Jun 2027 07:17:31.857            32.999              Murmansk1          4124.875
        29   01 Jun 2027 08:22:35.754   01 Jun 2027 08:28:33.252           357.498               CapeTown         44687.250
        30   01 Jun 2027 12:16:09.348   01 Jun 2027 12:16:10.817             1.469               Magadan1           183.625
        31   01 Jun 2027 12:19:18.774   01 Jun 2027 12:19:40.111            21.337               Magadan1          2667.125
        32   01 Jun 2027 12:22:40.473   01 Jun 2027 12:24:03.906            83.433               Magadan2         10429.125
        33   01 Jun 2027 13:50:11.747   01 Jun 2027 13:50:22.111            10.364               Magadan2          1295.500
        34   01 Jun 2027 13:52:28.375   01 Jun 2027 13:53:31.575            63.200               Magadan2          7900.000
        35   01 Jun 2027 14:43:18.923   01 Jun 2027 14:46:06.771           167.848            RioGallegos         20981.000
        36   01 Jun 2027 15:31:52.806   01 Jun 2027 15:32:39.946            47.140                Irkutsk          5892.500
        37   01 Jun 2027 15:43:42.023   01 Jun 2027 15:49:44.354           362.331                Sumatra         45291.375
        38   01 Jun 2027 17:13:30.748   01 Jun 2027 17:19:52.956           382.208                  Delhi         29864.625
        39   02 Jun 2027 04:53:17.781   02 Jun 2027 04:53:42.211            24.430            RioGallegos          3053.750
        40   02 Jun 2027 05:27:41.788   02 Jun 2027 05:28:39.888            58.100                Sumatra          7262.500
        41   02 Jun 2027 05:32:46.183   02 Jun 2027 05:32:55.999             9.816                Sumatra          1227.000
        42   02 Jun 2027 05:33:38.808   02 Jun 2027 05:36:00.246           141.438                  Delhi         17679.750
        43   02 Jun 2027 05:41:20.783   02 Jun 2027 05:43:15.537           114.754                  Delhi         14344.250
        44   02 Jun 2027 05:51:36.987   02 Jun 2027 05:56:45.592           308.605                Norilsk         38575.625
        45   02 Jun 2027 07:13:42.527   02 Jun 2027 07:15:26.708           104.181                  Delhi         13022.625
        46   02 Jun 2027 07:16:18.763   02 Jun 2027 07:16:45.466            26.703                  Delhi          3337.875
        47   02 Jun 2027 07:17:39.576   02 Jun 2027 07:18:44.005            64.429                  Delhi          8053.625
        48   02 Jun 2027 07:18:51.834   02 Jun 2027 07:19:35.487            43.653                 Moscow          5456.625
        49   02 Jun 2027 07:26:22.957   02 Jun 2027 07:26:41.916            18.959                Novosib          2369.875
        50   02 Jun 2027 07:26:51.768   02 Jun 2027 07:27:32.228            40.460                Norilsk          5057.500
        51   02 Jun 2027 07:28:05.375   02 Jun 2027 07:32:37.397           272.022                Norilsk         34002.750
        52   02 Jun 2027 07:32:54.186   02 Jun 2027 07:34:25.912            91.726              Murmansk1         11465.750
        53   02 Jun 2027 08:33:38.880   02 Jun 2027 08:41:46.291           487.411               CapeTown         60926.375
        54   02 Jun 2027 09:00:45.313   02 Jun 2027 09:02:18.748            93.435              Murmansk2         11679.375
        55   02 Jun 2027 09:02:18.748   02 Jun 2027 09:03:44.541            85.793              Murmansk1         10724.125
        56   02 Jun 2027 09:07:00.641   02 Jun 2027 09:07:51.781            51.140              Murmansk1          6392.500
        57   02 Jun 2027 09:12:49.706   02 Jun 2027 09:19:43.907           414.201                Anadyr1         51775.125
        58   02 Jun 2027 10:57:37.265   02 Jun 2027 10:57:43.391             6.126                Anadyr2           765.750
        59   02 Jun 2027 12:24:01.422   02 Jun 2027 12:24:02.521             1.099                Anadyr1           137.375
        60   02 Jun 2027 12:24:54.499   02 Jun 2027 12:26:43.853           109.354                Anadyr1         13669.250
        61   02 Jun 2027 12:28:32.440   02 Jun 2027 12:31:31.830           179.390               Magadan1         22423.750
        62   02 Jun 2027 12:34:40.243   02 Jun 2027 12:36:01.493            81.250               Magadan1         10156.250
        63   02 Jun 2027 14:02:13.234   02 Jun 2027 14:03:30.538            77.304               Magadan1          9663.000
        64   02 Jun 2027 14:06:58.194   02 Jun 2027 14:08:45.550           107.356               Magadan2         13419.500
        65   02 Jun 2027 14:58:14.937   02 Jun 2027 14:59:39.982            85.045            RioGallegos         10630.625
        66   02 Jun 2027 15:41:51.669   02 Jun 2027 15:43:44.038           112.369                Irkutsk         14046.125
        67   02 Jun 2027 15:50:05.915   02 Jun 2027 15:51:23.164            77.249                Irkutsk          9656.125
        68   02 Jun 2027 15:55:32.773   02 Jun 2027 16:00:21.371           288.598                Sumatra         36074.750
        69   02 Jun 2027 17:17:40.259   02 Jun 2027 17:18:46.079            65.820                Novosib          8227.500
        70   02 Jun 2027 17:25:16.158   02 Jun 2027 17:31:11.391           355.233                  Delhi         44404.125
        71   02 Jun 2027 20:34:04.662   02 Jun 2027 20:36:07.773           123.111                 Moscow          5685.875
        72   03 Jun 2027 05:41:13.487   03 Jun 2027 05:42:38.685            85.198                Sumatra         10649.750
        73   03 Jun 2027 05:45:42.147   03 Jun 2027 05:46:34.975            52.828                  Delhi          6603.500
        74   03 Jun 2027 05:47:49.776   03 Jun 2027 05:48:50.838            61.062                  Delhi          7632.750
        75   03 Jun 2027 06:03:32.323   03 Jun 2027 06:03:53.752            21.429                Novosib          2678.625
        76   03 Jun 2027 06:03:54.413   03 Jun 2027 06:05:24.328            89.915                 Moscow         11239.375
        77   03 Jun 2027 06:05:28.019   03 Jun 2027 06:05:52.689            24.670              Murmansk1          3083.750
        78   03 Jun 2027 06:06:11.362   03 Jun 2027 06:06:44.531            33.169                 Moscow          4146.125
        79   03 Jun 2027 06:07:01.221   03 Jun 2027 06:09:18.519           137.298              Murmansk1         17162.250
        80   03 Jun 2027 07:30:06.726   03 Jun 2027 07:31:48.208           101.482                 Moscow         12685.250
        81   03 Jun 2027 07:40:26.787   03 Jun 2027 07:44:34.318           247.531                Norilsk         30941.375
        82   03 Jun 2027 07:44:45.676   03 Jun 2027 07:46:27.429           101.753              Murmansk1         12719.125
        83   03 Jun 2027 08:45:01.904   03 Jun 2027 08:54:14.822           552.918               CapeTown         69114.750
        84   03 Jun 2027 09:07:09.197   03 Jun 2027 09:12:03.707           294.510                 Moscow         36813.750
        85   03 Jun 2027 09:12:47.792   03 Jun 2027 09:13:58.365            70.573                 Moscow          8821.625
        86   03 Jun 2027 09:14:07.366   03 Jun 2027 09:15:36.283            88.917              Murmansk2         11114.625
        87   03 Jun 2027 09:16:47.822   03 Jun 2027 09:17:23.035            35.213              Murmansk2          4401.625
        88   03 Jun 2027 09:17:43.692   03 Jun 2027 09:18:11.628            27.936              Murmansk2          3492.000
        89   03 Jun 2027 09:18:27.715   03 Jun 2027 09:19:04.792            37.077              Murmansk2          4634.625
        90   03 Jun 2027 09:19:52.763   03 Jun 2027 09:20:12.272            19.509              Murmansk2          2438.625
        91   03 Jun 2027 09:24:41.522   03 Jun 2027 09:33:39.565           538.043                Anadyr2         67255.375
        92   03 Jun 2027 11:03:50.536   03 Jun 2027 11:07:16.458           205.922               Magadan1         25740.250
        93   03 Jun 2027 12:36:02.823   03 Jun 2027 12:36:03.017             0.194                Anadyr1            24.250
        94   03 Jun 2027 12:38:26.616   03 Jun 2027 12:39:09.290            42.674               Magadan2          5334.250
        95   03 Jun 2027 12:40:51.979   03 Jun 2027 12:43:25.607           153.628               Magadan1         19203.500
        96   03 Jun 2027 14:14:15.000   03 Jun 2027 14:15:19.370            64.370               Magadan1          8046.250
        97   03 Jun 2027 14:18:06.277   03 Jun 2027 14:18:58.926            52.649               Magadan2          6581.125
        98   03 Jun 2027 15:06:05.194   03 Jun 2027 15:09:06.385           181.191            RioGallegos         22648.875
        99   03 Jun 2027 15:11:05.239   03 Jun 2027 15:11:26.894            21.655            RioGallegos          2706.875
       100   03 Jun 2027 15:53:48.039   03 Jun 2027 15:55:11.454            83.415                Irkutsk         10426.875
       101   03 Jun 2027 16:00:11.685   03 Jun 2027 16:03:07.274           175.589                Irkutsk         21948.625
       102   03 Jun 2027 16:14:51.809   03 Jun 2027 16:17:05.016           133.207                Sumatra         16650.875
       103   03 Jun 2027 17:29:38.581   03 Jun 2027 17:29:45.893             7.312                Novosib           914.000
       104   03 Jun 2027 17:31:40.064   03 Jun 2027 17:32:36.413            56.349                Novosib          7043.625
       105   03 Jun 2027 17:37:06.234   03 Jun 2027 17:42:10.194           303.960                  Delhi         37995.000
       106   03 Jun 2027 20:39:52.756   03 Jun 2027 20:39:54.427             1.671              Murmansk2           208.875
       107   03 Jun 2027 20:43:08.648   03 Jun 2027 20:43:49.699            41.051                 Moscow          5131.375
       108   03 Jun 2027 20:46:15.411   03 Jun 2027 20:48:03.328           107.917                 Moscow         13489.625
       109   03 Jun 2027 22:50:36.239   03 Jun 2027 22:52:29.929           113.690               CapeTown         10216.875
       110   04 Jun 2027 04:13:29.636   04 Jun 2027 04:16:04.385           154.749                Sumatra         19343.625
       111   04 Jun 2027 04:39:11.287   04 Jun 2027 04:39:31.761            20.474                 Moscow          2559.250
       112   04 Jun 2027 04:40:02.429   04 Jun 2027 04:41:56.894           114.465                 Moscow         14308.125
       113   04 Jun 2027 04:42:05.331   04 Jun 2027 04:46:10.132           244.801              Murmansk1         30600.125
       114   04 Jun 2027 05:19:19.453   04 Jun 2027 05:19:30.428            10.975            RioGallegos          1371.875
       115   04 Jun 2027 05:57:51.039   04 Jun 2027 06:02:29.735           278.696                  Delhi         34837.000
       116   04 Jun 2027 06:05:43.517   04 Jun 2027 06:06:37.911            54.394                Novosib          6799.250
       117   04 Jun 2027 06:15:39.397   04 Jun 2027 06:16:58.439            79.042                Novosib          9880.250
       118   04 Jun 2027 06:17:09.773   04 Jun 2027 06:18:13.000            63.227              Murmansk1          7903.375
       119   04 Jun 2027 06:18:31.702   04 Jun 2027 06:20:01.640            89.938              Murmansk2         11242.250
       120   04 Jun 2027 07:45:00.811   04 Jun 2027 07:45:24.255            23.444                 Moscow          2930.500
       121   04 Jun 2027 07:51:34.650   04 Jun 2027 07:56:29.453           294.803                Norilsk         36850.375
       122   04 Jun 2027 07:56:37.918   04 Jun 2027 07:58:29.034           111.116              Murmansk1         13889.500
       123   04 Jun 2027 08:56:35.678   04 Jun 2027 09:05:54.479           558.801               CapeTown         69850.125
       124   04 Jun 2027 09:21:18.876   04 Jun 2027 09:23:16.212           117.336                 Moscow         14667.000
       125   04 Jun 2027 09:23:41.306   04 Jun 2027 09:26:23.475           162.169              Murmansk2         20271.125
       126   04 Jun 2027 09:26:23.475   04 Jun 2027 09:27:53.463            89.988              Murmansk1         11248.500
       127   04 Jun 2027 09:30:27.576   04 Jun 2027 09:31:46.448            78.872              Murmansk2          9859.000
       128   04 Jun 2027 09:36:35.563   04 Jun 2027 09:46:14.880           579.317                Anadyr2         72414.625
       129   04 Jun 2027 11:15:30.315   04 Jun 2027 11:19:03.632           213.317               Magadan1         26664.625
       130   04 Jun 2027 12:50:25.213   04 Jun 2027 12:55:20.976           295.763               Magadan1         36970.375
       131   04 Jun 2027 12:56:55.091   04 Jun 2027 13:00:14.667           199.576               Magadan2         24947.000
       132   04 Jun 2027 15:17:59.602   04 Jun 2027 15:20:00.884           121.282            RioGallegos         15160.250
       133   04 Jun 2027 16:05:45.744   04 Jun 2027 16:06:49.056            63.312                Irkutsk          7914.000
       134   04 Jun 2027 16:12:38.662   04 Jun 2027 16:13:26.517            47.855                Irkutsk          5981.875
       135   04 Jun 2027 16:19:31.391   04 Jun 2027 16:21:37.263           125.872                Sumatra         15734.000
       136   04 Jun 2027 16:27:09.929   04 Jun 2027 16:29:11.659           121.730                Sumatra         15216.250
       137   04 Jun 2027 17:49:00.276   04 Jun 2027 17:51:59.012           178.736                  Delhi         22342.000
       138   04 Jun 2027 17:55:52.938   04 Jun 2027 17:58:14.828           141.890                  Delhi         17736.250
       139   04 Jun 2027 20:55:08.501   04 Jun 2027 20:55:39.671            31.170                 Moscow          3896.250
       140   04 Jun 2027 20:56:26.502   04 Jun 2027 20:58:22.940           116.438                 Moscow         14554.750
       141   05 Jun 2027 02:52:43.078   05 Jun 2027 02:53:34.730            51.652                Sumatra          6456.500
       142   05 Jun 2027 03:16:02.147   05 Jun 2027 03:19:48.588           226.441              Murmansk2         28305.125
       143   05 Jun 2027 04:25:34.568   05 Jun 2027 04:27:14.553            99.985                Sumatra         12498.125
       144   05 Jun 2027 04:33:16.399   05 Jun 2027 04:35:17.220           120.821                Sumatra         15102.625
       145   05 Jun 2027 04:50:26.393   05 Jun 2027 04:50:44.785            18.392              Murmansk2          2299.000
       146   05 Jun 2027 04:51:50.914   05 Jun 2027 04:52:21.028            30.114              Murmansk1          3764.250
       147   05 Jun 2027 04:52:25.751   05 Jun 2027 04:56:52.503           266.752                Norilsk         33344.000
       148   05 Jun 2027 04:57:28.484   05 Jun 2027 04:57:36.139             7.655              Murmansk2           956.875
       149   05 Jun 2027 06:10:05.933   05 Jun 2027 06:12:30.566           144.633                  Delhi         18079.125
       150   05 Jun 2027 06:16:25.778   05 Jun 2027 06:16:52.368            26.590                  Delhi          3323.750
       151   05 Jun 2027 06:17:39.790   05 Jun 2027 06:19:44.660           124.870                  Delhi         15608.750
       152   05 Jun 2027 06:20:07.284   05 Jun 2027 06:21:10.942            63.658                Novosib          7957.250
       153   05 Jun 2027 06:21:16.408   05 Jun 2027 06:22:40.123            83.715                 Moscow         10464.375
       154   05 Jun 2027 06:27:35.654   05 Jun 2027 06:28:06.738            31.084                Norilsk          3885.500
       155   05 Jun 2027 06:28:09.478   05 Jun 2027 06:30:19.037           129.559              Murmansk1         16194.875
       156   05 Jun 2027 06:30:19.037   05 Jun 2027 06:33:20.189           181.152              Murmansk2         22644.000
       157   05 Jun 2027 07:57:15.120   05 Jun 2027 07:59:47.385           152.265                 Moscow         19033.125
       158   05 Jun 2027 08:02:34.178   05 Jun 2027 08:03:19.035            44.857                Norilsk          5607.125
       159   05 Jun 2027 08:03:22.627   05 Jun 2027 08:08:30.909           308.282              Murmansk2         38535.250
       160   05 Jun 2027 08:08:30.909   05 Jun 2027 08:09:19.916            49.007              Murmansk1          6125.875
       161   05 Jun 2027 08:10:29.829   05 Jun 2027 08:10:30.712             0.883              Murmansk2           110.375
       162   05 Jun 2027 09:08:16.587   05 Jun 2027 09:14:32.175           375.588               CapeTown         46948.500
       163   05 Jun 2027 09:36:50.041   05 Jun 2027 09:40:28.772           218.731              Murmansk1         27341.375
       164   05 Jun 2027 09:41:46.357   05 Jun 2027 09:43:18.045            91.688              Murmansk2         11461.000
       165   05 Jun 2027 09:48:31.237   05 Jun 2027 09:58:04.173           572.936                Anadyr2         71617.000
       166   05 Jun 2027 11:27:15.920   05 Jun 2027 11:30:45.633           209.713               Magadan1         26214.125
       167   05 Jun 2027 11:32:32.282   05 Jun 2027 11:32:40.213             7.931               Magadan1           991.375
       168   05 Jun 2027 13:02:24.508   05 Jun 2027 13:05:21.434           176.926               Magadan1         22115.750
       169   05 Jun 2027 13:05:29.726   05 Jun 2027 13:09:18.549           228.823               Magadan1         28602.875
       170   05 Jun 2027 14:58:17.504   05 Jun 2027 15:00:07.557           110.053                Sumatra         13756.625
       171   05 Jun 2027 16:31:39.217   05 Jun 2027 16:32:55.304            76.087                Sumatra          9510.875
       172   05 Jun 2027 16:33:19.289   05 Jun 2027 16:34:10.849            51.560                  Delhi          6445.000
       173   05 Jun 2027 16:39:21.314   05 Jun 2027 16:40:54.700            93.386                Sumatra         11673.250
       174   05 Jun 2027 17:53:37.814   05 Jun 2027 17:54:07.151            29.337                Novosib          3667.125
       175   05 Jun 2027 17:55:02.453   05 Jun 2027 17:56:53.362           110.909                Novosib         13863.625
       176   05 Jun 2027 18:00:57.881   05 Jun 2027 18:03:01.315           123.434                  Delhi         15429.250
       177   05 Jun 2027 21:05:59.643   05 Jun 2027 21:06:18.069            18.426              Murmansk2          2303.250
       178   05 Jun 2027 21:07:09.068   05 Jun 2027 21:08:56.905           107.837                 Moscow         13479.625
       179   05 Jun 2027 21:32:38.368   05 Jun 2027 21:32:54.148            15.780               CapeTown          1972.500
       180   05 Jun 2027 21:33:11.810   05 Jun 2027 21:34:15.478            63.668               CapeTown          7958.500
       181   05 Jun 2027 21:36:04.888   05 Jun 2027 21:36:05.884             0.996               CapeTown           124.500
       182   05 Jun 2027 21:38:50.966   05 Jun 2027 21:40:21.301            90.335               CapeTown         11291.875
       183   06 Jun 2027 03:03:46.400   06 Jun 2027 03:06:51.331           184.931                Sumatra         16815.625
       184   06 Jun 2027 03:27:44.447   06 Jun 2027 03:28:02.102            17.655                Irkutsk          2206.875
       185   06 Jun 2027 04:37:45.414   06 Jun 2027 04:38:05.717            20.303                Sumatra          2537.875
       186   06 Jun 2027 04:39:36.875   06 Jun 2027 04:40:26.035            49.160                Sumatra          6145.000
       187   06 Jun 2027 04:45:24.736   06 Jun 2027 04:46:02.833            38.097                Sumatra          4762.125
       188   06 Jun 2027 05:02:23.219   06 Jun 2027 05:02:41.242            18.023                 Moscow          2252.875
       189   06 Jun 2027 05:03:35.336   06 Jun 2027 05:04:27.260            51.924              Murmansk1          6490.500
       190   06 Jun 2027 05:04:56.112   06 Jun 2027 05:06:21.892            85.780                 Moscow         10722.500
       191   06 Jun 2027 05:07:29.706   06 Jun 2027 05:08:43.550            73.844              Murmansk2          9230.500
       192   06 Jun 2027 06:22:27.618   06 Jun 2027 06:26:29.921           242.303                  Delhi         30287.875
       193   06 Jun 2027 06:31:08.245   06 Jun 2027 06:34:55.558           227.313                 Moscow         28414.125
       194   06 Jun 2027 06:39:35.607   06 Jun 2027 06:42:59.064           203.457                 Moscow         25432.125
       195   06 Jun 2027 06:43:22.860   06 Jun 2027 06:43:43.723            20.863              Murmansk2          2607.875
       196   06 Jun 2027 06:43:45.923   06 Jun 2027 06:44:08.622            22.699                Norilsk          2837.375
       197   06 Jun 2027 06:44:10.249   06 Jun 2027 06:44:40.219            29.970              Murmansk2          3746.250
       198   06 Jun 2027 06:45:07.710   06 Jun 2027 06:45:37.846            30.136              Murmansk2          3767.000
       199   06 Jun 2027 06:45:49.821   06 Jun 2027 06:46:13.115            23.294              Murmansk2          2911.750
       200   06 Jun 2027 08:06:11.815   06 Jun 2027 08:06:32.655            20.840                 Moscow          2605.000
       201   06 Jun 2027 08:09:18.276   06 Jun 2027 08:10:08.141            49.865                 Moscow          6233.125
       202   06 Jun 2027 08:10:16.698   06 Jun 2027 08:10:55.071            38.373              Murmansk1          4796.625
       203   06 Jun 2027 08:12:55.450   06 Jun 2027 08:13:11.444            15.994              Murmansk2          1999.250
       204   06 Jun 2027 08:14:09.988   06 Jun 2027 08:15:52.197           102.209                 Moscow         12776.125
       205   06 Jun 2027 08:16:09.258   06 Jun 2027 08:17:50.523           101.265                 Moscow         12658.125
       206   06 Jun 2027 08:17:53.390   06 Jun 2027 08:20:09.908           136.518                Norilsk         17064.750
       207   06 Jun 2027 08:26:52.345   06 Jun 2027 08:28:56.128           123.783                Anadyr2         15472.875
       208   06 Jun 2027 09:25:05.809   06 Jun 2027 09:25:53.677            47.868               CapeTown          5983.500
       209   06 Jun 2027 09:53:47.859   06 Jun 2027 09:54:28.203            40.344              Murmansk2          5043.000
       210   06 Jun 2027 10:00:28.157   06 Jun 2027 10:01:48.054            79.897                Anadyr2          9987.125
       211   06 Jun 2027 10:04:09.102   06 Jun 2027 10:10:00.900           351.798                Anadyr1         43974.750
       212   06 Jun 2027 11:39:05.307   06 Jun 2027 11:45:14.580           369.273               Magadan1         46159.125
       213   06 Jun 2027 13:14:24.390   06 Jun 2027 13:14:50.071            25.681               Magadan1          3210.125
       214   06 Jun 2027 13:15:23.711   06 Jun 2027 13:17:31.737           128.026               Magadan2         16003.250
       215   06 Jun 2027 13:19:58.785   06 Jun 2027 13:21:38.426            99.641               Magadan2         12455.125
       216   06 Jun 2027 15:09:07.085   06 Jun 2027 15:14:01.853           294.768                Sumatra         36846.000
       217   06 Jun 2027 15:16:58.751   06 Jun 2027 15:18:01.364            62.613                Sumatra          7826.625
       218   06 Jun 2027 16:35:48.196   06 Jun 2027 16:36:02.291            14.095                Novosib          1761.875
       219   06 Jun 2027 16:44:21.958   06 Jun 2027 16:47:24.633           182.675                  Delhi         22834.375
       220   06 Jun 2027 18:05:38.515   06 Jun 2027 18:06:00.014            21.499                Novosib          2687.375
       221   06 Jun 2027 18:12:58.816   06 Jun 2027 18:14:23.323            84.507                  Delhi         10563.375
       222   06 Jun 2027 18:16:10.339   06 Jun 2027 18:17:55.487           105.148                  Delhi         13143.500
       223   06 Jun 2027 19:46:59.553   06 Jun 2027 19:47:26.855            27.302                 Moscow          3412.750
       224   06 Jun 2027 19:48:17.285   06 Jun 2027 19:49:01.429            44.144                 Moscow          5518.000
       225   06 Jun 2027 21:19:10.277   06 Jun 2027 21:19:26.440            16.163                 Moscow          2020.375
       226   06 Jun 2027 21:22:28.935   06 Jun 2027 21:23:57.108            88.173                 Moscow         11021.625
       227   06 Jun 2027 21:44:21.824   06 Jun 2027 21:45:33.872            72.048               CapeTown          9006.000
       228   06 Jun 2027 21:49:10.223   06 Jun 2027 21:50:58.036           107.813               CapeTown         13476.625
       229   07 Jun 2027 03:14:49.176   07 Jun 2027 03:22:39.114           469.938                Sumatra         11944.500
       230   07 Jun 2027 04:50:02.915   07 Jun 2027 04:50:13.163            10.248                Sumatra          1281.000
       231   07 Jun 2027 04:52:05.695   07 Jun 2027 04:54:17.809           132.114                Sumatra         16514.250
       232   07 Jun 2027 05:15:27.747   07 Jun 2027 05:15:59.786            32.039              Murmansk2          4004.875
       233   07 Jun 2027 05:16:17.060   07 Jun 2027 05:17:29.381            72.321                Norilsk          9040.125
       234   07 Jun 2027 05:17:36.193   07 Jun 2027 05:18:31.432            55.239                 Moscow          6904.875
       235   07 Jun 2027 05:19:20.614   07 Jun 2027 05:20:03.007            42.393              Murmansk1          5299.125
       236   07 Jun 2027 05:20:05.662   07 Jun 2027 05:21:11.009            65.347              Murmansk1          8168.375
       237   07 Jun 2027 06:43:21.956   07 Jun 2027 06:46:29.330           187.374                Novosib         23421.750
       238   07 Jun 2027 06:51:26.940   07 Jun 2027 06:52:14.392            47.452                Norilsk          5931.500
       239   07 Jun 2027 06:52:18.293   07 Jun 2027 06:55:02.922           164.629                 Moscow         20578.625
       240   07 Jun 2027 06:55:20.837   07 Jun 2027 06:57:36.055           135.218              Murmansk1         16902.250
       241   07 Jun 2027 08:18:19.503   07 Jun 2027 08:18:52.574            33.071                 Moscow          4133.875
       242   07 Jun 2027 08:21:22.895   07 Jun 2027 08:22:53.878            90.983                 Moscow         11372.875
       243   07 Jun 2027 08:25:23.313   07 Jun 2027 08:28:00.652           157.339                 Moscow         19667.375
       244   07 Jun 2027 08:28:32.823   07 Jun 2027 08:29:39.196            66.373                Norilsk          8296.625
       245   07 Jun 2027 08:29:41.425   07 Jun 2027 08:31:02.834            81.409              Murmansk2         10176.125
       246   07 Jun 2027 08:31:02.834   07 Jun 2027 08:32:43.821           100.987              Murmansk1         12623.375
       247   07 Jun 2027 08:37:57.798   07 Jun 2027 08:42:32.346           274.548                Anadyr2         34318.500
       248   07 Jun 2027 10:12:26.037   07 Jun 2027 10:13:23.652            57.615                Anadyr2          7201.875
       249   07 Jun 2027 10:16:56.907   07 Jun 2027 10:17:24.617            27.710                Anadyr1          3463.750
       250   07 Jun 2027 10:19:36.630   07 Jun 2027 10:21:59.413           142.783                Anadyr2         17847.875
       251   07 Jun 2027 11:50:57.352   07 Jun 2027 11:53:30.286           152.934               Magadan1         19116.750
       252   07 Jun 2027 11:57:15.627   07 Jun 2027 11:57:54.550            38.923               Magadan1          4865.375
       253   07 Jun 2027 13:26:24.775   07 Jun 2027 13:26:44.243            19.468               Magadan1          2433.500
       254   07 Jun 2027 13:27:54.428   07 Jun 2027 13:29:39.283           104.855               Magadan2         13106.875
       255   07 Jun 2027 15:08:03.749   07 Jun 2027 15:10:48.908           165.159                Irkutsk         20644.875
       256   07 Jun 2027 15:21:55.752   07 Jun 2027 15:27:50.150           354.398                Sumatra         44299.750
       257   07 Jun 2027 16:46:30.428   07 Jun 2027 16:47:27.364            56.936                Novosib          7117.000
       258   07 Jun 2027 16:50:33.635   07 Jun 2027 16:52:32.142           118.507                  Delhi         14813.375
       259   07 Jun 2027 16:54:10.083   07 Jun 2027 16:59:45.074           334.991                  Delhi         41873.875
       260   07 Jun 2027 20:00:36.303   07 Jun 2027 20:00:47.220            10.917                 Moscow          1364.625
       261   07 Jun 2027 20:02:39.428   07 Jun 2027 20:04:08.653            89.225                 Moscow         11153.125
       262   07 Jun 2027 21:55:18.353   07 Jun 2027 21:55:56.342            37.989               CapeTown          4748.625
       263   07 Jun 2027 21:57:50.666   07 Jun 2027 21:59:50.547           119.881               CapeTown         14985.125
       264   08 Jun 2027 03:26:22.422   08 Jun 2027 03:28:09.497           107.075                Sumatra          3590.625
       265   08 Jun 2027 05:04:25.731   08 Jun 2027 05:06:22.110           116.379                Sumatra         14547.375
       266   08 Jun 2027 05:27:41.176   08 Jun 2027 05:30:39.739           178.563                 Moscow         22320.375
       267   08 Jun 2027 05:31:12.256   08 Jun 2027 05:32:58.954           106.698              Murmansk1         13337.250
       268   08 Jun 2027 06:53:28.251   08 Jun 2027 06:55:21.494           113.243                  Delhi         14155.375
       269   08 Jun 2027 06:56:08.506   08 Jun 2027 06:57:32.543            84.037                Novosib         10504.625
       270   08 Jun 2027 06:58:20.537   08 Jun 2027 06:59:22.955            62.418                 Moscow          7802.250
       271   08 Jun 2027 07:04:02.508   08 Jun 2027 07:07:06.309           183.801                 Moscow         22975.125
       272   08 Jun 2027 07:07:18.945   08 Jun 2027 07:09:46.807           147.862              Murmansk2         18482.750
       273   08 Jun 2027 08:13:11.555   08 Jun 2027 08:14:09.180            57.625               CapeTown          7203.125
       274   08 Jun 2027 08:30:30.406   08 Jun 2027 08:34:55.223           264.817                 Moscow         33102.125
       275   08 Jun 2027 08:38:32.753   08 Jun 2027 08:39:00.978            28.225                 Moscow          3528.125
       276   08 Jun 2027 08:39:31.833   08 Jun 2027 08:40:18.251            46.418              Murmansk1          5802.250
       277   08 Jun 2027 08:41:43.014   08 Jun 2027 08:43:11.701            88.687              Murmansk2         11085.875
       278   08 Jun 2027 08:43:11.701   08 Jun 2027 08:43:43.591            31.890              Murmansk1          3986.250
       279   08 Jun 2027 08:49:32.093   08 Jun 2027 08:55:37.168           365.075                Anadyr1         45634.375
       280   08 Jun 2027 10:24:24.692   08 Jun 2027 10:26:08.799           104.107                Anadyr2         13013.375
       281   08 Jun 2027 10:34:26.078   08 Jun 2027 10:34:33.410             7.332                Anadyr1           916.500
       282   08 Jun 2027 12:00:13.673   08 Jun 2027 12:00:17.280             3.607                Anadyr2           450.875
       283   08 Jun 2027 12:02:25.280   08 Jun 2027 12:04:58.524           153.244                Anadyr2         19155.500
       284   08 Jun 2027 12:09:03.862   08 Jun 2027 12:11:54.315           170.453               Magadan1         21306.625
       285   08 Jun 2027 13:38:25.584   08 Jun 2027 13:38:39.913            14.329               Magadan2          1791.125
       286   08 Jun 2027 13:40:20.831   08 Jun 2027 13:40:21.508             0.677               Magadan1            84.625
       287   08 Jun 2027 13:43:12.930   08 Jun 2027 13:46:08.487           175.557               Magadan2         21944.625
       288   08 Jun 2027 15:22:26.548   08 Jun 2027 15:23:48.303            81.755                Irkutsk         10219.375
       289   08 Jun 2027 15:32:12.117   08 Jun 2027 15:34:20.996           128.879                Sumatra         16109.875
       290   08 Jun 2027 15:37:08.588   08 Jun 2027 15:38:43.785            95.197                Sumatra         11899.625
       291   08 Jun 2027 16:59:13.885   08 Jun 2027 17:03:17.005           243.120                Novosib         30390.000
       292   08 Jun 2027 17:09:11.834   08 Jun 2027 17:11:23.445           131.611                  Delhi         16451.375
       293   08 Jun 2027 18:37:10.668   08 Jun 2027 18:37:36.751            26.083                  Delhi          3260.375
       294   08 Jun 2027 18:39:19.854   08 Jun 2027 18:41:46.316           146.462                  Delhi         18307.750
       295   08 Jun 2027 20:08:56.843   08 Jun 2027 20:09:48.122            51.279                 Moscow          6409.875
       296   08 Jun 2027 20:13:13.945   08 Jun 2027 20:15:52.016           158.071                 Moscow         19758.875
       297   08 Jun 2027 21:52:51.114   08 Jun 2027 21:52:52.463             1.349                 Moscow           168.625
       298   08 Jun 2027 21:53:39.935   08 Jun 2027 21:54:03.522            23.587                 Moscow          2948.375
       299   08 Jun 2027 22:07:34.881   08 Jun 2027 22:07:36.832             1.951               CapeTown           243.875
       300   08 Jun 2027 22:10:01.682   08 Jun 2027 22:11:50.318           108.636               CapeTown         13579.500
       301   09 Jun 2027 03:38:03.602   09 Jun 2027 03:40:30.513           146.911                Sumatra           729.501
       302   09 Jun 2027 05:15:04.802   09 Jun 2027 05:16:38.744            93.942                Sumatra         11742.750
       303   09 Jun 2027 05:27:24.583   09 Jun 2027 05:29:22.018           117.435                  Delhi         14679.375
       304   09 Jun 2027 05:39:27.650   09 Jun 2027 05:39:46.382            18.732              Murmansk1          2341.500
       305   09 Jun 2027 05:39:49.579   09 Jun 2027 05:42:47.097           177.518                 Moscow         22189.750
       306   09 Jun 2027 05:43:04.650   09 Jun 2027 05:44:20.103            75.453              Murmansk1          9431.625
       307   09 Jun 2027 07:09:06.204   09 Jun 2027 07:09:38.704            32.500                Novosib          4062.500
       308   09 Jun 2027 07:09:56.186   09 Jun 2027 07:11:20.096            83.910                 Moscow         10488.750
       309   09 Jun 2027 07:15:17.796   09 Jun 2027 07:15:39.891            22.095                Novosib          2761.875
       310   09 Jun 2027 07:16:28.951   09 Jun 2027 07:20:10.293           221.342              Murmansk1         27667.750
       311   09 Jun 2027 08:22:49.160   09 Jun 2027 08:28:50.152           360.992               CapeTown         45124.000
       312   09 Jun 2027 08:42:44.727   09 Jun 2027 08:43:14.463            29.736                 Moscow          3717.000
       313   09 Jun 2027 08:45:28.749   09 Jun 2027 08:46:59.509            90.760                 Moscow         11345.000
       314   09 Jun 2027 08:49:27.999   09 Jun 2027 08:51:04.092            96.093              Murmansk2         12011.625
       315   09 Jun 2027 08:53:56.340   09 Jun 2027 08:55:12.790            76.450              Murmansk1          9556.250
       316   09 Jun 2027 09:01:15.766   09 Jun 2027 09:08:30.095           434.329                Anadyr1         54291.125
       317   09 Jun 2027 10:25:20.076   09 Jun 2027 10:25:57.459            37.383              Murmansk2          4672.875
       318   09 Jun 2027 12:12:34.533   09 Jun 2027 12:14:43.302           128.769                Anadyr2         16096.125
       319   09 Jun 2027 12:14:46.960   09 Jun 2027 12:16:24.862            97.902               Magadan2         12237.750
       320   09 Jun 2027 12:22:47.993   09 Jun 2027 12:23:38.139            50.146               Magadan1          6268.250
       321   09 Jun 2027 13:50:26.761   09 Jun 2027 13:52:43.383           136.622               Magadan2         17077.750
       322   09 Jun 2027 14:45:25.843   09 Jun 2027 14:46:31.739            65.896            RioGallegos          8237.000
       323   09 Jun 2027 15:32:08.295   09 Jun 2027 15:32:53.482            45.187                Irkutsk          5648.375
       324   09 Jun 2027 15:35:14.986   09 Jun 2027 15:35:30.856            15.870                Irkutsk          1983.750
       325   09 Jun 2027 15:36:54.468   09 Jun 2027 15:39:41.959           167.491                Irkutsk         20936.375
       326   09 Jun 2027 15:43:56.744   09 Jun 2027 15:46:38.252           161.508                Sumatra         20188.500
       327   09 Jun 2027 17:05:57.893   09 Jun 2027 17:08:21.357           143.464                Novosib         17933.000
       328   09 Jun 2027 17:15:23.291   09 Jun 2027 17:20:06.910           283.619                  Delhi         35452.375
       329   09 Jun 2027 18:53:46.869   09 Jun 2027 18:55:11.898            85.029                  Delhi         10628.625
       330   09 Jun 2027 20:19:26.410   09 Jun 2027 20:20:35.475            69.065                 Moscow          8633.125
       331   09 Jun 2027 20:28:47.206   09 Jun 2027 20:28:59.349            12.143                 Moscow          1517.875
       332   09 Jun 2027 21:55:17.226   09 Jun 2027 21:56:26.423            69.197                 Moscow          8649.625
       333   09 Jun 2027 21:56:43.237   09 Jun 2027 21:56:46.034             2.797              Murmansk2           349.625
       334   09 Jun 2027 21:59:58.428   09 Jun 2027 22:00:26.292            27.864                 Moscow          3483.000
       335   09 Jun 2027 22:00:28.734   09 Jun 2027 22:01:35.399            66.665              Murmansk2          1477.625
       336   10 Jun 2027 05:27:58.158   10 Jun 2027 05:28:45.641            47.483                Sumatra          5935.375
       337   10 Jun 2027 05:33:53.809   10 Jun 2027 05:35:33.120            99.311                  Delhi         12413.875
       338   10 Jun 2027 05:41:35.803   10 Jun 2027 05:44:52.577           196.774                  Delhi         24596.750
       339   10 Jun 2027 05:51:55.836   10 Jun 2027 05:52:05.320             9.484              Murmansk1          1185.500
       340   10 Jun 2027 05:52:20.536   10 Jun 2027 05:54:46.967           146.431                Norilsk         18303.875
       341   10 Jun 2027 05:54:57.793   10 Jun 2027 05:56:21.866            84.073              Murmansk2         10509.125
       342   10 Jun 2027 05:57:00.329   10 Jun 2027 05:57:05.186             4.857                Norilsk           607.125
       343   10 Jun 2027 07:18:25.579   10 Jun 2027 07:20:51.267           145.688                 Moscow         18211.000
       344   10 Jun 2027 07:27:08.816   10 Jun 2027 07:27:52.342            43.526                Norilsk          5440.750
       345   10 Jun 2027 07:28:43.481   10 Jun 2027 07:34:40.925           357.444              Murmansk1         44680.500
       346   10 Jun 2027 08:33:52.915   10 Jun 2027 08:42:02.521           489.606               CapeTown         61200.750
       347   10 Jun 2027 08:59:02.898   10 Jun 2027 08:59:06.846             3.948                 Moscow           493.500
       348   10 Jun 2027 09:01:00.044   10 Jun 2027 09:03:59.071           179.027              Murmansk2         22378.375
       349   10 Jun 2027 09:05:57.246   10 Jun 2027 09:08:06.574           129.328              Murmansk2         16166.000
       350   10 Jun 2027 09:08:41.101   10 Jun 2027 09:08:47.863             6.762              Murmansk2           845.250
       351   10 Jun 2027 09:10:35.760   10 Jun 2027 09:10:39.120             3.360              Murmansk2           420.000
       352   10 Jun 2027 09:13:04.458   10 Jun 2027 09:21:15.527           491.069                Anadyr1         61383.625
       353   10 Jun 2027 10:37:21.625   10 Jun 2027 10:38:57.411            95.786              Murmansk2         11973.250
       354   10 Jun 2027 10:50:26.259   10 Jun 2027 10:53:14.626           168.367                Anadyr2         21045.875
       355   10 Jun 2027 12:26:43.758   10 Jun 2027 12:27:55.919            72.161               Magadan1          9020.125
       356   10 Jun 2027 12:32:23.359   10 Jun 2027 12:37:14.466           291.107               Magadan2         36388.375
       357   10 Jun 2027 14:58:30.736   10 Jun 2027 15:00:00.267            89.531            RioGallegos         11191.375
       358   10 Jun 2027 15:42:06.552   10 Jun 2027 15:43:58.159           111.607                Irkutsk         13950.875
       359   10 Jun 2027 15:55:47.623   10 Jun 2027 16:00:33.838           286.215                Sumatra         35776.875
       360   10 Jun 2027 17:17:55.189   10 Jun 2027 17:19:00.497            65.308                Novosib          8163.500
       361   10 Jun 2027 17:25:30.881   10 Jun 2027 17:31:25.620           354.739                  Delhi         44342.375
       362   10 Jun 2027 20:31:24.554   10 Jun 2027 20:32:17.508            52.954                 Moscow          6619.250
       363   10 Jun 2027 20:33:02.241   10 Jun 2027 20:34:19.907            77.666                 Moscow          9708.250
       364   10 Jun 2027 22:08:47.722   10 Jun 2027 22:08:57.880            10.158              Murmansk1          1269.750
       365   10 Jun 2027 22:09:18.283   10 Jun 2027 22:09:43.690            25.407              Murmansk1          3175.875
       366   10 Jun 2027 22:32:28.995   10 Jun 2027 22:33:06.841            37.846               CapeTown          2150.375
       367   11 Jun 2027 05:41:31.413   11 Jun 2027 05:42:53.156            81.743                Sumatra         10217.875
       368   11 Jun 2027 05:45:57.254   11 Jun 2027 05:46:47.951            50.697                  Delhi          6337.125
       369   11 Jun 2027 05:49:05.777   11 Jun 2027 05:50:45.662            99.885                  Delhi         12485.625
       370   11 Jun 2027 06:03:51.441   11 Jun 2027 06:04:08.735            17.294                Novosib          2161.750
       371   11 Jun 2027 06:04:10.715   11 Jun 2027 06:05:38.869            88.154                 Moscow         11019.250
       372   11 Jun 2027 06:05:42.897   11 Jun 2027 06:06:14.510            31.613              Murmansk1          3951.625
       373   11 Jun 2027 06:06:25.688   11 Jun 2027 06:06:59.617            33.929                 Moscow          4241.125
       374   11 Jun 2027 06:07:15.960   11 Jun 2027 06:08:25.921            69.961              Murmansk2          8745.125
       375   11 Jun 2027 07:30:21.652   11 Jun 2027 07:30:40.389            18.737                 Moscow          2342.125
       376   11 Jun 2027 07:33:04.616   11 Jun 2027 07:33:20.163            15.547                 Moscow          1943.375
       377   11 Jun 2027 07:40:41.815   11 Jun 2027 07:44:49.255           247.440                Norilsk         30930.000
       378   11 Jun 2027 07:45:00.387   11 Jun 2027 07:46:42.442           102.055              Murmansk2         12756.875
       379   11 Jun 2027 08:45:16.229   11 Jun 2027 08:54:29.296           553.067               CapeTown         69133.375
       380   11 Jun 2027 09:07:24.677   11 Jun 2027 09:13:40.119           375.442                 Moscow         46930.250
       381   11 Jun 2027 09:14:13.171   11 Jun 2027 09:14:27.345            14.174                 Moscow          1771.750
       382   11 Jun 2027 09:14:31.600   11 Jun 2027 09:15:50.825            79.225              Murmansk1          9903.125
       383   11 Jun 2027 09:16:12.423   11 Jun 2027 09:17:04.929            52.506              Murmansk1          6563.250
       384   11 Jun 2027 09:18:42.359   11 Jun 2027 09:19:29.829            47.470              Murmansk2          5933.750
       385   11 Jun 2027 09:24:56.334   11 Jun 2027 09:30:22.889           326.555                Anadyr2         40819.375
       386   11 Jun 2027 09:32:16.088   11 Jun 2027 09:33:55.349            99.261                Anadyr1         12407.625
       387   11 Jun 2027 11:00:23.933   11 Jun 2027 11:00:43.269            19.336                Anadyr2          2417.000
       388   11 Jun 2027 11:02:02.559   11 Jun 2027 11:04:57.413           174.854                Anadyr1         21856.750
       389   11 Jun 2027 11:07:32.953   11 Jun 2027 11:09:55.984           143.031               Magadan1         17878.875
       390   11 Jun 2027 12:37:40.557   11 Jun 2027 12:38:40.868            60.311                Anadyr1          7538.875
       391   11 Jun 2027 12:38:41.553   11 Jun 2027 12:39:36.564            55.011               Magadan1          6876.375
       392   11 Jun 2027 12:43:42.914   11 Jun 2027 12:46:05.472           142.558               Magadan2         17819.750
       393   11 Jun 2027 14:14:30.025   11 Jun 2027 14:14:33.269             3.244               Magadan1           405.500
       394   11 Jun 2027 14:15:11.762   11 Jun 2027 14:15:33.877            22.115               Magadan1          2764.375
       395   11 Jun 2027 14:18:21.714   11 Jun 2027 14:19:13.766            52.052               Magadan2          6506.500
       396   11 Jun 2027 15:06:20.034   11 Jun 2027 15:09:19.620           179.586            RioGallegos         22448.250
       397   11 Jun 2027 15:11:20.837   11 Jun 2027 15:11:41.430            20.593            RioGallegos          2574.125
       398   11 Jun 2027 15:54:02.954   11 Jun 2027 15:55:25.779            82.825                Irkutsk         10353.125
       399   11 Jun 2027 15:59:08.054   11 Jun 2027 16:00:27.020            78.966                Irkutsk          9870.750
       400   11 Jun 2027 16:07:44.259   11 Jun 2027 16:10:51.205           186.946                Sumatra         23368.250
       401   11 Jun 2027 17:31:56.081   11 Jun 2027 17:32:51.644            55.563                Novosib          6945.375
       402   11 Jun 2027 17:34:50.701   11 Jun 2027 17:36:46.276           115.575                Novosib         14446.875
       403   11 Jun 2027 17:37:21.049   11 Jun 2027 17:42:20.153           299.104                  Delhi         37388.000
       404   11 Jun 2027 20:43:23.616   11 Jun 2027 20:44:04.239            40.623                 Moscow          5077.875
       405   11 Jun 2027 20:46:30.587   11 Jun 2027 20:48:18.082           107.495                 Moscow         13436.875
       406   11 Jun 2027 22:51:06.165   11 Jun 2027 22:52:44.669            98.504               CapeTown          6112.625
       407   12 Jun 2027 04:13:44.665   12 Jun 2027 04:16:18.248           153.583                Sumatra         19197.875
       408   12 Jun 2027 04:39:25.584   12 Jun 2027 04:39:49.402            23.818                Irkutsk          2977.250
       409   12 Jun 2027 04:40:17.651   12 Jun 2027 04:46:27.738           370.087              Murmansk1         46260.875
       410   12 Jun 2027 05:19:36.125   12 Jun 2027 05:19:45.150             9.025            RioGallegos          1128.125
       411   12 Jun 2027 05:58:06.270   12 Jun 2027 06:02:44.472           278.202                  Delhi         34775.250
       412   12 Jun 2027 06:05:59.016   12 Jun 2027 06:07:18.926            79.910                Novosib          9988.750
       413   12 Jun 2027 06:16:03.382   12 Jun 2027 06:18:28.305           144.923              Murmansk2         18115.375
       414   12 Jun 2027 06:18:46.278   12 Jun 2027 06:20:16.172            89.894              Murmansk2         11236.750
       415   12 Jun 2027 07:45:25.282   12 Jun 2027 07:46:54.848            89.566                 Moscow         11195.750
       416   12 Jun 2027 07:51:46.054   12 Jun 2027 07:57:18.345           332.291              Murmansk2         41536.375
       417   12 Jun 2027 07:57:18.345   12 Jun 2027 07:58:44.054            85.709              Murmansk1         10713.625
       418   12 Jun 2027 08:56:50.184   12 Jun 2027 09:03:45.819           415.635               CapeTown         51954.375
       419   12 Jun 2027 09:24:20.483   12 Jun 2027 09:26:38.125           137.642              Murmansk1         17205.250
       420   12 Jun 2027 09:26:38.125   12 Jun 2027 09:27:55.105            76.980              Murmansk2          9622.500
       421   12 Jun 2027 09:36:50.420   12 Jun 2027 09:46:21.389           570.969                Anadyr1         71371.125
       422   12 Jun 2027 11:12:24.456   12 Jun 2027 11:12:39.065            14.609                Anadyr1          1826.125
       423   12 Jun 2027 11:15:44.919   12 Jun 2027 11:17:15.419            90.500               Magadan1         11312.500
       424   12 Jun 2027 12:50:40.168   12 Jun 2027 12:51:22.689            42.521               Magadan2          5315.125
       425   12 Jun 2027 12:52:28.374   12 Jun 2027 12:55:35.725           187.351               Magadan2         23418.875
       426   12 Jun 2027 12:57:10.353   12 Jun 2027 12:57:19.108             8.755               Magadan1          1094.375
       427   12 Jun 2027 14:26:32.027   12 Jun 2027 14:27:25.523            53.496               Magadan2          6687.000
       428   12 Jun 2027 14:33:56.053   12 Jun 2027 14:34:34.701            38.648               Magadan1          4831.000
       429   12 Jun 2027 15:18:14.483   12 Jun 2027 15:20:14.941           120.458            RioGallegos         15057.250
       430   12 Jun 2027 15:26:22.761   12 Jun 2027 15:27:45.773            83.012            RioGallegos         10376.500
       431   12 Jun 2027 16:06:00.687   12 Jun 2027 16:07:03.490            62.803                Irkutsk          7850.375
       432   12 Jun 2027 16:09:00.203   12 Jun 2027 16:11:00.720           120.517                Irkutsk         15064.625
       433   12 Jun 2027 16:19:46.480   12 Jun 2027 16:21:51.268           124.788                Sumatra         15598.500
       434   12 Jun 2027 16:27:25.000   12 Jun 2027 16:29:26.846           121.846                Sumatra         15230.750
       435   12 Jun 2027 17:49:15.171   12 Jun 2027 17:52:12.660           177.489                  Delhi         22186.125
       436   12 Jun 2027 17:58:30.779   12 Jun 2027 17:58:47.549            16.770                  Delhi          2096.250
       437   12 Jun 2027 19:26:27.112   12 Jun 2027 19:27:05.298            38.186                  Delhi          4773.250
       438   12 Jun 2027 20:52:48.848   12 Jun 2027 20:52:56.165             7.317              Murmansk1           914.625
       439   12 Jun 2027 20:55:04.015   12 Jun 2027 20:56:43.679            99.664              Murmansk2         12458.000
       440   12 Jun 2027 20:58:38.049   12 Jun 2027 21:00:14.980            96.931                 Moscow         12116.375
       441   12 Jun 2027 21:22:29.255   12 Jun 2027 21:24:35.753           126.498               CapeTown         15812.250
       442   13 Jun 2027 02:52:56.546   13 Jun 2027 02:53:58.168            61.622                Sumatra          7702.750
       443   13 Jun 2027 03:16:22.903   13 Jun 2027 03:19:00.656           157.753              Murmansk2         19719.125
       444   13 Jun 2027 04:25:49.717   13 Jun 2027 04:27:28.665            98.948                Sumatra         12368.500
       445   13 Jun 2027 04:28:50.208   13 Jun 2027 04:30:40.721           110.513                Sumatra         13814.125
       446   13 Jun 2027 04:50:40.908   13 Jun 2027 04:51:41.963            61.055                Irkutsk          7631.875
       447   13 Jun 2027 04:52:16.852   13 Jun 2027 04:54:25.867           129.015                 Moscow         16126.875
       448   13 Jun 2027 04:55:54.019   13 Jun 2027 04:57:09.975            75.956              Murmansk1          9494.500
       449   13 Jun 2027 06:10:21.297   13 Jun 2027 06:12:45.485           144.188                  Delhi         18023.500
       450   13 Jun 2027 06:19:37.366   13 Jun 2027 06:22:03.863           146.497                Novosib         18312.125
       451   13 Jun 2027 06:22:23.261   13 Jun 2027 06:22:56.282            33.021                 Moscow          4127.625
       452   13 Jun 2027 06:27:52.996   13 Jun 2027 06:28:22.052            29.056                Norilsk          3632.000
       453   13 Jun 2027 06:28:24.051   13 Jun 2027 06:33:53.109           329.058              Murmansk2         41132.250
       454   13 Jun 2027 06:34:16.180   13 Jun 2027 06:34:28.845            12.665              Murmansk2          1583.125
       455   13 Jun 2027 06:34:41.526   13 Jun 2027 06:34:50.732             9.206              Murmansk2          1150.750
       456   13 Jun 2027 07:57:40.435   13 Jun 2027 08:00:01.475           141.040                 Moscow         17630.000
       457   13 Jun 2027 08:02:50.172   13 Jun 2027 08:03:34.546            44.374                Norilsk          5546.750
       458   13 Jun 2027 08:03:39.496   13 Jun 2027 08:09:37.156           357.660              Murmansk2         44707.500
       459   13 Jun 2027 08:10:44.548   13 Jun 2027 08:10:45.735             1.187              Murmansk1           148.375
       460   13 Jun 2027 09:08:31.228   13 Jun 2027 09:14:46.196           374.968               CapeTown         46871.000
       461   13 Jun 2027 09:37:04.775   13 Jun 2027 09:40:45.725           220.950              Murmansk1         27618.750
       462   13 Jun 2027 09:48:46.128   13 Jun 2027 09:53:53.963           307.835                Anadyr2         38479.375
       463   13 Jun 2027 09:55:59.643   13 Jun 2027 09:58:18.108           138.465                Anadyr1         17308.125
       464   13 Jun 2027 11:24:25.241   13 Jun 2027 11:24:36.064            10.823                Anadyr2          1352.875
       465   13 Jun 2027 11:27:30.626   13 Jun 2027 11:32:34.197           303.571               Magadan2         37946.375
       466   13 Jun 2027 13:02:39.479   13 Jun 2027 13:05:36.666           177.187               Magadan1         22148.375
       467   13 Jun 2027 13:05:45.179   13 Jun 2027 13:09:33.747           228.568               Magadan1         28571.000
       468   13 Jun 2027 14:58:30.066   13 Jun 2027 15:00:32.592           122.526                Sumatra         15315.750
       469   13 Jun 2027 16:20:59.899   13 Jun 2027 16:22:55.332           115.433                Irkutsk         14429.125
       470   13 Jun 2027 16:31:54.433   13 Jun 2027 16:33:09.509            75.076                Sumatra          9384.500
       471   13 Jun 2027 16:33:32.875   13 Jun 2027 16:34:27.791            54.916                  Delhi          6864.500
       472   13 Jun 2027 17:54:21.740   13 Jun 2027 17:55:17.619            55.879                Novosib          6984.875
       473   13 Jun 2027 17:57:08.459   13 Jun 2027 17:58:21.966            73.507                Novosib          9188.375
       474   13 Jun 2027 18:01:12.851   13 Jun 2027 18:03:15.374           122.523                  Delhi         15315.375
       475   13 Jun 2027 18:08:34.602   13 Jun 2027 18:10:47.892           133.290                  Delhi         16661.250
       476   13 Jun 2027 21:07:24.070   13 Jun 2027 21:07:46.714            22.644                 Moscow          2830.500
       477   13 Jun 2027 21:32:45.764   13 Jun 2027 21:34:30.460           104.696               CapeTown         13087.000
       478   13 Jun 2027 21:39:05.934   13 Jun 2027 21:40:34.977            89.043               CapeTown         11130.375
