uniorb/output/strategy_4/Drop/Drop_KinoSat_110903.txt

KinoSat_110903
-------------------------
    Access    *     Start Time (UTCG)     *     Stop Time (UTCG)  *   Duration (s)        *       Station  *  Data (Mbytes)
         1   01 Jun 2027 03:51:54.597   01 Jun 2027 03:52:00.395             5.798                Anadyr2           181.188
         2   01 Jun 2027 03:52:09.983   01 Jun 2027 03:52:50.263            40.280               Magadan2          1258.750
         3   01 Jun 2027 03:52:50.263   01 Jun 2027 03:53:12.813            22.550               Magadan1           704.687
         4   01 Jun 2027 03:53:21.228   01 Jun 2027 03:55:11.665           110.437                Anadyr2          3451.156
         5   01 Jun 2027 03:55:11.665   01 Jun 2027 03:55:41.456            29.791                Anadyr1           930.969
         6   01 Jun 2027 03:56:36.886   01 Jun 2027 03:56:38.112             1.226               Magadan1            38.312
         7   01 Jun 2027 03:56:52.465   01 Jun 2027 03:56:59.315             6.850               Magadan1           214.062
         8   01 Jun 2027 05:28:53.154   01 Jun 2027 05:30:01.428            68.274                Irkutsk          2133.563
         9   01 Jun 2027 05:30:04.473   01 Jun 2027 05:31:02.602            58.129                Irkutsk          1816.531
        10   01 Jun 2027 05:31:22.350   01 Jun 2027 05:31:32.511            10.161               Magadan1           317.531
        11   01 Jun 2027 05:32:28.012   01 Jun 2027 05:32:56.463            28.451               Magadan1           889.094
        12   01 Jun 2027 06:09:18.073   01 Jun 2027 06:10:22.738            64.665            RioGallegos          2020.781
        13   01 Jun 2027 07:03:59.610   01 Jun 2027 07:05:27.386            87.776                Irkutsk          2743.000
        14   01 Jun 2027 07:05:27.894   01 Jun 2027 07:08:11.282           163.388               Magadan2          5105.875
        15   01 Jun 2027 07:08:24.031   01 Jun 2027 07:10:22.778           118.747                Norilsk          3710.844
        16   01 Jun 2027 07:10:28.778   01 Jun 2027 07:11:36.794            68.016              Murmansk1          2125.500
        17   01 Jun 2027 07:11:56.894   01 Jun 2027 07:12:49.018            52.124              Murmansk2          1628.875
        18   01 Jun 2027 07:44:50.589   01 Jun 2027 07:45:28.930            38.341            RioGallegos          1198.156
        19   01 Jun 2027 08:18:48.428   01 Jun 2027 08:20:54.877           126.449                Sumatra          3951.531
        20   01 Jun 2027 08:40:31.872   01 Jun 2027 08:42:24.675           112.803                Irkutsk          3525.094
        21   01 Jun 2027 08:42:37.928   01 Jun 2027 08:44:35.548           117.620              Murmansk2          3675.625
        22   01 Jun 2027 08:44:53.295   01 Jun 2027 08:45:02.706             9.411                Novosib           294.094
        23   01 Jun 2027 09:21:06.263   01 Jun 2027 09:21:14.439             8.176            RioGallegos           255.500
        24   01 Jun 2027 09:55:18.026   01 Jun 2027 09:55:52.532            34.506                Sumatra          1078.312
        25   01 Jun 2027 10:17:53.442   01 Jun 2027 10:18:06.293            12.851              Murmansk2           401.594
        26   01 Jun 2027 10:18:09.132   01 Jun 2027 10:19:15.255            66.123                Novosib          2066.344
        27   01 Jun 2027 10:19:35.321   01 Jun 2027 10:20:26.081            50.760                Novosib          1586.250
        28   01 Jun 2027 11:40:35.043   01 Jun 2027 11:40:54.130            19.087                  Delhi           596.469
        29   01 Jun 2027 11:42:15.330   01 Jun 2027 11:43:09.915            54.585                  Delhi          1705.781
        30   01 Jun 2027 11:44:12.218   01 Jun 2027 11:44:56.824            44.606                  Delhi          1393.938
        31   01 Jun 2027 11:53:22.599   01 Jun 2027 11:53:36.975            14.376                Novosib           449.250
        32   01 Jun 2027 11:53:38.545   01 Jun 2027 11:53:52.707            14.162              Murmansk2           442.563
        33   01 Jun 2027 11:53:54.023   01 Jun 2027 11:55:36.769           102.746                Norilsk          3210.812
        34   01 Jun 2027 11:55:44.075   01 Jun 2027 11:58:24.257           160.182                 Moscow          5005.687
        35   01 Jun 2027 13:04:15.902   01 Jun 2027 13:05:45.059            89.157               CapeTown          2786.156
        36   01 Jun 2027 13:07:48.343   01 Jun 2027 13:08:23.649            35.306               CapeTown          1103.313
        37   01 Jun 2027 13:23:11.432   01 Jun 2027 13:23:54.497            43.065                 Moscow          1345.781
        38   01 Jun 2027 13:24:06.147   01 Jun 2027 13:24:22.235            16.088                 Moscow           502.750
        39   01 Jun 2027 13:26:40.155   01 Jun 2027 13:28:39.179           119.024              Murmansk1          3719.500
        40   01 Jun 2027 13:29:29.582   01 Jun 2027 13:29:57.300            27.718              Murmansk2           866.187
        41   01 Jun 2027 13:30:15.843   01 Jun 2027 13:31:16.190            60.347              Murmansk2          1885.844
        42   01 Jun 2027 13:32:31.617   01 Jun 2027 13:33:13.735            42.118              Murmansk2          1316.188
        43   01 Jun 2027 13:33:55.124   01 Jun 2027 13:34:45.017            49.893              Murmansk1          1559.156
        44   01 Jun 2027 13:35:06.961   01 Jun 2027 13:36:07.158            60.197              Murmansk1          1881.156
        45   01 Jun 2027 13:36:47.118   01 Jun 2027 13:37:00.975            13.857              Murmansk1           433.031
        46   01 Jun 2027 13:37:00.975   01 Jun 2027 13:37:33.597            32.622              Murmansk2          1019.438
        47   01 Jun 2027 13:37:51.916   01 Jun 2027 13:38:03.467            11.551              Murmansk2           360.969
        48   01 Jun 2027 13:38:15.409   01 Jun 2027 13:38:32.659            17.250              Murmansk1           539.063
        49   01 Jun 2027 13:38:32.659   01 Jun 2027 13:39:11.775            39.116              Murmansk2          1222.375
        50   01 Jun 2027 13:41:59.306   01 Jun 2027 13:43:04.564            65.258                Anadyr1          2039.312
        51   01 Jun 2027 13:43:04.564   01 Jun 2027 13:45:58.132           173.568                Anadyr2          5424.000
        52   01 Jun 2027 13:47:54.340   01 Jun 2027 13:48:36.686            42.346                Anadyr1          1323.313
        53   01 Jun 2027 14:46:57.512   01 Jun 2027 14:48:17.628            80.116               CapeTown          2503.625
        54   01 Jun 2027 15:08:16.988   01 Jun 2027 15:09:14.416            57.428                 Moscow          1794.625
        55   01 Jun 2027 15:10:31.958   01 Jun 2027 15:11:08.122            36.164              Murmansk2          1130.125
        56   01 Jun 2027 15:12:24.634   01 Jun 2027 15:13:19.796            55.162              Murmansk1          1723.813
        57   01 Jun 2027 15:13:44.151   01 Jun 2027 15:15:04.029            79.878              Murmansk2          2496.187
        58   01 Jun 2027 15:18:52.672   01 Jun 2027 15:19:12.046            19.374                Anadyr1           605.437
        59   01 Jun 2027 15:19:51.738   01 Jun 2027 15:20:25.448            33.710                Anadyr2          1053.437
        60   01 Jun 2027 15:20:25.448   01 Jun 2027 15:21:00.354            34.906                Anadyr1          1090.812
        61   01 Jun 2027 15:21:43.811   01 Jun 2027 15:22:40.717            56.906                Anadyr1          1778.313
        62   01 Jun 2027 15:23:12.246   01 Jun 2027 15:23:30.432            18.186                Anadyr2           568.312
        63   01 Jun 2027 15:23:43.919   01 Jun 2027 15:24:16.400            32.481                Anadyr2          1015.031
        64   01 Jun 2027 15:24:56.385   01 Jun 2027 15:26:03.344            66.959                Anadyr2          2092.469
        65   01 Jun 2027 15:27:30.468   01 Jun 2027 15:28:22.081            51.613                Anadyr1          1612.906
        66   01 Jun 2027 15:28:22.081   01 Jun 2027 15:28:26.223             4.142                Anadyr2           129.438
        67   01 Jun 2027 15:28:29.164   01 Jun 2027 15:28:44.150            14.986                Anadyr2           468.312
        68   01 Jun 2027 16:46:41.106   01 Jun 2027 16:48:49.449           128.343              Murmansk2          4010.719
        69   01 Jun 2027 16:53:32.587   01 Jun 2027 16:54:07.171            34.584                Anadyr2          1080.750
        70   01 Jun 2027 16:54:32.274   01 Jun 2027 16:54:34.057             1.783                Anadyr2            55.719
        71   01 Jun 2027 16:54:56.474   01 Jun 2027 16:55:30.878            34.404                Anadyr2          1075.125
        72   01 Jun 2027 16:55:39.368   01 Jun 2027 16:57:24.340           104.972               Magadan1          3280.375
        73   01 Jun 2027 16:58:03.506   01 Jun 2027 16:59:29.306            85.800               Magadan1          2681.250
        74   01 Jun 2027 17:04:07.397   01 Jun 2027 17:04:29.359            21.962                Anadyr2           686.312
        75   01 Jun 2027 17:04:58.157   01 Jun 2027 17:05:21.168            23.011                Anadyr1           719.094
        76   01 Jun 2027 17:05:37.744   01 Jun 2027 17:05:55.012            17.268               Magadan2           539.625
        77   01 Jun 2027 17:06:32.086   01 Jun 2027 17:06:40.323             8.237               Magadan2           257.406
        78   01 Jun 2027 18:28:44.152   01 Jun 2027 18:30:27.189           103.037                Anadyr1          3219.906
        79   01 Jun 2027 18:30:48.219   01 Jun 2027 18:32:02.855            74.636                Anadyr2          2332.375
        80   01 Jun 2027 18:32:24.498   01 Jun 2027 18:32:45.955            21.457                Anadyr2           670.531
        81   01 Jun 2027 18:32:49.413   01 Jun 2027 18:34:59.926           130.513                Norilsk          4078.531
        82   01 Jun 2027 18:39:20.358   01 Jun 2027 18:39:31.708            11.350               Magadan2           354.688
        83   01 Jun 2027 18:39:50.206   01 Jun 2027 18:40:49.060            58.854               Magadan2          1839.188
        84   01 Jun 2027 18:42:54.126   01 Jun 2027 18:43:10.068            15.942               Magadan1           498.187
        85   01 Jun 2027 19:23:20.060   01 Jun 2027 19:25:02.805           102.745            RioGallegos          3210.781
        86   01 Jun 2027 19:25:53.687   01 Jun 2027 19:26:54.760            61.073            RioGallegos          1908.531
        87   01 Jun 2027 19:30:51.186   01 Jun 2027 19:32:44.780           113.594            RioGallegos          3549.812
        88   01 Jun 2027 20:06:36.052   01 Jun 2027 20:07:21.911            45.859                Norilsk          1433.094
        89   01 Jun 2027 20:07:28.490   01 Jun 2027 20:08:31.123            62.633                Norilsk          1957.281
        90   01 Jun 2027 20:10:50.588   01 Jun 2027 20:12:21.514            90.926                Irkutsk          2841.438
        91   01 Jun 2027 20:13:20.962   01 Jun 2027 20:14:48.984            88.022                Novosib          2750.687
        92   01 Jun 2027 20:15:40.716   01 Jun 2027 20:15:49.894             9.178                Novosib           286.812
        93   01 Jun 2027 20:16:02.895   01 Jun 2027 20:17:04.797            61.902                Novosib          1934.438
        94   01 Jun 2027 20:25:50.489   01 Jun 2027 20:27:04.627            74.138                Sumatra          2316.812
        95   01 Jun 2027 20:31:55.080   01 Jun 2027 20:34:03.700           128.620                Sumatra          4019.375
        96   01 Jun 2027 21:46:23.037   01 Jun 2027 21:46:39.029            15.992                Irkutsk           499.750
        97   01 Jun 2027 21:46:52.414   01 Jun 2027 21:48:09.369            76.955                Novosib          2404.844
        98   01 Jun 2027 21:49:27.920   01 Jun 2027 21:50:28.309            60.389                Novosib          1887.156
        99   01 Jun 2027 21:53:30.279   01 Jun 2027 21:53:51.068            20.789                Novosib           649.656
       100   01 Jun 2027 21:54:31.068   01 Jun 2027 21:56:53.718           142.650                  Delhi          4457.813
       101   01 Jun 2027 21:59:48.741   01 Jun 2027 22:00:46.725            57.984                  Delhi          1812.000
       102   01 Jun 2027 23:15:02.272   01 Jun 2027 23:15:19.898            17.626                Anadyr1           550.813
       103   01 Jun 2027 23:16:25.856   01 Jun 2027 23:16:48.203            22.347                Anadyr1           698.344
       104   01 Jun 2027 23:18:31.869   01 Jun 2027 23:20:11.243            99.374                Norilsk          3105.437
       105   01 Jun 2027 23:20:11.313   01 Jun 2027 23:20:46.674            35.361               Magadan2          1105.031
       106   01 Jun 2027 23:20:56.384   01 Jun 2027 23:23:26.865           150.481              Murmansk2          4702.531
       107   01 Jun 2027 23:23:31.882   01 Jun 2027 23:23:41.536             9.654              Murmansk1           301.687
       108   01 Jun 2027 23:25:50.725   01 Jun 2027 23:26:07.313            16.588              Murmansk1           518.375
       109   01 Jun 2027 23:26:15.934   01 Jun 2027 23:27:04.981            49.047                 Moscow          1532.719
       110   01 Jun 2027 23:28:05.548   01 Jun 2027 23:29:33.479            87.931                 Moscow          2747.844
       111   01 Jun 2027 23:31:28.017   01 Jun 2027 23:31:48.045            20.028                 Moscow           625.875
       112   02 Jun 2027 00:46:10.515   02 Jun 2027 00:46:33.414            22.899                Anadyr2           715.594
       113   02 Jun 2027 00:47:03.214   02 Jun 2027 00:47:38.589            35.375                Anadyr2          1105.469
       114   02 Jun 2027 00:48:00.022   02 Jun 2027 00:48:25.964            25.942                Anadyr1           810.687
       115   02 Jun 2027 00:48:47.132   02 Jun 2027 00:48:54.119             6.987                Anadyr1           218.344
       116   02 Jun 2027 00:49:00.919   02 Jun 2027 00:49:14.627            13.708                Anadyr2           428.375
       117   02 Jun 2027 00:51:24.548   02 Jun 2027 00:52:36.322            71.774               Magadan2          2242.938
       118   02 Jun 2027 00:52:36.322   02 Jun 2027 00:53:11.005            34.683               Magadan1          1083.844
       119   02 Jun 2027 00:53:25.792   02 Jun 2027 00:54:31.780            65.988               Magadan1          2062.125
       120   02 Jun 2027 00:56:39.087   02 Jun 2027 00:58:27.069           107.982              Murmansk2          3374.438
       121   02 Jun 2027 00:59:39.466   02 Jun 2027 01:00:33.089            53.623              Murmansk1          1675.719
       122   02 Jun 2027 01:03:59.787   02 Jun 2027 01:05:49.857           110.070                 Moscow          3439.687
       123   02 Jun 2027 01:26:37.018   02 Jun 2027 01:27:24.251            47.233               CapeTown          1476.031
       124   02 Jun 2027 01:32:43.406   02 Jun 2027 01:33:51.303            67.897               CapeTown          2121.781
       125   02 Jun 2027 02:20:36.941   02 Jun 2027 02:21:33.334            56.393                Anadyr1          1762.281
       126   02 Jun 2027 02:23:12.551   02 Jun 2027 02:23:36.806            24.255               Magadan2           757.969
       127   02 Jun 2027 02:23:41.582   02 Jun 2027 02:24:13.050            31.468               Magadan1           983.375
       128   02 Jun 2027 02:25:50.683   02 Jun 2027 02:26:08.047            17.364               Magadan2           542.625
       129   02 Jun 2027 02:27:27.805   02 Jun 2027 02:27:37.716             9.911               Magadan1           309.719
       130   02 Jun 2027 02:28:26.377   02 Jun 2027 02:28:52.984            26.607               Magadan2           831.469
       131   02 Jun 2027 02:29:42.867   02 Jun 2027 02:29:47.737             4.870                Norilsk           152.187
       132   02 Jun 2027 02:30:24.477   02 Jun 2027 02:30:36.999            12.522               Magadan2           391.313
       133   02 Jun 2027 02:30:53.997   02 Jun 2027 02:31:42.975            48.978               Magadan2          1530.563
       134   02 Jun 2027 02:32:37.134   02 Jun 2027 02:33:37.527            60.393              Murmansk2          1887.281
       135   02 Jun 2027 02:36:23.316   02 Jun 2027 02:36:33.459            10.143                 Moscow           316.969
       136   02 Jun 2027 02:36:40.212   02 Jun 2027 02:37:03.624            23.412                Novosib           731.625
       137   02 Jun 2027 02:37:56.629   02 Jun 2027 02:38:15.896            19.267                Novosib           602.094
       138   02 Jun 2027 02:41:53.558   02 Jun 2027 02:42:14.225            20.667                 Moscow           645.844
       139   02 Jun 2027 02:43:13.972   02 Jun 2027 02:43:23.210             9.238              Murmansk1           288.687
       140   02 Jun 2027 02:44:06.612   02 Jun 2027 02:44:23.041            16.429                 Moscow           513.406
       141   02 Jun 2027 02:46:18.603   02 Jun 2027 02:46:55.678            37.075                 Moscow          1158.594
       142   02 Jun 2027 03:04:37.121   02 Jun 2027 03:05:26.825            49.704               CapeTown          1553.250
       143   02 Jun 2027 04:02:55.040   02 Jun 2027 04:03:46.665            51.625                Anadyr1          1613.281
       144   02 Jun 2027 04:03:53.312   02 Jun 2027 04:05:22.402            89.090                Anadyr1          2784.063
       145   02 Jun 2027 04:05:31.823   02 Jun 2027 04:05:59.441            27.618                Anadyr2           863.062
       146   02 Jun 2027 04:06:56.078   02 Jun 2027 04:07:13.202            17.124                Anadyr1           535.125
       147   02 Jun 2027 04:07:43.894   02 Jun 2027 04:08:40.500            56.606               Magadan1          1768.937
       148   02 Jun 2027 04:53:17.781   02 Jun 2027 04:53:42.211            24.430            RioGallegos           763.437
       149   02 Jun 2027 05:41:00.520   02 Jun 2027 05:41:59.483            58.963               Magadan2          1842.594
       150   02 Jun 2027 05:42:30.126   02 Jun 2027 05:44:37.656           127.530               Magadan2          3985.313
       151   02 Jun 2027 07:16:22.045   02 Jun 2027 07:17:42.549            80.504                Irkutsk          2515.750
       152   02 Jun 2027 07:17:59.918   02 Jun 2027 07:18:28.808            28.890                Novosib           902.812
       153   02 Jun 2027 07:19:05.736   02 Jun 2027 07:20:04.864            59.128               Magadan2          1847.750
       154   02 Jun 2027 07:20:24.825   02 Jun 2027 07:21:29.023            64.198              Murmansk2          2006.188
       155   02 Jun 2027 07:21:33.220   02 Jun 2027 07:21:49.022            15.802                Novosib           493.813
       156   02 Jun 2027 07:23:31.813   02 Jun 2027 07:23:55.278            23.465                Norilsk           733.281
       157   02 Jun 2027 08:07:18.839   02 Jun 2027 08:07:27.895             9.056            RioGallegos           283.000
       158   02 Jun 2027 08:30:32.655   02 Jun 2027 08:33:12.574           159.919                Sumatra          4997.469
       159   02 Jun 2027 08:39:06.499   02 Jun 2027 08:39:59.111            52.612                Sumatra          1644.125
       160   02 Jun 2027 08:53:22.379   02 Jun 2027 08:54:23.174            60.795                Irkutsk          1899.844
       161   02 Jun 2027 08:54:29.053   02 Jun 2027 08:56:35.412           126.359                Irkutsk          3948.719
       162   02 Jun 2027 08:56:53.463   02 Jun 2027 08:57:52.765            59.302                Novosib          1853.187
       163   02 Jun 2027 10:29:23.914   02 Jun 2027 10:30:02.413            38.499                Novosib          1203.094
       164   02 Jun 2027 10:30:09.172   02 Jun 2027 10:31:31.175            82.003                Novosib          2562.594
       165   02 Jun 2027 10:31:38.630   02 Jun 2027 10:32:09.024            30.394                Norilsk           949.813
       166   02 Jun 2027 11:53:41.071   02 Jun 2027 11:57:14.466           213.395                  Delhi          6668.594
       167   02 Jun 2027 13:18:13.285   02 Jun 2027 13:19:56.054           102.769               CapeTown          3211.531
       168   02 Jun 2027 13:20:49.767   02 Jun 2027 13:22:00.940            71.173               CapeTown          2224.156
       169   02 Jun 2027 13:38:51.350   02 Jun 2027 13:38:58.307             6.957                 Moscow           217.406
       170   02 Jun 2027 13:39:11.939   02 Jun 2027 13:40:00.443            48.504              Murmansk2          1515.750
       171   02 Jun 2027 13:40:17.531   02 Jun 2027 13:40:26.636             9.105              Murmansk2           284.531
       172   02 Jun 2027 13:40:48.795   02 Jun 2027 13:41:30.346            41.551              Murmansk1          1298.469
       173   02 Jun 2027 13:43:14.250   02 Jun 2027 13:43:37.780            23.530              Murmansk1           735.313
       174   02 Jun 2027 13:45:52.898   02 Jun 2027 13:46:32.275            39.377              Murmansk2          1230.531
       175   02 Jun 2027 13:50:24.603   02 Jun 2027 13:50:56.405            31.802              Murmansk2           993.813
       176   02 Jun 2027 13:53:45.504   02 Jun 2027 13:56:01.216           135.712                Anadyr2          4241.000
       177   02 Jun 2027 13:57:13.663   02 Jun 2027 13:57:25.598            11.935                Anadyr1           372.969
       178   02 Jun 2027 13:58:36.018   02 Jun 2027 13:59:54.748            78.730                Anadyr2          2460.313
       179   02 Jun 2027 15:17:28.884   02 Jun 2027 15:18:20.912            52.028              Murmansk1          1625.875
       180   02 Jun 2027 15:21:24.780   02 Jun 2027 15:21:33.806             9.026              Murmansk2           282.062
       181   02 Jun 2027 15:22:39.340   02 Jun 2027 15:23:08.677            29.337              Murmansk1           916.781
       182   02 Jun 2027 15:25:11.148   02 Jun 2027 15:27:02.529           111.381              Murmansk2          3480.656
       183   02 Jun 2027 15:30:19.559   02 Jun 2027 15:30:41.663            22.104                Anadyr2           690.750
       184   02 Jun 2027 15:30:51.408   02 Jun 2027 15:31:09.587            18.179                Anadyr1           568.094
       185   02 Jun 2027 15:33:37.331   02 Jun 2027 15:36:06.565           149.234               Magadan1          4663.562
       186   02 Jun 2027 15:36:06.565   02 Jun 2027 15:36:46.864            40.299               Magadan2          1259.344
       187   02 Jun 2027 17:04:50.809   02 Jun 2027 17:07:22.303           151.494                Anadyr2          4734.188
       188   02 Jun 2027 17:07:49.792   02 Jun 2027 17:08:11.551            21.759                Anadyr1           679.969
       189   02 Jun 2027 17:08:30.135   02 Jun 2027 17:09:38.729            68.594               Magadan2          2143.563
       190   02 Jun 2027 17:12:21.740   02 Jun 2027 17:12:46.331            24.591               Magadan2           768.469
       191   02 Jun 2027 17:13:24.098   02 Jun 2027 17:13:58.551            34.453               Magadan1          1076.656
       192   02 Jun 2027 17:18:38.959   02 Jun 2027 17:19:02.467            23.508               Magadan1           734.625
       193   02 Jun 2027 18:40:44.709   02 Jun 2027 18:44:26.036           221.327                Anadyr2          6916.469
       194   02 Jun 2027 18:44:27.464   02 Jun 2027 18:44:47.422            19.958               Magadan1           623.688
       195   02 Jun 2027 18:44:51.162   02 Jun 2027 18:47:26.627           155.465                Norilsk          4858.281
       196   02 Jun 2027 19:35:08.138   02 Jun 2027 19:37:30.820           142.682            RioGallegos          4458.812
       197   02 Jun 2027 19:38:16.137   02 Jun 2027 19:38:35.816            19.679            RioGallegos           614.969
       198   02 Jun 2027 19:44:26.677   02 Jun 2027 19:44:35.289             8.612            RioGallegos           269.125
       199   02 Jun 2027 19:46:02.417   02 Jun 2027 19:46:06.036             3.619            RioGallegos           113.094
       200   02 Jun 2027 20:17:58.768   02 Jun 2027 20:18:43.009            44.241                Anadyr1          1382.531
       201   02 Jun 2027 20:19:01.005   02 Jun 2027 20:20:27.444            86.439                Norilsk          2701.219
       202   02 Jun 2027 20:20:56.068   02 Jun 2027 20:21:18.599            22.531               Magadan1           704.094
       203   02 Jun 2027 20:22:05.003   02 Jun 2027 20:22:12.395             7.392               Magadan1           231.000
       204   02 Jun 2027 20:22:40.567   02 Jun 2027 20:22:47.151             6.584                Norilsk           205.750
       205   02 Jun 2027 20:22:52.994   02 Jun 2027 20:25:13.967           140.973                Irkutsk          4405.406
       206   02 Jun 2027 20:25:33.620   02 Jun 2027 20:26:50.947            77.327                Novosib          2416.469
       207   02 Jun 2027 20:29:29.248   02 Jun 2027 20:29:50.193            20.945                Novosib           654.531
       208   02 Jun 2027 20:29:58.876   02 Jun 2027 20:30:32.514            33.638                Novosib          1051.188
       209   02 Jun 2027 20:36:27.166   02 Jun 2027 20:38:48.646           141.480                Sumatra          4421.250
       210   02 Jun 2027 21:55:10.600   02 Jun 2027 21:56:01.792            51.192               Magadan2          1599.750
       211   02 Jun 2027 21:58:25.809   02 Jun 2027 21:59:01.846            36.037                Irkutsk          1126.156
       212   02 Jun 2027 22:00:07.573   02 Jun 2027 22:01:32.209            84.636                Irkutsk          2644.875
       213   02 Jun 2027 22:04:25.005   02 Jun 2027 22:04:26.868             1.863                Novosib            58.219
       214   02 Jun 2027 22:05:39.909   02 Jun 2027 22:05:55.285            15.376                Novosib           480.500
       215   02 Jun 2027 22:06:13.529   02 Jun 2027 22:09:07.281           173.752                  Delhi          5429.750
       216   02 Jun 2027 22:14:56.479   02 Jun 2027 22:15:37.827            41.348                  Delhi          1292.125
       217   02 Jun 2027 23:26:47.328   02 Jun 2027 23:27:12.298            24.970                Anadyr1           780.313
       218   02 Jun 2027 23:30:32.796   02 Jun 2027 23:32:28.225           115.429               Magadan2          3607.156
       219   02 Jun 2027 23:32:53.667   02 Jun 2027 23:36:52.159           238.492              Murmansk1          7452.875
       220   02 Jun 2027 23:37:33.117   02 Jun 2027 23:39:02.597            89.480                 Moscow          2796.250
       221   02 Jun 2027 23:40:54.414   02 Jun 2027 23:41:30.723            36.309                 Moscow          1134.656
       222   02 Jun 2027 23:41:51.316   02 Jun 2027 23:42:46.287            54.971                 Moscow          1717.844
       223   03 Jun 2027 01:02:52.509   03 Jun 2027 01:04:05.822            73.313               Magadan1          2291.031
       224   03 Jun 2027 01:04:55.459   03 Jun 2027 01:05:24.732            29.273               Magadan2           914.781
       225   03 Jun 2027 01:06:18.684   03 Jun 2027 01:06:21.792             3.108                Norilsk            97.125
       226   03 Jun 2027 01:06:31.234   03 Jun 2027 01:07:09.759            38.525               Magadan1          1203.906
       227   03 Jun 2027 01:08:40.495   03 Jun 2027 01:11:17.614           157.119              Murmansk2          4909.969
       228   03 Jun 2027 01:12:00.640   03 Jun 2027 01:12:02.436             1.796                 Moscow            56.125
       229   03 Jun 2027 01:13:52.458   03 Jun 2027 01:14:10.072            17.614                 Moscow           550.437
       230   03 Jun 2027 01:18:07.959   03 Jun 2027 01:18:27.527            19.568              Murmansk2           611.500
       231   03 Jun 2027 01:23:25.140   03 Jun 2027 01:23:55.939            30.799                 Moscow           962.469
       232   03 Jun 2027 01:36:13.663   03 Jun 2027 01:36:31.739            18.076               CapeTown           564.875
       233   03 Jun 2027 01:38:48.663   03 Jun 2027 01:39:06.125            17.462               CapeTown           545.687
       234   03 Jun 2027 01:44:01.191   03 Jun 2027 01:44:20.048            18.857               CapeTown           589.281
       235   03 Jun 2027 01:47:06.096   03 Jun 2027 01:47:39.842            33.746               CapeTown          1054.563
       236   03 Jun 2027 02:32:34.097   03 Jun 2027 02:33:32.708            58.611                Anadyr2          1831.594
       237   03 Jun 2027 02:33:45.355   03 Jun 2027 02:34:04.527            19.172                Anadyr1           599.125
       238   03 Jun 2027 02:34:30.303   03 Jun 2027 02:34:35.910             5.607                Anadyr2           175.219
       239   03 Jun 2027 02:34:45.182   03 Jun 2027 02:35:00.919            15.737                Anadyr1           491.781
       240   03 Jun 2027 02:35:21.646   03 Jun 2027 02:35:28.352             6.706               Magadan1           209.562
       241   03 Jun 2027 02:35:42.472   03 Jun 2027 02:36:06.172            23.700               Magadan2           740.625
       242   03 Jun 2027 02:36:58.516   03 Jun 2027 02:37:19.427            20.911               Magadan2           653.469
       243   03 Jun 2027 02:37:23.799   03 Jun 2027 02:37:46.064            22.265               Magadan2           695.781
       244   03 Jun 2027 02:41:28.277   03 Jun 2027 02:42:21.640            53.363               Magadan1          1667.594
       245   03 Jun 2027 02:44:38.683   03 Jun 2027 02:45:37.425            58.742              Murmansk1          1835.687
       246   03 Jun 2027 02:46:26.907   03 Jun 2027 02:46:34.147             7.240              Murmansk2           226.250
       247   03 Jun 2027 02:47:53.785   03 Jun 2027 02:48:46.450            52.665                 Moscow          1645.781
       248   03 Jun 2027 02:50:52.115   03 Jun 2027 02:50:55.545             3.430                 Moscow           107.187
       249   03 Jun 2027 02:52:05.938   03 Jun 2027 02:52:15.852             9.914                 Moscow           309.813
       250   03 Jun 2027 02:53:45.727   03 Jun 2027 02:54:12.087            26.360                 Moscow           823.750
       251   03 Jun 2027 02:59:37.508   03 Jun 2027 02:59:45.190             7.682                 Moscow           240.062
       252   03 Jun 2027 03:12:45.723   03 Jun 2027 03:13:16.483            30.760               CapeTown           961.250
       253   03 Jun 2027 04:13:49.591   03 Jun 2027 04:15:27.059            97.468                Anadyr2          3045.875
       254   03 Jun 2027 04:15:30.575   03 Jun 2027 04:15:45.968            15.393                Anadyr1           481.031
       255   03 Jun 2027 04:15:45.968   03 Jun 2027 04:15:53.883             7.915                Anadyr2           247.344
       256   03 Jun 2027 04:15:57.420   03 Jun 2027 04:17:23.409            85.989                Anadyr2          2687.156
       257   03 Jun 2027 04:17:32.923   03 Jun 2027 04:18:10.735            37.812                Anadyr1          1181.625
       258   03 Jun 2027 04:18:13.164   03 Jun 2027 04:18:36.532            23.368               Magadan1           730.250
       259   03 Jun 2027 04:18:53.675   03 Jun 2027 04:19:14.734            21.059                Anadyr2           658.094
       260   03 Jun 2027 05:03:08.538   03 Jun 2027 05:03:15.970             7.432            RioGallegos           232.250
       261   03 Jun 2027 05:05:40.405   03 Jun 2027 05:05:46.306             5.901            RioGallegos           184.406
       262   03 Jun 2027 05:51:10.239   03 Jun 2027 05:51:45.972            35.733                Irkutsk          1116.656
       263   03 Jun 2027 05:52:16.312   03 Jun 2027 05:53:00.635            44.323               Magadan2          1385.094
       264   03 Jun 2027 05:53:17.994   03 Jun 2027 05:53:57.188            39.194                Irkutsk          1224.813
       265   03 Jun 2027 05:54:12.697   03 Jun 2027 05:56:05.082           112.385               Magadan1          3512.031
       266   03 Jun 2027 07:26:58.304   03 Jun 2027 07:27:17.264            18.960               Magadan1           592.500
       267   03 Jun 2027 07:28:09.426   03 Jun 2027 07:28:12.962             3.536               Magadan1           110.500
       268   03 Jun 2027 07:28:15.301   03 Jun 2027 07:28:25.725            10.424               Magadan2           325.750
       269   03 Jun 2027 07:28:59.056   03 Jun 2027 07:29:06.243             7.187               Magadan2           224.594
       270   03 Jun 2027 07:29:35.842   03 Jun 2027 07:30:40.256            64.414               Magadan1          2012.938
       271   03 Jun 2027 07:31:04.519   03 Jun 2027 07:31:07.657             3.138               Magadan2            98.063
       272   03 Jun 2027 07:31:08.570   03 Jun 2027 07:31:41.715            33.145               Magadan1          1035.781
       273   03 Jun 2027 07:32:37.029   03 Jun 2027 07:33:28.377            51.348              Murmansk1          1604.625
       274   03 Jun 2027 08:08:54.072   03 Jun 2027 08:09:18.325            24.253            RioGallegos           757.906
       275   03 Jun 2027 08:42:23.173   03 Jun 2027 08:43:25.002            61.829                Sumatra          1932.156
       276   03 Jun 2027 08:45:18.068   03 Jun 2027 08:45:23.591             5.523                Sumatra           172.594
       277   03 Jun 2027 09:02:47.866   03 Jun 2027 09:03:25.594            37.728                Irkutsk          1179.000
       278   03 Jun 2027 09:03:32.799   03 Jun 2027 09:04:21.630            48.831                Irkutsk          1525.969
       279   03 Jun 2027 09:04:42.194   03 Jun 2027 09:05:43.732            61.538                Irkutsk          1923.063
       280   03 Jun 2027 09:06:00.383   03 Jun 2027 09:06:20.448            20.065                Irkutsk           627.031
       281   03 Jun 2027 09:06:22.384   03 Jun 2027 09:06:32.671            10.287                Irkutsk           321.469
       282   03 Jun 2027 09:07:06.654   03 Jun 2027 09:07:06.903             0.249                Irkutsk             7.781
       283   03 Jun 2027 09:07:47.576   03 Jun 2027 09:08:52.870            65.294                Novosib          2040.437
       284   03 Jun 2027 09:48:25.745   03 Jun 2027 09:49:17.568            51.823            RioGallegos          1619.469
       285   03 Jun 2027 10:21:06.208   03 Jun 2027 10:22:03.852            57.644                Sumatra          1801.375
       286   03 Jun 2027 10:30:57.879   03 Jun 2027 10:31:02.447             4.568                  Delhi           142.750
       287   03 Jun 2027 10:40:42.961   03 Jun 2027 10:41:44.850            61.889                Norilsk          1934.031
       288   03 Jun 2027 10:42:07.948   03 Jun 2027 10:42:08.419             0.471                Novosib            14.719
       289   03 Jun 2027 10:43:08.656   03 Jun 2027 10:43:20.051            11.395                Novosib           356.094
       290   03 Jun 2027 10:43:40.431   03 Jun 2027 10:44:09.193            28.762                Norilsk           898.813
       291   03 Jun 2027 10:44:18.946   03 Jun 2027 10:44:40.069            21.123                Norilsk           660.094
       292   03 Jun 2027 12:07:41.488   03 Jun 2027 12:09:42.996           121.508                  Delhi          3797.125
       293   03 Jun 2027 12:15:30.278   03 Jun 2027 12:16:16.260            45.982              Murmansk2          1436.938
       294   03 Jun 2027 12:16:25.830   03 Jun 2027 12:17:16.422            50.592                Novosib          1581.000
       295   03 Jun 2027 12:17:32.966   03 Jun 2027 12:17:43.264            10.298                Norilsk           321.812
       296   03 Jun 2027 12:19:40.868   03 Jun 2027 12:19:58.327            17.459                Norilsk           545.594
       297   03 Jun 2027 13:30:34.332   03 Jun 2027 13:30:46.264            11.932               CapeTown           372.875
       298   03 Jun 2027 13:32:06.906   03 Jun 2027 13:32:44.409            37.503               CapeTown          1171.969
       299   03 Jun 2027 13:34:19.433   03 Jun 2027 13:35:01.824            42.391               CapeTown          1324.719
       300   03 Jun 2027 13:47:47.033   03 Jun 2027 13:48:34.728            47.695                 Moscow          1490.469
       301   03 Jun 2027 13:51:06.153   03 Jun 2027 13:51:20.653            14.500              Murmansk1           453.125
       302   03 Jun 2027 13:51:28.462   03 Jun 2027 13:52:48.750            80.288              Murmansk2          2509.000
       303   03 Jun 2027 13:54:56.504   03 Jun 2027 13:55:19.656            23.152              Murmansk2           723.500
       304   03 Jun 2027 13:55:33.156   03 Jun 2027 13:55:41.056             7.900              Murmansk1           246.875
       305   03 Jun 2027 13:56:15.570   03 Jun 2027 13:56:20.228             4.658              Murmansk1           145.563
       306   03 Jun 2027 13:58:19.612   03 Jun 2027 13:59:15.035            55.423              Murmansk1          1731.969
       307   03 Jun 2027 14:01:17.368   03 Jun 2027 14:01:33.357            15.989              Murmansk2           499.656
       308   03 Jun 2027 14:03:06.699   03 Jun 2027 14:03:14.930             8.231              Murmansk2           257.219
       309   03 Jun 2027 14:05:35.764   03 Jun 2027 14:09:14.821           219.057                Anadyr1          6845.531
       310   03 Jun 2027 15:11:30.085   03 Jun 2027 15:11:52.449            22.364               CapeTown           698.875
       311   03 Jun 2027 15:30:01.611   03 Jun 2027 15:31:16.908            75.297              Murmansk2          2353.031
       312   03 Jun 2027 15:33:14.833   03 Jun 2027 15:33:20.338             5.505              Murmansk2           172.031
       313   03 Jun 2027 15:33:35.060   03 Jun 2027 15:34:01.695            26.635              Murmansk1           832.344
       314   03 Jun 2027 15:35:19.022   03 Jun 2027 15:35:27.478             8.456              Murmansk2           264.250
       315   03 Jun 2027 15:40:58.959   03 Jun 2027 15:42:50.957           111.998                Anadyr1          3499.938
       316   03 Jun 2027 15:42:54.673   03 Jun 2027 15:43:11.741            17.068                Anadyr2           533.375
       317   03 Jun 2027 15:43:51.351   03 Jun 2027 15:45:15.662            84.311                Anadyr2          2634.719
       318   03 Jun 2027 15:45:23.144   03 Jun 2027 15:47:55.104           151.960               Magadan1          4748.750
       319   03 Jun 2027 15:50:36.800   03 Jun 2027 15:50:57.003            20.203               Magadan2           631.344
       320   03 Jun 2027 17:16:52.218   03 Jun 2027 17:18:18.399            86.181                Anadyr2          2693.156
       321   03 Jun 2027 17:18:27.213   03 Jun 2027 17:18:34.212             6.999                Anadyr2           218.719
       322   03 Jun 2027 17:18:51.521   03 Jun 2027 17:19:31.495            39.974                Anadyr1          1249.187
       323   03 Jun 2027 17:19:54.942   03 Jun 2027 17:20:59.481            64.539               Magadan2          2016.844
       324   03 Jun 2027 17:23:50.815   03 Jun 2027 17:25:22.672            91.857               Magadan2          2870.531
       325   03 Jun 2027 18:52:44.983   03 Jun 2027 18:54:29.868           104.885                Anadyr2          3277.656
       326   03 Jun 2027 18:54:49.412   03 Jun 2027 18:56:35.215           105.803                Anadyr1          3306.344
       327   03 Jun 2027 18:56:52.799   03 Jun 2027 18:58:55.644           122.845                Norilsk          3838.906
       328   03 Jun 2027 19:00:13.792   03 Jun 2027 19:00:58.136            44.344                Norilsk          1385.750
       329   03 Jun 2027 19:01:12.425   03 Jun 2027 19:01:41.706            29.281                Irkutsk           915.031
       330   03 Jun 2027 19:02:49.269   03 Jun 2027 19:03:43.861            54.592                Irkutsk          1706.000
       331   03 Jun 2027 19:04:06.540   03 Jun 2027 19:05:02.094            55.554                Irkutsk          1736.063
       332   03 Jun 2027 19:05:56.813   03 Jun 2027 19:06:10.078            13.265                Irkutsk           414.531
       333   03 Jun 2027 19:49:17.031   03 Jun 2027 19:49:57.861            40.830            RioGallegos          1275.938
       334   03 Jun 2027 19:56:34.145   03 Jun 2027 19:57:04.270            30.125            RioGallegos           941.406
       335   03 Jun 2027 20:30:37.190   03 Jun 2027 20:30:55.188            17.998                Norilsk           562.438
       336   03 Jun 2027 20:31:08.469   03 Jun 2027 20:31:55.798            47.329               Magadan2          1479.031
       337   03 Jun 2027 20:33:13.365   03 Jun 2027 20:34:11.321            57.956               Magadan1          1811.125
       338   03 Jun 2027 20:35:34.069   03 Jun 2027 20:36:13.810            39.741                Norilsk          1241.906
       339   03 Jun 2027 20:36:27.478   03 Jun 2027 20:37:03.847            36.369                Irkutsk          1136.531
       340   03 Jun 2027 20:37:31.453   03 Jun 2027 20:39:12.690           101.237                Novosib          3163.656
       341   03 Jun 2027 20:39:31.447   03 Jun 2027 20:39:59.027            27.580                Novosib           861.875
       342   03 Jun 2027 20:40:23.317   03 Jun 2027 20:41:08.751            45.434                Novosib          1419.812
       343   03 Jun 2027 20:48:20.617   03 Jun 2027 20:49:12.815            52.198                Sumatra          1631.188
       344   03 Jun 2027 20:55:16.995   03 Jun 2027 20:55:41.321            24.326                Sumatra           760.187
       345   03 Jun 2027 20:56:45.394   03 Jun 2027 20:57:52.215            66.821                Sumatra          2088.156
       346   03 Jun 2027 22:07:12.033   03 Jun 2027 22:08:29.945            77.912               Magadan1          2434.750
       347   03 Jun 2027 22:10:29.344   03 Jun 2027 22:10:51.287            21.943                Irkutsk           685.719
       348   03 Jun 2027 22:12:08.360   03 Jun 2027 22:13:07.667            59.307                Novosib          1853.344
       349   03 Jun 2027 22:18:01.202   03 Jun 2027 22:21:36.974           215.772                  Delhi          6742.875
       350   03 Jun 2027 23:41:51.591   03 Jun 2027 23:42:00.661             9.070                Anadyr1           283.437
       351   03 Jun 2027 23:42:08.509   03 Jun 2027 23:42:16.427             7.918                Anadyr2           247.438
       352   03 Jun 2027 23:42:18.359   03 Jun 2027 23:43:49.354            90.995               Magadan2          2843.594
       353   03 Jun 2027 23:44:11.997   03 Jun 2027 23:44:15.055             3.058                Norilsk            95.562
       354   03 Jun 2027 23:44:40.030   03 Jun 2027 23:44:50.107            10.077               Magadan2           314.906
       355   03 Jun 2027 23:44:52.023   03 Jun 2027 23:49:00.147           248.124              Murmansk1          7753.875
       356   03 Jun 2027 23:49:10.677   03 Jun 2027 23:50:20.434            69.757                 Moscow          2179.906
       357   03 Jun 2027 23:53:25.214   03 Jun 2027 23:54:03.424            38.210                 Moscow          1194.063
       358   03 Jun 2027 23:55:07.330   03 Jun 2027 23:55:40.590            33.260                 Moscow          1039.375
       359   04 Jun 2027 00:17:40.240   04 Jun 2027 00:18:25.550            45.310               CapeTown          1415.937
       360   04 Jun 2027 00:19:18.881   04 Jun 2027 00:20:14.956            56.075               CapeTown          1752.344
       361   04 Jun 2027 01:14:20.553   04 Jun 2027 01:15:38.838            78.285               Magadan1          2446.406
       362   04 Jun 2027 01:18:08.258   04 Jun 2027 01:18:36.145            27.887               Magadan2           871.469
       363   04 Jun 2027 01:18:56.011   04 Jun 2027 01:19:11.536            15.525                Norilsk           485.156
       364   04 Jun 2027 01:20:42.038   04 Jun 2027 01:22:29.680           107.642              Murmansk2          3363.813
       365   04 Jun 2027 01:23:09.967   04 Jun 2027 01:23:22.774            12.807                Novosib           400.219
       366   04 Jun 2027 01:23:59.206   04 Jun 2027 01:25:49.866           110.660                 Moscow          3458.125
       367   04 Jun 2027 01:51:29.214   04 Jun 2027 01:51:37.476             8.262               CapeTown           258.188
       368   04 Jun 2027 01:52:59.173   04 Jun 2027 01:54:08.000            68.827               CapeTown          2150.844
       369   04 Jun 2027 02:44:33.049   04 Jun 2027 02:45:31.511            58.462                Anadyr2          1826.937
       370   04 Jun 2027 02:45:45.917   04 Jun 2027 02:46:19.462            33.545                Anadyr2          1048.281
       371   04 Jun 2027 02:46:25.855   04 Jun 2027 02:46:34.209             8.354               Magadan2           261.063
       372   04 Jun 2027 02:46:46.716   04 Jun 2027 02:47:24.368            37.652               Magadan1          1176.625
       373   04 Jun 2027 02:48:52.857   04 Jun 2027 02:49:00.570             7.713               Magadan1           241.031
       374   04 Jun 2027 02:50:04.771   04 Jun 2027 02:50:32.115            27.344               Magadan1           854.500
       375   04 Jun 2027 02:52:57.988   04 Jun 2027 02:53:00.929             2.941               Magadan1            91.906
       376   04 Jun 2027 02:53:19.128   04 Jun 2027 02:53:50.110            30.982               Magadan2           968.188
       377   04 Jun 2027 02:56:09.584   04 Jun 2027 02:56:33.209            23.625                Norilsk           738.281
       378   04 Jun 2027 02:56:40.125   04 Jun 2027 02:57:19.060            38.935              Murmansk1          1216.719
       379   04 Jun 2027 02:57:19.060   04 Jun 2027 02:57:29.709            10.649              Murmansk2           332.781
       380   04 Jun 2027 02:58:30.583   04 Jun 2027 02:58:34.768             4.185              Murmansk2           130.781
       381   04 Jun 2027 02:58:59.309   04 Jun 2027 03:00:01.507            62.198              Murmansk1          1943.687
       382   04 Jun 2027 03:03:38.637   04 Jun 2027 03:03:46.166             7.529              Murmansk2           235.281
       383   04 Jun 2027 03:03:51.481   04 Jun 2027 03:04:10.007            18.526                Norilsk           578.937
       384   04 Jun 2027 03:04:52.777   04 Jun 2027 03:05:36.391            43.614              Murmansk2          1362.937
       385   04 Jun 2027 04:25:30.922   04 Jun 2027 04:26:38.610            67.688                Anadyr1          2115.250
       386   04 Jun 2027 04:26:58.263   04 Jun 2027 04:27:18.827            20.564               Magadan1           642.625
       387   04 Jun 2027 04:27:18.827   04 Jun 2027 04:28:32.713            73.886               Magadan2          2308.937
       388   04 Jun 2027 04:28:40.446   04 Jun 2027 04:29:31.908            51.462                Norilsk          1608.187
       389   04 Jun 2027 04:29:51.678   04 Jun 2027 04:32:45.077           173.399               Magadan1          5418.719
       390   04 Jun 2027 06:02:12.158   04 Jun 2027 06:03:21.804            69.646                Irkutsk          2176.437
       391   04 Jun 2027 06:03:33.794   04 Jun 2027 06:05:01.010            87.216                Irkutsk          2725.500
       392   04 Jun 2027 06:05:18.942   04 Jun 2027 06:06:36.148            77.206                Anadyr2          2412.688
       393   04 Jun 2027 06:06:37.911   04 Jun 2027 06:07:00.175            22.264                Novosib           695.750
       394   04 Jun 2027 06:07:05.758   04 Jun 2027 06:07:35.239            29.481                Anadyr2           921.281
       395   04 Jun 2027 06:08:01.737   04 Jun 2027 06:08:29.985            28.248                Anadyr1           882.750
       396   04 Jun 2027 06:08:53.138   04 Jun 2027 06:08:54.239             1.101               Magadan1            34.406
       397   04 Jun 2027 07:38:58.017   04 Jun 2027 07:39:20.340            22.323               Magadan2           697.594
       398   04 Jun 2027 07:40:17.064   04 Jun 2027 07:40:35.085            18.021               Magadan2           563.156
       399   04 Jun 2027 07:41:43.764   04 Jun 2027 07:42:38.132            54.368               Magadan1          1699.000
       400   04 Jun 2027 07:42:51.769   04 Jun 2027 07:43:11.231            19.462               Magadan1           608.187
       401   04 Jun 2027 07:43:14.825   04 Jun 2027 07:44:07.486            52.661                Novosib          1645.656
       402   04 Jun 2027 07:44:21.887   04 Jun 2027 07:45:03.196            41.309              Murmansk2          1290.906
       403   04 Jun 2027 08:19:35.847   04 Jun 2027 08:19:55.005            19.158            RioGallegos           598.687
       404   04 Jun 2027 08:20:26.184   04 Jun 2027 08:20:44.491            18.307            RioGallegos           572.094
       405   04 Jun 2027 08:22:06.241   04 Jun 2027 08:22:38.511            32.270            RioGallegos          1008.438
       406   04 Jun 2027 08:54:19.472   04 Jun 2027 08:54:58.439            38.967                Sumatra          1217.719
       407   04 Jun 2027 09:02:52.982   04 Jun 2027 09:03:55.022            62.040                Sumatra          1938.750
       408   04 Jun 2027 09:16:41.196   04 Jun 2027 09:17:14.986            33.790                Irkutsk          1055.937
       409   04 Jun 2027 09:17:22.669   04 Jun 2027 09:18:00.080            37.411                Irkutsk          1169.094
       410   04 Jun 2027 09:18:14.937   04 Jun 2027 09:18:15.068             0.131                Novosib             4.094
       411   04 Jun 2027 09:18:20.166   04 Jun 2027 09:18:35.520            15.354                Irkutsk           479.812
       412   04 Jun 2027 09:19:08.844   04 Jun 2027 09:19:19.024            10.180                Norilsk           318.125
       413   04 Jun 2027 09:19:43.367   04 Jun 2027 09:19:53.278             9.911                Novosib           309.719
       414   04 Jun 2027 09:20:00.783   04 Jun 2027 09:20:27.830            27.047                Irkutsk           845.219
       415   04 Jun 2027 09:20:51.419   04 Jun 2027 09:21:20.747            29.328                Novosib           916.500
       416   04 Jun 2027 09:59:29.587   04 Jun 2027 09:59:57.381            27.794            RioGallegos           868.562
       417   04 Jun 2027 10:00:31.445   04 Jun 2027 10:01:11.365            39.920            RioGallegos          1247.500
       418   04 Jun 2027 10:38:41.642   04 Jun 2027 10:39:23.752            42.110                  Delhi          1315.938
       419   04 Jun 2027 10:41:39.543   04 Jun 2027 10:43:11.460            91.917                  Delhi          2872.406
       420   04 Jun 2027 10:52:55.278   04 Jun 2027 10:54:06.766            71.488                Novosib          2234.000
       421   04 Jun 2027 10:54:52.244   04 Jun 2027 10:55:27.362            35.118                Norilsk          1097.438
       422   04 Jun 2027 10:55:33.226   04 Jun 2027 10:55:42.358             9.132                Norilsk           285.375
       423   04 Jun 2027 10:56:01.126   04 Jun 2027 10:56:04.741             3.615                Novosib           112.969
       424   04 Jun 2027 10:56:11.157   04 Jun 2027 10:56:27.660            16.503                Norilsk           515.719
       425   04 Jun 2027 12:23:13.165   04 Jun 2027 12:23:24.507            11.342                 Moscow           354.437
       426   04 Jun 2027 12:26:21.459   04 Jun 2027 12:26:52.128            30.669              Murmansk1           958.406
       427   04 Jun 2027 12:27:19.988   04 Jun 2027 12:28:34.369            74.381              Murmansk1          2324.406
       428   04 Jun 2027 12:29:58.610   04 Jun 2027 12:30:36.394            37.784              Murmansk2          1180.750
       429   04 Jun 2027 12:30:57.650   04 Jun 2027 12:33:34.262           156.612                Norilsk          4894.125
       430   04 Jun 2027 13:37:38.919   04 Jun 2027 13:39:17.140            98.221               CapeTown          3069.406
       431   04 Jun 2027 13:40:19.176   04 Jun 2027 13:40:50.974            31.798               CapeTown           993.688
       432   04 Jun 2027 13:41:05.877   04 Jun 2027 13:42:29.374            83.497               CapeTown          2609.281
       433   04 Jun 2027 13:44:21.410   04 Jun 2027 13:44:28.577             7.167               CapeTown           223.969
       434   04 Jun 2027 14:03:22.093   04 Jun 2027 14:03:47.821            25.728              Murmansk1           804.000
       435   04 Jun 2027 14:03:59.005   04 Jun 2027 14:04:18.106            19.101              Murmansk2           596.906
       436   04 Jun 2027 14:05:32.597   04 Jun 2027 14:06:20.628            48.031              Murmansk2          1500.969
       437   04 Jun 2027 14:09:44.294   04 Jun 2027 14:09:50.051             5.757              Murmansk2           179.906
       438   04 Jun 2027 14:11:16.752   04 Jun 2027 14:11:54.495            37.743              Murmansk2          1179.469
       439   04 Jun 2027 14:12:29.257   04 Jun 2027 14:13:06.020            36.763              Murmansk2          1148.844
       440   04 Jun 2027 14:17:28.703   04 Jun 2027 14:20:01.478           152.775                Anadyr1          4774.219
       441   04 Jun 2027 14:22:41.172   04 Jun 2027 14:23:22.850            41.678                Anadyr1          1302.438
       442   04 Jun 2027 15:42:37.484   04 Jun 2027 15:44:12.984            95.500              Murmansk1          2984.375
       443   04 Jun 2027 15:47:08.392   04 Jun 2027 15:47:11.143             2.751              Murmansk2            85.969
       444   04 Jun 2027 15:48:08.890   04 Jun 2027 15:48:18.911            10.021              Murmansk2           313.156
       445   04 Jun 2027 15:48:27.221   04 Jun 2027 15:48:41.406            14.185              Murmansk2           443.281
       446   04 Jun 2027 15:52:59.304   04 Jun 2027 15:53:49.743            50.439                Anadyr1          1576.219
       447   04 Jun 2027 15:54:14.992   04 Jun 2027 15:54:48.922            33.930                Anadyr2          1060.312
       448   04 Jun 2027 15:54:58.352   04 Jun 2027 15:55:33.277            34.925                Anadyr1          1091.406
       449   04 Jun 2027 15:55:55.732   04 Jun 2027 15:57:02.756            67.024                Anadyr2          2094.500
       450   04 Jun 2027 15:57:25.727   04 Jun 2027 15:59:41.568           135.841               Magadan2          4245.031
       451   04 Jun 2027 15:59:41.568   04 Jun 2027 15:59:54.212            12.644               Magadan1           395.125
       452   04 Jun 2027 16:00:51.593   04 Jun 2027 16:02:12.753            81.160               Magadan2          2536.250
       453   04 Jun 2027 17:28:53.611   04 Jun 2027 17:30:08.311            74.700                Anadyr1          2334.375
       454   04 Jun 2027 17:30:47.939   04 Jun 2027 17:30:49.843             1.904                Anadyr2            59.500
       455   04 Jun 2027 17:31:09.788   04 Jun 2027 17:31:12.788             3.000                Anadyr2            93.750
       456   04 Jun 2027 17:31:16.033   04 Jun 2027 17:33:09.259           113.226               Magadan2          3538.313
       457   04 Jun 2027 17:38:25.266   04 Jun 2027 17:38:35.848            10.582               Magadan2           330.688
       458   04 Jun 2027 17:38:43.820   04 Jun 2027 17:38:52.132             8.312               Magadan1           259.750
       459   04 Jun 2027 17:42:44.997   04 Jun 2027 17:42:49.900             4.903               Magadan1           153.219
       460   04 Jun 2027 17:43:01.914   04 Jun 2027 17:43:07.677             5.763               Magadan2           180.094
       461   04 Jun 2027 19:04:44.907   04 Jun 2027 19:08:29.198           224.291                Anadyr2          7009.094
       462   04 Jun 2027 19:08:34.264   04 Jun 2027 19:10:13.300            99.036               Magadan1          3094.875
       463   04 Jun 2027 19:12:16.020   04 Jun 2027 19:13:43.866            87.846                Norilsk          2745.187
       464   04 Jun 2027 19:13:50.930   04 Jun 2027 19:15:28.308            97.378                Irkutsk          3043.063
       465   04 Jun 2027 19:18:50.759   04 Jun 2027 19:19:25.757            34.998                Irkutsk          1093.688
       466   04 Jun 2027 19:28:33.346   04 Jun 2027 19:32:52.255           258.909                Sumatra          8090.906
       467   04 Jun 2027 20:46:36.983   04 Jun 2027 20:47:37.049            60.066                Irkutsk          1877.063
       468   04 Jun 2027 20:48:25.661   04 Jun 2027 20:48:51.308            25.647                Irkutsk           801.469
       469   04 Jun 2027 20:48:59.261   04 Jun 2027 20:51:03.668           124.407                Novosib          3887.719
       470   04 Jun 2027 20:53:37.498   04 Jun 2027 20:54:02.001            24.503                Novosib           765.719
       471   04 Jun 2027 21:00:19.710   04 Jun 2027 21:00:25.889             6.179                Sumatra           193.094
       472   04 Jun 2027 21:00:41.551   04 Jun 2027 21:00:53.906            12.355                Sumatra           386.094
       473   04 Jun 2027 21:04:18.206   04 Jun 2027 21:04:49.539            31.333                Sumatra           979.156
       474   04 Jun 2027 21:07:05.639   04 Jun 2027 21:08:55.858           110.219                Sumatra          3444.344
       475   04 Jun 2027 22:22:10.948   04 Jun 2027 22:25:23.295           192.347              Murmansk2          6010.844
       476   04 Jun 2027 22:29:53.177   04 Jun 2027 22:31:13.414            80.237                  Delhi          2507.406
       477   04 Jun 2027 22:32:47.955   04 Jun 2027 22:32:57.139             9.184                  Delhi           287.000
       478   04 Jun 2027 22:35:50.732   04 Jun 2027 22:37:00.776            70.044                  Delhi          2188.875
       479   04 Jun 2027 23:53:51.835   04 Jun 2027 23:53:54.415             2.580                Anadyr1            80.625
       480   04 Jun 2027 23:53:59.567   04 Jun 2027 23:55:30.917            91.350               Magadan1          2854.688
       481   04 Jun 2027 23:56:47.305   04 Jun 2027 23:57:41.096            53.791               Magadan2          1680.969
       482   04 Jun 2027 23:57:46.098   04 Jun 2027 23:59:45.964           119.866              Murmansk2          3745.813
