uniorb/output/strategy_4/Drop/Drop_KinoSat_112005.txt

KinoSat_112005
-------------------------
    Access    *     Start Time (UTCG)     *     Stop Time (UTCG)  *   Duration (s)        *       Station  *  Data (Mbytes)
         1   01 Jun 2027 03:00:01.643   01 Jun 2027 03:00:09.650             8.007                Norilsk           250.219
         2   01 Jun 2027 03:00:44.932   01 Jun 2027 03:01:52.018            67.086                Norilsk          2096.437
         3   01 Jun 2027 03:02:13.812   01 Jun 2027 03:03:48.677            94.865                Irkutsk          2964.531
         4   01 Jun 2027 03:03:51.308   01 Jun 2027 03:04:06.675            15.367                Norilsk           480.219
         5   01 Jun 2027 03:04:17.559   01 Jun 2027 03:06:17.542           119.983                  Delhi          3749.469
         6   01 Jun 2027 03:15:08.872   01 Jun 2027 03:17:50.447           161.575                Sumatra          5049.219
         7   01 Jun 2027 03:45:32.661   01 Jun 2027 03:45:37.567             4.906            RioGallegos           153.312
         8   01 Jun 2027 03:49:02.510   01 Jun 2027 03:49:25.985            23.475            RioGallegos           733.594
         9   01 Jun 2027 04:35:17.263   01 Jun 2027 04:36:48.528            91.265                Irkutsk          2852.031
        10   01 Jun 2027 04:37:19.215   01 Jun 2027 04:40:05.360           166.145                Irkutsk          5192.031
        11   01 Jun 2027 04:40:49.094   01 Jun 2027 04:46:14.206           325.112                  Delhi         10159.750
        12   01 Jun 2027 06:14:50.738   01 Jun 2027 06:15:36.845            46.107              Murmansk1          1440.844
        13   01 Jun 2027 06:15:52.386   01 Jun 2027 06:16:32.459            40.073                Norilsk          1252.281
        14   01 Jun 2027 06:16:33.877   01 Jun 2027 06:19:28.685           174.808              Murmansk2          5462.750
        15   01 Jun 2027 06:21:57.066   01 Jun 2027 06:22:32.041            34.975                 Moscow          1092.969
        16   01 Jun 2027 06:34:18.673   01 Jun 2027 06:38:05.492           226.819               CapeTown          7088.094
        17   01 Jun 2027 06:41:17.514   01 Jun 2027 06:42:21.451            63.937               CapeTown          1998.031
        18   01 Jun 2027 07:38:09.367   01 Jun 2027 07:38:15.024             5.657                Anadyr2           176.781
        19   01 Jun 2027 07:38:57.762   01 Jun 2027 07:39:01.379             3.617               Magadan2           113.031
        20   01 Jun 2027 07:39:01.379   01 Jun 2027 07:41:15.511           134.132               Magadan1          4191.625
        21   01 Jun 2027 07:49:26.066   01 Jun 2027 07:50:09.253            43.187              Murmansk2          1349.594
        22   01 Jun 2027 07:52:04.309   01 Jun 2027 07:52:22.800            18.491                 Moscow           577.844
        23   01 Jun 2027 07:52:55.619   01 Jun 2027 07:53:59.670            64.051                 Moscow          2001.594
        24   01 Jun 2027 07:55:57.398   01 Jun 2027 07:56:17.008            19.610                 Moscow           612.812
        25   01 Jun 2027 08:11:52.391   01 Jun 2027 08:18:54.491           422.100               CapeTown         13190.625
        26   01 Jun 2027 09:13:57.384   01 Jun 2027 09:14:58.932            61.548                Anadyr2          1923.375
        27   01 Jun 2027 09:15:27.548   01 Jun 2027 09:16:10.896            43.348               Magadan1          1354.625
        28   01 Jun 2027 09:16:14.105   01 Jun 2027 09:17:50.280            96.175               Magadan2          3005.469
        29   01 Jun 2027 09:18:25.423   01 Jun 2027 09:19:41.536            76.113                Anadyr2          2378.531
        30   01 Jun 2027 10:46:55.714   01 Jun 2027 10:47:50.025            54.311               Magadan2          1697.219
        31   01 Jun 2027 10:48:03.893   01 Jun 2027 10:54:51.061           407.168                Anadyr1         12724.000
        32   01 Jun 2027 12:23:14.353   01 Jun 2027 12:29:48.154           393.801               Magadan1         12306.281
        33   01 Jun 2027 14:46:06.771   01 Jun 2027 14:52:25.150           378.379            RioGallegos         11824.344
        34   01 Jun 2027 17:17:50.632   01 Jun 2027 17:19:15.673            85.041                Norilsk          2657.531
        35   01 Jun 2027 20:29:05.611   01 Jun 2027 20:30:41.797            96.186              Murmansk2          3005.813
        36   01 Jun 2027 20:31:29.620   01 Jun 2027 20:34:50.365           200.745              Murmansk1          6273.281
        37   01 Jun 2027 20:35:01.104   01 Jun 2027 20:37:21.649           140.545              Murmansk2          4392.031
        38   01 Jun 2027 23:51:06.620   01 Jun 2027 23:52:42.006            95.386                Anadyr2          2980.813
        39   01 Jun 2027 23:52:48.716   01 Jun 2027 23:53:17.822            29.106                Anadyr1           909.563
        40   01 Jun 2027 23:53:18.212   01 Jun 2027 23:54:43.403            85.191                Norilsk          2662.219
        41   01 Jun 2027 23:54:52.945   01 Jun 2027 23:56:00.296            67.351               Magadan1          2104.719
        42   01 Jun 2027 23:58:33.907   01 Jun 2027 23:59:04.604            30.697                Irkutsk           959.281
        43   02 Jun 2027 00:00:07.577   02 Jun 2027 00:01:17.260            69.683                Irkutsk          2177.594
        44   02 Jun 2027 00:01:39.044   02 Jun 2027 00:01:49.197            10.153                Irkutsk           317.281
        45   02 Jun 2027 00:14:23.134   02 Jun 2027 00:15:55.881            92.747                Sumatra          2898.344
        46   02 Jun 2027 00:17:03.208   02 Jun 2027 00:18:48.837           105.629                Sumatra          3300.906
        47   02 Jun 2027 00:53:08.920   02 Jun 2027 00:53:33.220            24.300            RioGallegos           759.375
        48   02 Jun 2027 00:56:33.456   02 Jun 2027 00:56:39.129             5.673            RioGallegos           177.281
        49   02 Jun 2027 01:26:30.584   02 Jun 2027 01:27:12.766            42.182                Anadyr2          1318.188
        50   02 Jun 2027 01:27:21.585   02 Jun 2027 01:28:01.297            39.712                Anadyr1          1241.000
        51   02 Jun 2027 01:28:19.735   02 Jun 2027 01:28:33.310            13.575                Anadyr1           424.219
        52   02 Jun 2027 01:28:56.884   02 Jun 2027 01:31:00.504           123.620                Norilsk          3863.125
        53   02 Jun 2027 01:31:19.992   02 Jun 2027 01:31:47.616            27.624               Magadan1           863.250
        54   02 Jun 2027 01:32:55.763   02 Jun 2027 01:35:52.827           177.064                Irkutsk          5533.250
        55   02 Jun 2027 01:42:34.199   02 Jun 2027 01:42:44.206            10.007                Novosib           312.719
        56   02 Jun 2027 01:43:50.495   02 Jun 2027 01:43:54.602             4.107                Irkutsk           128.344
        57   02 Jun 2027 01:46:40.786   02 Jun 2027 01:48:32.637           111.851                Sumatra          3495.344
        58   02 Jun 2027 01:49:48.983   02 Jun 2027 01:51:02.459            73.476                Sumatra          2296.125
        59   02 Jun 2027 01:55:53.575   02 Jun 2027 01:56:11.312            17.737                Sumatra           554.281
        60   02 Jun 2027 02:26:55.216   02 Jun 2027 02:27:15.803            20.587            RioGallegos           643.344
        61   02 Jun 2027 02:27:40.252   02 Jun 2027 02:27:51.420            11.168            RioGallegos           349.000
        62   02 Jun 2027 02:29:09.632   02 Jun 2027 02:29:49.270            39.638            RioGallegos          1238.687
        63   02 Jun 2027 03:09:04.438   02 Jun 2027 03:11:04.252           119.814               Magadan1          3744.188
        64   02 Jun 2027 03:11:04.252   02 Jun 2027 03:11:07.239             2.987               Magadan2            93.344
        65   02 Jun 2027 03:11:22.358   02 Jun 2027 03:11:41.120            18.762               Magadan2           586.313
        66   02 Jun 2027 03:12:37.989   02 Jun 2027 03:12:48.564            10.575                Irkutsk           330.469
        67   02 Jun 2027 03:12:52.482   02 Jun 2027 03:13:16.699            24.217                Novosib           756.781
        68   02 Jun 2027 03:13:40.263   02 Jun 2027 03:15:46.641           126.378                Novosib          3949.312
        69   02 Jun 2027 03:16:00.169   02 Jun 2027 03:17:43.680           103.511                Novosib          3234.719
        70   02 Jun 2027 03:17:57.006   02 Jun 2027 03:18:35.230            38.224                Irkutsk          1194.500
        71   02 Jun 2027 03:19:11.574   02 Jun 2027 03:19:46.282            34.708                  Delhi          1084.625
        72   02 Jun 2027 03:22:44.342   02 Jun 2027 03:23:11.651            27.309                  Delhi           853.406
        73   02 Jun 2027 03:57:46.822   02 Jun 2027 04:02:33.251           286.429            RioGallegos          8950.906
        74   02 Jun 2027 04:49:05.351   02 Jun 2027 04:51:22.304           136.953                Irkutsk          4279.781
        75   02 Jun 2027 04:52:13.969   02 Jun 2027 04:52:36.428            22.459                Irkutsk           701.844
        76   02 Jun 2027 04:53:16.415   02 Jun 2027 05:02:18.848           542.433                  Delhi         16951.031
        77   02 Jun 2027 06:28:07.203   02 Jun 2027 06:28:29.128            21.925                Novosib           685.156
        78   02 Jun 2027 06:28:35.953   02 Jun 2027 06:30:03.486            87.533              Murmansk1          2735.406
        79   02 Jun 2027 07:50:11.038   02 Jun 2027 07:51:21.159            70.121                Anadyr1          2191.281
        80   02 Jun 2027 07:54:01.440   02 Jun 2027 07:55:04.297            62.857                Anadyr2          1964.281
        81   02 Jun 2027 08:24:44.184   02 Jun 2027 08:24:47.194             3.010               CapeTown            94.062
        82   02 Jun 2027 08:31:16.261   02 Jun 2027 08:32:51.530            95.269               CapeTown          2977.156
        83   02 Jun 2027 09:24:49.497   02 Jun 2027 09:25:25.904            36.407               Magadan1          1137.719
        84   02 Jun 2027 09:25:31.129   02 Jun 2027 09:29:58.319           267.190                Anadyr2          8349.687
        85   02 Jun 2027 09:31:06.393   02 Jun 2027 09:31:41.324            34.931                Anadyr1          1091.594
        86   02 Jun 2027 11:00:17.734   02 Jun 2027 11:01:11.262            53.528               Magadan2          1672.750
        87   02 Jun 2027 11:01:23.581   02 Jun 2027 11:04:52.915           209.334               Magadan1          6541.688
        88   02 Jun 2027 11:05:14.495   02 Jun 2027 11:07:13.085           118.590               Magadan2          3705.937
        89   02 Jun 2027 12:21:33.511   02 Jun 2027 12:21:40.752             7.241                Sumatra           226.281
        90   02 Jun 2027 12:21:42.019   02 Jun 2027 12:21:54.304            12.285                Sumatra           383.906
        91   02 Jun 2027 12:22:27.272   02 Jun 2027 12:22:41.856            14.584                Sumatra           455.750
        92   02 Jun 2027 12:30:23.291   02 Jun 2027 12:32:42.583           139.292                Irkutsk          4352.875
        93   02 Jun 2027 12:35:17.872   02 Jun 2027 12:35:45.608            27.736                Norilsk           866.750
        94   02 Jun 2027 12:36:25.250   02 Jun 2027 12:41:14.466           289.216               Magadan1          9038.000
        95   02 Jun 2027 13:55:47.421   02 Jun 2027 13:57:13.819            86.398                Sumatra          2699.938
        96   02 Jun 2027 14:01:30.974   02 Jun 2027 14:02:25.213            54.239                Sumatra          1694.969
        97   02 Jun 2027 14:07:16.948   02 Jun 2027 14:08:03.988            47.040                Irkutsk          1470.000
        98   02 Jun 2027 14:12:12.713   02 Jun 2027 14:12:44.622            31.909                Norilsk           997.156
        99   02 Jun 2027 14:15:40.388   02 Jun 2027 14:17:12.354            91.966                Irkutsk          2873.937
       100   02 Jun 2027 14:59:39.982   02 Jun 2027 15:03:24.871           224.889            RioGallegos          7027.781
       101   02 Jun 2027 15:45:13.374   02 Jun 2027 15:50:03.672           290.298                Novosib          9071.812
       102   02 Jun 2027 17:22:39.640   02 Jun 2027 17:23:23.572            43.932                 Moscow          1372.875
       103   02 Jun 2027 17:24:35.929   02 Jun 2027 17:24:36.140             0.211                 Moscow             6.594
       104   02 Jun 2027 17:24:46.533   02 Jun 2027 17:25:28.050            41.517              Murmansk1          1297.406
       105   02 Jun 2027 17:28:28.670   02 Jun 2027 17:29:34.877            66.207                 Moscow          2068.969
       106   02 Jun 2027 17:29:37.051   02 Jun 2027 17:30:32.531            55.480                Norilsk          1733.750
       107   02 Jun 2027 17:32:10.303   02 Jun 2027 17:33:23.805            73.502                Norilsk          2296.937
       108   02 Jun 2027 17:34:33.397   02 Jun 2027 17:35:40.841            67.444                Norilsk          2107.625
       109   02 Jun 2027 18:59:08.252   02 Jun 2027 19:00:50.719           102.467                 Moscow          3202.094
       110   02 Jun 2027 19:02:05.291   02 Jun 2027 19:03:56.931           111.640              Murmansk2          3488.750
       111   02 Jun 2027 19:04:32.484   02 Jun 2027 19:04:46.741            14.257                 Moscow           445.531
       112   02 Jun 2027 19:05:54.719   02 Jun 2027 19:06:00.096             5.377              Murmansk1           168.031
       113   02 Jun 2027 19:06:00.096   02 Jun 2027 19:06:32.447            32.351              Murmansk2          1010.969
       114   02 Jun 2027 19:11:46.881   02 Jun 2027 19:11:53.793             6.912              Murmansk1           216.000
       115   02 Jun 2027 20:10:54.314   02 Jun 2027 20:13:35.308           160.994               CapeTown          5031.063
       116   02 Jun 2027 20:19:00.820   02 Jun 2027 20:19:07.337             6.517               CapeTown           203.656
       117   02 Jun 2027 20:41:46.340   02 Jun 2027 20:44:07.986           141.646              Murmansk2          4426.437
       118   02 Jun 2027 20:44:33.471   02 Jun 2027 20:49:17.720           284.249              Murmansk1          8882.781
       119   02 Jun 2027 22:27:16.410   02 Jun 2027 22:29:11.825           115.415                Anadyr2          3606.719
       120   02 Jun 2027 22:29:34.438   02 Jun 2027 22:33:18.978           224.540               Magadan2          7016.875
       121   02 Jun 2027 22:36:44.050   02 Jun 2027 22:36:50.250             6.200               Magadan1           193.750
       122   02 Jun 2027 22:37:23.648   02 Jun 2027 22:37:57.817            34.169               Magadan1          1067.781
       123   02 Jun 2027 22:38:50.930   02 Jun 2027 22:39:08.868            17.938               Magadan1           560.562
       124   02 Jun 2027 23:23:28.907   02 Jun 2027 23:26:02.253           153.346            RioGallegos          4792.062
       125   03 Jun 2027 00:03:06.547   03 Jun 2027 00:04:37.059            90.512                Anadyr1          2828.500
       126   03 Jun 2027 00:04:40.666   03 Jun 2027 00:05:21.434            40.768                Anadyr2          1274.000
       127   03 Jun 2027 00:05:30.038   03 Jun 2027 00:07:30.484           120.446               Magadan2          3763.937
       128   03 Jun 2027 00:07:30.484   03 Jun 2027 00:07:49.835            19.351               Magadan1           604.719
       129   03 Jun 2027 00:08:33.746   03 Jun 2027 00:08:42.057             8.311               Magadan2           259.719
       130   03 Jun 2027 00:08:56.281   03 Jun 2027 00:09:02.389             6.108               Magadan2           190.875
       131   03 Jun 2027 00:09:17.401   03 Jun 2027 00:09:59.199            41.798               Magadan2          1306.187
       132   03 Jun 2027 00:10:09.715   03 Jun 2027 00:11:02.078            52.363                Irkutsk          1636.344
       133   03 Jun 2027 00:12:09.330   03 Jun 2027 00:12:38.734            29.404                Irkutsk           918.875
       134   03 Jun 2027 00:14:25.668   03 Jun 2027 00:14:42.842            17.174                Irkutsk           536.688
       135   03 Jun 2027 00:25:12.281   03 Jun 2027 00:27:07.755           115.474                Sumatra          3608.562
       136   03 Jun 2027 00:33:31.961   03 Jun 2027 00:33:43.800            11.839                Sumatra           369.969
       137   03 Jun 2027 00:57:06.172   03 Jun 2027 00:58:26.782            80.610            RioGallegos          2519.063
       138   03 Jun 2027 01:05:23.214   03 Jun 2027 01:06:09.288            46.074            RioGallegos          1439.813
       139   03 Jun 2027 01:38:24.372   03 Jun 2027 01:38:36.706            12.334                Anadyr2           385.438
       140   03 Jun 2027 01:38:51.059   03 Jun 2027 01:38:58.004             6.945                Anadyr2           217.031
       141   03 Jun 2027 01:39:55.524   03 Jun 2027 01:40:05.801            10.277                Anadyr1           321.156
       142   03 Jun 2027 01:40:05.801   03 Jun 2027 01:40:33.310            27.509                Anadyr2           859.656
       143   03 Jun 2027 01:40:58.082   03 Jun 2027 01:41:04.901             6.819                Anadyr2           213.094
       144   03 Jun 2027 01:41:16.466   03 Jun 2027 01:41:35.694            19.228                Anadyr2           600.875
       145   03 Jun 2027 01:41:37.862   03 Jun 2027 01:43:39.933           122.071               Magadan1          3814.719
       146   03 Jun 2027 01:44:54.958   03 Jun 2027 01:48:03.642           188.684                Irkutsk          5896.375
       147   03 Jun 2027 01:55:41.212   03 Jun 2027 01:56:20.070            38.858                  Delhi          1214.312
       148   03 Jun 2027 01:58:47.828   03 Jun 2027 02:01:44.407           176.579                Sumatra          5518.094
       149   03 Jun 2027 02:39:26.813   03 Jun 2027 02:40:13.527            46.714            RioGallegos          1459.812
       150   03 Jun 2027 03:21:13.375   03 Jun 2027 03:23:08.419           115.044               Magadan1          3595.125
       151   03 Jun 2027 03:26:12.221   03 Jun 2027 03:28:45.491           153.270                Irkutsk          4789.688
       152   03 Jun 2027 03:28:55.490   03 Jun 2027 03:33:18.991           263.501                  Delhi          8234.406
       153   03 Jun 2027 04:10:04.173   03 Jun 2027 04:10:22.511            18.338            RioGallegos           573.062
       154   03 Jun 2027 04:12:55.278   03 Jun 2027 04:15:16.351           141.073            RioGallegos          4408.531
       155   03 Jun 2027 04:58:24.431   03 Jun 2027 05:00:39.804           135.373                Irkutsk          4230.406
       156   03 Jun 2027 05:01:35.305   03 Jun 2027 05:03:43.594           128.289                Irkutsk          4009.031
       157   03 Jun 2027 05:05:54.344   03 Jun 2027 05:13:23.206           448.862                  Delhi         14026.937
       158   03 Jun 2027 06:39:31.728   03 Jun 2027 06:40:04.142            32.414              Murmansk1          1012.938
       159   03 Jun 2027 06:40:12.434   03 Jun 2027 06:40:15.020             2.586                 Moscow            80.813
       160   03 Jun 2027 06:40:29.642   03 Jun 2027 06:40:35.181             5.539              Murmansk1           173.094
       161   03 Jun 2027 06:40:41.797   03 Jun 2027 06:40:48.874             7.077              Murmansk1           221.156
       162   03 Jun 2027 06:41:16.953   03 Jun 2027 06:42:01.240            44.287              Murmansk1          1383.969
       163   03 Jun 2027 06:44:45.862   03 Jun 2027 06:44:59.019            13.157                 Moscow           411.156
       164   03 Jun 2027 06:58:12.549   03 Jun 2027 07:01:26.313           193.764               CapeTown          6055.125
       165   03 Jun 2027 08:01:24.215   03 Jun 2027 08:02:12.557            48.342                Anadyr1          1510.687
       166   03 Jun 2027 08:02:40.191   03 Jun 2027 08:02:47.917             7.726               Magadan2           241.438
       167   03 Jun 2027 08:02:59.220   03 Jun 2027 08:03:04.197             4.977               Magadan1           155.531
       168   03 Jun 2027 08:03:27.628   03 Jun 2027 08:03:52.603            24.975                Anadyr1           780.469
       169   03 Jun 2027 08:04:36.928   03 Jun 2027 08:04:39.141             2.213                Anadyr1            69.156
       170   03 Jun 2027 08:06:02.288   03 Jun 2027 08:06:49.128            46.840                Anadyr1          1463.750
       171   03 Jun 2027 09:37:32.293   03 Jun 2027 09:37:53.483            21.190                Anadyr1           662.188
       172   03 Jun 2027 09:38:00.032   03 Jun 2027 09:38:11.951            11.919               Magadan1           372.469
       173   03 Jun 2027 09:38:47.710   03 Jun 2027 09:39:27.689            39.979               Magadan2          1249.344
       174   03 Jun 2027 09:40:10.462   03 Jun 2027 09:41:37.813            87.351               Magadan2          2729.719
       175   03 Jun 2027 11:09:38.345   03 Jun 2027 11:12:49.903           191.558               Magadan1          5986.188
       176   03 Jun 2027 11:13:18.030   03 Jun 2027 11:14:10.016            51.986               Magadan2          1624.562
       177   03 Jun 2027 11:15:26.413   03 Jun 2027 11:15:38.741            12.328                Irkutsk           385.250
       178   03 Jun 2027 11:15:39.769   03 Jun 2027 11:16:02.775            23.006                Irkutsk           718.938
       179   03 Jun 2027 11:16:17.248   03 Jun 2027 11:16:37.982            20.734                Norilsk           647.937
       180   03 Jun 2027 11:16:40.915   03 Jun 2027 11:18:21.222           100.307               Magadan2          3134.594
       181   03 Jun 2027 11:18:38.747   03 Jun 2027 11:18:47.487             8.740                Norilsk           273.125
       182   03 Jun 2027 11:18:59.353   03 Jun 2027 11:20:09.078            69.725                Norilsk          2178.906
       183   03 Jun 2027 12:00:42.299   03 Jun 2027 12:00:55.750            13.451            RioGallegos           420.344
       184   03 Jun 2027 12:30:46.593   03 Jun 2027 12:30:47.412             0.819                Sumatra            25.594
       185   03 Jun 2027 12:32:36.467   03 Jun 2027 12:33:17.233            40.766                Sumatra          1273.937
       186   03 Jun 2027 12:33:54.067   03 Jun 2027 12:34:58.648            64.581                Sumatra          2018.156
       187   03 Jun 2027 12:42:20.355   03 Jun 2027 12:44:27.473           127.118                Irkutsk          3972.438
       188   03 Jun 2027 12:47:15.882   03 Jun 2027 12:47:51.630            35.748                Norilsk          1117.125
       189   03 Jun 2027 12:50:26.916   03 Jun 2027 12:51:53.040            86.124               Magadan1          2691.375
       190   03 Jun 2027 13:32:53.359   03 Jun 2027 13:35:29.985           156.626            RioGallegos          4894.562
       191   03 Jun 2027 14:04:53.629   03 Jun 2027 14:05:18.568            24.939                Sumatra           779.344
       192   03 Jun 2027 14:07:39.900   03 Jun 2027 14:09:43.542           123.642                Sumatra          3863.812
       193   03 Jun 2027 14:19:44.321   03 Jun 2027 14:24:26.070           281.749                Irkutsk          8804.656
       194   03 Jun 2027 15:49:32.875   03 Jun 2027 15:51:19.871           106.996                  Delhi          3343.625
       195   03 Jun 2027 15:56:12.129   03 Jun 2027 15:59:28.794           196.665                  Delhi          6145.781
       196   03 Jun 2027 16:03:12.036   03 Jun 2027 16:03:27.752            15.716                Novosib           491.125
       197   03 Jun 2027 16:07:48.256   03 Jun 2027 16:07:56.261             8.005                Novosib           250.156
       198   03 Jun 2027 16:11:33.466   03 Jun 2027 16:12:08.278            34.812                Norilsk          1087.875
       199   03 Jun 2027 17:34:37.065   03 Jun 2027 17:36:37.203           120.138                 Moscow          3754.313
       200   03 Jun 2027 17:37:44.882   03 Jun 2027 17:38:20.673            35.791              Murmansk2          1118.469
       201   03 Jun 2027 17:38:44.486   03 Jun 2027 17:40:01.733            77.247              Murmansk1          2413.969
       202   03 Jun 2027 17:42:19.057   03 Jun 2027 17:44:45.338           146.281                Norilsk          4571.281
       203   03 Jun 2027 17:44:58.520   03 Jun 2027 17:45:22.818            24.298                Norilsk           759.313
       204   03 Jun 2027 17:46:53.405   03 Jun 2027 17:47:31.910            38.505                Norilsk          1203.281
       205   03 Jun 2027 19:11:44.398   03 Jun 2027 19:17:46.326           361.928                 Moscow         11310.250
       206   03 Jun 2027 20:24:33.831   03 Jun 2027 20:25:19.302            45.471               CapeTown          1420.969
       207   03 Jun 2027 20:27:28.458   03 Jun 2027 20:27:45.270            16.812               CapeTown           525.375
       208   03 Jun 2027 20:29:37.830   03 Jun 2027 20:31:19.267           101.437               CapeTown          3169.906
       209   03 Jun 2027 20:54:31.394   03 Jun 2027 21:01:11.566           400.172              Murmansk2         12505.375
       210   03 Jun 2027 22:39:18.187   03 Jun 2027 22:40:48.181            89.994                Anadyr2          2812.312
       211   03 Jun 2027 22:41:34.776   03 Jun 2027 22:43:20.744           105.968               Magadan2          3311.500
       212   03 Jun 2027 22:43:43.429   03 Jun 2027 22:44:09.283            25.854               Magadan1           807.937
       213   03 Jun 2027 22:44:52.670   03 Jun 2027 22:45:02.434             9.764               Magadan1           305.125
       214   03 Jun 2027 22:45:17.771   03 Jun 2027 22:45:41.657            23.886               Magadan1           746.437
       215   03 Jun 2027 22:46:20.588   03 Jun 2027 22:46:37.266            16.678               Magadan1           521.187
       216   03 Jun 2027 22:47:06.018   03 Jun 2027 22:48:13.447            67.429               Magadan1          2107.156
       217   03 Jun 2027 23:34:48.447   03 Jun 2027 23:36:43.572           115.125            RioGallegos          3597.656
       218   03 Jun 2027 23:37:02.103   03 Jun 2027 23:37:46.642            44.539            RioGallegos          1391.844
       219   03 Jun 2027 23:40:34.988   03 Jun 2027 23:41:10.638            35.650            RioGallegos          1114.063
       220   04 Jun 2027 00:15:05.990   04 Jun 2027 00:16:31.046            85.056                Anadyr1          2658.000
       221   04 Jun 2027 00:16:39.651   04 Jun 2027 00:16:40.297             0.646                Anadyr2            20.188
       222   04 Jun 2027 00:17:10.240   04 Jun 2027 00:18:47.178            96.938                Norilsk          3029.313
       223   04 Jun 2027 00:18:59.635   04 Jun 2027 00:20:14.854            75.219               Magadan2          2350.594
       224   04 Jun 2027 00:21:52.484   04 Jun 2027 00:23:00.805            68.321                Irkutsk          2135.031
       225   04 Jun 2027 00:24:20.163   04 Jun 2027 00:25:17.381            57.218                Irkutsk          1788.063
       226   04 Jun 2027 00:28:31.324   04 Jun 2027 00:28:53.475            22.151                Irkutsk           692.219
       227   04 Jun 2027 00:36:25.073   04 Jun 2027 00:37:56.949            91.876                Sumatra          2871.125
       228   04 Jun 2027 00:41:09.878   04 Jun 2027 00:41:30.592            20.714                Sumatra           647.312
       229   04 Jun 2027 00:42:55.195   04 Jun 2027 00:45:28.316           153.121                Sumatra          4785.031
       230   04 Jun 2027 01:50:16.968   04 Jun 2027 01:50:17.753             0.785                Anadyr2            24.531
       231   04 Jun 2027 01:51:47.609   04 Jun 2027 01:52:32.866            45.257                Anadyr1          1414.281
       232   04 Jun 2027 01:53:01.143   04 Jun 2027 01:54:36.720            95.577                Norilsk          2986.781
       233   04 Jun 2027 01:55:30.073   04 Jun 2027 01:56:24.903            54.830               Magadan2          1713.438
       234   04 Jun 2027 01:56:55.212   04 Jun 2027 01:58:08.654            73.442                Irkutsk          2295.063
       235   04 Jun 2027 01:58:10.572   04 Jun 2027 01:58:37.857            27.285                Novosib           852.656
       236   04 Jun 2027 02:00:10.870   04 Jun 2027 02:00:49.486            38.616                Irkutsk          1206.750
       237   04 Jun 2027 02:06:32.688   04 Jun 2027 02:06:56.415            23.727                  Delhi           741.469
       238   04 Jun 2027 02:08:39.796   04 Jun 2027 02:08:59.161            19.365                  Delhi           605.156
       239   04 Jun 2027 02:10:05.639   04 Jun 2027 02:11:51.846           106.207                  Delhi          3318.969
       240   04 Jun 2027 02:17:47.943   04 Jun 2027 02:20:50.692           182.749                Sumatra          5710.906
       241   04 Jun 2027 03:33:09.256   04 Jun 2027 03:33:16.980             7.724               Magadan1           241.375
       242   04 Jun 2027 03:33:20.157   04 Jun 2027 03:34:35.899            75.742               Magadan1          2366.937
       243   04 Jun 2027 03:37:15.171   04 Jun 2027 03:37:36.732            21.561                Novosib           673.781
       244   04 Jun 2027 03:38:53.203   04 Jun 2027 03:40:14.175            80.972                Novosib          2530.375
       245   04 Jun 2027 03:40:30.446   04 Jun 2027 03:40:36.936             6.490                Novosib           202.813
       246   04 Jun 2027 03:41:23.114   04 Jun 2027 03:44:13.554           170.440                Irkutsk          5326.250
       247   04 Jun 2027 03:46:53.786   04 Jun 2027 03:49:45.682           171.896                  Delhi          5371.750
       248   04 Jun 2027 04:24:34.184   04 Jun 2027 04:28:18.210           224.026            RioGallegos          7000.813
       249   04 Jun 2027 05:10:58.878   04 Jun 2027 05:13:10.432           131.554                Irkutsk          4111.063
       250   04 Jun 2027 05:13:37.771   04 Jun 2027 05:14:29.331            51.560                Irkutsk          1611.250
       251   04 Jun 2027 05:15:28.510   04 Jun 2027 05:15:41.810            13.300                 Moscow           415.625
       252   04 Jun 2027 05:16:01.199   04 Jun 2027 05:16:41.912            40.713                Novosib          1272.281
       253   04 Jun 2027 05:16:45.613   04 Jun 2027 05:16:58.597            12.984                 Moscow           405.750
       254   04 Jun 2027 05:17:14.955   04 Jun 2027 05:18:32.869            77.914                Novosib          2434.812
       255   04 Jun 2027 05:18:53.235   04 Jun 2027 05:24:03.607           310.372                  Delhi          9699.125
       256   04 Jun 2027 06:49:38.666   04 Jun 2027 06:49:46.568             7.902                Norilsk           246.938
       257   04 Jun 2027 06:49:59.645   04 Jun 2027 06:50:03.125             3.480                Norilsk           108.750
       258   04 Jun 2027 06:50:18.907   04 Jun 2027 06:50:32.892            13.985                 Moscow           437.031
       259   04 Jun 2027 06:50:46.694   04 Jun 2027 06:50:49.985             3.291                 Moscow           102.844
       260   04 Jun 2027 06:51:06.637   04 Jun 2027 06:51:09.259             2.622                Novosib            81.938
       261   04 Jun 2027 06:52:24.056   04 Jun 2027 06:52:35.374            11.318              Murmansk2           353.687
       262   04 Jun 2027 06:52:38.305   04 Jun 2027 06:52:44.059             5.754              Murmansk2           179.812
       263   04 Jun 2027 06:53:04.072   04 Jun 2027 06:53:58.438            54.366              Murmansk2          1698.938
       264   04 Jun 2027 07:10:17.139   04 Jun 2027 07:10:50.656            33.517               CapeTown          1047.406
       265   04 Jun 2027 07:13:25.389   04 Jun 2027 07:14:45.299            79.910               CapeTown          2497.188
       266   04 Jun 2027 08:13:15.546   04 Jun 2027 08:14:13.860            58.314                Anadyr1          1822.312
       267   04 Jun 2027 08:14:13.860   04 Jun 2027 08:15:13.095            59.235                Anadyr2          1851.094
       268   04 Jun 2027 08:15:26.795   04 Jun 2027 08:15:41.352            14.557               Magadan1           454.906
       269   04 Jun 2027 08:16:17.715   04 Jun 2027 08:18:02.779           105.064                Anadyr2          3283.250
       270   04 Jun 2027 09:49:50.487   04 Jun 2027 09:50:29.774            39.287               Magadan1          1227.719
       271   04 Jun 2027 09:50:37.171   04 Jun 2027 09:51:03.072            25.901               Magadan2           809.406
       272   04 Jun 2027 09:51:07.401   04 Jun 2027 09:52:13.996            66.595               Magadan2          2081.094
       273   04 Jun 2027 09:53:37.190   04 Jun 2027 09:54:38.129            60.939               Magadan1          1904.344
       274   04 Jun 2027 10:37:37.992   04 Jun 2027 10:38:10.950            32.958            RioGallegos          1029.937
       275   04 Jun 2027 11:20:10.593   04 Jun 2027 11:20:57.886            47.293               Magadan1          1477.906
       276   04 Jun 2027 11:21:47.080   04 Jun 2027 11:23:32.786           105.706               Magadan1          3303.312
       277   04 Jun 2027 11:24:25.505   04 Jun 2027 11:25:10.455            44.950               Magadan1          1404.688
       278   04 Jun 2027 11:25:27.247   04 Jun 2027 11:28:24.201           176.954               Magadan1          5529.812
       279   04 Jun 2027 11:29:03.178   04 Jun 2027 11:30:00.454            57.276                Norilsk          1789.875
       280   04 Jun 2027 11:30:05.350   04 Jun 2027 11:30:19.773            14.423                Norilsk           450.719
       281   04 Jun 2027 11:30:28.527   04 Jun 2027 11:30:38.800            10.273                Norilsk           321.031
       282   04 Jun 2027 11:31:09.414   04 Jun 2027 11:31:16.407             6.993                Norilsk           218.531
       283   04 Jun 2027 12:06:01.382   04 Jun 2027 12:07:20.862            79.480            RioGallegos          2483.750
       284   04 Jun 2027 12:13:07.455   04 Jun 2027 12:13:10.178             2.723            RioGallegos            85.094
       285   04 Jun 2027 12:42:06.873   04 Jun 2027 12:42:28.991            22.118                Sumatra           691.188
       286   04 Jun 2027 12:42:55.585   04 Jun 2027 12:45:01.250           125.665                Sumatra          3927.031
       287   04 Jun 2027 12:54:20.620   04 Jun 2027 12:55:40.802            80.182                Irkutsk          2505.687
       288   04 Jun 2027 12:57:38.918   04 Jun 2027 12:57:41.750             2.832                Irkutsk            88.500
       289   04 Jun 2027 12:59:15.182   04 Jun 2027 12:59:24.507             9.325                Norilsk           291.406
       290   04 Jun 2027 13:12:10.861   04 Jun 2027 13:12:11.263             0.402                Norilsk            12.563
       291   04 Jun 2027 13:42:53.174   04 Jun 2027 13:44:48.222           115.048            RioGallegos          3595.250
       292   04 Jun 2027 13:51:10.482   04 Jun 2027 13:52:48.838            98.356            RioGallegos          3073.625
       293   04 Jun 2027 14:17:10.257   04 Jun 2027 14:18:57.565           107.308                Sumatra          3353.375
       294   04 Jun 2027 14:22:05.132   04 Jun 2027 14:22:25.912            20.780                Sumatra           649.375
       295   04 Jun 2027 14:31:52.124   04 Jun 2027 14:33:05.809            73.685                Novosib          2302.656
       296   04 Jun 2027 14:33:26.490   04 Jun 2027 14:35:06.880           100.390                Novosib          3137.188
       297   04 Jun 2027 14:36:05.812   04 Jun 2027 14:38:10.444           124.632                Irkutsk          3894.750
       298   04 Jun 2027 16:02:01.263   04 Jun 2027 16:08:02.178           360.915                  Delhi         11278.594
       299   04 Jun 2027 16:10:22.449   04 Jun 2027 16:12:51.619           149.170                Novosib          4661.563
       300   04 Jun 2027 16:13:25.908   04 Jun 2027 16:16:30.659           184.751                Novosib          5773.469
       301   04 Jun 2027 17:55:18.658   04 Jun 2027 17:55:31.438            12.780                Norilsk           399.375
       302   04 Jun 2027 17:56:55.749   04 Jun 2027 17:59:11.398           135.649                Norilsk          4239.031
       303   04 Jun 2027 19:24:27.539   04 Jun 2027 19:31:07.398           399.859                 Moscow         12495.594
       304   04 Jun 2027 20:35:20.957   04 Jun 2027 20:35:59.572            38.615               CapeTown          1206.719
       305   04 Jun 2027 20:36:57.533   04 Jun 2027 20:38:33.346            95.813               CapeTown          2994.156
       306   04 Jun 2027 20:43:33.307   04 Jun 2027 20:45:10.399            97.092               CapeTown          3034.125
       307   04 Jun 2027 21:07:21.991   04 Jun 2027 21:13:01.984           339.993              Murmansk2         10624.781
       308   04 Jun 2027 22:51:19.822   04 Jun 2027 22:52:48.867            89.045                Anadyr1          2782.656
       309   04 Jun 2027 22:53:35.631   04 Jun 2027 22:55:26.876           111.245               Magadan2          3476.406
       310   04 Jun 2027 22:56:49.540   04 Jun 2027 22:57:51.056            61.516               Magadan2          1922.375
       311   04 Jun 2027 22:58:23.363   04 Jun 2027 22:58:50.089            26.726               Magadan1           835.188
       312   04 Jun 2027 23:00:09.303   04 Jun 2027 23:00:27.634            18.331               Magadan1           572.844
       313   04 Jun 2027 23:06:21.149   04 Jun 2027 23:06:28.534             7.385               Magadan2           230.781
       314   04 Jun 2027 23:46:22.212   04 Jun 2027 23:49:35.102           192.890            RioGallegos          6027.812
       315   04 Jun 2027 23:51:47.954   04 Jun 2027 23:52:40.516            52.562            RioGallegos          1642.563
       316   05 Jun 2027 00:27:04.875   05 Jun 2027 00:28:21.309            76.434                Anadyr1          2388.563
       317   05 Jun 2027 00:29:09.572   05 Jun 2027 00:31:06.393           116.821                Norilsk          3650.656
       318   05 Jun 2027 00:31:56.311   05 Jun 2027 00:32:10.412            14.101               Magadan1           440.656
       319   05 Jun 2027 00:32:29.420   05 Jun 2027 00:32:54.811            25.391               Magadan1           793.469
       320   05 Jun 2027 00:33:18.695   05 Jun 2027 00:34:06.798            48.103               Magadan1          1503.219
       321   05 Jun 2027 00:34:15.192   05 Jun 2027 00:35:00.613            45.421                Irkutsk          1419.406
       322   05 Jun 2027 00:38:14.595   05 Jun 2027 00:39:18.950            64.355                Irkutsk          2011.094
       323   05 Jun 2027 00:42:23.645   05 Jun 2027 00:42:34.070            10.425                Irkutsk           325.781
       324   05 Jun 2027 00:47:51.446   05 Jun 2027 00:48:57.276            65.830                Sumatra          2057.188
       325   05 Jun 2027 00:48:59.789   05 Jun 2027 00:50:55.729           115.940                Sumatra          3623.125
       326   05 Jun 2027 01:26:45.631   05 Jun 2027 01:27:07.501            21.870            RioGallegos           683.437
       327   05 Jun 2027 01:28:51.834   05 Jun 2027 01:29:34.667            42.833            RioGallegos          1338.531
       328   05 Jun 2027 02:02:08.308   05 Jun 2027 02:02:21.206            12.898                Anadyr2           403.063
       329   05 Jun 2027 02:02:25.265   05 Jun 2027 02:02:55.895            30.630                Anadyr2           957.188
       330   05 Jun 2027 02:04:05.620   05 Jun 2027 02:04:31.889            26.269                Anadyr1           820.906
       331   05 Jun 2027 02:05:03.486   05 Jun 2027 02:06:39.315            95.829                Norilsk          2994.656
       332   05 Jun 2027 02:07:55.325   05 Jun 2027 02:08:01.169             5.844               Magadan2           182.625
       333   05 Jun 2027 02:08:56.418   05 Jun 2027 02:11:33.287           156.869                Irkutsk          4902.156
       334   05 Jun 2027 02:15:31.934   05 Jun 2027 02:16:34.099            62.165                Novosib          1942.656
       335   05 Jun 2027 02:22:46.793   05 Jun 2027 02:24:06.639            79.846                  Delhi          2495.187
       336   05 Jun 2027 02:25:16.658   05 Jun 2027 02:28:54.261           217.603                Sumatra          6800.094
       337   05 Jun 2027 03:45:43.860   05 Jun 2027 03:46:04.142            20.282               Magadan1           633.812
       338   05 Jun 2027 03:48:12.869   05 Jun 2027 03:49:42.961            90.092              Murmansk1          2815.375
       339   05 Jun 2027 03:49:53.776   05 Jun 2027 03:50:17.151            23.375                Novosib           730.469
       340   05 Jun 2027 03:50:42.345   05 Jun 2027 03:50:55.708            13.363              Murmansk2           417.594
       341   05 Jun 2027 03:50:59.562   05 Jun 2027 03:54:27.103           207.541                Novosib          6485.656
       342   05 Jun 2027 03:54:32.002   05 Jun 2027 03:55:49.548            77.546                Irkutsk          2423.312
       343   05 Jun 2027 03:55:51.591   05 Jun 2027 03:56:42.396            50.805                Novosib          1587.656
       344   05 Jun 2027 03:58:36.227   05 Jun 2027 04:01:10.224           153.997                  Delhi          4812.406
       345   05 Jun 2027 04:02:36.324   05 Jun 2027 04:04:46.542           130.218                  Delhi          4069.313
       346   05 Jun 2027 04:34:58.523   05 Jun 2027 04:39:15.325           256.802            RioGallegos          8025.062
       347   05 Jun 2027 05:25:52.631   05 Jun 2027 05:26:52.570            59.939                Novosib          1873.094
       348   05 Jun 2027 05:27:00.322   05 Jun 2027 05:27:11.031            10.709                Novosib           334.656
       349   05 Jun 2027 05:27:11.462   05 Jun 2027 05:27:41.442            29.980                Norilsk           936.875
       350   05 Jun 2027 05:27:42.324   05 Jun 2027 05:30:45.589           183.265                Novosib          5727.031
       351   05 Jun 2027 07:02:14.188   05 Jun 2027 07:02:57.662            43.474                 Moscow          1358.563
       352   05 Jun 2027 07:03:54.455   05 Jun 2027 07:04:35.649            41.194                 Moscow          1287.312
       353   05 Jun 2027 07:04:46.284   05 Jun 2027 07:04:51.293             5.009              Murmansk2           156.531
       354   05 Jun 2027 07:05:55.029   05 Jun 2027 07:05:56.453             1.424              Murmansk2            44.500
       355   05 Jun 2027 07:22:27.072   05 Jun 2027 07:24:30.275           123.203               CapeTown          3850.094
       356   05 Jun 2027 07:28:49.323   05 Jun 2027 07:29:34.796            45.473               CapeTown          1421.031
       357   05 Jun 2027 08:25:03.286   05 Jun 2027 08:25:51.568            48.282                Anadyr1          1508.813
       358   05 Jun 2027 08:25:55.102   05 Jun 2027 08:26:23.625            28.523               Magadan2           891.344
       359   05 Jun 2027 08:26:31.698   05 Jun 2027 08:27:46.208            74.510               Magadan2          2328.437
       360   05 Jun 2027 08:27:53.252   05 Jun 2027 08:28:31.350            38.098               Magadan1          1190.562
       361   05 Jun 2027 08:28:53.897   05 Jun 2027 08:30:02.818            68.921                Anadyr1          2153.781
       362   05 Jun 2027 10:03:04.293   05 Jun 2027 10:03:10.086             5.793               Magadan2           181.031
       363   05 Jun 2027 10:03:21.655   05 Jun 2027 10:04:18.515            56.860               Magadan2          1776.875
       364   05 Jun 2027 10:05:35.794   05 Jun 2027 10:06:24.478            48.684               Magadan1          1521.375
       365   05 Jun 2027 10:45:10.662   05 Jun 2027 10:45:33.954            23.292            RioGallegos           727.875
       366   05 Jun 2027 11:32:40.213   05 Jun 2027 11:33:30.559            50.346               Magadan2          1573.313
       367   05 Jun 2027 11:33:30.559   05 Jun 2027 11:33:57.497            26.938               Magadan1           841.812
       368   05 Jun 2027 11:36:16.741   05 Jun 2027 11:36:41.716            24.975               Magadan1           780.469
       369   05 Jun 2027 11:38:10.882   05 Jun 2027 11:39:59.635           108.753               Magadan2          3398.531
       370   05 Jun 2027 11:40:30.073   05 Jun 2027 11:41:00.488            30.415                Irkutsk           950.469
       371   05 Jun 2027 11:41:05.195   05 Jun 2027 11:41:07.740             2.545                Norilsk            79.531
       372   05 Jun 2027 11:42:01.650   05 Jun 2027 11:42:47.152            45.502                Irkutsk          1421.937
       373   05 Jun 2027 11:43:04.101   05 Jun 2027 11:43:05.451             1.350                Irkutsk            42.188
       374   05 Jun 2027 11:43:13.293   05 Jun 2027 11:43:21.215             7.922                Norilsk           247.562
       375   05 Jun 2027 12:17:57.857   05 Jun 2027 12:19:19.665            81.808            RioGallegos          2556.500
       376   05 Jun 2027 12:53:38.390   05 Jun 2027 12:55:10.063            91.673                Sumatra          2864.781
       377   05 Jun 2027 13:03:42.581   05 Jun 2027 13:05:00.964            78.383                Sumatra          2449.469
       378   05 Jun 2027 13:07:36.875   05 Jun 2027 13:09:40.194           123.319                Irkutsk          3853.719
       379   05 Jun 2027 13:24:12.844   05 Jun 2027 13:24:13.223             0.379                Norilsk            11.844
       380   05 Jun 2027 13:55:20.890   05 Jun 2027 13:56:54.460            93.570            RioGallegos          2924.063
       381   05 Jun 2027 13:59:59.001   05 Jun 2027 14:00:53.543            54.542            RioGallegos          1704.438
       382   05 Jun 2027 14:02:30.581   05 Jun 2027 14:05:15.584           165.003            RioGallegos          5156.344
       383   05 Jun 2027 14:29:34.720   05 Jun 2027 14:35:30.389           355.669                Sumatra         11114.656
       384   05 Jun 2027 14:44:57.464   05 Jun 2027 14:51:24.689           387.225                Irkutsk         12100.781
       385   05 Jun 2027 16:17:05.829   05 Jun 2027 16:21:53.426           287.597                  Delhi          8987.406
       386   05 Jun 2027 16:24:52.520   05 Jun 2027 16:29:59.931           307.411                Novosib          9606.594
       387   05 Jun 2027 19:37:20.008   05 Jun 2027 19:44:39.574           439.566                 Moscow         13736.437
       388   05 Jun 2027 20:48:29.301   05 Jun 2027 20:49:43.929            74.628               CapeTown          2332.125
       389   05 Jun 2027 20:50:27.999   05 Jun 2027 20:53:00.597           152.598               CapeTown          4768.687
       390   05 Jun 2027 21:20:20.788   05 Jun 2027 21:24:46.295           265.507              Murmansk2          8297.094
       391   05 Jun 2027 23:03:55.657   05 Jun 2027 23:04:37.527            41.870                Anadyr2          1308.438
       392   05 Jun 2027 23:04:49.755   05 Jun 2027 23:05:35.575            45.820                Anadyr2          1431.875
       393   05 Jun 2027 23:05:36.934   05 Jun 2027 23:06:08.415            31.481               Magadan1           983.781
       394   05 Jun 2027 23:06:27.740   05 Jun 2027 23:06:38.010            10.270                Norilsk           320.937
       395   05 Jun 2027 23:07:09.193   05 Jun 2027 23:07:17.995             8.802               Magadan2           275.062
       396   05 Jun 2027 23:08:55.315   05 Jun 2027 23:09:20.062            24.747               Magadan1           773.344
       397   05 Jun 2027 23:10:00.941   05 Jun 2027 23:10:19.283            18.342               Magadan2           573.188
       398   05 Jun 2027 23:10:38.314   05 Jun 2027 23:11:09.402            31.088               Magadan2           971.500
       399   05 Jun 2027 23:16:24.540   05 Jun 2027 23:16:27.786             3.246               Magadan1           101.437
       400   05 Jun 2027 23:16:36.132   05 Jun 2027 23:17:43.652            67.520               Magadan1          2110.000
       401   05 Jun 2027 23:58:03.653   06 Jun 2027 00:00:14.710           131.057            RioGallegos          4095.531
       402   06 Jun 2027 00:03:30.112   06 Jun 2027 00:03:38.449             8.337            RioGallegos           260.531
       403   06 Jun 2027 00:04:46.997   06 Jun 2027 00:05:01.747            14.750            RioGallegos           460.937
       404   06 Jun 2027 00:06:38.693   06 Jun 2027 00:07:26.774            48.081            RioGallegos          1502.531
       405   06 Jun 2027 00:39:03.124   06 Jun 2027 00:40:16.163            73.039                Anadyr2          2282.469
       406   06 Jun 2027 00:41:09.698   06 Jun 2027 00:42:50.450           100.752                Norilsk          3148.500
       407   06 Jun 2027 00:43:30.880   06 Jun 2027 00:43:57.577            26.697               Magadan1           834.281
       408   06 Jun 2027 00:44:08.000   06 Jun 2027 00:44:23.146            15.146               Magadan1           473.313
       409   06 Jun 2027 00:45:03.560   06 Jun 2027 00:45:21.358            17.798               Magadan2           556.187
       410   06 Jun 2027 00:45:30.451   06 Jun 2027 00:46:48.783            78.332                Irkutsk          2447.875
       411   06 Jun 2027 00:49:17.526   06 Jun 2027 00:49:55.995            38.469                Novosib          1202.156
       412   06 Jun 2027 00:56:00.335   06 Jun 2027 00:56:25.568            25.233                Irkutsk           788.531
       413   06 Jun 2027 00:59:27.440   06 Jun 2027 01:01:19.962           112.522                Sumatra          3516.313
       414   06 Jun 2027 01:06:01.570   06 Jun 2027 01:06:21.208            19.638                Sumatra           613.688
       415   06 Jun 2027 01:06:59.357   06 Jun 2027 01:08:48.137           108.780                Sumatra          3399.375
       416   06 Jun 2027 02:13:58.323   06 Jun 2027 02:14:31.548            33.225                Anadyr2          1038.281
       417   06 Jun 2027 02:15:20.842   06 Jun 2027 02:16:06.046            45.204                Anadyr1          1412.625
       418   06 Jun 2027 02:16:30.244   06 Jun 2027 02:16:58.287            28.043                Anadyr1           876.344
       419   06 Jun 2027 02:17:05.914   06 Jun 2027 02:17:54.225            48.311                Norilsk          1509.719
       420   06 Jun 2027 02:18:46.621   06 Jun 2027 02:19:09.479            22.858                Norilsk           714.313
       421   06 Jun 2027 02:20:58.491   06 Jun 2027 02:23:19.620           141.129                Irkutsk          4410.281
       422   06 Jun 2027 02:25:09.272   06 Jun 2027 02:26:11.776            62.504                Irkutsk          1953.250
       423   06 Jun 2027 02:35:50.563   06 Jun 2027 02:37:46.709           116.146                Sumatra          3629.563
       424   06 Jun 2027 02:38:41.111   06 Jun 2027 02:45:51.956           430.845                Sumatra         13463.906
       425   06 Jun 2027 04:00:39.315   06 Jun 2027 04:01:24.098            44.783                Novosib          1399.469
       426   06 Jun 2027 04:01:26.082   06 Jun 2027 04:07:22.054           355.972                Irkutsk         11124.125
       427   06 Jun 2027 04:07:31.376   06 Jun 2027 04:07:54.780            23.404                Novosib           731.375
       428   06 Jun 2027 04:10:12.218   06 Jun 2027 04:10:22.949            10.731                  Delhi           335.344
       429   06 Jun 2027 04:12:24.306   06 Jun 2027 04:13:54.859            90.553                  Delhi          2829.781
       430   06 Jun 2027 04:48:05.176   06 Jun 2027 04:49:35.491            90.315            RioGallegos          2822.344
       431   06 Jun 2027 05:37:45.866   06 Jun 2027 05:38:07.239            21.373                Norilsk           667.906
       432   06 Jun 2027 05:38:31.735   06 Jun 2027 05:39:03.019            31.284                Norilsk           977.625
       433   06 Jun 2027 05:39:04.387   06 Jun 2027 05:42:52.721           228.334                Novosib          7135.438
       434   06 Jun 2027 05:43:49.301   06 Jun 2027 05:44:06.479            17.178                 Moscow           536.813
       435   06 Jun 2027 05:45:06.428   06 Jun 2027 05:45:09.961             3.533                 Moscow           110.406
       436   06 Jun 2027 05:45:33.664   06 Jun 2027 05:46:04.229            30.565                 Moscow           955.156
       437   06 Jun 2027 05:59:22.905   06 Jun 2027 06:00:29.020            66.115               CapeTown          2066.094
       438   06 Jun 2027 06:02:58.974   06 Jun 2027 06:03:29.309            30.335               CapeTown           947.969
       439   06 Jun 2027 06:05:24.685   06 Jun 2027 06:05:48.611            23.926               CapeTown           747.687
       440   06 Jun 2027 06:06:52.176   06 Jun 2027 06:08:39.798           107.622               CapeTown          3363.187
       441   06 Jun 2027 07:13:52.775   06 Jun 2027 07:14:26.567            33.792                 Moscow          1056.000
       442   06 Jun 2027 07:14:29.918   06 Jun 2027 07:14:31.060             1.142                Norilsk            35.687
       443   06 Jun 2027 07:14:55.260   06 Jun 2027 07:15:18.915            23.655                Norilsk           739.219
       444   06 Jun 2027 07:16:06.874   06 Jun 2027 07:16:33.935            27.061                 Moscow           845.656
       445   06 Jun 2027 07:16:38.723   06 Jun 2027 07:16:39.276             0.553              Murmansk2            17.281
       446   06 Jun 2027 07:16:43.308   06 Jun 2027 07:17:14.731            31.423                 Moscow           981.969
       447   06 Jun 2027 07:20:45.614   06 Jun 2027 07:21:05.696            20.082                 Moscow           627.562
       448   06 Jun 2027 07:21:27.714   06 Jun 2027 07:22:24.306            56.592                 Moscow          1768.500
       449   06 Jun 2027 07:34:42.796   06 Jun 2027 07:35:26.671            43.875               CapeTown          1371.094
       450   06 Jun 2027 07:37:16.360   06 Jun 2027 07:39:46.521           150.161               CapeTown          4692.531
       451   06 Jun 2027 08:37:57.806   06 Jun 2027 08:38:04.011             6.205               Magadan1           193.906
       452   06 Jun 2027 08:38:31.002   06 Jun 2027 08:39:46.658            75.656               Magadan1          2364.250
       453   06 Jun 2027 08:39:51.357   06 Jun 2027 08:40:22.256            30.899                Anadyr1           965.594
       454   06 Jun 2027 08:41:05.771   06 Jun 2027 08:42:02.316            56.545                Anadyr1          1767.031
       455   06 Jun 2027 10:13:50.570   06 Jun 2027 10:15:01.070            70.500               Magadan2          2203.125
       456   06 Jun 2027 10:15:43.706   06 Jun 2027 10:15:44.473             0.767               Magadan1            23.969
       457   06 Jun 2027 10:16:28.994   06 Jun 2027 10:17:33.470            64.476               Magadan2          2014.875
       458   06 Jun 2027 10:17:33.470   06 Jun 2027 10:18:05.257            31.787               Magadan1           993.344
       459   06 Jun 2027 11:45:14.580   06 Jun 2027 11:48:33.284           198.704               Magadan1          6209.500
       460   06 Jun 2027 11:48:54.243   06 Jun 2027 11:51:18.096           143.853               Magadan2          4495.406
       461   06 Jun 2027 11:51:22.263   06 Jun 2027 11:54:51.868           209.605               Magadan1          6550.156
       462   06 Jun 2027 11:55:11.404   06 Jun 2027 11:55:34.811            23.407                Norilsk           731.469
       463   06 Jun 2027 12:29:57.636   06 Jun 2027 12:30:27.493            29.857            RioGallegos           933.031
       464   06 Jun 2027 12:31:17.161   06 Jun 2027 12:33:15.686           118.525            RioGallegos          3703.906
       465   06 Jun 2027 13:06:07.098   06 Jun 2027 13:07:31.888            84.790                Sumatra          2649.688
       466   06 Jun 2027 13:18:31.137   06 Jun 2027 13:19:31.630            60.493                Irkutsk          1890.406
       467   06 Jun 2027 13:20:23.289   06 Jun 2027 13:20:50.462            27.173                Novosib           849.156
       468   06 Jun 2027 13:21:40.519   06 Jun 2027 13:22:50.812            70.293                Irkutsk          2196.656
       469   06 Jun 2027 13:32:29.446   06 Jun 2027 13:32:54.732            25.286                Norilsk           790.187
       470   06 Jun 2027 13:34:28.832   06 Jun 2027 13:35:23.482            54.650                Norilsk          1707.812
       471   06 Jun 2027 14:07:54.593   06 Jun 2027 14:10:53.489           178.896            RioGallegos          5590.500
       472   06 Jun 2027 14:13:05.366   06 Jun 2027 14:13:51.499            46.133            RioGallegos          1441.656
       473   06 Jun 2027 14:42:09.438   06 Jun 2027 14:50:09.570           480.132                Sumatra         15004.125
       474   06 Jun 2027 14:51:06.057   06 Jun 2027 14:51:38.395            32.338                Sumatra          1010.562
       475   06 Jun 2027 14:58:48.778   06 Jun 2027 15:05:43.622           414.844                Irkutsk         12963.875
       476   06 Jun 2027 16:27:32.155   06 Jun 2027 16:35:35.216           483.061                  Delhi         15095.656
       477   06 Jun 2027 16:36:02.291   06 Jun 2027 16:43:03.143           420.852                Novosib         13151.625
       478   06 Jun 2027 19:50:26.949   06 Jun 2027 19:56:06.021           339.072                 Moscow         10596.000
       479   06 Jun 2027 21:01:16.690   06 Jun 2027 21:06:22.982           306.292               CapeTown          9571.625
       480   06 Jun 2027 21:33:36.656   06 Jun 2027 21:35:06.701            90.045              Murmansk2          2813.906
       481   06 Jun 2027 21:35:06.701   06 Jun 2027 21:36:15.601            68.900              Murmansk1          2153.125
       482   07 Jun 2027 00:09:50.050   07 Jun 2027 00:11:18.312            88.262            RioGallegos          2758.187
