uniorb/output/strategy_4/Drop/Drop_KinoSat_112006.txt

KinoSat_112006
-------------------------
    Access    *     Start Time (UTCG)     *     Stop Time (UTCG)  *   Duration (s)        *       Station  *  Data (Mbytes)
         1   01 Jun 2027 04:26:20.805   01 Jun 2027 04:31:14.438           293.633                Irkutsk          9176.031
         2   01 Jun 2027 04:32:40.671   01 Jun 2027 04:33:20.533            39.862                  Delhi          1245.688
         3   01 Jun 2027 04:33:54.845   01 Jun 2027 04:34:10.522            15.677                Novosib           489.906
         4   01 Jun 2027 04:34:51.586   01 Jun 2027 04:36:00.988            69.402                  Delhi          2168.812
         5   01 Jun 2027 06:05:14.808   01 Jun 2027 06:07:14.644           119.836              Murmansk1          3744.875
         6   01 Jun 2027 06:07:14.644   01 Jun 2027 06:08:09.881            55.237              Murmansk2          1726.156
         7   01 Jun 2027 06:08:18.050   01 Jun 2027 06:09:43.925            85.875              Murmansk2          2683.594
         8   01 Jun 2027 06:09:59.453   01 Jun 2027 06:11:30.213            90.760                 Moscow          2836.250
         9   01 Jun 2027 06:24:52.501   01 Jun 2027 06:27:14.718           142.217               CapeTown          4444.281
        10   01 Jun 2027 06:28:01.537   01 Jun 2027 06:28:29.021            27.484               CapeTown           858.875
        11   01 Jun 2027 06:31:42.775   01 Jun 2027 06:32:18.737            35.962               CapeTown          1123.813
        12   01 Jun 2027 07:32:24.966   01 Jun 2027 07:33:31.445            66.479                Anadyr1          2077.469
        13   01 Jun 2027 07:40:35.179   01 Jun 2027 07:41:21.775            46.596                Norilsk          1456.125
        14   01 Jun 2027 07:41:33.132   01 Jun 2027 07:42:15.012            41.880                 Moscow          1308.750
        15   01 Jun 2027 07:42:18.725   01 Jun 2027 07:42:41.061            22.336              Murmansk1           698.000
        16   01 Jun 2027 07:42:41.061   01 Jun 2027 07:44:15.322            94.261              Murmansk2          2945.656
        17   01 Jun 2027 07:44:23.634   01 Jun 2027 07:45:18.032            54.398                 Moscow          1699.938
        18   01 Jun 2027 07:46:19.429   01 Jun 2027 07:47:20.890            61.461                 Moscow          1920.656
        19   01 Jun 2027 07:48:17.014   01 Jun 2027 07:48:48.662            31.648                 Moscow           989.000
        20   01 Jun 2027 08:01:46.814   01 Jun 2027 08:07:55.483           368.669               CapeTown         11520.906
        21   01 Jun 2027 09:05:34.825   01 Jun 2027 09:08:32.210           177.385                Anadyr1          5543.281
        22   01 Jun 2027 09:08:32.210   01 Jun 2027 09:10:07.132            94.922                Anadyr2          2966.312
        23   01 Jun 2027 10:34:02.634   01 Jun 2027 10:36:07.849           125.215               Magadan1          3912.969
        24   01 Jun 2027 10:37:26.674   01 Jun 2027 10:45:25.723           479.049                Anadyr1         14970.281
        25   01 Jun 2027 12:12:55.351   01 Jun 2027 12:20:31.397           456.046               Magadan2         14251.438
        26   01 Jun 2027 14:36:08.549   01 Jun 2027 14:43:18.923           430.374            RioGallegos         13449.187
        27   01 Jun 2027 15:10:45.271   01 Jun 2027 15:15:07.499           262.228                Sumatra          8194.625
        28   01 Jun 2027 15:26:40.130   01 Jun 2027 15:30:13.610           213.480                Irkutsk          6671.250
        29   01 Jun 2027 17:06:12.463   01 Jun 2027 17:06:24.608            12.145                Novosib           379.531
        30   01 Jun 2027 20:19:01.810   01 Jun 2027 20:20:34.918            93.108              Murmansk1          2909.625
        31   01 Jun 2027 20:22:00.042   01 Jun 2027 20:24:37.734           157.692              Murmansk1          4927.875
        32   01 Jun 2027 20:25:24.453   01 Jun 2027 20:27:49.430           144.977              Murmansk2          4530.531
        33   01 Jun 2027 21:27:54.974   01 Jun 2027 21:32:34.406           279.432               CapeTown          8732.250
        34   02 Jun 2027 01:39:50.282   02 Jun 2027 01:41:14.186            83.904                Sumatra          2622.000
        35   02 Jun 2027 02:15:01.603   02 Jun 2027 02:15:21.438            19.835            RioGallegos           619.844
        36   02 Jun 2027 02:16:53.172   02 Jun 2027 02:17:20.439            27.267            RioGallegos           852.094
        37   02 Jun 2027 02:52:36.750   02 Jun 2027 02:53:51.181            74.431                Anadyr2          2325.969
        38   02 Jun 2027 02:55:21.557   02 Jun 2027 02:55:42.814            21.257                Norilsk           664.281
        39   02 Jun 2027 02:56:21.155   02 Jun 2027 02:56:26.776             5.621                Norilsk           175.656
        40   02 Jun 2027 02:58:12.511   02 Jun 2027 02:58:21.790             9.279                Norilsk           289.969
        41   02 Jun 2027 02:59:03.441   02 Jun 2027 03:00:01.799            58.358              Murmansk1          1823.687
        42   02 Jun 2027 03:00:19.390   02 Jun 2027 03:01:35.754            76.364               Magadan2          2386.375
        43   02 Jun 2027 03:01:45.651   02 Jun 2027 03:02:32.596            46.945               Magadan1          1467.031
        44   02 Jun 2027 03:02:54.910   02 Jun 2027 03:04:31.450            96.540                Irkutsk          3016.875
        45   02 Jun 2027 03:04:49.105   02 Jun 2027 03:05:55.777            66.672                Novosib          2083.500
        46   02 Jun 2027 03:06:16.342   02 Jun 2027 03:06:59.212            42.870                Norilsk          1339.688
        47   02 Jun 2027 03:07:12.403   02 Jun 2027 03:08:07.615            55.212                Irkutsk          1725.375
        48   02 Jun 2027 03:48:01.203   02 Jun 2027 03:52:37.200           275.997            RioGallegos          8624.906
        49   02 Jun 2027 04:36:12.959   02 Jun 2027 04:36:18.478             5.519                Irkutsk           172.469
        50   02 Jun 2027 04:36:27.735   02 Jun 2027 04:36:40.673            12.938                Irkutsk           404.313
        51   02 Jun 2027 04:38:50.638   02 Jun 2027 04:39:51.148            60.510                 Moscow          1890.937
        52   02 Jun 2027 04:39:54.417   02 Jun 2027 04:42:53.722           179.305                Irkutsk          5603.281
        53   02 Jun 2027 04:43:19.947   02 Jun 2027 04:51:56.083           516.136                  Delhi         16129.250
        54   02 Jun 2027 06:18:24.861   02 Jun 2027 06:19:50.196            85.335                Novosib          2666.719
        55   02 Jun 2027 06:22:54.047   02 Jun 2027 06:23:48.253            54.206                 Moscow          1693.937
        56   02 Jun 2027 06:36:42.876   02 Jun 2027 06:40:32.396           229.520               CapeTown          7172.500
        57   02 Jun 2027 06:43:50.622   02 Jun 2027 06:44:40.516            49.894               CapeTown          1559.187
        58   02 Jun 2027 07:33:19.055   02 Jun 2027 07:37:19.376           240.321                Anadyr1          7510.031
        59   02 Jun 2027 07:37:47.973   02 Jun 2027 07:38:18.714            30.741               Magadan2           960.656
        60   02 Jun 2027 07:39:37.986   02 Jun 2027 07:40:52.823            74.837                Anadyr1          2338.656
        61   02 Jun 2027 07:41:25.888   02 Jun 2027 07:41:48.369            22.481               Magadan2           702.531
        62   02 Jun 2027 07:42:20.066   02 Jun 2027 07:42:54.733            34.667                Anadyr2          1083.344
        63   02 Jun 2027 08:14:27.747   02 Jun 2027 08:16:23.781           116.034               CapeTown          3626.062
        64   02 Jun 2027 08:20:16.418   02 Jun 2027 08:21:56.304            99.886               CapeTown          3121.438
        65   02 Jun 2027 09:12:33.001   02 Jun 2027 09:14:04.971            91.970                Anadyr2          2874.063
        66   02 Jun 2027 09:17:52.822   02 Jun 2027 09:18:36.183            43.361               Magadan2          1355.031
        67   02 Jun 2027 09:18:36.183   02 Jun 2027 09:18:36.405             0.222               Magadan1             6.938
        68   02 Jun 2027 09:19:43.907   02 Jun 2027 09:22:07.325           143.418                Anadyr2          4481.812
        69   02 Jun 2027 10:45:34.511   02 Jun 2027 10:45:57.225            22.714               Magadan2           709.812
        70   02 Jun 2027 10:49:18.763   02 Jun 2027 10:50:21.237            62.474               Magadan1          1952.313
        71   02 Jun 2027 10:50:32.902   02 Jun 2027 10:54:06.560           213.658                Anadyr2          6676.812
        72   02 Jun 2027 10:55:23.427   02 Jun 2027 10:57:34.219           130.792               Magadan1          4087.250
        73   02 Jun 2027 12:11:18.071   02 Jun 2027 12:12:13.579            55.508                Sumatra          1734.625
        74   02 Jun 2027 12:20:53.631   02 Jun 2027 12:23:07.057           133.426                Irkutsk          4169.563
        75   02 Jun 2027 12:25:53.386   02 Jun 2027 12:32:08.252           374.866               Magadan2         11714.563
        76   02 Jun 2027 13:57:24.639   02 Jun 2027 13:57:47.916            23.277                Irkutsk           727.406
        77   02 Jun 2027 13:59:42.030   02 Jun 2027 14:02:26.103           164.073                Irkutsk          5127.281
        78   02 Jun 2027 14:48:48.613   02 Jun 2027 14:54:41.511           352.898            RioGallegos         11028.062
        79   02 Jun 2027 15:40:38.836   02 Jun 2027 15:43:19.361           160.525                Novosib          5016.406
        80   02 Jun 2027 17:13:06.624   02 Jun 2027 17:14:01.591            54.967                 Moscow          1717.719
        81   02 Jun 2027 17:16:42.601   02 Jun 2027 17:16:46.629             4.028              Murmansk1           125.875
        82   02 Jun 2027 17:19:16.922   02 Jun 2027 17:23:16.842           239.920                Norilsk          7497.500
        83   02 Jun 2027 17:23:50.711   02 Jun 2027 17:24:41.392            50.681                Norilsk          1583.781
        84   02 Jun 2027 18:49:09.558   02 Jun 2027 18:50:17.608            68.050                 Moscow          2126.562
        85   02 Jun 2027 18:52:15.869   02 Jun 2027 18:53:13.227            57.358              Murmansk2          1792.438
        86   02 Jun 2027 18:54:00.021   02 Jun 2027 18:54:33.812            33.791                 Moscow          1055.969
        87   02 Jun 2027 18:55:54.880   02 Jun 2027 18:56:21.613            26.733              Murmansk1           835.406
        88   02 Jun 2027 18:56:59.320   02 Jun 2027 18:58:23.916            84.596              Murmansk2          2643.625
        89   02 Jun 2027 19:13:03.862   02 Jun 2027 19:13:26.139            22.277                Anadyr2           696.156
        90   02 Jun 2027 20:01:13.335   02 Jun 2027 20:02:33.766            80.431               CapeTown          2513.469
        91   02 Jun 2027 20:04:09.951   02 Jun 2027 20:05:33.752            83.801               CapeTown          2618.781
        92   02 Jun 2027 20:31:39.613   02 Jun 2027 20:39:46.756           487.143              Murmansk1         15223.219
        93   02 Jun 2027 22:17:40.730   02 Jun 2027 22:18:57.855            77.125                Anadyr1          2410.156
        94   02 Jun 2027 22:19:13.088   02 Jun 2027 22:19:26.904            13.816                Anadyr1           431.750
        95   02 Jun 2027 22:20:00.393   02 Jun 2027 22:21:26.612            86.219               Magadan2          2694.344
        96   02 Jun 2027 22:21:26.612   02 Jun 2027 22:22:10.779            44.167               Magadan1          1380.219
        97   02 Jun 2027 22:22:14.632   02 Jun 2027 22:22:32.878            18.246               Magadan1           570.187
        98   02 Jun 2027 22:23:14.314   02 Jun 2027 22:23:50.685            36.371               Magadan1          1136.594
        99   02 Jun 2027 22:28:11.821   02 Jun 2027 22:28:21.986            10.165               Magadan1           317.656
       100   02 Jun 2027 22:29:25.131   02 Jun 2027 22:29:34.025             8.894               Magadan1           277.938
       101   02 Jun 2027 23:14:53.662   02 Jun 2027 23:16:44.437           110.775            RioGallegos          3461.719
       102   02 Jun 2027 23:53:32.428   02 Jun 2027 23:56:28.447           176.019                Anadyr2          5500.594
       103   02 Jun 2027 23:56:32.008   02 Jun 2027 23:59:17.360           165.352               Magadan1          5167.250
       104   03 Jun 2027 00:00:53.875   03 Jun 2027 00:02:00.910            67.035                Irkutsk          2094.844
       105   03 Jun 2027 00:04:08.335   03 Jun 2027 00:04:23.162            14.827                Irkutsk           463.344
       106   03 Jun 2027 00:08:19.117   03 Jun 2027 00:08:44.653            25.536                Irkutsk           798.000
       107   03 Jun 2027 00:16:31.068   03 Jun 2027 00:18:12.318           101.250                Sumatra          3164.063
       108   03 Jun 2027 00:47:34.726   03 Jun 2027 00:48:50.803            76.077            RioGallegos          2377.406
       109   03 Jun 2027 00:54:24.226   03 Jun 2027 00:54:27.039             2.813            RioGallegos            87.906
       110   03 Jun 2027 00:55:06.525   03 Jun 2027 00:55:12.679             6.154            RioGallegos           192.313
       111   03 Jun 2027 00:55:29.892   03 Jun 2027 00:55:37.220             7.328            RioGallegos           229.000
       112   03 Jun 2027 00:55:56.488   03 Jun 2027 00:56:09.120            12.632            RioGallegos           394.750
       113   03 Jun 2027 00:58:31.191   03 Jun 2027 00:58:59.975            28.784            RioGallegos           899.500
       114   03 Jun 2027 01:28:55.165   03 Jun 2027 01:29:45.688            50.523                Anadyr1          1578.844
       115   03 Jun 2027 01:30:31.887   03 Jun 2027 01:30:52.576            20.689                Anadyr1           646.531
       116   03 Jun 2027 01:31:23.088   03 Jun 2027 01:32:15.251            52.163                Norilsk          1630.094
       117   03 Jun 2027 01:32:37.055   03 Jun 2027 01:33:26.713            49.658                Norilsk          1551.812
       118   03 Jun 2027 01:33:45.465   03 Jun 2027 01:34:30.698            45.233               Magadan1          1413.531
       119   03 Jun 2027 01:35:10.490   03 Jun 2027 01:35:21.709            11.219               Magadan2           350.594
       120   03 Jun 2027 01:35:51.170   03 Jun 2027 01:38:21.190           150.020                Irkutsk          4688.125
       121   03 Jun 2027 01:42:10.686   03 Jun 2027 01:44:17.771           127.085                Novosib          3971.406
       122   03 Jun 2027 01:50:41.165   03 Jun 2027 01:52:14.296            93.131                Sumatra          2910.344
       123   03 Jun 2027 01:58:10.378   03 Jun 2027 01:58:47.828            37.450                Sumatra          1170.312
       124   03 Jun 2027 02:29:38.108   03 Jun 2027 02:29:52.690            14.582            RioGallegos           455.688
       125   03 Jun 2027 02:33:00.435   03 Jun 2027 02:34:37.782            97.347            RioGallegos          3042.094
       126   03 Jun 2027 03:11:30.454   03 Jun 2027 03:13:32.848           122.394               Magadan1          3824.813
       127   03 Jun 2027 03:13:48.418   03 Jun 2027 03:14:00.086            11.668               Magadan2           364.625
       128   03 Jun 2027 03:15:42.189   03 Jun 2027 03:17:26.968           104.779                Irkutsk          3274.344
       129   03 Jun 2027 03:18:17.299   03 Jun 2027 03:19:00.843            43.544                Novosib          1360.750
       130   03 Jun 2027 03:19:34.088   03 Jun 2027 03:22:27.070           172.982                  Delhi          5405.687
       131   03 Jun 2027 04:00:15.934   03 Jun 2027 04:00:59.043            43.109            RioGallegos          1347.156
       132   03 Jun 2027 04:02:26.233   03 Jun 2027 04:05:06.029           159.796            RioGallegos          4993.625
       133   03 Jun 2027 04:51:25.402   03 Jun 2027 04:54:51.908           206.506                Irkutsk          6453.312
       134   03 Jun 2027 04:55:49.080   03 Jun 2027 05:02:52.867           423.787                  Delhi         13243.344
       135   03 Jun 2027 05:04:19.236   03 Jun 2027 05:04:34.295            15.059                  Delhi           470.594
       136   03 Jun 2027 06:28:28.459   03 Jun 2027 06:28:34.113             5.654                Norilsk           176.688
       137   03 Jun 2027 06:29:13.361   03 Jun 2027 06:29:18.191             4.830                Norilsk           150.937
       138   03 Jun 2027 06:29:29.387   03 Jun 2027 06:29:55.953            26.566                Novosib           830.188
       139   03 Jun 2027 06:29:58.981   03 Jun 2027 06:30:32.408            33.427              Murmansk2          1044.594
       140   03 Jun 2027 06:30:34.525   03 Jun 2027 06:30:56.091            21.566                Novosib           673.937
       141   03 Jun 2027 06:31:00.085   03 Jun 2027 06:31:22.343            22.258              Murmansk2           695.563
       142   03 Jun 2027 06:31:56.631   03 Jun 2027 06:32:15.452            18.821                 Moscow           588.156
       143   03 Jun 2027 06:35:40.002   03 Jun 2027 06:36:28.148            48.146                 Moscow          1504.562
       144   03 Jun 2027 06:48:38.351   03 Jun 2027 06:49:41.732            63.381               CapeTown          1980.656
       145   03 Jun 2027 07:51:54.953   03 Jun 2027 07:52:37.137            42.184                Anadyr2          1318.250
       146   03 Jun 2027 07:52:49.290   03 Jun 2027 07:53:41.462            52.172                Anadyr1          1630.375
       147   03 Jun 2027 07:56:27.386   03 Jun 2027 07:57:36.590            69.204                Anadyr2          2162.625
       148   03 Jun 2027 08:33:57.614   03 Jun 2027 08:35:07.590            69.976               CapeTown          2186.750
       149   03 Jun 2027 09:27:33.405   03 Jun 2027 09:28:06.927            33.522                Anadyr1          1047.562
       150   03 Jun 2027 09:28:14.417   03 Jun 2027 09:29:03.446            49.029               Magadan1          1532.156
       151   03 Jun 2027 09:29:50.222   03 Jun 2027 09:30:16.363            26.141               Magadan1           816.906
       152   03 Jun 2027 09:30:35.252   03 Jun 2027 09:32:03.582            88.330               Magadan1          2760.313
       153   03 Jun 2027 10:57:53.473   03 Jun 2027 10:58:01.420             7.947               Magadan1           248.344
       154   03 Jun 2027 11:02:49.834   03 Jun 2027 11:03:23.934            34.100               Magadan1          1065.625
       155   03 Jun 2027 11:03:23.934   03 Jun 2027 11:07:16.458           232.524               Magadan2          7266.375
       156   03 Jun 2027 11:07:43.910   03 Jun 2027 11:08:27.665            43.755                Irkutsk          1367.344
       157   03 Jun 2027 11:08:41.786   03 Jun 2027 11:08:42.550             0.764                Norilsk            23.875
       158   03 Jun 2027 11:08:52.310   03 Jun 2027 11:09:04.746            12.436                Norilsk           388.625
       159   03 Jun 2027 11:09:18.144   03 Jun 2027 11:10:33.058            74.914                Norilsk          2341.063
       160   03 Jun 2027 11:44:41.610   03 Jun 2027 11:45:06.608            24.998            RioGallegos           781.187
       161   03 Jun 2027 12:21:55.443   03 Jun 2027 12:23:49.129           113.686                Sumatra          3552.688
       162   03 Jun 2027 12:32:48.206   03 Jun 2027 12:34:09.791            81.585                Irkutsk          2549.531
       163   03 Jun 2027 12:35:05.483   03 Jun 2027 12:35:08.690             3.207                Irkutsk           100.219
       164   03 Jun 2027 12:37:43.143   03 Jun 2027 12:38:33.900            50.757                Norilsk          1586.156
       165   03 Jun 2027 12:39:09.290   03 Jun 2027 12:43:30.180           260.890               Magadan2          8152.813
       166   03 Jun 2027 13:55:48.614   03 Jun 2027 13:58:12.128           143.514                Sumatra          4484.812
       167   03 Jun 2027 14:03:46.058   03 Jun 2027 14:04:53.629            67.571                Sumatra          2111.594
       168   03 Jun 2027 14:15:03.843   03 Jun 2027 14:17:59.909           176.066                Irkutsk          5502.063
       169   03 Jun 2027 15:02:35.266   03 Jun 2027 15:05:28.493           173.227            RioGallegos          5413.344
       170   03 Jun 2027 15:47:45.334   03 Jun 2027 15:49:01.393            76.059                Novosib          2376.844
       171   03 Jun 2027 15:52:26.555   03 Jun 2027 15:53:13.113            46.558                Novosib          1454.937
       172   03 Jun 2027 15:55:17.585   03 Jun 2027 15:57:44.944           147.359                Novosib          4604.969
       173   03 Jun 2027 17:25:04.944   03 Jun 2027 17:25:45.472            40.528                 Moscow          1266.500
       174   03 Jun 2027 17:28:12.660   03 Jun 2027 17:28:44.755            32.095              Murmansk2          1002.969
       175   03 Jun 2027 17:32:03.796   03 Jun 2027 17:35:18.256           194.460                Norilsk          6076.875
       176   03 Jun 2027 17:35:49.001   03 Jun 2027 17:37:03.065            74.064                Norilsk          2314.500
       177   03 Jun 2027 19:01:41.105   03 Jun 2027 19:03:35.196           114.091                 Moscow          3565.344
       178   03 Jun 2027 19:04:35.341   03 Jun 2027 19:05:44.219            68.878              Murmansk2          2152.437
       179   03 Jun 2027 19:06:30.696   03 Jun 2027 19:06:50.461            19.765              Murmansk2           617.656
       180   03 Jun 2027 19:08:57.020   03 Jun 2027 19:09:34.972            37.952              Murmansk2          1186.000
       181   03 Jun 2027 20:13:22.220   03 Jun 2027 20:15:58.203           155.983               CapeTown          4874.469
       182   03 Jun 2027 20:21:30.455   03 Jun 2027 20:22:56.514            86.059               CapeTown          2689.344
       183   03 Jun 2027 20:44:21.180   03 Jun 2027 20:51:42.431           441.251              Murmansk2         13789.094
       184   03 Jun 2027 22:29:42.580   03 Jun 2027 22:30:21.981            39.401                Anadyr1          1231.281
       185   03 Jun 2027 22:30:51.042   03 Jun 2027 22:32:54.398           123.356                Anadyr1          3854.875
       186   03 Jun 2027 22:33:18.882   03 Jun 2027 22:33:47.778            28.896               Magadan1           903.000
       187   03 Jun 2027 22:34:20.445   03 Jun 2027 22:34:58.172            37.727               Magadan1          1178.969
       188   03 Jun 2027 22:35:16.338   03 Jun 2027 22:35:25.790             9.452               Magadan2           295.375
       189   03 Jun 2027 22:35:25.790   03 Jun 2027 22:35:47.135            21.345               Magadan1           667.031
       190   03 Jun 2027 22:40:05.791   03 Jun 2027 22:40:18.851            13.060               Magadan1           408.125
       191   03 Jun 2027 22:40:31.853   03 Jun 2027 22:41:14.566            42.713               Magadan2          1334.781
       192   03 Jun 2027 23:25:44.389   03 Jun 2027 23:27:40.505           116.116            RioGallegos          3628.625
       193   03 Jun 2027 23:28:05.379   03 Jun 2027 23:28:24.353            18.974            RioGallegos           592.938
       194   04 Jun 2027 00:05:32.262   04 Jun 2027 00:07:31.216           118.954                Anadyr1          3717.313
       195   04 Jun 2027 00:07:37.283   04 Jun 2027 00:09:28.626           111.343                Norilsk          3479.469
       196   04 Jun 2027 00:09:49.861   04 Jun 2027 00:10:10.111            20.250               Magadan1           632.813
       197   04 Jun 2027 00:10:55.096   04 Jun 2027 00:11:03.363             8.267               Magadan1           258.344
       198   04 Jun 2027 00:11:22.269   04 Jun 2027 00:11:37.743            15.474               Magadan2           483.563
       199   04 Jun 2027 00:12:18.241   04 Jun 2027 00:12:30.616            12.375               Magadan1           386.719
       200   04 Jun 2027 00:12:31.431   04 Jun 2027 00:13:27.434            56.003                Irkutsk          1750.094
       201   04 Jun 2027 00:14:34.949   04 Jun 2027 00:15:05.122            30.173                Irkutsk           942.906
       202   04 Jun 2027 00:16:23.147   04 Jun 2027 00:16:58.219            35.072                Irkutsk          1096.000
       203   04 Jun 2027 00:18:06.160   04 Jun 2027 00:18:16.561            10.401                Irkutsk           325.031
       204   04 Jun 2027 00:27:26.738   04 Jun 2027 00:29:21.315           114.577                Sumatra          3580.531
       205   04 Jun 2027 00:33:42.977   04 Jun 2027 00:36:05.513           142.536                Sumatra          4454.250
       206   04 Jun 2027 01:40:48.711   04 Jun 2027 01:40:58.433             9.722                Anadyr1           303.813
       207   04 Jun 2027 01:42:19.611   04 Jun 2027 01:42:58.724            39.113                Anadyr2          1222.281
       208   04 Jun 2027 01:43:25.172   04 Jun 2027 01:45:29.043           123.871                Norilsk          3870.969
       209   04 Jun 2027 01:45:33.904   04 Jun 2027 01:45:45.761            11.857               Magadan2           370.531
       210   04 Jun 2027 01:46:55.372   04 Jun 2027 01:47:14.167            18.795                Norilsk           587.344
       211   04 Jun 2027 01:47:20.720   04 Jun 2027 01:50:18.967           178.247                Irkutsk          5570.219
       212   04 Jun 2027 01:57:48.945   04 Jun 2027 01:59:07.189            78.244                  Delhi          2445.125
       213   04 Jun 2027 02:01:15.854   04 Jun 2027 02:01:25.590             9.736                Sumatra           304.250
       214   04 Jun 2027 02:04:08.495   04 Jun 2027 02:07:14.902           186.407                Sumatra          5825.219
       215   04 Jun 2027 03:23:32.797   04 Jun 2027 03:25:27.380           114.583               Magadan1          3580.719
       216   04 Jun 2027 03:25:36.324   04 Jun 2027 03:25:55.890            19.566                Irkutsk           611.437
       217   04 Jun 2027 03:28:32.713   04 Jun 2027 03:30:29.823           117.110                Irkutsk          3659.688
       218   04 Jun 2027 03:31:05.620   04 Jun 2027 03:31:21.235            15.615                Irkutsk           487.969
       219   04 Jun 2027 03:31:37.983   04 Jun 2027 03:32:21.096            43.113                Norilsk          1347.281
       220   04 Jun 2027 03:33:12.415   04 Jun 2027 03:34:22.856            70.441                Irkutsk          2201.281
       221   04 Jun 2027 04:12:34.131   04 Jun 2027 04:17:56.663           322.532            RioGallegos         10079.125
       222   04 Jun 2027 05:00:56.122   04 Jun 2027 05:03:00.528           124.406                Irkutsk          3887.687
       223   04 Jun 2027 05:04:18.724   04 Jun 2027 05:05:56.967            98.243                Irkutsk          3070.094
       224   04 Jun 2027 05:07:01.758   04 Jun 2027 05:07:07.737             5.979                Novosib           186.844
       225   04 Jun 2027 05:07:08.429   04 Jun 2027 05:07:20.493            12.064                 Moscow           377.000
       226   04 Jun 2027 05:07:33.464   04 Jun 2027 05:07:37.169             3.705                Novosib           115.781
       227   04 Jun 2027 05:08:25.201   04 Jun 2027 05:08:40.267            15.066                 Moscow           470.813
       228   04 Jun 2027 05:09:12.402   04 Jun 2027 05:15:34.947           382.545                  Delhi         11954.531
       229   04 Jun 2027 06:40:53.039   04 Jun 2027 06:41:04.053            11.014                Novosib           344.187
       230   04 Jun 2027 06:41:56.804   04 Jun 2027 06:42:29.026            32.222              Murmansk1          1006.938
       231   04 Jun 2027 06:42:39.115   04 Jun 2027 06:43:53.946            74.831                 Moscow          2338.469
       232   04 Jun 2027 06:47:44.147   04 Jun 2027 06:48:33.137            48.990                 Moscow          1530.938
       233   04 Jun 2027 07:00:38.871   04 Jun 2027 07:01:30.911            52.040               CapeTown          1626.250
       234   04 Jun 2027 07:03:52.286   04 Jun 2027 07:04:20.604            28.318               CapeTown           884.938
       235   04 Jun 2027 08:03:48.286   04 Jun 2027 08:04:38.617            50.331                Anadyr2          1572.844
       236   04 Jun 2027 08:05:11.604   04 Jun 2027 08:05:32.797            21.193               Magadan2           662.281
       237   04 Jun 2027 08:05:34.120   04 Jun 2027 08:06:09.953            35.833               Magadan1          1119.781
       238   04 Jun 2027 08:07:01.105   04 Jun 2027 08:08:28.164            87.059                Anadyr1          2720.594
       239   04 Jun 2027 09:40:04.963   04 Jun 2027 09:41:00.450            55.487                Anadyr1          1733.969
       240   04 Jun 2027 09:41:16.394   04 Jun 2027 09:41:45.671            29.277               Magadan1           914.906
       241   04 Jun 2027 09:41:46.454   04 Jun 2027 09:42:36.781            50.327               Magadan2          1572.719
       242   04 Jun 2027 09:44:03.480   04 Jun 2027 09:45:11.973            68.493               Magadan1          2140.406
       243   04 Jun 2027 11:12:03.561   04 Jun 2027 11:13:17.221            73.660               Magadan2          2301.875
       244   04 Jun 2027 11:15:23.017   04 Jun 2027 11:16:51.992            88.975               Magadan1          2780.469
       245   04 Jun 2027 11:16:57.549   04 Jun 2027 11:17:41.500            43.951                Anadyr1          1373.469
       246   04 Jun 2027 11:17:44.895   04 Jun 2027 11:18:12.878            27.983                Norilsk           874.469
       247   04 Jun 2027 11:18:16.807   04 Jun 2027 11:18:30.542            13.735                Irkutsk           429.219
       248   04 Jun 2027 11:18:43.241   04 Jun 2027 11:19:03.926            20.685                Norilsk           646.406
       249   04 Jun 2027 11:19:07.147   04 Jun 2027 11:19:48.857            41.710                Irkutsk          1303.437
       250   04 Jun 2027 11:20:02.672   04 Jun 2027 11:20:26.361            23.689                Irkutsk           740.281
       251   04 Jun 2027 11:20:43.761   04 Jun 2027 11:20:53.393             9.632                Norilsk           301.000
       252   04 Jun 2027 11:20:57.886   04 Jun 2027 11:21:35.136            37.250               Magadan2          1164.062
       253   04 Jun 2027 11:56:32.268   04 Jun 2027 11:57:46.721            74.453            RioGallegos          2326.656
       254   04 Jun 2027 12:33:02.928   04 Jun 2027 12:34:47.100           104.172                Sumatra          3255.375
       255   04 Jun 2027 12:44:45.935   04 Jun 2027 12:46:49.391           123.456                Irkutsk          3858.000
       256   04 Jun 2027 12:50:11.050   04 Jun 2027 12:50:28.600            17.550                Norilsk           548.437
       257   04 Jun 2027 12:51:12.015   04 Jun 2027 12:51:53.258            41.243                Norilsk          1288.844
       258   04 Jun 2027 13:33:00.726   04 Jun 2027 13:33:26.404            25.678            RioGallegos           802.438
       259   04 Jun 2027 13:35:14.889   04 Jun 2027 13:38:03.003           168.114            RioGallegos          5253.563
       260   04 Jun 2027 14:07:22.323   04 Jun 2027 14:07:59.486            37.163                Sumatra          1161.344
       261   04 Jun 2027 14:13:00.040   04 Jun 2027 14:14:40.101           100.061                Sumatra          3126.906
       262   04 Jun 2027 14:22:16.533   04 Jun 2027 14:23:53.484            96.951                Irkutsk          3029.719
       263   04 Jun 2027 14:26:48.140   04 Jun 2027 14:27:51.081            62.941                Irkutsk          1966.906
       264   04 Jun 2027 14:31:20.934   04 Jun 2027 14:32:56.486            95.552                Irkutsk          2986.000
       265   04 Jun 2027 15:52:03.909   04 Jun 2027 15:54:04.983           121.074                  Delhi          3783.563
       266   04 Jun 2027 15:57:35.107   04 Jun 2027 15:58:13.370            38.263                  Delhi          1195.719
       267   04 Jun 2027 16:00:18.063   04 Jun 2027 16:02:26.046           127.983                Novosib          3999.469
       268   04 Jun 2027 16:04:59.027   04 Jun 2027 16:05:27.493            28.466                Norilsk           889.562
       269   04 Jun 2027 16:05:47.177   04 Jun 2027 16:06:05.382            18.205                Novosib           568.906
       270   04 Jun 2027 16:06:28.198   04 Jun 2027 16:10:19.772           231.574                Novosib          7236.688
       271   04 Jun 2027 17:44:56.490   04 Jun 2027 17:49:55.172           298.682                Norilsk          9333.812
       272   04 Jun 2027 19:14:18.584   04 Jun 2027 19:16:48.151           149.567                 Moscow          4673.969
       273   04 Jun 2027 19:17:22.310   04 Jun 2027 19:20:26.660           184.350                 Moscow          5760.937
       274   04 Jun 2027 20:27:10.782   04 Jun 2027 20:29:41.568           150.786               CapeTown          4712.063
       275   04 Jun 2027 20:57:07.268   04 Jun 2027 21:03:35.685           388.417              Murmansk2         12138.031
       276   04 Jun 2027 22:41:44.328   04 Jun 2027 22:43:37.379           113.051                Anadyr1          3532.844
       277   04 Jun 2027 22:44:00.707   04 Jun 2027 22:45:24.273            83.566               Magadan2          2611.437
       278   04 Jun 2027 22:45:24.273   04 Jun 2027 22:45:28.159             3.886               Magadan1           121.438
       279   04 Jun 2027 22:45:42.603   04 Jun 2027 22:46:05.930            23.327               Magadan1           728.969
       280   04 Jun 2027 22:47:08.865   04 Jun 2027 22:47:28.467            19.602               Magadan1           612.563
       281   04 Jun 2027 22:47:37.891   04 Jun 2027 22:47:48.260            10.369               Magadan2           324.031
       282   04 Jun 2027 22:48:40.263   04 Jun 2027 22:49:05.530            25.267               Magadan1           789.594
       283   04 Jun 2027 22:49:27.937   04 Jun 2027 22:49:49.461            21.524               Magadan2           672.625
       284   04 Jun 2027 22:52:08.510   04 Jun 2027 22:52:13.797             5.287               Magadan2           165.219
       285   04 Jun 2027 22:53:02.734   04 Jun 2027 22:53:35.789            33.055               Magadan1          1032.969
       286   04 Jun 2027 23:37:07.897   04 Jun 2027 23:40:09.712           181.815            RioGallegos          5681.719
       287   04 Jun 2027 23:44:27.505   04 Jun 2027 23:44:45.693            18.188            RioGallegos           568.375
       288   05 Jun 2027 00:17:31.599   05 Jun 2027 00:18:55.371            83.772                Anadyr1          2617.875
       289   05 Jun 2027 00:19:01.977   05 Jun 2027 00:19:17.034            15.057                Anadyr2           470.531
       290   05 Jun 2027 00:19:35.816   05 Jun 2027 00:21:13.108            97.292                Norilsk          3040.375
       291   05 Jun 2027 00:21:18.827   05 Jun 2027 00:22:08.227            49.400               Magadan2          1543.750
       292   05 Jun 2027 00:23:29.277   05 Jun 2027 00:23:42.064            12.787               Magadan2           399.594
       293   05 Jun 2027 00:24:15.303   05 Jun 2027 00:25:26.394            71.091                Irkutsk          2221.594
       294   05 Jun 2027 00:26:32.843   05 Jun 2027 00:27:41.786            68.943                Irkutsk          2154.469
       295   05 Jun 2027 00:38:42.877   05 Jun 2027 00:40:02.706            79.829                Sumatra          2494.656
       296   05 Jun 2027 00:41:30.970   05 Jun 2027 00:42:16.175            45.205                Sumatra          1412.656
       297   05 Jun 2027 00:43:40.836   05 Jun 2027 00:45:00.899            80.063                Sumatra          2501.969
       298   05 Jun 2027 01:19:25.897   05 Jun 2027 01:19:52.889            26.992            RioGallegos           843.500
       299   05 Jun 2027 01:52:41.051   05 Jun 2027 01:53:35.629            54.578                Anadyr1          1705.562
       300   05 Jun 2027 01:54:11.162   05 Jun 2027 01:54:31.058            19.896                Anadyr2           621.750
       301   05 Jun 2027 01:54:58.179   05 Jun 2027 01:55:07.690             9.511                Anadyr1           297.219
       302   05 Jun 2027 01:55:10.973   05 Jun 2027 01:55:35.750            24.777                Anadyr1           774.281
       303   05 Jun 2027 01:56:07.676   05 Jun 2027 01:57:46.800            99.124               Magadan1          3097.625
       304   05 Jun 2027 01:59:21.180   05 Jun 2027 02:01:32.780           131.600                Irkutsk          4112.500
       305   05 Jun 2027 02:03:17.262   05 Jun 2027 02:03:17.306             0.044                Irkutsk             1.375
       306   05 Jun 2027 02:07:26.927   05 Jun 2027 02:08:34.067            67.140                Irkutsk          2098.125
       307   05 Jun 2027 02:12:38.775   05 Jun 2027 02:14:05.813            87.038                  Delhi          2719.938
       308   05 Jun 2027 02:15:56.614   05 Jun 2027 02:18:37.679           161.065                Sumatra          5033.281
       309   05 Jun 2027 03:35:44.313   05 Jun 2027 03:35:51.076             6.763               Magadan1           211.344
       310   05 Jun 2027 03:36:15.490   05 Jun 2027 03:36:54.965            39.475               Magadan2          1233.594
       311   05 Jun 2027 03:39:37.436   05 Jun 2027 03:40:05.313            27.877                Irkutsk           871.156
       312   05 Jun 2027 03:40:06.475   05 Jun 2027 03:41:12.042            65.567                Norilsk          2048.969
       313   05 Jun 2027 03:41:32.897   05 Jun 2027 03:44:09.969           157.072                Irkutsk          4908.500
       314   05 Jun 2027 03:45:09.689   05 Jun 2027 03:45:47.066            37.377                  Delhi          1168.031
       315   05 Jun 2027 03:45:49.634   05 Jun 2027 03:47:03.690            74.056                Novosib          2314.250
       316   05 Jun 2027 04:24:57.970   05 Jun 2027 04:30:32.089           334.119            RioGallegos         10441.219
       317   05 Jun 2027 05:13:34.967   05 Jun 2027 05:14:38.917            63.950                Irkutsk          1998.437
       318   05 Jun 2027 05:15:34.855   05 Jun 2027 05:16:45.678            70.823                Irkutsk          2213.219
       319   05 Jun 2027 05:17:24.599   05 Jun 2027 05:19:00.199            95.600                Novosib          2987.500
       320   05 Jun 2027 05:19:16.957   05 Jun 2027 05:19:42.722            25.765                Novosib           805.156
       321   05 Jun 2027 05:21:36.966   05 Jun 2027 05:26:06.729           269.763                  Delhi          8430.094
       322   05 Jun 2027 06:53:03.422   05 Jun 2027 06:53:19.078            15.656                Norilsk           489.250
       323   05 Jun 2027 06:53:32.285   05 Jun 2027 06:53:44.628            12.343                Novosib           385.719
       324   05 Jun 2027 06:54:04.966   05 Jun 2027 06:54:14.252             9.286                Norilsk           290.187
       325   05 Jun 2027 06:54:44.727   05 Jun 2027 06:55:27.822            43.095                 Moscow          1346.719
       326   05 Jun 2027 06:59:47.823   05 Jun 2027 07:00:38.658            50.835                 Moscow          1588.594
       327   05 Jun 2027 07:12:44.556   05 Jun 2027 07:15:41.731           177.175               CapeTown          5536.719
       328   05 Jun 2027 08:15:38.996   05 Jun 2027 08:16:39.874            60.878                Anadyr1          1902.437
       329   05 Jun 2027 08:16:59.687   05 Jun 2027 08:17:00.649             0.962               Magadan1            30.063
       330   05 Jun 2027 08:17:45.199   05 Jun 2027 08:18:14.625            29.426                Anadyr1           919.562
       331   05 Jun 2027 08:19:11.922   05 Jun 2027 08:20:28.570            76.648                Anadyr2          2395.250
       332   05 Jun 2027 09:52:14.689   05 Jun 2027 09:52:40.459            25.770                Anadyr1           805.312
       333   05 Jun 2027 09:52:44.254   05 Jun 2027 09:53:02.186            17.932               Magadan1           560.375
       334   05 Jun 2027 09:53:03.737   05 Jun 2027 09:55:43.184           159.447                Anadyr2          4982.719
       335   05 Jun 2027 11:24:27.786   05 Jun 2027 11:27:15.920           168.134               Magadan1          5254.187
       336   05 Jun 2027 11:27:21.415   05 Jun 2027 11:28:01.564            40.149               Magadan2          1254.656
       337   05 Jun 2027 11:28:48.563   05 Jun 2027 11:29:53.202            64.639                Irkutsk          2019.969
       338   05 Jun 2027 11:30:00.313   05 Jun 2027 11:30:43.039            42.726                Irkutsk          1335.188
       339   05 Jun 2027 11:30:45.633   05 Jun 2027 11:33:30.559           164.926               Magadan2          5153.938
       340   05 Jun 2027 12:44:56.126   05 Jun 2027 12:45:05.567             9.441                Sumatra           295.031
       341   05 Jun 2027 12:48:11.847   05 Jun 2027 12:49:55.269           103.422                Sumatra          3231.937
       342   05 Jun 2027 12:56:46.880   05 Jun 2027 12:58:05.895            79.015                Irkutsk          2469.219
       343   05 Jun 2027 13:04:52.162   05 Jun 2027 13:05:22.965            30.803                Irkutsk           962.594
       344   05 Jun 2027 13:45:24.320   05 Jun 2027 13:46:22.663            58.343            RioGallegos          1823.219
       345   05 Jun 2027 13:47:12.686   05 Jun 2027 13:50:37.727           205.041            RioGallegos          6407.531
       346   05 Jun 2027 14:19:40.467   05 Jun 2027 14:22:03.885           143.418                Sumatra          4481.813
       347   05 Jun 2027 14:24:29.476   05 Jun 2027 14:25:02.781            33.305                Sumatra          1040.781
       348   05 Jun 2027 14:34:50.975   05 Jun 2027 14:37:57.360           186.385                Irkutsk          5824.531
       349   05 Jun 2027 14:39:50.848   05 Jun 2027 14:40:49.761            58.913                Irkutsk          1841.031
       350   05 Jun 2027 14:42:57.693   05 Jun 2027 14:44:44.108           106.415                Irkutsk          3325.469
       351   05 Jun 2027 16:04:34.162   05 Jun 2027 16:05:48.343            74.181                  Delhi          2318.156
       352   05 Jun 2027 16:08:18.594   05 Jun 2027 16:10:45.255           146.661                  Delhi          4583.156
       353   05 Jun 2027 16:12:56.966   05 Jun 2027 16:15:06.991           130.025                Novosib          4063.281
       354   05 Jun 2027 16:15:45.902   05 Jun 2027 16:19:12.013           206.111                Novosib          6440.969
       355   05 Jun 2027 17:57:58.618   05 Jun 2027 18:01:37.744           219.126                Norilsk          6847.687
       356   05 Jun 2027 19:27:03.437   05 Jun 2027 19:28:07.583            64.146                 Moscow          2004.563
       357   05 Jun 2027 19:28:48.988   05 Jun 2027 19:33:55.750           306.762                 Moscow          9586.312
       358   05 Jun 2027 20:37:50.473   05 Jun 2027 20:38:46.062            55.589               CapeTown          1737.156
       359   05 Jun 2027 20:42:17.832   05 Jun 2027 20:42:49.745            31.913               CapeTown           997.281
       360   05 Jun 2027 20:47:40.792   05 Jun 2027 20:48:29.301            48.509               CapeTown          1515.906
       361   05 Jun 2027 21:09:59.282   05 Jun 2027 21:15:25.122           325.840              Murmansk2         10182.500
       362   05 Jun 2027 22:53:45.934   05 Jun 2027 22:55:01.948            76.014                Anadyr1          2375.438
       363   05 Jun 2027 22:55:14.490   05 Jun 2027 22:56:01.846            47.356                Anadyr1          1479.875
       364   05 Jun 2027 22:56:38.308   05 Jun 2027 22:56:49.829            11.521                Anadyr1           360.031
       365   05 Jun 2027 22:56:55.664   05 Jun 2027 22:57:25.298            29.634               Magadan2           926.062
       366   05 Jun 2027 22:57:49.389   05 Jun 2027 22:58:02.390            13.001               Magadan2           406.281
       367   05 Jun 2027 22:59:12.232   05 Jun 2027 22:59:44.726            32.494               Magadan2          1015.437
       368   05 Jun 2027 22:59:44.726   05 Jun 2027 22:59:51.507             6.781               Magadan1           211.906
       369   05 Jun 2027 23:00:44.538   05 Jun 2027 23:01:44.159            59.621               Magadan1          1863.156
       370   05 Jun 2027 23:08:40.309   05 Jun 2027 23:08:55.315            15.006               Magadan2           468.938
       371   05 Jun 2027 23:48:43.611   05 Jun 2027 23:51:58.871           195.260            RioGallegos          6101.875
       372   05 Jun 2027 23:55:30.200   05 Jun 2027 23:56:06.143            35.943            RioGallegos          1123.219
       373   05 Jun 2027 23:57:24.837   05 Jun 2027 23:57:39.834            14.997            RioGallegos           468.656
       374   06 Jun 2027 00:29:30.352   06 Jun 2027 00:30:47.956            77.604                Anadyr2          2425.125
       375   06 Jun 2027 00:31:35.335   06 Jun 2027 00:33:32.550           117.215                Norilsk          3662.969
       376   06 Jun 2027 00:35:01.968   06 Jun 2027 00:35:15.984            14.016                Norilsk           438.000
       377   06 Jun 2027 00:35:27.206   06 Jun 2027 00:35:44.316            17.110               Magadan1           534.688
       378   06 Jun 2027 00:36:03.411   06 Jun 2027 00:36:48.546            45.135                Irkutsk          1410.469
       379   06 Jun 2027 00:38:16.065   06 Jun 2027 00:39:36.433            80.368                Irkutsk          2511.500
       380   06 Jun 2027 00:40:45.957   06 Jun 2027 00:41:44.406            58.449                Irkutsk          1826.531
       381   06 Jun 2027 00:44:44.944   06 Jun 2027 00:45:30.451            45.507                Irkutsk          1422.094
       382   06 Jun 2027 00:50:11.501   06 Jun 2027 00:51:30.842            79.341                Sumatra          2479.406
       383   06 Jun 2027 00:56:56.392   06 Jun 2027 00:58:42.658           106.266                Sumatra          3320.813
       384   06 Jun 2027 02:04:46.948   06 Jun 2027 02:04:59.219            12.271                Anadyr2           383.469
       385   06 Jun 2027 02:04:59.219   06 Jun 2027 02:05:26.133            26.914                Anadyr1           841.062
       386   06 Jun 2027 02:06:31.224   06 Jun 2027 02:06:55.859            24.635                Anadyr1           769.844
       387   06 Jun 2027 02:07:29.781   06 Jun 2027 02:08:53.915            84.134                Norilsk          2629.187
       388   06 Jun 2027 02:09:17.109   06 Jun 2027 02:09:52.199            35.090                Norilsk          1096.563
       389   06 Jun 2027 02:11:22.573   06 Jun 2027 02:13:39.404           136.831                Irkutsk          4275.969
       390   06 Jun 2027 02:18:16.374   06 Jun 2027 02:19:45.417            89.043                Irkutsk          2782.594
       391   06 Jun 2027 02:25:52.483   06 Jun 2027 02:31:33.944           341.461                Sumatra         10670.656
       392   06 Jun 2027 03:48:08.385   06 Jun 2027 03:48:23.462            15.077               Magadan1           471.156
       393   06 Jun 2027 03:50:39.430   06 Jun 2027 03:52:05.859            86.429              Murmansk2          2700.906
       394   06 Jun 2027 03:52:05.859   06 Jun 2027 03:53:27.335            81.476              Murmansk1          2546.125
       395   06 Jun 2027 03:53:46.221   06 Jun 2027 03:54:42.317            56.096                Irkutsk          1753.000
       396   06 Jun 2027 03:57:51.422   06 Jun 2027 03:59:07.531            76.109                Novosib          2378.406
       397   06 Jun 2027 04:37:33.318   06 Jun 2027 04:41:25.353           232.035            RioGallegos          7251.094
       398   06 Jun 2027 05:28:41.827   06 Jun 2027 05:29:54.522            72.695                 Moscow          2271.719
       399   06 Jun 2027 05:30:00.467   06 Jun 2027 05:31:22.959            82.492                Novosib          2577.875
       400   06 Jun 2027 05:31:44.077   06 Jun 2027 05:31:44.935             0.858                 Moscow            26.812
       401   06 Jun 2027 05:31:53.395   06 Jun 2027 05:33:12.810            79.415                Novosib          2481.719
       402   06 Jun 2027 05:50:09.998   06 Jun 2027 05:50:47.748            37.750               CapeTown          1179.688
       403   06 Jun 2027 05:54:57.258   06 Jun 2027 05:55:00.764             3.506               CapeTown           109.562
       404   06 Jun 2027 05:55:43.354   06 Jun 2027 05:56:33.862            50.508               CapeTown          1578.375
       405   06 Jun 2027 07:04:27.155   06 Jun 2027 07:04:28.531             1.376                Norilsk            43.000
       406   06 Jun 2027 07:05:53.901   06 Jun 2027 07:05:59.940             6.039              Murmansk1           188.719
       407   06 Jun 2027 07:06:18.562   06 Jun 2027 07:06:43.730            25.168              Murmansk1           786.500
       408   06 Jun 2027 07:06:49.791   06 Jun 2027 07:07:21.980            32.189                 Moscow          1005.906
       409   06 Jun 2027 07:08:47.161   06 Jun 2027 07:08:48.752             1.591                 Moscow            49.719
       410   06 Jun 2027 07:11:51.014   06 Jun 2027 07:12:06.197            15.183                 Moscow           474.469
       411   06 Jun 2027 07:24:55.657   06 Jun 2027 07:26:40.057           104.400               CapeTown          3262.500
       412   06 Jun 2027 07:27:47.548   06 Jun 2027 07:29:43.861           116.313               CapeTown          3634.781
       413   06 Jun 2027 08:27:37.887   06 Jun 2027 08:27:56.779            18.892               Magadan2           590.375
       414   06 Jun 2027 08:28:21.453   06 Jun 2027 08:28:45.724            24.271               Magadan2           758.469
       415   06 Jun 2027 08:28:56.128   06 Jun 2027 08:29:50.972            54.844                Anadyr2          1713.875
       416   06 Jun 2027 08:30:12.029   06 Jun 2027 08:30:24.777            12.748               Magadan2           398.375
       417   06 Jun 2027 08:30:35.184   06 Jun 2027 08:31:03.468            28.284                Anadyr2           883.875
       418   06 Jun 2027 08:32:14.638   06 Jun 2027 08:32:44.795            30.157               Magadan2           942.406
       419   06 Jun 2027 10:04:16.595   06 Jun 2027 10:05:34.120            77.525               Magadan1          2422.656
       420   06 Jun 2027 10:05:51.696   06 Jun 2027 10:06:47.556            55.860               Magadan2          1745.625
       421   06 Jun 2027 10:07:02.178   06 Jun 2027 10:08:01.134            58.956               Magadan2          1842.375
       422   06 Jun 2027 10:09:47.201   06 Jun 2027 10:10:01.318            14.117                Anadyr1           441.156
       423   06 Jun 2027 10:51:22.241   06 Jun 2027 10:51:37.091            14.850            RioGallegos           464.062
       424   06 Jun 2027 11:35:12.785   06 Jun 2027 11:38:50.288           217.503               Magadan2          6796.969
       425   06 Jun 2027 11:39:23.332   06 Jun 2027 11:42:18.673           175.341               Magadan2          5479.406
       426   06 Jun 2027 11:42:18.673   06 Jun 2027 11:45:14.580           175.907               Magadan1          5497.094
       427   06 Jun 2027 12:20:23.326   06 Jun 2027 12:21:45.000            81.674            RioGallegos          2552.313
       428   06 Jun 2027 12:55:59.355   06 Jun 2027 12:57:39.656           100.301                Sumatra          3134.406
       429   06 Jun 2027 13:06:07.098   06 Jun 2027 13:07:31.888            84.790                Sumatra          2649.688
       430   06 Jun 2027 13:09:54.587   06 Jun 2027 13:12:06.135           131.548                Irkutsk          4110.875
       431   06 Jun 2027 13:57:53.207   06 Jun 2027 13:59:38.485           105.278            RioGallegos          3289.937
       432   06 Jun 2027 14:02:20.767   06 Jun 2027 14:03:30.256            69.489            RioGallegos          2171.531
       433   06 Jun 2027 14:07:34.734   06 Jun 2027 14:07:54.593            19.859            RioGallegos           620.594
       434   06 Jun 2027 14:32:06.813   06 Jun 2027 14:35:23.804           196.991                Sumatra          6155.969
       435   06 Jun 2027 14:35:27.435   06 Jun 2027 14:38:14.756           167.321                Sumatra          5228.781
       436   06 Jun 2027 14:47:32.689   06 Jun 2027 14:54:10.174           397.485                Irkutsk         12421.406
       437   06 Jun 2027 16:19:15.232   06 Jun 2027 16:25:07.094           351.862                  Delhi         10995.687
       438   06 Jun 2027 16:27:08.812   06 Jun 2027 16:32:52.763           343.951                Novosib         10748.469
       439   06 Jun 2027 19:39:58.344   06 Jun 2027 19:46:59.553           421.209                 Moscow         13162.781
       440   06 Jun 2027 20:52:08.379   06 Jun 2027 20:55:38.631           210.252               CapeTown          6570.375
       441   06 Jun 2027 21:23:00.475   06 Jun 2027 21:27:07.476           247.001              Murmansk1          7718.781
       442   06 Jun 2027 23:07:15.419   06 Jun 2027 23:08:00.885            45.466                Anadyr2          1420.813
       443   06 Jun 2027 23:08:03.048   06 Jun 2027 23:08:28.017            24.969               Magadan1           780.281
       444   06 Jun 2027 23:09:30.882   06 Jun 2027 23:10:48.163            77.281               Magadan2          2415.031
       445   06 Jun 2027 23:15:03.833   06 Jun 2027 23:15:13.354             9.521               Magadan1           297.531
       446   06 Jun 2027 23:20:04.687   06 Jun 2027 23:20:08.536             3.849               Magadan1           120.281
       447   06 Jun 2027 23:20:48.295   06 Jun 2027 23:20:58.485            10.190               Magadan1           318.437
       448   07 Jun 2027 00:00:26.251   07 Jun 2027 00:03:50.882           204.631            RioGallegos          6394.719
       449   07 Jun 2027 00:07:14.049   07 Jun 2027 00:07:20.794             6.745            RioGallegos           210.781
       450   07 Jun 2027 00:07:26.939   07 Jun 2027 00:08:08.351            41.412            RioGallegos          1294.125
       451   07 Jun 2027 00:41:28.458   07 Jun 2027 00:42:24.161            55.703                Anadyr1          1740.719
       452   07 Jun 2027 00:42:39.102   07 Jun 2027 00:42:51.925            12.823                Anadyr2           400.719
       453   07 Jun 2027 00:43:10.738   07 Jun 2027 00:43:50.303            39.565                Anadyr2          1236.406
       454   07 Jun 2027 00:44:05.680   07 Jun 2027 00:44:41.619            35.939               Magadan2          1123.094
       455   07 Jun 2027 00:44:48.673   07 Jun 2027 00:45:34.735            46.062                Norilsk          1439.437
       456   07 Jun 2027 00:46:13.787   07 Jun 2027 00:46:20.415             6.628               Magadan1           207.125
       457   07 Jun 2027 00:46:29.369   07 Jun 2027 00:46:42.396            13.027               Magadan1           407.094
       458   07 Jun 2027 00:46:50.611   07 Jun 2027 00:47:18.085            27.474                Norilsk           858.563
       459   07 Jun 2027 00:47:54.619   07 Jun 2027 00:49:27.392            92.773                Irkutsk          2899.156
       460   07 Jun 2027 00:50:55.295   07 Jun 2027 00:51:32.706            37.411                Novosib          1169.094
       461   07 Jun 2027 00:52:26.615   07 Jun 2027 00:53:17.954            51.339                Novosib          1604.344
       462   07 Jun 2027 01:01:49.220   07 Jun 2027 01:03:50.369           121.149                Sumatra          3785.906
       463   07 Jun 2027 01:08:54.122   07 Jun 2027 01:08:57.764             3.642                Sumatra           113.812
       464   07 Jun 2027 01:35:29.325   07 Jun 2027 01:36:05.258            35.933            RioGallegos          1122.906
       465   07 Jun 2027 01:39:25.766   07 Jun 2027 01:39:50.035            24.269            RioGallegos           758.406
       466   07 Jun 2027 01:43:23.472   07 Jun 2027 01:44:09.594            46.122            RioGallegos          1441.313
       467   07 Jun 2027 02:16:48.210   07 Jun 2027 02:17:42.294            54.084                Anadyr2          1690.125
       468   07 Jun 2027 02:19:22.849   07 Jun 2027 02:19:27.567             4.718                Anadyr2           147.438
       469   07 Jun 2027 02:19:32.222   07 Jun 2027 02:20:58.908            86.686                Norilsk          2708.937
       470   07 Jun 2027 02:23:24.820   07 Jun 2027 02:26:01.213           156.393                Irkutsk          4887.281
       471   07 Jun 2027 02:28:42.805   07 Jun 2027 02:29:47.262            64.457                Irkutsk          2014.281
       472   07 Jun 2027 02:38:23.850   07 Jun 2027 02:45:16.269           412.419                Sumatra         12888.094
       473   07 Jun 2027 03:59:53.581   07 Jun 2027 03:59:53.703             0.122               Magadan1             3.813
       474   07 Jun 2027 04:00:40.816   07 Jun 2027 04:02:07.662            86.846                Irkutsk          2713.937
       475   07 Jun 2027 04:03:34.851   07 Jun 2027 04:03:58.804            23.953                Irkutsk           748.531
       476   07 Jun 2027 04:04:15.874   07 Jun 2027 04:08:38.874           263.000                Irkutsk          8218.750
       477   07 Jun 2027 04:09:28.895   07 Jun 2027 04:10:20.865            51.970                Novosib          1624.063
       478   07 Jun 2027 04:10:26.632   07 Jun 2027 04:11:15.543            48.911                Novosib          1528.469
       479   07 Jun 2027 04:14:38.807   07 Jun 2027 04:18:55.871           257.064                  Delhi          8033.250
       480   07 Jun 2027 05:41:26.882   07 Jun 2027 05:45:20.096           233.214                Novosib          7287.937
       481   07 Jun 2027 05:47:33.285   07 Jun 2027 05:47:39.407             6.122                 Moscow           191.313
       482   07 Jun 2027 05:48:43.832   07 Jun 2027 05:48:55.446            11.614                 Moscow           362.937
