uniorb/output/strategy_4/Drop/Drop_KinoSat_111507.txt

KinoSat_111507
-------------------------
    Access    *     Start Time (UTCG)     *     Stop Time (UTCG)  *   Duration (s)        *       Station  *  Data (Mbytes)
         1   01 Jun 2027 03:00:38.579   01 Jun 2027 03:01:48.909            70.330              Murmansk2          2197.812
         2   01 Jun 2027 03:01:48.909   01 Jun 2027 03:02:19.613            30.704              Murmansk1           959.500
         3   01 Jun 2027 03:02:21.974   01 Jun 2027 03:02:58.419            36.445                Novosib          1138.906
         4   01 Jun 2027 03:03:02.562   01 Jun 2027 03:03:09.986             7.424              Murmansk2           232.000
         5   01 Jun 2027 03:03:14.715   01 Jun 2027 03:04:30.947            76.232                 Moscow          2382.250
         6   01 Jun 2027 03:04:44.566   01 Jun 2027 03:04:52.878             8.312                 Moscow           259.750
         7   01 Jun 2027 03:05:06.727   01 Jun 2027 03:06:03.095            56.368                Novosib          1761.500
         8   01 Jun 2027 03:06:17.542   01 Jun 2027 03:08:31.824           134.282                  Delhi          4196.312
         9   01 Jun 2027 04:38:38.851   01 Jun 2027 04:38:50.897            12.046                Novosib           376.437
        10   01 Jun 2027 04:38:51.801   01 Jun 2027 04:40:37.606           105.805              Murmansk1          3306.406
        11   01 Jun 2027 04:40:56.210   01 Jun 2027 04:41:25.062            28.852                 Moscow           901.625
        12   01 Jun 2027 04:41:50.054   01 Jun 2027 04:43:20.143            90.089                 Moscow          2815.281
        13   01 Jun 2027 04:43:21.241   01 Jun 2027 04:43:49.106            27.865              Murmansk1           870.781
        14   01 Jun 2027 04:58:08.855   01 Jun 2027 05:00:39.068           150.213               CapeTown          4694.156
        15   01 Jun 2027 05:03:55.320   01 Jun 2027 05:04:00.604             5.284               CapeTown           165.125
        16   01 Jun 2027 06:01:56.497   01 Jun 2027 06:03:33.097            96.600                Anadyr2          3018.750
        17   01 Jun 2027 06:03:34.963   01 Jun 2027 06:04:01.692            26.729               Magadan1           835.281
        18   01 Jun 2027 06:04:27.521   01 Jun 2027 06:05:24.725            57.204                Anadyr2          1787.625
        19   01 Jun 2027 07:38:51.985   01 Jun 2027 07:39:24.835            32.850                Irkutsk          1026.563
        20   01 Jun 2027 07:39:54.459   01 Jun 2027 07:40:28.436            33.977                Anadyr2          1061.781
        21   01 Jun 2027 07:40:28.436   01 Jun 2027 07:41:03.075            34.639                Anadyr1          1082.469
        22   01 Jun 2027 07:41:15.511   01 Jun 2027 07:41:59.187            43.676               Magadan1          1364.875
        23   01 Jun 2027 07:42:00.297   01 Jun 2027 07:42:34.299            34.002                Anadyr1          1062.562
        24   01 Jun 2027 07:43:18.405   01 Jun 2027 07:43:32.818            14.413                Anadyr1           450.406
        25   01 Jun 2027 09:12:58.265   01 Jun 2027 09:15:27.548           149.283               Magadan2          4665.094
        26   01 Jun 2027 09:16:10.896   01 Jun 2027 09:18:12.308           121.412               Magadan1          3794.125
        27   01 Jun 2027 09:18:37.631   01 Jun 2027 09:19:01.054            23.423               Magadan1           731.969
        28   01 Jun 2027 10:50:44.399   01 Jun 2027 10:51:13.015            28.616                Novosib           894.250
        29   01 Jun 2027 10:51:21.849   01 Jun 2027 10:53:11.101           109.252                Irkutsk          3414.125
        30   01 Jun 2027 10:53:18.721   01 Jun 2027 10:53:35.064            16.343                Norilsk           510.719
        31   01 Jun 2027 10:53:45.089   01 Jun 2027 10:56:31.141           166.052                Novosib          5189.125
        32   01 Jun 2027 10:56:47.043   01 Jun 2027 10:57:36.188            49.145              Murmansk1          1535.781
        33   01 Jun 2027 11:00:10.903   01 Jun 2027 11:00:17.100             6.197              Murmansk2           193.656
        34   01 Jun 2027 11:00:17.100   01 Jun 2027 11:01:00.274            43.174              Murmansk1          1349.188
        35   01 Jun 2027 11:01:18.557   01 Jun 2027 11:01:40.248            21.691              Murmansk1           677.844
        36   01 Jun 2027 11:02:44.592   01 Jun 2027 11:02:50.213             5.621              Murmansk1           175.656
        37   01 Jun 2027 11:30:37.758   01 Jun 2027 11:30:40.134             2.376            RioGallegos            74.250
        38   01 Jun 2027 11:32:23.959   01 Jun 2027 11:32:55.388            31.429            RioGallegos           982.156
        39   01 Jun 2027 11:33:54.933   01 Jun 2027 11:35:05.141            70.208            RioGallegos          2194.000
        40   01 Jun 2027 11:35:26.371   01 Jun 2027 11:36:01.449            35.078            RioGallegos          1096.188
        41   01 Jun 2027 11:36:59.596   01 Jun 2027 11:37:19.487            19.891            RioGallegos           621.594
        42   01 Jun 2027 11:39:54.905   01 Jun 2027 11:40:31.772            36.867            RioGallegos          1152.094
        43   01 Jun 2027 12:04:56.511   01 Jun 2027 12:05:11.580            15.069                Sumatra           470.906
        44   01 Jun 2027 12:06:48.342   01 Jun 2027 12:09:18.008           149.666                Sumatra          4677.063
        45   01 Jun 2027 12:11:51.891   01 Jun 2027 12:14:46.592           174.701                Sumatra          5459.406
        46   01 Jun 2027 12:19:57.707   01 Jun 2027 12:21:08.675            70.968                Irkutsk          2217.750
        47   01 Jun 2027 12:23:26.430   01 Jun 2027 12:25:06.488           100.058                Irkutsk          3126.813
        48   01 Jun 2027 13:49:42.701   01 Jun 2027 13:51:27.882           105.181                  Delhi          3286.906
        49   01 Jun 2027 13:54:07.243   01 Jun 2027 13:55:01.083            53.840                  Delhi          1682.500
        50   01 Jun 2027 13:58:01.056   01 Jun 2027 14:00:51.719           170.663                Novosib          5333.219
        51   01 Jun 2027 14:00:56.878   01 Jun 2027 14:01:08.250            11.372              Murmansk2           355.375
        52   01 Jun 2027 14:01:23.237   01 Jun 2027 14:02:57.445            94.208                Novosib          2944.000
        53   01 Jun 2027 14:06:08.788   01 Jun 2027 14:06:40.687            31.899                Norilsk           996.844
        54   01 Jun 2027 15:33:19.481   01 Jun 2027 15:36:49.949           210.468                 Moscow          6577.125
        55   01 Jun 2027 15:36:50.980   01 Jun 2027 15:37:28.652            37.672              Murmansk1          1177.250
        56   01 Jun 2027 15:37:58.732   01 Jun 2027 15:39:47.844           109.112              Murmansk1          3409.750
        57   01 Jun 2027 15:42:50.568   01 Jun 2027 15:47:14.050           263.482                Norilsk          8233.813
        58   01 Jun 2027 17:12:03.770   01 Jun 2027 17:16:28.582           264.812                 Moscow          8275.375
        59   01 Jun 2027 17:31:07.062   01 Jun 2027 17:31:10.217             3.155                Anadyr2            98.594
        60   01 Jun 2027 18:23:07.696   01 Jun 2027 18:27:00.336           232.640               CapeTown          7270.000
        61   01 Jun 2027 18:54:56.831   01 Jun 2027 18:59:46.946           290.115              Murmansk1          9066.094
        62   01 Jun 2027 19:06:06.044   01 Jun 2027 19:06:46.369            40.325               Magadan1          1260.156
        63   01 Jun 2027 20:39:12.921   01 Jun 2027 20:44:31.823           318.902                Anadyr2          9965.688
        64   01 Jun 2027 20:44:40.350   01 Jun 2027 20:45:19.966            39.616               Magadan2          1238.000
        65   01 Jun 2027 20:45:58.210   01 Jun 2027 20:46:13.635            15.425               Magadan2           482.031
        66   01 Jun 2027 20:46:31.674   01 Jun 2027 20:46:54.370            22.696               Magadan2           709.250
        67   01 Jun 2027 20:47:16.191   01 Jun 2027 20:48:13.420            57.229               Magadan2          1788.406
        68   01 Jun 2027 21:34:27.767   01 Jun 2027 21:36:52.422           144.655            RioGallegos          4520.469
        69   01 Jun 2027 21:40:43.030   01 Jun 2027 21:40:48.272             5.242            RioGallegos           163.813
        70   01 Jun 2027 21:41:07.082   01 Jun 2027 21:41:15.523             8.441            RioGallegos           263.781
        71   01 Jun 2027 22:14:58.570   01 Jun 2027 22:17:05.169           126.599                Anadyr1          3956.219
        72   01 Jun 2027 22:17:05.503   01 Jun 2027 22:17:59.498            53.995                Norilsk          1687.344
        73   01 Jun 2027 22:18:38.408   01 Jun 2027 22:19:00.137            21.729               Magadan1           679.031
        74   01 Jun 2027 22:19:00.137   01 Jun 2027 22:19:47.269            47.132               Magadan2          1472.875
        75   01 Jun 2027 22:19:53.825   01 Jun 2027 22:20:09.517            15.692               Magadan2           490.375
        76   01 Jun 2027 22:20:46.535   01 Jun 2027 22:20:55.892             9.357                Norilsk           292.406
        77   01 Jun 2027 22:20:56.998   01 Jun 2027 22:21:26.198            29.200               Magadan1           912.500
        78   01 Jun 2027 22:21:39.859   01 Jun 2027 22:22:38.537            58.678                Irkutsk          1833.688
        79   01 Jun 2027 22:23:57.329   01 Jun 2027 22:24:18.128            20.799                Irkutsk           649.969
        80   01 Jun 2027 22:35:58.480   01 Jun 2027 22:38:47.292           168.812                Sumatra          5275.375
        81   01 Jun 2027 23:50:04.690   01 Jun 2027 23:52:26.849           142.159                Anadyr1          4442.469
        82   01 Jun 2027 23:53:35.832   01 Jun 2027 23:53:42.737             6.905               Magadan2           215.781
        83   01 Jun 2027 23:53:42.737   01 Jun 2027 23:54:07.775            25.038               Magadan1           782.437
        84   01 Jun 2027 23:54:18.444   01 Jun 2027 23:54:52.945            34.501               Magadan2          1078.156
        85   01 Jun 2027 23:56:00.296   01 Jun 2027 23:56:35.812            35.516               Magadan1          1109.875
        86   01 Jun 2027 23:56:49.979   01 Jun 2027 23:57:45.215            55.236                Irkutsk          1726.125
        87   01 Jun 2027 23:58:23.146   01 Jun 2027 23:59:41.387            78.241                Novosib          2445.031
        88   02 Jun 2027 00:06:01.074   02 Jun 2027 00:06:17.089            16.015                  Delhi           500.469
        89   02 Jun 2027 00:06:38.818   02 Jun 2027 00:08:36.963           118.145                  Delhi          3692.031
        90   02 Jun 2027 00:46:29.873   02 Jun 2027 00:46:56.464            26.591            RioGallegos           830.969
        91   02 Jun 2027 00:53:33.220   02 Jun 2027 00:53:50.765            17.545            RioGallegos           548.281
        92   02 Jun 2027 00:56:00.791   02 Jun 2027 00:56:22.668            21.877            RioGallegos           683.656
        93   02 Jun 2027 01:23:57.994   02 Jun 2027 01:24:23.473            25.479                Anadyr2           796.219
        94   02 Jun 2027 01:24:23.473   02 Jun 2027 01:24:57.422            33.949                Anadyr1          1060.906
        95   02 Jun 2027 01:25:49.196   02 Jun 2027 01:26:30.584            41.388                Anadyr2          1293.375
        96   02 Jun 2027 01:29:15.193   02 Jun 2027 01:29:29.926            14.733                Anadyr1           460.406
        97   02 Jun 2027 01:29:36.158   02 Jun 2027 01:31:19.992           103.834               Magadan1          3244.812
        98   02 Jun 2027 01:31:34.658   02 Jun 2027 01:32:54.111            79.453              Murmansk2          2482.906
        99   02 Jun 2027 01:33:03.119   02 Jun 2027 01:34:54.346           111.227                Novosib          3475.844
       100   02 Jun 2027 01:40:05.515   02 Jun 2027 01:42:22.142           136.627                  Delhi          4269.594
       101   02 Jun 2027 02:22:34.515   02 Jun 2027 02:23:33.986            59.471            RioGallegos          1858.469
       102   02 Jun 2027 02:23:55.637   02 Jun 2027 02:24:42.273            46.636            RioGallegos          1457.375
       103   02 Jun 2027 02:57:15.013   02 Jun 2027 02:57:21.313             6.300                Anadyr1           196.875
       104   02 Jun 2027 02:57:38.346   02 Jun 2027 02:58:13.478            35.132                Anadyr2          1097.875
       105   02 Jun 2027 03:12:31.938   02 Jun 2027 03:12:40.810             8.872              Murmansk1           277.250
       106   02 Jun 2027 03:12:41.181   02 Jun 2027 03:12:52.482            11.301                Novosib           353.156
       107   02 Jun 2027 03:12:57.765   02 Jun 2027 03:13:03.400             5.635              Murmansk1           176.094
       108   02 Jun 2027 03:13:04.376   02 Jun 2027 03:13:20.193            15.817                Irkutsk           494.281
       109   02 Jun 2027 03:13:36.726   02 Jun 2027 03:13:42.989             6.263                Irkutsk           195.719
       110   02 Jun 2027 03:13:49.960   02 Jun 2027 03:14:19.308            29.348              Murmansk1           917.125
       111   02 Jun 2027 03:14:19.308   02 Jun 2027 03:15:07.190            47.882              Murmansk2          1496.312
       112   02 Jun 2027 03:15:20.207   02 Jun 2027 03:15:53.446            33.239                 Moscow          1038.719
       113   02 Jun 2027 03:15:54.631   02 Jun 2027 03:16:39.009            44.378                 Moscow          1386.812
       114   02 Jun 2027 03:16:42.240   02 Jun 2027 03:17:21.075            38.835                Norilsk          1213.594
       115   02 Jun 2027 03:17:21.885   02 Jun 2027 03:18:01.136            39.251              Murmansk2          1226.594
       116   02 Jun 2027 03:19:46.282   02 Jun 2027 03:22:44.342           178.060                  Delhi          5564.375
       117   02 Jun 2027 04:31:18.827   02 Jun 2027 04:32:27.504            68.677                Anadyr1          2146.156
       118   02 Jun 2027 05:10:50.132   02 Jun 2027 05:12:26.852            96.720               CapeTown          3022.500
       119   02 Jun 2027 06:07:02.586   02 Jun 2027 06:07:48.202            45.616                Anadyr1          1425.500
       120   02 Jun 2027 06:07:48.202   02 Jun 2027 06:09:38.516           110.314                Anadyr2          3447.313
       121   02 Jun 2027 06:09:39.978   02 Jun 2027 06:09:44.312             4.334               Magadan2           135.438
       122   02 Jun 2027 06:13:36.972   02 Jun 2027 06:16:28.071           171.099               Magadan2          5346.844
       123   02 Jun 2027 07:52:10.271   02 Jun 2027 07:52:25.941            15.670                Irkutsk           489.687
       124   02 Jun 2027 07:52:31.660   02 Jun 2027 07:55:04.297           152.637                Anadyr1          4769.906
       125   02 Jun 2027 09:26:35.375   02 Jun 2027 09:27:25.162            49.787               Magadan1          1555.844
       126   02 Jun 2027 09:27:25.162   02 Jun 2027 09:28:08.834            43.672               Magadan2          1364.750
       127   02 Jun 2027 09:28:14.547   02 Jun 2027 09:28:36.961            22.414                Novosib           700.437
       128   02 Jun 2027 09:28:43.277   02 Jun 2027 09:29:01.649            18.372                Irkutsk           574.125
       129   02 Jun 2027 09:29:05.620   02 Jun 2027 09:29:37.392            31.772                Irkutsk           992.875
       130   02 Jun 2027 09:29:37.786   02 Jun 2027 09:30:21.443            43.657               Magadan1          1364.281
       131   02 Jun 2027 09:30:27.245   02 Jun 2027 09:30:53.547            26.302                Norilsk           821.938
       132   02 Jun 2027 09:30:54.204   02 Jun 2027 09:30:55.565             1.361               Magadan2            42.531
       133   02 Jun 2027 09:31:17.070   02 Jun 2027 09:31:51.079            34.009                Norilsk          1062.781
       134   02 Jun 2027 10:05:52.868   02 Jun 2027 10:06:56.797            63.929            RioGallegos          1997.781
       135   02 Jun 2027 10:41:43.427   02 Jun 2027 10:42:35.319            51.892                Sumatra          1621.625
       136   02 Jun 2027 11:01:14.060   02 Jun 2027 11:02:05.140            51.080                Irkutsk          1596.250
       137   02 Jun 2027 11:02:33.056   02 Jun 2027 11:02:48.004            14.948                Novosib           467.125
       138   02 Jun 2027 11:02:50.801   02 Jun 2027 11:02:55.557             4.756                Norilsk           148.625
       139   02 Jun 2027 11:03:19.535   02 Jun 2027 11:03:34.300            14.765                Novosib           461.406
       140   02 Jun 2027 11:03:54.659   02 Jun 2027 11:04:45.784            51.125                Irkutsk          1597.656
       141   02 Jun 2027 11:05:01.344   02 Jun 2027 11:05:03.284             1.940                Norilsk            60.625
       142   02 Jun 2027 11:05:17.033   02 Jun 2027 11:06:05.734            48.701                Irkutsk          1521.906
       143   02 Jun 2027 11:06:09.729   02 Jun 2027 11:06:15.766             6.037                Norilsk           188.656
       144   02 Jun 2027 11:06:24.327   02 Jun 2027 11:06:35.893            11.566                Novosib           361.437
       145   02 Jun 2027 11:06:39.077   02 Jun 2027 11:06:50.964            11.887                Norilsk           371.469
       146   02 Jun 2027 11:06:52.083   02 Jun 2027 11:07:07.675            15.592                Novosib           487.250
       147   02 Jun 2027 11:43:03.074   02 Jun 2027 11:44:01.367            58.293            RioGallegos          1821.656
       148   02 Jun 2027 11:52:55.028   02 Jun 2027 11:53:01.438             6.410            RioGallegos           200.313
       149   02 Jun 2027 12:17:17.160   02 Jun 2027 12:18:45.041            87.881                Sumatra          2746.281
       150   02 Jun 2027 12:31:50.501   02 Jun 2027 12:32:58.181            67.680                Novosib          2115.000
       151   02 Jun 2027 12:33:14.479   02 Jun 2027 12:33:27.112            12.633                Novosib           394.781
       152   02 Jun 2027 12:34:48.860   02 Jun 2027 12:35:26.151            37.291                Novosib          1165.344
       153   02 Jun 2027 12:35:45.608   02 Jun 2027 12:36:43.738            58.130                Norilsk          1816.563
       154   02 Jun 2027 12:42:03.939   02 Jun 2027 12:42:16.311            12.372                Norilsk           386.625
       155   02 Jun 2027 12:42:27.604   02 Jun 2027 12:42:59.544            31.940                Norilsk           998.125
       156   02 Jun 2027 14:02:16.306   02 Jun 2027 14:05:13.054           176.748                  Delhi          5523.375
       157   02 Jun 2027 14:06:05.454   02 Jun 2027 14:07:21.912            76.458                  Delhi          2389.312
       158   02 Jun 2027 14:10:42.525   02 Jun 2027 14:10:46.151             3.626                Novosib           113.312
       159   02 Jun 2027 14:11:47.197   02 Jun 2027 14:12:48.314            61.117                Novosib          1909.906
       160   02 Jun 2027 14:13:10.090   02 Jun 2027 14:13:21.278            11.188              Murmansk1           349.625
       161   02 Jun 2027 14:14:17.413   02 Jun 2027 14:14:30.505            13.092                Norilsk           409.125
       162   02 Jun 2027 14:14:58.141   02 Jun 2027 14:15:35.046            36.905                Novosib          1153.281
       163   02 Jun 2027 14:15:42.005   02 Jun 2027 14:16:07.307            25.302                Norilsk           790.688
       164   02 Jun 2027 14:17:59.002   02 Jun 2027 14:18:08.276             9.274                Norilsk           289.812
       165   02 Jun 2027 14:18:43.839   02 Jun 2027 14:19:19.382            35.543                Norilsk          1110.719
       166   02 Jun 2027 15:45:28.522   02 Jun 2027 15:47:21.707           113.185                 Moscow          3537.031
       167   02 Jun 2027 15:48:31.417   02 Jun 2027 15:49:25.349            53.932                 Moscow          1685.375
       168   02 Jun 2027 15:49:53.875   02 Jun 2027 15:51:51.494           117.619              Murmansk2          3675.594
       169   02 Jun 2027 15:56:00.561   02 Jun 2027 15:57:08.730            68.169                Norilsk          2130.281
       170   02 Jun 2027 15:57:21.664   02 Jun 2027 15:58:13.151            51.487                Norilsk          1608.969
       171   02 Jun 2027 16:04:48.267   02 Jun 2027 16:05:01.417            13.150                Anadyr1           410.937
       172   02 Jun 2027 16:05:01.417   02 Jun 2027 16:05:22.328            20.911                Anadyr2           653.469
       173   02 Jun 2027 16:05:56.299   02 Jun 2027 16:05:57.698             1.399                Anadyr1            43.719
       174   02 Jun 2027 16:06:02.839   02 Jun 2027 16:07:18.100            75.261                Anadyr1          2351.906
       175   02 Jun 2027 17:24:51.903   02 Jun 2027 17:25:58.025            66.122                 Moscow          2066.313
       176   02 Jun 2027 17:26:15.176   02 Jun 2027 17:28:28.670           133.494                 Moscow          4171.688
       177   02 Jun 2027 17:32:02.043   02 Jun 2027 17:32:15.834            13.791              Murmansk1           430.969
       178   02 Jun 2027 17:39:29.997   02 Jun 2027 17:40:36.095            66.098                Anadyr2          2065.563
       179   02 Jun 2027 17:41:00.323   02 Jun 2027 17:41:04.668             4.345                Anadyr2           135.781
       180   02 Jun 2027 17:41:10.447   02 Jun 2027 17:41:45.332            34.885                Anadyr1          1090.156
       181   02 Jun 2027 18:35:25.014   02 Jun 2027 18:36:11.135            46.121               CapeTown          1441.281
       182   02 Jun 2027 18:36:36.184   02 Jun 2027 18:36:49.867            13.683               CapeTown           427.594
       183   02 Jun 2027 18:38:52.551   02 Jun 2027 18:39:33.386            40.835               CapeTown          1276.094
       184   02 Jun 2027 19:07:52.117   02 Jun 2027 19:12:44.161           292.044              Murmansk2          9126.375
       185   02 Jun 2027 19:17:59.274   02 Jun 2027 19:18:45.234            45.960               Magadan2          1436.250
       186   02 Jun 2027 19:18:51.914   02 Jun 2027 19:18:58.057             6.143               Magadan1           191.969
       187   02 Jun 2027 19:21:26.967   02 Jun 2027 19:21:38.077            11.110               Magadan1           347.187
       188   02 Jun 2027 19:23:28.815   02 Jun 2027 19:23:43.686            14.871               Magadan2           464.719
       189   02 Jun 2027 19:26:25.824   02 Jun 2027 19:26:45.503            19.679               Magadan2           614.969
       190   02 Jun 2027 20:51:14.213   02 Jun 2027 20:54:57.161           222.948                Anadyr2          6967.125
       191   02 Jun 2027 20:55:09.373   02 Jun 2027 20:57:55.510           166.137               Magadan1          5191.781
       192   02 Jun 2027 20:58:16.452   02 Jun 2027 20:58:24.330             7.878               Magadan1           246.187
       193   02 Jun 2027 20:59:00.634   02 Jun 2027 20:59:43.198            42.564               Magadan2          1330.125
       194   02 Jun 2027 21:46:06.037   02 Jun 2027 21:48:44.357           158.320            RioGallegos          4947.500
       195   02 Jun 2027 21:50:28.021   02 Jun 2027 21:50:32.935             4.914            RioGallegos           153.563
       196   02 Jun 2027 21:51:12.445   02 Jun 2027 21:52:33.223            80.778            RioGallegos          2524.312
       197   02 Jun 2027 22:26:56.854   02 Jun 2027 22:27:27.644            30.790                Anadyr1           962.187
       198   02 Jun 2027 22:29:04.967   02 Jun 2027 22:30:38.358            93.391                Norilsk          2918.469
       199   02 Jun 2027 22:30:59.768   02 Jun 2027 22:31:21.653            21.885               Magadan1           683.906
       200   02 Jun 2027 22:32:28.694   02 Jun 2027 22:32:47.289            18.595                Norilsk           581.094
       201   02 Jun 2027 22:33:28.910   02 Jun 2027 22:34:28.847            59.937                Irkutsk          1873.031
       202   02 Jun 2027 22:35:50.895   02 Jun 2027 22:36:49.439            58.544                Irkutsk          1829.500
       203   02 Jun 2027 22:47:30.673   02 Jun 2027 22:49:11.464           100.791                Sumatra          3149.719
       204   02 Jun 2027 22:58:17.688   02 Jun 2027 22:59:04.287            46.599                Sumatra          1456.219
       205   03 Jun 2027 00:01:55.107   03 Jun 2027 00:01:57.642             2.535                Anadyr2            79.219
       206   03 Jun 2027 00:01:57.642   03 Jun 2027 00:03:06.547            68.905                Anadyr1          2153.281
       207   03 Jun 2027 00:04:27.364   03 Jun 2027 00:04:29.756             2.392                Anadyr2            74.750
       208   03 Jun 2027 00:04:59.394   03 Jun 2027 00:06:45.341           105.947                Norilsk          3310.844
       209   03 Jun 2027 00:08:04.639   03 Jun 2027 00:08:15.073            10.434                Norilsk           326.062
       210   03 Jun 2027 00:08:26.135   03 Jun 2027 00:08:45.557            19.422                Norilsk           606.938
       211   03 Jun 2027 00:08:51.414   03 Jun 2027 00:10:09.715            78.301                Irkutsk          2446.906
       212   03 Jun 2027 00:10:39.181   03 Jun 2027 00:11:42.093            62.912                Novosib          1966.000
       213   03 Jun 2027 00:11:52.708   03 Jun 2027 00:12:01.148             8.440                Novosib           263.750
       214   03 Jun 2027 00:15:59.531   03 Jun 2027 00:16:04.006             4.475                Novosib           139.844
       215   03 Jun 2027 00:16:35.111   03 Jun 2027 00:17:05.824            30.713                Novosib           959.781
       216   03 Jun 2027 00:17:26.722   03 Jun 2027 00:18:17.597            50.875                  Delhi          1589.844
       217   03 Jun 2027 00:21:43.726   03 Jun 2027 00:21:53.457             9.731                  Delhi           304.094
       218   03 Jun 2027 00:23:54.618   03 Jun 2027 00:24:45.514            50.896                Sumatra          1590.500
       219   03 Jun 2027 00:59:15.129   03 Jun 2027 00:59:47.358            32.229            RioGallegos          1007.156
       220   03 Jun 2027 01:02:03.474   03 Jun 2027 01:02:53.559            50.085            RioGallegos          1565.156
       221   03 Jun 2027 01:35:39.756   03 Jun 2027 01:35:47.418             7.662                Anadyr1           239.438
       222   03 Jun 2027 01:36:04.871   03 Jun 2027 01:36:58.754            53.883                Anadyr1          1683.844
       223   03 Jun 2027 01:36:58.754   03 Jun 2027 01:37:57.957            59.203                Anadyr2          1850.094
       224   03 Jun 2027 01:40:59.862   03 Jun 2027 01:42:39.404            99.542                Norilsk          3110.687
       225   03 Jun 2027 01:43:28.895   03 Jun 2027 01:45:34.260           125.365              Murmansk2          3917.656
       226   03 Jun 2027 01:45:43.124   03 Jun 2027 01:46:06.786            23.662              Murmansk2           739.437
       227   03 Jun 2027 01:48:31.045   03 Jun 2027 01:48:48.851            17.806                Irkutsk           556.438
       228   03 Jun 2027 01:49:45.556   03 Jun 2027 01:50:16.949            31.393                 Moscow           981.031
       229   03 Jun 2027 01:54:18.449   03 Jun 2027 01:55:08.290            49.841                  Delhi          1557.531
       230   03 Jun 2027 02:03:49.454   03 Jun 2027 02:04:18.280            28.826                  Delhi           900.813
       231   03 Jun 2027 02:35:16.116   03 Jun 2027 02:35:57.054            40.938            RioGallegos          1279.313
       232   03 Jun 2027 02:36:48.993   03 Jun 2027 02:38:08.588            79.595            RioGallegos          2487.344
       233   03 Jun 2027 03:26:26.993   03 Jun 2027 03:26:38.527            11.534              Murmansk1           360.438
       234   03 Jun 2027 03:26:47.444   03 Jun 2027 03:28:19.436            91.992                Novosib          2874.750
       235   03 Jun 2027 03:28:34.381   03 Jun 2027 03:30:17.373           102.992                Novosib          3218.500
       236   03 Jun 2027 03:30:27.041   03 Jun 2027 03:30:47.097            20.056              Murmansk2           626.750
       237   03 Jun 2027 04:43:12.584   03 Jun 2027 04:45:49.483           156.899                Anadyr1          4903.094
       238   03 Jun 2027 05:03:12.921   03 Jun 2027 05:03:35.529            22.608                 Moscow           706.500
       239   03 Jun 2027 05:04:08.697   03 Jun 2027 05:04:56.978            48.281                 Moscow          1508.781
       240   03 Jun 2027 05:22:29.388   03 Jun 2027 05:24:19.782           110.394               CapeTown          3449.812
       241   03 Jun 2027 06:25:32.610   03 Jun 2027 06:25:34.368             1.758               Magadan1            54.938
       242   03 Jun 2027 06:25:39.820   03 Jun 2027 06:25:40.902             1.082               Magadan1            33.813
       243   03 Jun 2027 06:25:58.112   03 Jun 2027 06:26:16.075            17.963                Anadyr1           561.344
       244   03 Jun 2027 06:26:16.075   03 Jun 2027 06:27:26.426            70.351                Anadyr2          2198.469
       245   03 Jun 2027 06:27:39.754   03 Jun 2027 06:27:47.826             8.072                Anadyr2           252.250
       246   03 Jun 2027 06:27:47.826   03 Jun 2027 06:28:06.542            18.716                Anadyr1           584.875
       247   03 Jun 2027 06:28:54.608   03 Jun 2027 06:29:39.835            45.227                Anadyr1          1413.344
       248   03 Jun 2027 08:01:24.215   03 Jun 2027 08:02:12.557            48.342                Anadyr2          1510.687
       249   03 Jun 2027 08:02:40.191   03 Jun 2027 08:02:47.917             7.726               Magadan1           241.438
       250   03 Jun 2027 08:02:59.220   03 Jun 2027 08:03:04.197             4.977               Magadan2           155.531
       251   03 Jun 2027 08:03:27.628   03 Jun 2027 08:03:52.603            24.975                Anadyr2           780.469
       252   03 Jun 2027 08:04:18.937   03 Jun 2027 08:05:12.568            53.631               Magadan2          1675.969
       253   03 Jun 2027 08:44:41.122   03 Jun 2027 08:45:01.526            20.404            RioGallegos           637.625
       254   03 Jun 2027 09:36:37.649   03 Jun 2027 09:37:49.633            71.984               Magadan2          2249.500
       255   03 Jun 2027 09:38:00.032   03 Jun 2027 09:38:11.951            11.919               Magadan2           372.469
       256   03 Jun 2027 09:38:47.710   03 Jun 2027 09:39:21.658            33.948               Magadan1          1060.875
       257   03 Jun 2027 09:39:27.689   03 Jun 2027 09:40:10.462            42.773               Magadan1          1336.656
       258   03 Jun 2027 09:41:08.693   03 Jun 2027 09:41:28.882            20.189                Irkutsk           630.906
       259   03 Jun 2027 09:41:37.813   03 Jun 2027 09:42:48.140            70.327               Magadan2          2197.719
       260   03 Jun 2027 09:42:52.713   03 Jun 2027 09:43:03.599            10.886                Irkutsk           340.188
       261   03 Jun 2027 10:17:51.144   03 Jun 2027 10:18:56.720            65.576            RioGallegos          2049.250
       262   03 Jun 2027 10:53:19.969   03 Jun 2027 10:54:08.115            48.146                Sumatra          1504.562
       263   03 Jun 2027 10:57:10.016   03 Jun 2027 10:58:10.442            60.426                Sumatra          1888.312
       264   03 Jun 2027 11:14:33.142   03 Jun 2027 11:14:59.289            26.147                Irkutsk           817.094
       265   03 Jun 2027 11:15:09.239   03 Jun 2027 11:15:48.607            39.368                Norilsk          1230.250
       266   03 Jun 2027 11:16:02.775   03 Jun 2027 11:16:42.964            40.189                Irkutsk          1255.906
       267   03 Jun 2027 11:17:02.561   03 Jun 2027 11:17:33.537            30.976                Norilsk           968.000
       268   03 Jun 2027 11:17:41.831   03 Jun 2027 11:18:01.193            19.362                Irkutsk           605.062
       269   03 Jun 2027 11:18:07.862   03 Jun 2027 11:18:24.700            16.838                Novosib           526.187
       270   03 Jun 2027 11:18:27.701   03 Jun 2027 11:18:38.747            11.046                Norilsk           345.187
       271   03 Jun 2027 11:18:47.487   03 Jun 2027 11:18:59.353            11.866                Norilsk           370.813
       272   03 Jun 2027 11:55:33.963   03 Jun 2027 11:56:14.004            40.041            RioGallegos          1251.281
       273   03 Jun 2027 11:59:02.860   03 Jun 2027 11:59:34.384            31.524            RioGallegos           985.125
       274   03 Jun 2027 12:29:46.757   03 Jun 2027 12:30:46.593            59.836                Sumatra          1869.875
       275   03 Jun 2027 12:37:12.413   03 Jun 2027 12:39:41.797           149.384                Sumatra          4668.250
       276   03 Jun 2027 12:47:59.788   03 Jun 2027 12:48:45.821            46.033                Norilsk          1438.531
       277   03 Jun 2027 12:49:31.410   03 Jun 2027 12:50:34.415            63.005                Irkutsk          1968.906
       278   03 Jun 2027 14:15:01.872   03 Jun 2027 14:17:02.574           120.702                  Delhi          3771.938
       279   03 Jun 2027 14:22:20.831   03 Jun 2027 14:23:10.717            49.886                 Moscow          1558.937
       280   03 Jun 2027 14:23:32.750   03 Jun 2027 14:26:58.060           205.310                Novosib          6415.938
       281   03 Jun 2027 14:30:06.881   03 Jun 2027 14:30:44.514            37.633                Norilsk          1176.031
       282   03 Jun 2027 15:38:51.048   03 Jun 2027 15:40:11.645            80.597               CapeTown          2518.656
       283   03 Jun 2027 15:41:19.029   03 Jun 2027 15:42:47.189            88.160               CapeTown          2755.000
       284   03 Jun 2027 15:57:40.873   03 Jun 2027 15:57:54.023            13.150                 Moscow           410.938
       285   03 Jun 2027 15:58:51.263   03 Jun 2027 15:59:22.061            30.798                 Moscow           962.437
       286   03 Jun 2027 16:01:09.724   03 Jun 2027 16:01:42.117            32.393              Murmansk1          1012.281
       287   03 Jun 2027 16:01:42.117   03 Jun 2027 16:02:21.604            39.487              Murmansk2          1233.969
       288   03 Jun 2027 16:03:50.052   03 Jun 2027 16:04:06.857            16.805              Murmansk2           525.156
       289   03 Jun 2027 16:16:27.970   03 Jun 2027 16:17:20.098            52.128                Anadyr1          1629.000
       290   03 Jun 2027 16:17:39.280   03 Jun 2027 16:18:25.596            46.316                Anadyr2          1447.375
       291   03 Jun 2027 16:18:31.109   03 Jun 2027 16:19:19.030            47.921                Anadyr2          1497.531
       292   03 Jun 2027 17:10:51.153   03 Jun 2027 17:13:00.942           129.789               CapeTown          4055.906
       293   03 Jun 2027 17:37:51.884   03 Jun 2027 17:40:27.905           156.021                 Moscow          4875.656
       294   03 Jun 2027 17:42:33.200   03 Jun 2027 17:43:41.251            68.051              Murmansk1          2126.594
       295   03 Jun 2027 17:52:15.536   03 Jun 2027 17:52:27.152            11.616                Anadyr1           363.000
       296   03 Jun 2027 17:52:44.205   03 Jun 2027 17:53:05.916            21.711                Anadyr1           678.469
       297   03 Jun 2027 18:47:47.716   03 Jun 2027 18:48:57.084            69.368               CapeTown          2167.750
       298   03 Jun 2027 18:53:01.671   03 Jun 2027 18:53:08.777             7.106               CapeTown           222.063
       299   03 Jun 2027 18:56:41.377   03 Jun 2027 18:57:06.517            25.140               CapeTown           785.625
       300   03 Jun 2027 19:21:00.003   03 Jun 2027 19:24:20.064           200.061              Murmansk1          6251.906
       301   03 Jun 2027 19:28:54.827   03 Jun 2027 19:29:10.551            15.724                Anadyr2           491.375
       302   03 Jun 2027 19:29:54.287   03 Jun 2027 19:31:15.011            80.724               Magadan2          2522.625
       303   03 Jun 2027 19:31:15.011   03 Jun 2027 19:32:36.216            81.205               Magadan1          2537.656
       304   03 Jun 2027 19:35:49.458   03 Jun 2027 19:35:55.675             6.217               Magadan2           194.281
       305   03 Jun 2027 19:38:17.119   03 Jun 2027 19:38:27.825            10.706               Magadan1           334.563
       306   03 Jun 2027 21:03:15.314   03 Jun 2027 21:07:11.470           236.156                Anadyr1          7379.875
       307   03 Jun 2027 21:07:42.605   03 Jun 2027 21:09:32.154           109.549                Norilsk          3423.406
       308   03 Jun 2027 21:09:35.148   03 Jun 2027 21:09:54.612            19.464               Magadan2           608.250
       309   03 Jun 2027 21:12:30.632   03 Jun 2027 21:13:03.959            33.327               Magadan2          1041.469
       310   03 Jun 2027 21:16:08.045   03 Jun 2027 21:16:16.815             8.770               Magadan2           274.062
       311   03 Jun 2027 21:16:31.377   03 Jun 2027 21:17:42.629            71.252               Magadan2          2226.625
       312   03 Jun 2027 21:57:50.224   03 Jun 2027 22:01:01.375           191.151            RioGallegos          5973.469
       313   03 Jun 2027 22:38:54.456   03 Jun 2027 22:39:18.187            23.731                Anadyr2           741.594
       314   03 Jun 2027 22:40:48.181   03 Jun 2027 22:42:13.981            85.800                Anadyr2          2681.250
       315   03 Jun 2027 22:42:27.500   03 Jun 2027 22:42:46.905            19.405                Norilsk           606.406
       316   03 Jun 2027 22:43:20.744   03 Jun 2027 22:43:34.657            13.913               Magadan2           434.781
       317   03 Jun 2027 22:43:40.230   03 Jun 2027 22:43:53.996            13.766                Norilsk           430.187
       318   03 Jun 2027 22:44:02.296   03 Jun 2027 22:44:59.592            57.296                Norilsk          1790.500
       319   03 Jun 2027 22:45:20.763   03 Jun 2027 22:46:13.781            53.018                Irkutsk          1656.812
       320   03 Jun 2027 22:48:21.036   03 Jun 2027 22:50:00.893            99.857                Novosib          3120.531
       321   03 Jun 2027 22:59:11.115   03 Jun 2027 22:59:46.483            35.368                Sumatra          1105.250
       322   03 Jun 2027 23:01:01.301   03 Jun 2027 23:01:33.908            32.607                Sumatra          1018.969
       323   03 Jun 2027 23:09:15.052   03 Jun 2027 23:10:56.873           101.821                Sumatra          3181.906
       324   04 Jun 2027 00:14:01.525   04 Jun 2027 00:14:27.776            26.251                Anadyr2           820.344
       325   04 Jun 2027 00:16:10.934   04 Jun 2027 00:16:24.350            13.416                Anadyr2           419.250
       326   04 Jun 2027 00:17:01.601   04 Jun 2027 00:17:10.240             8.639                Norilsk           269.969
       327   04 Jun 2027 00:17:41.256   04 Jun 2027 00:18:59.635            78.379               Magadan2          2449.344
       328   04 Jun 2027 00:18:59.635   04 Jun 2027 00:20:14.854            75.219               Magadan1          2350.594
       329   04 Jun 2027 00:20:53.684   04 Jun 2027 00:21:52.484            58.800                Irkutsk          1837.500
       330   04 Jun 2027 00:21:58.709   04 Jun 2027 00:23:15.102            76.393                Novosib          2387.281
       331   04 Jun 2027 00:29:02.223   04 Jun 2027 00:29:49.562            47.339                  Delhi          1479.344
       332   04 Jun 2027 00:30:08.957   04 Jun 2027 00:31:42.128            93.171                  Delhi          2911.594
       333   04 Jun 2027 01:10:39.437   04 Jun 2027 01:11:04.351            24.914            RioGallegos           778.562
       334   04 Jun 2027 01:14:21.748   04 Jun 2027 01:15:00.011            38.263            RioGallegos          1195.719
       335   04 Jun 2027 01:47:21.075   04 Jun 2027 01:47:34.413            13.338                Anadyr2           416.812
       336   04 Jun 2027 01:48:05.616   04 Jun 2027 01:49:41.040            95.424                Anadyr2          2982.000
       337   04 Jun 2027 01:52:32.866   04 Jun 2027 01:52:48.497            15.631                Anadyr1           488.469
       338   04 Jun 2027 01:53:11.658   04 Jun 2027 01:53:17.635             5.977                Anadyr2           186.781
       339   04 Jun 2027 01:53:19.226   04 Jun 2027 01:53:45.725            26.499               Magadan2           828.094
       340   04 Jun 2027 01:53:51.347   04 Jun 2027 01:54:25.487            34.140               Magadan1          1066.875
       341   04 Jun 2027 01:54:36.720   04 Jun 2027 01:55:04.270            27.550                Norilsk           860.937
       342   04 Jun 2027 01:55:25.134   04 Jun 2027 01:56:55.542            90.408              Murmansk2          2825.250
       343   04 Jun 2027 01:57:12.059   04 Jun 2027 01:57:30.410            18.351                Novosib           573.469
       344   04 Jun 2027 01:57:55.869   04 Jun 2027 01:58:10.572            14.703                Novosib           459.469
       345   04 Jun 2027 01:58:37.857   04 Jun 2027 01:58:46.723             8.866                Novosib           277.062
       346   04 Jun 2027 01:59:07.254   04 Jun 2027 02:00:10.870            63.616                Irkutsk          1988.000
       347   04 Jun 2027 02:06:56.415   04 Jun 2027 02:08:39.796           103.381                  Delhi          3230.656
       348   04 Jun 2027 03:20:42.817   04 Jun 2027 03:21:08.655            25.838                Anadyr2           807.438
       349   04 Jun 2027 03:22:16.355   04 Jun 2027 03:22:29.840            13.485                Anadyr2           421.406
       350   04 Jun 2027 03:23:32.054   04 Jun 2027 03:23:40.028             7.974                Anadyr2           249.187
       351   04 Jun 2027 03:31:51.967   04 Jun 2027 03:32:04.159            12.192                Anadyr1           381.000
       352   04 Jun 2027 03:40:14.175   04 Jun 2027 03:40:30.446            16.271                Novosib           508.469
       353   04 Jun 2027 03:40:36.936   04 Jun 2027 03:42:24.843           107.907                Novosib          3372.094
       354   04 Jun 2027 03:42:28.863   04 Jun 2027 03:43:05.200            36.337              Murmansk2          1135.531
       355   04 Jun 2027 03:43:16.460   04 Jun 2027 03:46:49.192           212.732                 Moscow          6647.875
       356   04 Jun 2027 03:59:03.496   04 Jun 2027 04:01:06.220           122.724               CapeTown          3835.125
       357   04 Jun 2027 04:02:06.365   04 Jun 2027 04:03:05.328            58.963               CapeTown          1842.594
       358   04 Jun 2027 04:04:57.704   04 Jun 2027 04:05:46.888            49.184               CapeTown          1537.000
       359   04 Jun 2027 04:06:28.949   04 Jun 2027 04:08:11.138           102.189               CapeTown          3193.406
       360   04 Jun 2027 04:55:08.024   04 Jun 2027 04:55:53.971            45.947                Anadyr2          1435.844
       361   04 Jun 2027 04:56:21.661   04 Jun 2027 04:56:39.912            18.251                Anadyr2           570.344
       362   04 Jun 2027 04:58:33.463   04 Jun 2027 04:59:01.195            27.732               Magadan2           866.625
       363   04 Jun 2027 04:59:17.654   04 Jun 2027 04:59:39.495            21.841               Magadan2           682.531
       364   04 Jun 2027 05:02:30.494   04 Jun 2027 05:02:50.863            20.369               Magadan2           636.531
       365   04 Jun 2027 05:03:15.820   04 Jun 2027 05:03:51.672            35.852                Anadyr1          1120.375
       366   04 Jun 2027 05:15:16.982   04 Jun 2027 05:15:28.510            11.528                 Moscow           360.250
       367   04 Jun 2027 05:15:41.810   04 Jun 2027 05:16:07.298            25.488                 Moscow           796.500
       368   04 Jun 2027 05:16:10.774   04 Jun 2027 05:16:26.037            15.263                 Moscow           476.969
       369   04 Jun 2027 05:20:51.128   04 Jun 2027 05:21:20.381            29.253                 Moscow           914.156
       370   04 Jun 2027 05:34:48.537   04 Jun 2027 05:36:17.740            89.203               CapeTown          2787.594
       371   04 Jun 2027 06:37:30.685   04 Jun 2027 06:37:42.180            11.495               Magadan1           359.219
       372   04 Jun 2027 06:37:42.180   04 Jun 2027 06:37:44.089             1.909               Magadan2            59.656
       373   04 Jun 2027 06:37:58.425   04 Jun 2027 06:39:20.980            82.555                Anadyr1          2579.844
       374   04 Jun 2027 06:39:27.937   04 Jun 2027 06:39:44.283            16.346               Magadan2           510.812
       375   04 Jun 2027 06:40:07.991   04 Jun 2027 06:40:11.064             3.073                Anadyr2            96.031
       376   04 Jun 2027 06:40:34.229   04 Jun 2027 06:41:00.765            26.536               Magadan2           829.250
       377   04 Jun 2027 06:41:38.900   04 Jun 2027 06:42:09.622            30.722                Anadyr1           960.063
       378   04 Jun 2027 06:42:09.622   04 Jun 2027 06:42:40.817            31.195                Anadyr2           974.844
       379   04 Jun 2027 08:13:15.546   04 Jun 2027 08:14:13.860            58.314                Anadyr2          1822.312
       380   04 Jun 2027 08:14:34.781   04 Jun 2027 08:14:37.608             2.827               Magadan1            88.344
       381   04 Jun 2027 08:15:13.095   04 Jun 2027 08:15:44.944            31.849                Anadyr1           995.281
       382   04 Jun 2027 08:15:50.495   04 Jun 2027 08:16:17.715            27.220                Anadyr1           850.625
       383   04 Jun 2027 08:16:29.258   04 Jun 2027 08:17:09.175            39.917               Magadan1          1247.406
       384   04 Jun 2027 08:17:39.208   04 Jun 2027 08:17:46.104             6.896               Magadan1           215.500
       385   04 Jun 2027 08:18:02.779   04 Jun 2027 08:19:21.540            78.761                Anadyr1          2461.281
       386   04 Jun 2027 09:48:21.286   04 Jun 2027 09:49:50.487            89.201               Magadan2          2787.531
       387   04 Jun 2027 09:50:29.774   04 Jun 2027 09:50:37.171             7.397               Magadan2           231.156
       388   04 Jun 2027 09:51:03.072   04 Jun 2027 09:51:07.401             4.329               Magadan2           135.281
       389   04 Jun 2027 09:51:07.401   04 Jun 2027 09:51:16.758             9.357               Magadan1           292.406
       390   04 Jun 2027 09:52:13.996   04 Jun 2027 09:53:37.190            83.194               Magadan2          2599.812
       391   04 Jun 2027 09:53:45.433   04 Jun 2027 09:54:26.168            40.735                Irkutsk          1272.969
       392   04 Jun 2027 09:54:31.008   04 Jun 2027 09:55:01.968            30.960                Novosib           967.500
       393   04 Jun 2027 09:56:35.470   04 Jun 2027 09:56:59.408            23.938                Norilsk           748.063
       394   04 Jun 2027 10:29:52.734   04 Jun 2027 10:30:53.623            60.889            RioGallegos          1902.781
       395   04 Jun 2027 11:05:43.251   04 Jun 2027 11:07:13.881            90.630                Sumatra          2832.188
       396   04 Jun 2027 11:26:15.439   04 Jun 2027 11:26:15.894             0.455                Novosib            14.219
       397   04 Jun 2027 11:26:32.926   04 Jun 2027 11:26:53.709            20.783                Novosib           649.469
       398   04 Jun 2027 11:27:21.871   04 Jun 2027 11:28:32.385            70.514                Novosib          2203.563
       399   04 Jun 2027 11:28:48.718   04 Jun 2027 11:29:19.519            30.801                Irkutsk           962.531
       400   04 Jun 2027 11:29:24.465   04 Jun 2027 11:29:39.189            14.724                Novosib           460.125
       401   04 Jun 2027 11:29:42.661   04 Jun 2027 11:30:39.258            56.597                Novosib          1768.656
       402   04 Jun 2027 11:30:50.898   04 Jun 2027 11:31:24.497            33.599                Novosib          1049.969
       403   04 Jun 2027 12:08:11.514   04 Jun 2027 12:08:30.693            19.179            RioGallegos           599.344
       404   04 Jun 2027 12:09:10.225   04 Jun 2027 12:09:49.898            39.673            RioGallegos          1239.781
       405   04 Jun 2027 12:42:28.991   04 Jun 2027 12:42:55.585            26.594                Sumatra           831.062
       406   04 Jun 2027 12:45:48.109   04 Jun 2027 12:47:23.308            95.199                Sumatra          2974.969
       407   04 Jun 2027 12:58:15.291   04 Jun 2027 12:58:27.513            12.222                Irkutsk           381.938
       408   04 Jun 2027 12:58:59.453   04 Jun 2027 12:59:48.076            48.623                Novosib          1519.469
       409   04 Jun 2027 13:00:15.853   04 Jun 2027 13:00:48.028            32.175                Norilsk          1005.469
       410   04 Jun 2027 13:02:29.647   04 Jun 2027 13:02:47.750            18.103                Irkutsk           565.719
       411   04 Jun 2027 13:04:15.513   04 Jun 2027 13:04:16.428             0.915                Norilsk            28.594
       412   04 Jun 2027 13:11:42.535   04 Jun 2027 13:12:10.861            28.326                Norilsk           885.187
       413   04 Jun 2027 14:28:06.478   04 Jun 2027 14:28:57.572            51.094                  Delhi          1596.688
       414   04 Jun 2027 14:29:50.704   04 Jun 2027 14:32:08.313           137.609                  Delhi          4300.281
       415   04 Jun 2027 14:34:35.521   04 Jun 2027 14:35:20.702            45.181                 Moscow          1411.906
       416   04 Jun 2027 14:36:49.976   04 Jun 2027 14:38:29.136            99.160              Murmansk2          3098.750
       417   04 Jun 2027 14:39:22.868   04 Jun 2027 14:39:56.870            34.002                Norilsk          1062.563
       418   04 Jun 2027 14:40:37.389   04 Jun 2027 14:40:51.018            13.629                Norilsk           425.906
       419   04 Jun 2027 14:42:04.296   04 Jun 2027 14:43:25.770            81.474                Norilsk          2546.062
       420   04 Jun 2027 15:49:28.364   04 Jun 2027 15:51:14.143           105.779               CapeTown          3305.594
       421   04 Jun 2027 16:09:56.745   04 Jun 2027 16:10:54.028            57.283                 Moscow          1790.094
       422   04 Jun 2027 16:11:16.974   04 Jun 2027 16:11:25.352             8.378                 Moscow           261.812
       423   04 Jun 2027 16:13:21.843   04 Jun 2027 16:14:03.396            41.553              Murmansk1          1298.531
       424   04 Jun 2027 16:14:23.466   04 Jun 2027 16:15:47.607            84.141              Murmansk1          2629.406
       425   04 Jun 2027 16:28:14.544   04 Jun 2027 16:29:18.689            64.145                Anadyr1          2004.531
       426   04 Jun 2027 16:29:21.544   04 Jun 2027 16:30:04.888            43.344                Anadyr2          1354.500
       427   04 Jun 2027 16:30:14.301   04 Jun 2027 16:30:56.149            41.848                Anadyr2          1307.750
       428   04 Jun 2027 17:23:26.954   04 Jun 2027 17:25:19.530           112.576               CapeTown          3518.000
       429   04 Jun 2027 17:51:14.221   04 Jun 2027 17:54:37.082           202.861                 Moscow          6339.406
       430   04 Jun 2027 17:56:06.465   04 Jun 2027 17:57:44.349            97.884              Murmansk2          3058.875
       431   04 Jun 2027 18:08:06.463   04 Jun 2027 18:09:13.847            67.384               Magadan1          2105.750
       432   04 Jun 2027 18:09:20.100   04 Jun 2027 18:11:23.077           122.977               Magadan1          3843.031
       433   04 Jun 2027 19:39:21.543   04 Jun 2027 19:42:59.721           218.178                Anadyr2          6818.063
       434   04 Jun 2027 19:43:30.421   04 Jun 2027 19:45:12.118           101.697               Magadan2          3178.031
       435   04 Jun 2027 21:15:16.178   04 Jun 2027 21:17:23.011           126.833                Anadyr1          3963.531
       436   04 Jun 2027 21:17:25.373   04 Jun 2027 21:19:18.809           113.436                Anadyr2          3544.875
       437   04 Jun 2027 21:19:44.494   04 Jun 2027 21:21:10.124            85.630                Norilsk          2675.937
       438   04 Jun 2027 21:21:19.901   04 Jun 2027 21:21:47.388            27.487               Magadan1           858.969
       439   04 Jun 2027 21:22:43.530   04 Jun 2027 21:23:37.964            54.434               Magadan1          1701.062
       440   04 Jun 2027 21:24:27.496   04 Jun 2027 21:24:48.713            21.217               Magadan2           663.031
       441   04 Jun 2027 21:25:44.441   04 Jun 2027 21:26:18.990            34.549               Magadan1          1079.656
       442   04 Jun 2027 22:09:38.465   04 Jun 2027 22:12:27.834           169.369            RioGallegos          5292.781
       443   04 Jun 2027 22:13:02.632   04 Jun 2027 22:13:04.798             2.166            RioGallegos            67.687
       444   04 Jun 2027 22:18:35.926   04 Jun 2027 22:19:05.654            29.728            RioGallegos           929.000
       445   04 Jun 2027 22:50:51.295   04 Jun 2027 22:51:19.822            28.527                Anadyr1           891.469
       446   04 Jun 2027 22:53:05.827   04 Jun 2027 22:54:17.053            71.226                Norilsk          2225.812
       447   04 Jun 2027 22:54:32.632   04 Jun 2027 22:55:27.300            54.668               Magadan1          1708.375
       448   04 Jun 2027 22:56:49.540   04 Jun 2027 22:57:19.291            29.751               Magadan1           929.719
       449   04 Jun 2027 22:57:51.056   04 Jun 2027 22:58:23.363            32.307               Magadan1          1009.594
       450   04 Jun 2027 22:58:32.765   04 Jun 2027 22:59:26.318            53.553                Irkutsk          1673.531
       451   04 Jun 2027 22:59:28.862   04 Jun 2027 22:59:56.618            27.756                Irkutsk           867.375
       452   04 Jun 2027 23:00:37.742   04 Jun 2027 23:01:45.820            68.078                Novosib          2127.437
       453   04 Jun 2027 23:10:58.410   04 Jun 2027 23:13:28.866           150.456                Sumatra          4701.750
       454   05 Jun 2027 00:25:31.985   05 Jun 2027 00:26:19.606            47.621                Anadyr2          1488.156
       455   05 Jun 2027 00:26:19.606   05 Jun 2027 00:26:34.590            14.984                Anadyr1           468.250
       456   05 Jun 2027 00:27:46.979   05 Jun 2027 00:28:07.186            20.207                Anadyr2           631.469
       457   05 Jun 2027 00:29:03.846   05 Jun 2027 00:29:09.572             5.726                Norilsk           178.937
       458   05 Jun 2027 00:29:43.577   05 Jun 2027 00:31:56.311           132.734               Magadan2          4147.938
       459   05 Jun 2027 00:32:56.745   05 Jun 2027 00:34:15.192            78.447                Irkutsk          2451.469
       460   05 Jun 2027 00:34:19.193   05 Jun 2027 00:34:43.477            24.284                Novosib           758.875
       461   05 Jun 2027 00:36:05.604   05 Jun 2027 00:36:50.449            44.845                Novosib          1401.406
       462   05 Jun 2027 00:39:46.537   05 Jun 2027 00:40:49.442            62.905                Novosib          1965.781
       463   05 Jun 2027 00:41:22.159   05 Jun 2027 00:42:02.201            40.042                  Delhi          1251.313
       464   05 Jun 2027 00:47:03.199   05 Jun 2027 00:47:07.332             4.133                  Delhi           129.156
       465   05 Jun 2027 00:49:29.741   05 Jun 2027 00:50:08.822            39.081                  Delhi          1221.281
       466   05 Jun 2027 01:21:27.605   05 Jun 2027 01:22:14.556            46.951            RioGallegos          1467.219
       467   05 Jun 2027 01:27:27.320   05 Jun 2027 01:27:45.269            17.949            RioGallegos           560.906
       468   05 Jun 2027 01:28:44.400   05 Jun 2027 01:28:51.834             7.434            RioGallegos           232.312
       469   05 Jun 2027 01:59:02.149   05 Jun 2027 02:00:06.097            63.948                Anadyr1          1998.375
       470   05 Jun 2027 02:00:06.097   05 Jun 2027 02:00:19.027            12.930                Anadyr2           404.062
       471   05 Jun 2027 02:01:01.453   05 Jun 2027 02:01:41.020            39.567                Anadyr1          1236.469
       472   05 Jun 2027 02:05:03.226   05 Jun 2027 02:05:03.486             0.260                Norilsk             8.125
       473   05 Jun 2027 02:05:09.551   05 Jun 2027 02:05:21.583            12.032               Magadan1           376.000
       474   05 Jun 2027 02:05:42.380   05 Jun 2027 02:07:22.499           100.119               Magadan1          3128.719
       475   05 Jun 2027 02:07:22.796   05 Jun 2027 02:08:50.206            87.410              Murmansk1          2731.563
       476   05 Jun 2027 02:09:29.337   05 Jun 2027 02:09:40.555            11.218                Novosib           350.562
       477   05 Jun 2027 02:09:43.202   05 Jun 2027 02:09:48.165             4.963              Murmansk1           155.094
       478   05 Jun 2027 02:09:53.391   05 Jun 2027 02:10:09.335            15.944                Novosib           498.250
       479   05 Jun 2027 02:12:03.060   05 Jun 2027 02:12:20.215            17.155                 Moscow           536.094
       480   05 Jun 2027 02:15:27.594   05 Jun 2027 02:16:02.645            35.051                 Moscow          1095.344
       481   05 Jun 2027 02:17:01.620   05 Jun 2027 02:17:24.482            22.862                  Delhi           714.438
       482   05 Jun 2027 02:18:14.392   05 Jun 2027 02:18:38.723            24.331                  Delhi           760.344
