uniorb/output/strategy_4/Drop/Drop_KinoSat_111707.txt

KinoSat_111707
-------------------------
    Access    *     Start Time (UTCG)     *     Stop Time (UTCG)  *   Duration (s)        *       Station  *  Data (Mbytes)
         1   01 Jun 2027 04:30:44.718   01 Jun 2027 04:31:48.406            63.688                Norilsk          1990.250
         2   01 Jun 2027 04:32:07.166   01 Jun 2027 04:34:08.218           121.052                 Moscow          3782.875
         3   01 Jun 2027 04:34:10.522   01 Jun 2027 04:35:10.012            59.490                Novosib          1859.062
         4   01 Jun 2027 04:35:20.959   01 Jun 2027 04:35:29.865             8.906              Murmansk1           278.312
         5   01 Jun 2027 04:36:06.208   01 Jun 2027 04:39:13.276           187.068                 Moscow          5845.875
         6   01 Jun 2027 04:51:18.294   01 Jun 2027 04:55:22.512           244.218               CapeTown          7631.812
         7   01 Jun 2027 04:56:59.597   01 Jun 2027 04:58:08.855            69.258               CapeTown          2164.312
         8   01 Jun 2027 06:06:52.389   01 Jun 2027 06:07:42.508            50.119                Norilsk          1566.219
         9   01 Jun 2027 06:07:53.337   01 Jun 2027 06:09:59.453           126.116                 Moscow          3941.125
        10   01 Jun 2027 06:10:09.506   01 Jun 2027 06:10:41.527            32.021              Murmansk2          1000.656
        11   01 Jun 2027 06:10:58.123   01 Jun 2027 06:12:25.388            87.265              Murmansk2          2727.031
        12   01 Jun 2027 06:27:14.718   01 Jun 2027 06:28:01.537            46.819               CapeTown          1463.094
        13   01 Jun 2027 06:29:21.495   01 Jun 2027 06:31:42.775           141.280               CapeTown          4415.000
        14   01 Jun 2027 07:31:17.286   01 Jun 2027 07:31:38.252            20.966                Norilsk           655.187
        15   01 Jun 2027 07:31:41.469   01 Jun 2027 07:35:52.443           250.974               Magadan2          7842.938
        16   01 Jun 2027 07:37:06.188   01 Jun 2027 07:38:10.105            63.917              Murmansk1          1997.406
        17   01 Jun 2027 09:07:35.025   01 Jun 2027 09:08:32.210            57.185                Anadyr2          1787.031
        18   01 Jun 2027 09:08:52.420   01 Jun 2027 09:11:47.707           175.287               Magadan2          5477.719
        19   01 Jun 2027 10:38:01.913   01 Jun 2027 10:39:55.596           113.683               Magadan2          3552.594
        20   01 Jun 2027 10:42:33.157   01 Jun 2027 10:43:20.527            47.370                Irkutsk          1480.313
        21   01 Jun 2027 10:43:27.860   01 Jun 2027 10:43:33.436             5.576                Norilsk           174.250
        22   01 Jun 2027 10:43:46.827   01 Jun 2027 10:46:55.714           188.887               Magadan1          5902.719
        23   01 Jun 2027 10:47:09.417   01 Jun 2027 10:50:24.949           195.532                Norilsk          6110.375
        24   01 Jun 2027 11:22:13.760   01 Jun 2027 11:24:26.939           133.179            RioGallegos          4161.844
        25   01 Jun 2027 11:57:20.820   01 Jun 2027 11:59:38.066           137.246                Sumatra          4288.937
        26   01 Jun 2027 12:10:53.480   01 Jun 2027 12:12:37.528           104.048                Irkutsk          3251.500
        27   01 Jun 2027 12:15:34.436   01 Jun 2027 12:17:33.001           118.565                Norilsk          3705.156
        28   01 Jun 2027 13:00:42.490   01 Jun 2027 13:03:10.987           148.497            RioGallegos          4640.531
        29   01 Jun 2027 13:05:58.750   01 Jun 2027 13:06:42.492            43.742            RioGallegos          1366.937
        30   01 Jun 2027 13:35:03.522   01 Jun 2027 13:37:58.921           175.399                Sumatra          5481.219
        31   01 Jun 2027 13:39:45.644   01 Jun 2027 13:40:39.444            53.800                Sumatra          1681.250
        32   01 Jun 2027 13:41:02.887   01 Jun 2027 13:43:07.429           124.542                Sumatra          3891.938
        33   01 Jun 2027 13:50:52.087   01 Jun 2027 13:54:44.019           231.932                Irkutsk          7247.875
        34   01 Jun 2027 13:57:17.092   01 Jun 2027 13:57:30.161            13.069                Irkutsk           408.406
        35   01 Jun 2027 15:20:48.729   01 Jun 2027 15:24:54.474           245.745                  Delhi          7679.531
        36   01 Jun 2027 15:29:15.340   01 Jun 2027 15:34:41.835           326.495                Novosib         10202.969
        37   01 Jun 2027 18:22:43.099   01 Jun 2027 18:23:07.696            24.597               CapeTown           768.656
        38   01 Jun 2027 18:25:01.597   01 Jun 2027 18:27:00.336           118.739               CapeTown          3710.594
        39   01 Jun 2027 18:44:02.680   01 Jun 2027 18:47:27.608           204.928                 Moscow          6404.000
        40   01 Jun 2027 18:48:00.907   01 Jun 2027 18:49:37.361            96.454              Murmansk2          3014.187
        41   01 Jun 2027 19:52:48.921   01 Jun 2027 19:53:19.543            30.622               CapeTown           956.937
        42   01 Jun 2027 19:55:40.268   01 Jun 2027 19:57:40.038           119.770               CapeTown          3742.812
        43   01 Jun 2027 20:32:24.619   01 Jun 2027 20:32:40.042            15.423                Anadyr1           481.969
        44   01 Jun 2027 20:32:56.089   01 Jun 2027 20:33:21.320            25.231                Anadyr1           788.469
        45   01 Jun 2027 20:34:09.692   01 Jun 2027 20:35:17.414            67.722               Magadan1          2116.312
        46   01 Jun 2027 20:35:17.414   01 Jun 2027 20:36:27.848            70.434               Magadan2          2201.062
        47   01 Jun 2027 20:36:34.637   01 Jun 2027 20:36:44.327             9.690               Magadan1           302.812
        48   01 Jun 2027 20:37:44.518   01 Jun 2027 20:37:51.103             6.585               Magadan2           205.781
        49   01 Jun 2027 20:38:56.173   01 Jun 2027 20:40:01.639            65.466               Magadan2          2045.812
        50   01 Jun 2027 22:07:36.715   01 Jun 2027 22:11:19.457           222.742                Anadyr2          6960.687
        51   01 Jun 2027 22:11:19.846   01 Jun 2027 22:13:23.986           124.140                Norilsk          3879.375
        52   01 Jun 2027 22:13:25.261   01 Jun 2027 22:13:35.740            10.479               Magadan1           327.469
        53   01 Jun 2027 22:13:53.767   01 Jun 2027 22:14:55.483            61.716               Magadan1          1928.625
        54   01 Jun 2027 22:15:55.804   01 Jun 2027 22:15:58.531             2.727               Magadan2            85.219
        55   01 Jun 2027 22:16:00.535   01 Jun 2027 22:16:05.009             4.474               Magadan2           139.813
        56   01 Jun 2027 22:16:11.948   01 Jun 2027 22:16:47.897            35.949               Magadan2          1123.406
        57   01 Jun 2027 22:17:06.890   01 Jun 2027 22:17:39.144            32.254                Irkutsk          1007.937
        58   01 Jun 2027 23:01:55.556   01 Jun 2027 23:03:45.368           109.812            RioGallegos          3431.625
        59   01 Jun 2027 23:07:47.365   01 Jun 2027 23:07:56.049             8.684            RioGallegos           271.375
        60   01 Jun 2027 23:10:03.592   01 Jun 2027 23:10:17.998            14.406            RioGallegos           450.187
        61   01 Jun 2027 23:12:02.452   01 Jun 2027 23:12:14.372            11.920            RioGallegos           372.500
        62   01 Jun 2027 23:12:58.149   01 Jun 2027 23:13:03.443             5.294            RioGallegos           165.437
        63   01 Jun 2027 23:43:10.950   01 Jun 2027 23:45:33.190           142.240                Anadyr1          4445.000
        64   01 Jun 2027 23:45:45.933   01 Jun 2027 23:47:07.271            81.338                Norilsk          2541.812
        65   01 Jun 2027 23:47:16.986   01 Jun 2027 23:48:31.298            74.312               Magadan1          2322.250
        66   01 Jun 2027 23:49:33.338   01 Jun 2027 23:50:29.485            56.147                Irkutsk          1754.594
        67   01 Jun 2027 23:53:10.987   01 Jun 2027 23:53:45.642            34.655                Novosib          1082.969
        68   01 Jun 2027 23:56:00.131   01 Jun 2027 23:56:04.374             4.243                Novosib           132.594
        69   01 Jun 2027 23:57:36.886   01 Jun 2027 23:57:40.735             3.849                Novosib           120.281
        70   02 Jun 2027 00:01:17.260   02 Jun 2027 00:01:36.076            18.816                Irkutsk           588.000
        71   02 Jun 2027 00:05:54.260   02 Jun 2027 00:06:11.841            17.581                Sumatra           549.406
        72   02 Jun 2027 00:06:25.403   02 Jun 2027 00:06:33.083             7.680                Sumatra           240.000
        73   02 Jun 2027 00:06:48.550   02 Jun 2027 00:06:51.326             2.776                Sumatra            86.750
        74   02 Jun 2027 00:08:40.158   02 Jun 2027 00:09:24.534            44.376                Sumatra          1386.750
        75   02 Jun 2027 00:11:37.031   02 Jun 2027 00:11:57.037            20.006                Sumatra           625.188
        76   02 Jun 2027 00:12:45.977   02 Jun 2027 00:13:18.542            32.565                Sumatra          1017.656
        77   02 Jun 2027 00:43:24.879   02 Jun 2027 00:43:38.525            13.646            RioGallegos           426.438
        78   02 Jun 2027 00:44:46.329   02 Jun 2027 00:45:03.391            17.062            RioGallegos           533.188
        79   02 Jun 2027 00:46:29.873   02 Jun 2027 00:46:56.464            26.591            RioGallegos           830.969
        80   02 Jun 2027 01:17:49.315   02 Jun 2027 01:18:17.772            28.457                Anadyr2           889.281
        81   02 Jun 2027 01:18:17.772   02 Jun 2027 01:18:30.241            12.469                Anadyr1           389.656
        82   02 Jun 2027 01:18:58.520   02 Jun 2027 01:19:39.606            41.086                Anadyr1          1283.937
        83   02 Jun 2027 01:19:39.606   02 Jun 2027 01:20:02.186            22.580                Anadyr2           705.625
        84   02 Jun 2027 01:21:24.353   02 Jun 2027 01:23:07.414           103.061                Norilsk          3220.656
        85   02 Jun 2027 01:23:12.843   02 Jun 2027 01:23:40.672            27.829               Magadan1           869.656
        86   02 Jun 2027 01:25:13.025   02 Jun 2027 01:25:31.111            18.086               Magadan1           565.188
        87   02 Jun 2027 01:26:07.391   02 Jun 2027 01:27:11.868            64.477                Irkutsk          2014.906
        88   02 Jun 2027 01:27:27.284   02 Jun 2027 01:27:54.983            27.699                Novosib           865.594
        89   02 Jun 2027 01:28:19.217   02 Jun 2027 01:28:57.272            38.055                Novosib          1189.219
        90   02 Jun 2027 01:34:22.368   02 Jun 2027 01:34:46.126            23.758                  Delhi           742.437
        91   02 Jun 2027 01:37:09.315   02 Jun 2027 01:38:37.680            88.365                  Delhi          2761.406
        92   02 Jun 2027 01:43:53.575   02 Jun 2027 01:46:02.769           129.194                Sumatra          4037.313
        93   02 Jun 2027 02:51:17.709   02 Jun 2027 02:51:19.651             1.942                Anadyr2            60.688
        94   02 Jun 2027 02:52:27.142   02 Jun 2027 02:52:36.750             9.608                Anadyr2           300.250
        95   02 Jun 2027 02:53:51.181   02 Jun 2027 02:54:04.688            13.507                Anadyr2           422.094
        96   02 Jun 2027 02:56:42.100   02 Jun 2027 02:57:15.013            32.913                Anadyr1          1028.531
        97   02 Jun 2027 02:57:23.757   02 Jun 2027 02:58:12.511            48.754                Norilsk          1523.562
        98   02 Jun 2027 02:58:21.790   02 Jun 2027 02:58:26.068             4.278                Norilsk           133.688
        99   02 Jun 2027 02:58:57.600   02 Jun 2027 02:59:04.553             6.953                Norilsk           217.281
       100   02 Jun 2027 02:59:41.762   02 Jun 2027 03:00:43.765            62.003              Murmansk2          1937.594
       101   02 Jun 2027 03:02:24.910   02 Jun 2027 03:03:11.076            46.166                Norilsk          1442.687
       102   02 Jun 2027 03:03:12.605   02 Jun 2027 03:03:23.089            10.484              Murmansk2           327.625
       103   02 Jun 2027 03:03:28.688   02 Jun 2027 03:04:17.108            48.420                Norilsk          1513.125
       104   02 Jun 2027 03:04:21.539   02 Jun 2027 03:04:51.186            29.647                Norilsk           926.469
       105   02 Jun 2027 03:04:54.148   02 Jun 2027 03:05:41.652            47.504                 Moscow          1484.500
       106   02 Jun 2027 03:06:16.259   02 Jun 2027 03:06:51.704            35.445              Murmansk2          1107.656
       107   02 Jun 2027 03:06:57.881   02 Jun 2027 03:07:29.567            31.686                Novosib           990.187
       108   02 Jun 2027 03:07:36.341   02 Jun 2027 03:08:11.003            34.662              Murmansk1          1083.188
       109   02 Jun 2027 03:08:14.529   02 Jun 2027 03:08:28.812            14.283              Murmansk2           446.344
       110   02 Jun 2027 03:08:58.727   02 Jun 2027 03:09:26.938            28.211                  Delhi           881.594
       111   02 Jun 2027 03:10:53.023   02 Jun 2027 03:13:21.625           148.602                  Delhi          4643.813
       112   02 Jun 2027 04:42:43.620   02 Jun 2027 04:43:27.059            43.439                Norilsk          1357.469
       113   02 Jun 2027 04:43:56.828   02 Jun 2027 04:45:52.096           115.268                Novosib          3602.125
       114   02 Jun 2027 04:48:10.966   02 Jun 2027 04:49:34.166            83.200                 Moscow          2600.000
       115   02 Jun 2027 05:03:01.820   02 Jun 2027 05:06:25.811           203.991               CapeTown          6374.719
       116   02 Jun 2027 05:59:24.903   02 Jun 2027 06:03:43.818           258.915                Anadyr2          8091.094
       117   02 Jun 2027 06:04:00.768   02 Jun 2027 06:05:26.619            85.851               Magadan2          2682.844
       118   02 Jun 2027 06:05:26.619   02 Jun 2027 06:05:47.290            20.671               Magadan1           645.969
       119   02 Jun 2027 06:06:10.679   02 Jun 2027 06:07:02.586            51.907                Anadyr2          1622.094
       120   02 Jun 2027 06:07:48.734   02 Jun 2027 06:08:58.792            70.058               Magadan1          2189.312
       121   02 Jun 2027 06:19:06.990   02 Jun 2027 06:20:30.473            83.483              Murmansk1          2608.844
       122   02 Jun 2027 07:40:52.823   02 Jun 2027 07:42:20.066            87.243                Anadyr1          2726.344
       123   02 Jun 2027 07:42:54.733   02 Jun 2027 07:43:26.913            32.180                Anadyr1          1005.625
       124   02 Jun 2027 07:43:26.913   02 Jun 2027 07:44:26.299            59.386                Anadyr2          1855.812
       125   02 Jun 2027 07:44:56.366   02 Jun 2027 07:45:46.366            50.000               Magadan1          1562.500
       126   02 Jun 2027 07:45:46.366   02 Jun 2027 07:47:20.341            93.975               Magadan2          2936.719
       127   02 Jun 2027 07:54:24.141   02 Jun 2027 07:54:32.962             8.821                 Moscow           275.656
       128   02 Jun 2027 09:17:52.822   02 Jun 2027 09:18:36.183            43.361               Magadan1          1355.031
       129   02 Jun 2027 09:18:36.405   02 Jun 2027 09:20:21.986           105.581               Magadan1          3299.406
       130   02 Jun 2027 09:20:49.102   02 Jun 2027 09:21:06.528            17.426               Magadan2           544.562
       131   02 Jun 2027 09:21:10.769   02 Jun 2027 09:21:52.365            41.596               Magadan2          1299.875
       132   02 Jun 2027 09:22:07.325   02 Jun 2027 09:22:17.473            10.148                Anadyr2           317.125
       133   02 Jun 2027 09:22:29.731   02 Jun 2027 09:23:47.296            77.565               Magadan1          2423.906
       134   02 Jun 2027 10:51:52.616   02 Jun 2027 10:55:23.427           210.811               Magadan2          6587.844
       135   02 Jun 2027 10:56:37.259   02 Jun 2027 10:56:56.215            18.956                Irkutsk           592.375
       136   02 Jun 2027 10:56:58.054   02 Jun 2027 10:57:25.622            27.568                Irkutsk           861.500
       137   02 Jun 2027 10:57:33.699   02 Jun 2027 10:58:15.104            41.405                Irkutsk          1293.906
       138   02 Jun 2027 10:58:31.048   02 Jun 2027 10:58:46.423            15.375                Norilsk           480.469
       139   02 Jun 2027 10:58:47.855   02 Jun 2027 10:59:34.788            46.933                Irkutsk          1466.656
       140   02 Jun 2027 11:34:19.762   02 Jun 2027 11:35:08.576            48.814            RioGallegos          1525.437
       141   02 Jun 2027 12:09:12.903   02 Jun 2027 12:11:18.071           125.168                Sumatra          3911.500
       142   02 Jun 2027 12:23:07.057   02 Jun 2027 12:24:37.035            89.978                Irkutsk          2811.812
       143   02 Jun 2027 12:28:43.594   02 Jun 2027 12:28:54.340            10.746                Norilsk           335.813
       144   02 Jun 2027 12:36:26.681   02 Jun 2027 12:36:43.738            17.057                Norilsk           533.031
       145   02 Jun 2027 13:13:31.308   02 Jun 2027 13:14:38.533            67.225            RioGallegos          2100.781
       146   02 Jun 2027 13:15:06.226   02 Jun 2027 13:18:07.563           181.337            RioGallegos          5666.781
       147   02 Jun 2027 13:49:46.622   02 Jun 2027 13:52:23.227           156.605                Sumatra          4893.906
       148   02 Jun 2027 14:04:15.155   02 Jun 2027 14:06:25.739           130.584                Irkutsk          4080.750
       149   02 Jun 2027 15:35:37.528   02 Jun 2027 15:36:23.554            46.026                  Delhi          1438.313
       150   02 Jun 2027 15:37:49.178   02 Jun 2027 15:38:45.134            55.956                 Moscow          1748.625
       151   02 Jun 2027 15:41:02.887   02 Jun 2027 15:41:11.558             8.671                 Moscow           270.969
       152   02 Jun 2027 15:42:28.888   02 Jun 2027 15:43:18.890            50.002              Murmansk1          1562.562
       153   02 Jun 2027 15:43:19.361   02 Jun 2027 15:45:34.832           135.471                Novosib          4233.469
       154   02 Jun 2027 15:46:51.728   02 Jun 2027 15:47:21.879            30.151                Norilsk           942.219
       155   02 Jun 2027 15:47:37.563   02 Jun 2027 15:48:21.217            43.654                Norilsk          1364.187
       156   02 Jun 2027 15:49:35.913   02 Jun 2027 15:49:56.284            20.371                Norilsk           636.594
       157   02 Jun 2027 16:52:51.956   02 Jun 2027 16:52:56.580             4.624               CapeTown           144.500
       158   02 Jun 2027 16:53:42.468   02 Jun 2027 16:55:02.927            80.459               CapeTown          2514.344
       159   02 Jun 2027 17:16:44.617   02 Jun 2027 17:18:54.435           129.818                 Moscow          4056.812
       160   02 Jun 2027 17:25:47.503   02 Jun 2027 17:26:18.568            31.065              Murmansk1           970.781
       161   02 Jun 2027 17:32:22.511   02 Jun 2027 17:33:29.312            66.801                Anadyr2          2087.531
       162   02 Jun 2027 17:34:47.514   02 Jun 2027 17:35:29.895            42.381                Anadyr2          1324.406
       163   02 Jun 2027 18:27:11.903   02 Jun 2027 18:29:24.175           132.272               CapeTown          4133.500
       164   02 Jun 2027 18:56:58.189   02 Jun 2027 18:57:33.211            35.022              Murmansk1          1094.437
       165   02 Jun 2027 18:58:23.916   02 Jun 2027 19:01:36.006           192.090              Murmansk1          6002.812
       166   02 Jun 2027 19:11:36.173   02 Jun 2027 19:13:35.218           119.045               Magadan2          3720.156
       167   02 Jun 2027 20:07:19.867   02 Jun 2027 20:08:58.125            98.258               CapeTown          3070.563
       168   02 Jun 2027 20:43:43.893   02 Jun 2027 20:45:22.239            98.346                Anadyr1          3073.313
       169   02 Jun 2027 20:45:39.513   02 Jun 2027 20:47:29.981           110.468                Anadyr2          3452.125
       170   02 Jun 2027 20:47:43.415   02 Jun 2027 20:49:13.717            90.302               Magadan2          2821.938
       171   02 Jun 2027 20:49:38.866   02 Jun 2027 20:50:32.686            53.820               Magadan1          1681.875
       172   02 Jun 2027 22:19:37.313   02 Jun 2027 22:21:36.150           118.837                Anadyr1          3713.656
       173   02 Jun 2027 22:21:42.969   02 Jun 2027 22:23:19.073            96.104                Anadyr2          3003.250
       174   02 Jun 2027 22:23:20.873   02 Jun 2027 22:25:25.132           124.259                Norilsk          3883.094
       175   02 Jun 2027 22:25:32.806   02 Jun 2027 22:25:38.269             5.463               Magadan2           170.719
       176   02 Jun 2027 22:25:41.835   02 Jun 2027 22:27:04.570            82.735               Magadan1          2585.469
       177   02 Jun 2027 22:28:13.197   02 Jun 2027 22:28:52.321            39.124                Irkutsk          1222.625
       178   02 Jun 2027 22:29:51.567   02 Jun 2027 22:30:18.978            27.411                Irkutsk           856.594
       179   02 Jun 2027 22:32:10.275   02 Jun 2027 22:33:01.672            51.397                Irkutsk          1606.156
       180   02 Jun 2027 23:13:47.623   02 Jun 2027 23:14:30.109            42.486            RioGallegos          1327.688
       181   02 Jun 2027 23:14:53.311   02 Jun 2027 23:14:53.662             0.351            RioGallegos            10.969
       182   02 Jun 2027 23:19:02.103   02 Jun 2027 23:19:51.540            49.437            RioGallegos          1544.906
       183   02 Jun 2027 23:23:17.199   02 Jun 2027 23:23:28.907            11.708            RioGallegos           365.875
       184   02 Jun 2027 23:55:06.776   02 Jun 2027 23:55:44.141            37.365                Anadyr1          1167.656
       185   02 Jun 2027 23:56:28.447   02 Jun 2027 23:57:54.297            85.850                Anadyr2          2682.812
       186   02 Jun 2027 23:58:01.755   02 Jun 2027 23:58:34.526            32.771               Magadan2          1024.094
       187   02 Jun 2027 23:58:39.216   02 Jun 2027 23:59:09.441            30.225                Norilsk           944.531
       188   02 Jun 2027 23:59:17.360   02 Jun 2027 23:59:48.672            31.312               Magadan1           978.500
       189   03 Jun 2027 00:00:30.771   03 Jun 2027 00:00:50.162            19.391               Magadan2           605.969
       190   03 Jun 2027 00:01:10.331   03 Jun 2027 00:02:15.097            64.766               Magadan2          2023.937
       191   03 Jun 2027 00:02:33.864   03 Jun 2027 00:03:01.715            27.851                Irkutsk           870.344
       192   03 Jun 2027 00:03:54.886   03 Jun 2027 00:04:12.228            17.342                Novosib           541.937
       193   03 Jun 2027 00:05:32.366   03 Jun 2027 00:06:51.838            79.472                Novosib          2483.500
       194   03 Jun 2027 00:15:11.133   03 Jun 2027 00:15:40.366            29.233                Sumatra           913.531
       195   03 Jun 2027 00:23:20.570   03 Jun 2027 00:23:54.618            34.048                Sumatra          1064.000
       196   03 Jun 2027 00:27:07.755   03 Jun 2027 00:27:27.955            20.200                Sumatra           631.250
       197   03 Jun 2027 00:49:58.736   03 Jun 2027 00:50:11.855            13.119            RioGallegos           409.969
       198   03 Jun 2027 00:54:27.039   03 Jun 2027 00:55:06.525            39.486            RioGallegos          1233.937
       199   03 Jun 2027 00:59:47.358   03 Jun 2027 01:00:03.063            15.705            RioGallegos           490.781
       200   03 Jun 2027 01:29:35.514   03 Jun 2027 01:30:25.762            50.248                Anadyr2          1570.250
       201   03 Jun 2027 01:30:25.762   03 Jun 2027 01:30:31.887             6.125                Anadyr1           191.406
       202   03 Jun 2027 01:30:52.576   03 Jun 2027 01:31:40.920            48.344                Anadyr1          1510.750
       203   03 Jun 2027 01:33:26.713   03 Jun 2027 01:35:19.788           113.075                Norilsk          3533.594
       204   03 Jun 2027 01:35:21.709   03 Jun 2027 01:35:40.271            18.562               Magadan2           580.063
       205   03 Jun 2027 01:37:19.824   03 Jun 2027 01:40:14.204           174.380                Novosib          5449.375
       206   03 Jun 2027 01:46:33.687   03 Jun 2027 01:47:03.877            30.190                  Delhi           943.438
       207   03 Jun 2027 01:51:36.062   03 Jun 2027 01:52:11.355            35.293                  Delhi          1102.906
       208   03 Jun 2027 01:55:24.740   03 Jun 2027 01:58:10.378           165.638                Sumatra          5176.188
       209   03 Jun 2027 02:29:52.690   03 Jun 2027 02:30:21.175            28.485            RioGallegos           890.156
       210   03 Jun 2027 03:16:44.478   03 Jun 2027 03:17:02.636            18.158              Murmansk1           567.437
       211   03 Jun 2027 03:17:26.968   03 Jun 2027 03:21:56.838           269.870                Irkutsk          8433.438
       212   03 Jun 2027 03:22:27.070   03 Jun 2027 03:22:55.838            28.768                  Delhi           899.000
       213   03 Jun 2027 03:24:20.980   03 Jun 2027 03:25:36.579            75.599                  Delhi          2362.469
       214   03 Jun 2027 04:53:20.073   03 Jun 2027 04:53:56.109            36.036                Novosib          1126.125
       215   03 Jun 2027 04:55:36.819   03 Jun 2027 04:56:54.810            77.991                Novosib          2437.219
       216   03 Jun 2027 04:57:51.704   03 Jun 2027 04:57:59.743             8.039                 Moscow           251.219
       217   03 Jun 2027 04:58:58.842   03 Jun 2027 04:59:23.096            24.254                 Moscow           757.937
       218   03 Jun 2027 04:59:27.432   03 Jun 2027 04:59:33.633             6.201                 Moscow           193.781
       219   03 Jun 2027 05:00:16.245   03 Jun 2027 05:00:17.258             1.013                 Moscow            31.656
       220   03 Jun 2027 05:00:24.092   03 Jun 2027 05:01:07.961            43.869                 Moscow          1370.906
       221   03 Jun 2027 05:14:50.684   03 Jun 2027 05:17:07.963           137.279               CapeTown          4289.969
       222   03 Jun 2027 06:17:38.180   03 Jun 2027 06:18:30.986            52.806                Anadyr2          1650.188
       223   03 Jun 2027 06:18:56.333   03 Jun 2027 06:19:01.221             4.888               Magadan2           152.750
       224   03 Jun 2027 06:19:06.155   03 Jun 2027 06:19:11.549             5.394                Anadyr1           168.562
       225   03 Jun 2027 06:19:11.549   03 Jun 2027 06:19:38.027            26.478                Anadyr2           827.438
       226   03 Jun 2027 06:20:59.713   03 Jun 2027 06:21:31.469            31.756                Anadyr1           992.375
       227   03 Jun 2027 06:30:43.701   03 Jun 2027 06:31:10.810            27.109                 Moscow           847.156
       228   03 Jun 2027 06:52:20.791   03 Jun 2027 06:52:41.038            20.247               CapeTown           632.719
       229   03 Jun 2027 06:52:47.805   03 Jun 2027 06:55:05.786           137.981               CapeTown          4311.906
       230   03 Jun 2027 07:51:59.629   03 Jun 2027 07:52:12.457            12.828               Magadan2           400.875
       231   03 Jun 2027 07:52:37.137   03 Jun 2027 07:52:49.290            12.153                Anadyr1           379.781
       232   03 Jun 2027 07:52:55.595   03 Jun 2027 07:53:11.830            16.235               Magadan1           507.344
       233   03 Jun 2027 07:53:41.462   03 Jun 2027 07:54:58.384            76.922                Anadyr2          2403.813
       234   03 Jun 2027 07:55:16.343   03 Jun 2027 07:56:27.386            71.043                Anadyr1          2220.094
       235   03 Jun 2027 07:56:42.466   03 Jun 2027 07:56:43.274             0.808               Magadan2            25.250
       236   03 Jun 2027 07:57:36.590   03 Jun 2027 07:58:06.516            29.926                Anadyr2           935.188
       237   03 Jun 2027 08:06:47.541   03 Jun 2027 08:07:38.378            50.837                 Moscow          1588.656
       238   03 Jun 2027 09:28:00.366   03 Jun 2027 09:28:05.128             4.762               Magadan2           148.813
       239   03 Jun 2027 09:28:14.417   03 Jun 2027 09:29:03.446            49.029               Magadan2          1532.156
       240   03 Jun 2027 09:29:50.222   03 Jun 2027 09:30:16.363            26.141               Magadan2           816.906
       241   03 Jun 2027 09:30:35.252   03 Jun 2027 09:32:03.582            88.330               Magadan2          2760.313
       242   03 Jun 2027 09:32:54.124   03 Jun 2027 09:33:19.869            25.745               Magadan2           804.531
       243   03 Jun 2027 09:33:23.766   03 Jun 2027 09:33:51.988            28.222               Magadan1           881.938
       244   03 Jun 2027 09:33:54.563   03 Jun 2027 09:34:35.235            40.672               Magadan1          1271.000
       245   03 Jun 2027 09:35:12.106   03 Jun 2027 09:35:51.113            39.007                Norilsk          1218.969
       246   03 Jun 2027 10:12:54.054   03 Jun 2027 10:13:26.657            32.603            RioGallegos          1018.844
       247   03 Jun 2027 10:49:59.971   03 Jun 2027 10:50:40.271            40.300                Sumatra          1259.375
       248   03 Jun 2027 10:52:29.210   03 Jun 2027 10:53:19.969            50.759                Sumatra          1586.219
       249   03 Jun 2027 11:05:50.680   03 Jun 2027 11:06:21.702            31.022                Irkutsk           969.437
       250   03 Jun 2027 11:07:01.655   03 Jun 2027 11:07:13.281            11.626                Irkutsk           363.312
       251   03 Jun 2027 11:07:16.458   03 Jun 2027 11:09:38.345           141.887               Magadan2          4433.969
       252   03 Jun 2027 11:09:57.918   03 Jun 2027 11:10:28.788            30.870                Irkutsk           964.687
       253   03 Jun 2027 11:10:33.058   03 Jun 2027 11:10:47.713            14.655                Norilsk           457.969
       254   03 Jun 2027 11:11:10.684   03 Jun 2027 11:11:28.891            18.207                Norilsk           568.969
       255   03 Jun 2027 11:11:38.550   03 Jun 2027 11:11:42.462             3.912                Novosib           122.250
       256   03 Jun 2027 11:46:29.388   03 Jun 2027 11:48:15.103           105.715            RioGallegos          3303.594
       257   03 Jun 2027 12:21:10.782   03 Jun 2027 12:21:55.443            44.661                Sumatra          1395.656
       258   03 Jun 2027 12:23:49.129   03 Jun 2027 12:24:00.912            11.783                Sumatra           368.219
       259   03 Jun 2027 12:35:24.643   03 Jun 2027 12:36:39.802            75.159                Irkutsk          2348.719
       260   03 Jun 2027 12:37:15.953   03 Jun 2027 12:37:58.699            42.746                Novosib          1335.813
       261   03 Jun 2027 12:39:45.386   03 Jun 2027 12:40:42.429            57.043                Norilsk          1782.594
       262   03 Jun 2027 13:26:33.751   03 Jun 2027 13:30:17.336           223.585            RioGallegos          6987.031
       263   03 Jun 2027 14:13:16.715   03 Jun 2027 14:14:14.740            58.025                Novosib          1813.281
       264   03 Jun 2027 14:15:13.146   03 Jun 2027 14:18:08.020           174.874                Novosib          5464.812
       265   03 Jun 2027 15:49:47.259   03 Jun 2027 15:52:13.218           145.959                 Moscow          4561.219
       266   03 Jun 2027 15:53:13.456   03 Jun 2027 15:54:53.384            99.928              Murmansk2          3122.750
       267   03 Jun 2027 15:57:11.211   03 Jun 2027 15:58:44.521            93.310                Norilsk          2915.937
       268   03 Jun 2027 15:59:59.366   03 Jun 2027 16:00:38.723            39.357                Norilsk          1229.906
       269   03 Jun 2027 16:01:05.771   03 Jun 2027 16:02:49.696           103.925                Norilsk          3247.656
       270   03 Jun 2027 17:04:23.279   03 Jun 2027 17:04:39.556            16.277               CapeTown           508.656
       271   03 Jun 2027 17:27:07.445   03 Jun 2027 17:27:28.774            21.329                 Moscow           666.531
       272   03 Jun 2027 17:27:53.229   03 Jun 2027 17:28:13.269            20.040                 Moscow           626.250
       273   03 Jun 2027 17:28:39.740   03 Jun 2027 17:30:54.357           134.617                 Moscow          4206.781
       274   03 Jun 2027 17:38:20.673   03 Jun 2027 17:38:44.486            23.813              Murmansk2           744.156
       275   03 Jun 2027 17:44:16.535   03 Jun 2027 17:46:05.347           108.812                Anadyr2          3400.375
       276   03 Jun 2027 18:39:16.845   03 Jun 2027 18:41:03.810           106.965               CapeTown          3342.656
       277   03 Jun 2027 19:09:34.972   03 Jun 2027 19:10:30.416            55.444              Murmansk2          1732.625
       278   03 Jun 2027 19:11:52.261   03 Jun 2027 19:14:27.471           155.210              Murmansk1          4850.312
       279   03 Jun 2027 19:21:00.075   03 Jun 2027 19:22:26.607            86.532                Anadyr2          2704.125
       280   03 Jun 2027 19:23:09.165   03 Jun 2027 19:23:15.685             6.520                Anadyr2           203.750
       281   03 Jun 2027 19:23:50.358   03 Jun 2027 19:24:21.268            30.910               Magadan1           965.938
       282   03 Jun 2027 19:24:33.107   03 Jun 2027 19:24:50.354            17.247               Magadan1           538.969
       283   03 Jun 2027 19:25:58.964   03 Jun 2027 19:26:17.589            18.625               Magadan2           582.031
       284   03 Jun 2027 19:26:52.321   03 Jun 2027 19:27:00.601             8.280               Magadan2           258.750
       285   03 Jun 2027 20:19:45.101   03 Jun 2027 20:20:36.222            51.121               CapeTown          1597.531
       286   03 Jun 2027 20:55:45.682   03 Jun 2027 20:57:22.899            97.217                Anadyr1          3038.031
       287   03 Jun 2027 20:57:41.248   03 Jun 2027 20:59:31.530           110.282                Anadyr2          3446.313
       288   03 Jun 2027 20:59:35.444   03 Jun 2027 21:02:02.786           147.342               Magadan2          4604.437
       289   03 Jun 2027 21:08:18.387   03 Jun 2027 21:08:33.381            14.994               Magadan1           468.562
       290   03 Jun 2027 21:53:53.932   03 Jun 2027 21:54:55.128            61.196            RioGallegos          1912.375
       291   03 Jun 2027 22:31:37.553   03 Jun 2027 22:35:18.191           220.638                Anadyr2          6894.937
       292   03 Jun 2027 22:35:25.790   03 Jun 2027 22:37:40.569           134.779               Magadan2          4211.844
       293   03 Jun 2027 22:38:50.033   03 Jun 2027 22:38:58.485             8.452                Norilsk           264.125
       294   03 Jun 2027 22:39:08.610   03 Jun 2027 22:40:11.465            62.855                Irkutsk          1964.219
       295   03 Jun 2027 22:40:54.349   03 Jun 2027 22:41:36.295            41.946                Irkutsk          1310.812
       296   03 Jun 2027 22:44:08.738   03 Jun 2027 22:44:37.472            28.734                Irkutsk           897.938
       297   03 Jun 2027 22:55:01.591   03 Jun 2027 22:56:27.074            85.483                Sumatra          2671.344
       298   03 Jun 2027 22:59:46.483   03 Jun 2027 23:01:01.301            74.818                Sumatra          2338.062
       299   04 Jun 2027 00:07:01.611   04 Jun 2027 00:08:35.347            93.736                Anadyr2          2929.250
       300   04 Jun 2027 00:09:28.626   04 Jun 2027 00:10:51.041            82.415                Norilsk          2575.469
       301   04 Jun 2027 00:10:53.785   04 Jun 2027 00:10:55.096             1.311               Magadan1            40.969
       302   04 Jun 2027 00:11:03.363   04 Jun 2027 00:11:22.269            18.906               Magadan1           590.812
       303   04 Jun 2027 00:11:37.743   04 Jun 2027 00:11:55.094            17.351               Magadan2           542.219
       304   04 Jun 2027 00:12:41.532   04 Jun 2027 00:12:47.194             5.662                Norilsk           176.937
       305   04 Jun 2027 00:12:48.102   04 Jun 2027 00:13:03.451            15.349               Magadan1           479.656
       306   04 Jun 2027 00:13:27.434   04 Jun 2027 00:14:34.949            67.515                Irkutsk          2109.844
       307   04 Jun 2027 00:16:58.219   04 Jun 2027 00:17:08.671            10.452                Irkutsk           326.625
       308   04 Jun 2027 00:17:27.321   04 Jun 2027 00:17:37.205             9.884                Novosib           308.875
       309   04 Jun 2027 00:17:50.079   04 Jun 2027 00:18:06.160            16.081                Irkutsk           502.531
       310   04 Jun 2027 00:18:16.561   04 Jun 2027 00:19:21.716            65.155                Irkutsk          2036.094
       311   04 Jun 2027 00:20:32.108   04 Jun 2027 00:21:58.709            86.601                Novosib          2706.281
       312   04 Jun 2027 01:01:26.526   04 Jun 2027 01:01:46.904            20.378            RioGallegos           636.813
       313   04 Jun 2027 01:03:39.361   04 Jun 2027 01:04:06.663            27.302            RioGallegos           853.187
       314   04 Jun 2027 01:07:42.370   04 Jun 2027 01:07:52.106             9.736            RioGallegos           304.250
       315   04 Jun 2027 01:09:03.997   04 Jun 2027 01:09:18.314            14.317            RioGallegos           447.406
       316   04 Jun 2027 01:10:39.437   04 Jun 2027 01:11:04.351            24.914            RioGallegos           778.562
       317   04 Jun 2027 01:41:20.509   04 Jun 2027 01:42:19.611            59.102                Anadyr1          1846.937
       318   04 Jun 2027 01:42:58.724   04 Jun 2027 01:43:27.169            28.445                Anadyr2           888.906
       319   04 Jun 2027 01:43:31.893   04 Jun 2027 01:43:42.176            10.283                Anadyr2           321.344
       320   04 Jun 2027 01:43:58.734   04 Jun 2027 01:44:17.226            18.492                Anadyr2           577.875
       321   04 Jun 2027 01:45:29.043   04 Jun 2027 01:46:55.372            86.329                Norilsk          2697.781
       322   04 Jun 2027 01:47:13.157   04 Jun 2027 01:47:22.732             9.575               Magadan2           299.219
       323   04 Jun 2027 01:48:46.903   04 Jun 2027 01:49:28.848            41.945              Murmansk2          1310.781
       324   04 Jun 2027 01:49:35.743   04 Jun 2027 01:51:25.841           110.098                Novosib          3440.563
       325   04 Jun 2027 01:52:00.074   04 Jun 2027 01:52:25.582            25.508                Novosib           797.125
       326   04 Jun 2027 01:55:01.655   04 Jun 2027 01:55:04.137             2.482                Irkutsk            77.563
       327   04 Jun 2027 01:56:43.089   04 Jun 2027 01:57:31.958            48.869                  Delhi          1527.156
       328   04 Jun 2027 02:06:14.683   04 Jun 2027 02:06:32.688            18.005                  Delhi           562.656
       329   04 Jun 2027 02:38:16.129   04 Jun 2027 02:38:26.389            10.260            RioGallegos           320.625
       330   04 Jun 2027 02:39:15.709   04 Jun 2027 02:40:25.446            69.737            RioGallegos          2179.281
       331   04 Jun 2027 02:40:31.367   04 Jun 2027 02:42:08.227            96.860            RioGallegos          3026.875
       332   04 Jun 2027 02:46:22.256   04 Jun 2027 02:46:27.803             5.547            RioGallegos           173.344
       333   04 Jun 2027 03:30:09.865   04 Jun 2027 03:31:37.983            88.118                Norilsk          2753.687
       334   04 Jun 2027 03:31:49.335   04 Jun 2027 03:32:33.082            43.747                Novosib          1367.094
       335   04 Jun 2027 03:32:45.977   04 Jun 2027 03:33:12.415            26.438                Irkutsk           826.188
       336   04 Jun 2027 03:33:35.371   04 Jun 2027 03:35:50.012           134.641                Novosib          4207.531
       337   04 Jun 2027 03:36:18.626   04 Jun 2027 03:36:45.918            27.292                Novosib           852.875
       338   04 Jun 2027 03:37:29.274   04 Jun 2027 03:39:27.506           118.232                  Delhi          3694.750
       339   04 Jun 2027 05:07:07.737   04 Jun 2027 05:07:33.464            25.727                Novosib           803.969
       340   04 Jun 2027 05:07:37.169   04 Jun 2027 05:09:00.237            83.068                Novosib          2595.875
       341   04 Jun 2027 05:11:33.762   04 Jun 2027 05:11:37.311             3.549                 Moscow           110.906
       342   04 Jun 2027 05:12:06.292   04 Jun 2027 05:12:22.087            15.795                 Moscow           493.594
       343   04 Jun 2027 05:12:44.738   04 Jun 2027 05:13:26.147            41.409                 Moscow          1294.031
       344   04 Jun 2027 05:26:44.659   04 Jun 2027 05:27:25.837            41.178               CapeTown          1286.813
       345   04 Jun 2027 05:27:37.172   04 Jun 2027 05:29:38.403           121.231               CapeTown          3788.469
       346   04 Jun 2027 06:29:50.998   04 Jun 2027 06:30:17.939            26.941                Anadyr2           841.906
       347   04 Jun 2027 06:30:32.541   04 Jun 2027 06:32:05.290            92.749                Anadyr1          2898.406
       348   04 Jun 2027 07:05:48.307   04 Jun 2027 07:07:34.820           106.513               CapeTown          3328.531
       349   04 Jun 2027 08:04:15.592   04 Jun 2027 08:05:04.620            49.028               Magadan2          1532.125
       350   04 Jun 2027 08:05:11.604   04 Jun 2027 08:05:32.797            21.193               Magadan1           662.281
       351   04 Jun 2027 08:05:56.761   04 Jun 2027 08:06:17.926            21.165                Anadyr1           661.406
       352   04 Jun 2027 08:06:46.489   04 Jun 2027 08:07:37.665            51.176               Magadan1          1599.250
       353   04 Jun 2027 08:07:46.369   04 Jun 2027 08:08:09.835            23.466               Magadan1           733.313
       354   04 Jun 2027 08:08:25.114   04 Jun 2027 08:08:40.789            15.675               Magadan2           489.844
       355   04 Jun 2027 08:09:51.418   04 Jun 2027 08:10:19.152            27.734                Anadyr1           866.688
       356   04 Jun 2027 08:11:19.569   04 Jun 2027 08:12:12.235            52.666                Anadyr2          1645.813
       357   04 Jun 2027 09:39:00.343   04 Jun 2027 09:40:15.618            75.275               Magadan1          2352.344
       358   04 Jun 2027 09:40:31.514   04 Jun 2027 09:40:48.078            16.564               Magadan2           517.625
       359   04 Jun 2027 09:41:00.450   04 Jun 2027 09:41:51.197            50.747                Anadyr1          1585.844
       360   04 Jun 2027 09:42:36.781   04 Jun 2027 09:44:03.480            86.699               Magadan1          2709.344
       361   04 Jun 2027 09:45:11.973   04 Jun 2027 09:45:31.457            19.484               Magadan2           608.875
       362   04 Jun 2027 09:45:44.366   04 Jun 2027 09:45:56.469            12.103               Magadan2           378.219
       363   04 Jun 2027 09:46:21.392   04 Jun 2027 09:46:40.556            19.164                Irkutsk           598.875
       364   04 Jun 2027 09:46:43.436   04 Jun 2027 09:47:20.517            37.081               Magadan1          1158.781
       365   04 Jun 2027 09:52:15.683   04 Jun 2027 09:52:19.725             4.042                Norilsk           126.312
       366   04 Jun 2027 10:22:50.267   04 Jun 2027 10:23:24.493            34.226            RioGallegos          1069.562
       367   04 Jun 2027 10:23:34.751   04 Jun 2027 10:23:58.360            23.609            RioGallegos           737.781
       368   04 Jun 2027 10:31:12.753   04 Jun 2027 10:32:16.116            63.363            RioGallegos          1980.094
       369   04 Jun 2027 11:02:07.685   04 Jun 2027 11:02:11.763             4.078                Sumatra           127.437
       370   04 Jun 2027 11:16:51.992   04 Jun 2027 11:20:10.593           198.601               Magadan1          6206.281
       371   04 Jun 2027 11:20:26.361   04 Jun 2027 11:21:17.701            51.340                Irkutsk          1604.375
       372   04 Jun 2027 11:21:26.872   04 Jun 2027 11:22:35.009            68.137                Norilsk          2129.281
       373   04 Jun 2027 11:22:41.603   04 Jun 2027 11:23:05.893            24.290                Novosib           759.062
       374   04 Jun 2027 11:23:13.434   04 Jun 2027 11:23:20.556             7.122                Norilsk           222.562
       375   04 Jun 2027 11:23:38.403   04 Jun 2027 11:24:49.268            70.865                Novosib          2214.531
       376   04 Jun 2027 11:59:32.886   04 Jun 2027 11:59:38.467             5.581            RioGallegos           174.406
       377   04 Jun 2027 12:01:55.538   04 Jun 2027 12:03:13.304            77.766            RioGallegos          2430.188
       378   04 Jun 2027 12:36:19.024   04 Jun 2027 12:37:28.731            69.707                Sumatra          2178.344
       379   04 Jun 2027 12:47:46.609   04 Jun 2027 12:48:45.936            59.327                Irkutsk          1853.969
       380   04 Jun 2027 12:49:26.149   04 Jun 2027 12:50:24.576            58.427                Novosib          1825.844
       381   04 Jun 2027 12:51:57.204   04 Jun 2027 12:53:03.648            66.444                Irkutsk          2076.375
       382   04 Jun 2027 13:40:03.924   04 Jun 2027 13:41:57.575           113.651            RioGallegos          3551.594
       383   04 Jun 2027 14:25:30.462   04 Jun 2027 14:26:22.466            52.004                  Delhi          1625.125
       384   04 Jun 2027 14:26:25.211   04 Jun 2027 14:30:47.197           261.986                Novosib          8187.062
       385   04 Jun 2027 16:01:48.217   04 Jun 2027 16:02:55.737            67.520                 Moscow          2110.000
       386   04 Jun 2027 16:03:44.413   04 Jun 2027 16:04:34.989            50.576                 Moscow          1580.500
       387   04 Jun 2027 16:05:17.504   04 Jun 2027 16:06:32.926            75.422              Murmansk2          2356.937
       388   04 Jun 2027 16:06:37.600   04 Jun 2027 16:07:13.618            36.018              Murmansk2          1125.563
       389   04 Jun 2027 16:09:56.784   04 Jun 2027 16:14:35.601           278.817                Norilsk          8713.031
       390   04 Jun 2027 17:39:37.390   04 Jun 2027 17:40:32.044            54.654                 Moscow          1707.937
       391   04 Jun 2027 17:42:35.365   04 Jun 2027 17:43:48.149            72.784              Murmansk2          2274.500
       392   04 Jun 2027 17:43:48.300   04 Jun 2027 17:44:41.850            53.550                 Moscow          1673.437
       393   04 Jun 2027 17:56:12.309   04 Jun 2027 17:56:16.903             4.594                Anadyr1           143.562
       394   04 Jun 2027 17:56:20.181   04 Jun 2027 17:56:58.069            37.888                Anadyr2          1184.000
       395   04 Jun 2027 17:56:59.654   04 Jun 2027 17:57:36.194            36.540                Anadyr2          1141.875
       396   04 Jun 2027 18:51:24.672   04 Jun 2027 18:53:13.417           108.745               CapeTown          3398.281
       397   04 Jun 2027 19:22:15.373   04 Jun 2027 19:23:42.739            87.366              Murmansk1          2730.187
       398   04 Jun 2027 19:23:44.214   04 Jun 2027 19:26:24.043           159.829              Murmansk2          4994.656
       399   04 Jun 2027 19:26:37.914   04 Jun 2027 19:27:02.307            24.393              Murmansk1           762.281
       400   04 Jun 2027 19:34:59.186   04 Jun 2027 19:36:58.262           119.076               Magadan1          3721.125
       401   04 Jun 2027 19:38:05.434   04 Jun 2027 19:38:18.898            13.464               Magadan2           420.750
       402   04 Jun 2027 21:07:47.416   04 Jun 2027 21:11:26.094           218.678                Anadyr2          6833.688
       403   04 Jun 2027 21:11:30.286   04 Jun 2027 21:13:37.249           126.963               Magadan2          3967.594
       404   04 Jun 2027 21:13:43.659   04 Jun 2027 21:14:50.553            66.894               Magadan1          2090.438
       405   04 Jun 2027 21:15:28.521   04 Jun 2027 21:15:30.070             1.549               Magadan2            48.406
       406   04 Jun 2027 21:15:55.038   04 Jun 2027 21:16:05.963            10.925               Magadan1           341.406
       407   04 Jun 2027 21:18:29.162   04 Jun 2027 21:18:32.440             3.278               Magadan1           102.437
       408   04 Jun 2027 21:18:35.981   04 Jun 2027 21:18:54.573            18.592               Magadan2           581.000
       409   04 Jun 2027 21:20:19.016   04 Jun 2027 21:20:52.801            33.785               Magadan1          1055.781
       410   04 Jun 2027 22:04:06.001   04 Jun 2027 22:06:30.949           144.948            RioGallegos          4529.625
       411   04 Jun 2027 22:43:37.379   04 Jun 2027 22:45:31.443           114.064                Anadyr1          3564.500
       412   04 Jun 2027 22:45:44.578   04 Jun 2027 22:47:25.451           100.873                Norilsk          3152.281
       413   04 Jun 2027 22:48:38.533   04 Jun 2027 22:49:04.842            26.309                Norilsk           822.156
       414   04 Jun 2027 22:50:43.457   04 Jun 2027 22:51:15.583            32.126                Irkutsk          1003.938
       415   04 Jun 2027 22:52:22.988   04 Jun 2027 22:52:57.161            34.173                Irkutsk          1067.906
       416   04 Jun 2027 22:54:37.136   04 Jun 2027 22:54:54.295            17.159                Irkutsk           536.219
       417   04 Jun 2027 22:56:04.073   04 Jun 2027 22:57:19.095            75.022                Irkutsk          2344.437
       418   04 Jun 2027 23:05:48.145   04 Jun 2027 23:07:44.768           116.623                Sumatra          3644.469
       419   05 Jun 2027 00:18:55.371   05 Jun 2027 00:20:44.408           109.037                Anadyr1          3407.406
       420   05 Jun 2027 00:20:59.534   05 Jun 2027 00:21:17.802            18.268                Anadyr1           570.875
       421   05 Jun 2027 00:21:30.501   05 Jun 2027 00:21:48.484            17.983                Norilsk           561.969
       422   05 Jun 2027 00:22:08.227   05 Jun 2027 00:23:24.798            76.571               Magadan2          2392.844
       423   05 Jun 2027 00:23:29.277   05 Jun 2027 00:23:42.064            12.787               Magadan1           399.594
       424   05 Jun 2027 00:24:16.341   05 Jun 2027 00:24:58.819            42.478               Magadan2          1327.438
       425   05 Jun 2027 00:25:26.394   05 Jun 2027 00:26:32.843            66.449                Irkutsk          2076.531
       426   05 Jun 2027 00:27:10.469   05 Jun 2027 00:27:52.170            41.701                Novosib          1303.156
       427   05 Jun 2027 00:29:03.308   05 Jun 2027 00:29:09.739             6.431                Novosib           200.969
       428   05 Jun 2027 00:31:16.646   05 Jun 2027 00:31:38.881            22.235                Novosib           694.844
       429   05 Jun 2027 00:36:21.076   05 Jun 2027 00:37:16.865            55.789                  Delhi          1743.406
       430   05 Jun 2027 00:37:29.380   05 Jun 2027 00:37:55.298            25.918                  Delhi           809.937
       431   05 Jun 2027 00:42:16.175   05 Jun 2027 00:43:40.836            84.661                Sumatra          2645.656
       432   05 Jun 2027 01:21:03.106   05 Jun 2027 01:21:27.605            24.499            RioGallegos           765.594
       433   05 Jun 2027 01:24:01.576   05 Jun 2027 01:24:12.409            10.833            RioGallegos           338.531
       434   05 Jun 2027 01:25:22.737   05 Jun 2027 01:25:36.369            13.632            RioGallegos           426.000
       435   05 Jun 2027 01:53:35.629   05 Jun 2027 01:54:11.162            35.533                Anadyr1          1110.406
       436   05 Jun 2027 01:54:31.058   05 Jun 2027 01:54:58.179            27.121                Anadyr2           847.531
       437   05 Jun 2027 01:55:43.321   05 Jun 2027 01:55:47.302             3.981                Anadyr1           124.406
       438   05 Jun 2027 01:57:09.999   05 Jun 2027 01:57:24.569            14.570                Anadyr2           455.312
       439   05 Jun 2027 01:57:31.324   05 Jun 2027 01:59:24.587           113.263                Norilsk          3539.469
       440   05 Jun 2027 02:00:27.405   05 Jun 2027 02:01:23.872            56.467              Murmansk1          1764.594
       441   05 Jun 2027 02:01:23.872   05 Jun 2027 02:01:27.933             4.061              Murmansk2           126.906
       442   05 Jun 2027 02:01:32.780   05 Jun 2027 02:02:37.742            64.962                Irkutsk          2030.062
       443   05 Jun 2027 02:08:34.067   05 Jun 2027 02:08:56.418            22.351                Irkutsk           698.469
       444   05 Jun 2027 02:09:18.919   05 Jun 2027 02:11:10.230           111.311                  Delhi          3478.469
       445   05 Jun 2027 02:50:32.851   05 Jun 2027 02:52:57.431           144.580            RioGallegos          4518.125
       446   05 Jun 2027 02:53:03.524   05 Jun 2027 02:54:32.824            89.300            RioGallegos          2790.625
       447   05 Jun 2027 03:43:35.734   05 Jun 2027 03:44:51.060            75.326                Novosib          2353.938
       448   05 Jun 2027 03:44:54.037   05 Jun 2027 03:45:17.553            23.516                Norilsk           734.875
       449   05 Jun 2027 03:45:34.327   05 Jun 2027 03:46:00.209            25.882              Murmansk2           808.812
       450   05 Jun 2027 03:46:00.209   05 Jun 2027 03:46:25.197            24.988              Murmansk1           780.875
       451   05 Jun 2027 03:47:03.690   05 Jun 2027 03:48:58.592           114.902                Novosib          3590.688
       452   05 Jun 2027 03:49:17.948   05 Jun 2027 03:49:41.464            23.516                 Moscow           734.875
       453   05 Jun 2027 03:52:04.769   05 Jun 2027 03:52:13.671             8.902                  Delhi           278.187
       454   05 Jun 2027 04:05:45.119   05 Jun 2027 04:07:15.208            90.089               CapeTown          2815.281
       455   05 Jun 2027 05:01:02.393   05 Jun 2027 05:01:10.886             8.493                Anadyr1           265.406
       456   05 Jun 2027 05:03:03.389   05 Jun 2027 05:03:20.595            17.206                Anadyr1           537.688
       457   05 Jun 2027 05:03:37.082   05 Jun 2027 05:04:26.171            49.089                Anadyr1          1534.031
       458   05 Jun 2027 05:04:26.171   05 Jun 2027 05:04:52.171            26.000                Anadyr2           812.500
       459   05 Jun 2027 05:19:00.199   05 Jun 2027 05:19:16.957            16.758                Novosib           523.687
       460   05 Jun 2027 05:19:42.722   05 Jun 2027 05:20:49.935            67.213                Novosib          2100.406
       461   05 Jun 2027 05:21:40.910   05 Jun 2027 05:21:51.975            11.065                 Moscow           345.781
       462   05 Jun 2027 05:22:12.050   05 Jun 2027 05:22:24.898            12.848                 Moscow           401.500
       463   05 Jun 2027 05:23:18.346   05 Jun 2027 05:23:48.097            29.751                 Moscow           929.719
       464   05 Jun 2027 05:38:43.659   05 Jun 2027 05:41:22.691           159.032               CapeTown          4969.750
       465   05 Jun 2027 06:41:45.184   05 Jun 2027 06:42:33.956            48.772                Anadyr1          1524.125
       466   05 Jun 2027 06:42:33.956   05 Jun 2027 06:42:41.789             7.833                Anadyr2           244.781
       467   05 Jun 2027 06:42:51.544   05 Jun 2027 06:43:36.343            44.799                Anadyr1          1399.969
       468   05 Jun 2027 06:43:54.540   05 Jun 2027 06:44:13.525            18.985               Magadan2           593.281
       469   05 Jun 2027 06:44:29.143   05 Jun 2027 06:45:40.753            71.610               Magadan2          2237.812
       470   05 Jun 2027 07:18:23.357   05 Jun 2027 07:19:25.482            62.125               CapeTown          1941.406
       471   05 Jun 2027 08:17:57.480   05 Jun 2027 08:18:11.198            13.718               Magadan2           428.687
       472   05 Jun 2027 08:18:14.625   05 Jun 2027 08:18:37.420            22.795                Anadyr2           712.344
       473   05 Jun 2027 08:18:57.400   05 Jun 2027 08:19:32.163            34.763               Magadan1          1086.344
       474   05 Jun 2027 08:19:34.606   05 Jun 2027 08:19:58.256            23.650               Magadan2           739.062
       475   05 Jun 2027 08:20:12.355   05 Jun 2027 08:21:53.150           100.795               Magadan1          3149.844
       476   05 Jun 2027 09:52:16.371   05 Jun 2027 09:52:44.254            27.883               Magadan2           871.344
       477   05 Jun 2027 09:53:02.186   05 Jun 2027 09:53:32.409            30.223               Magadan1           944.469
       478   05 Jun 2027 09:53:41.223   05 Jun 2027 09:53:46.012             4.789               Magadan1           149.656
       479   05 Jun 2027 09:53:46.012   05 Jun 2027 09:54:40.851            54.839               Magadan2          1713.719
       480   05 Jun 2027 09:55:36.954   05 Jun 2027 09:55:38.848             1.894                Irkutsk            59.187
       481   05 Jun 2027 09:55:39.302   05 Jun 2027 09:55:42.669             3.367                Norilsk           105.219
       482   05 Jun 2027 09:55:43.184   05 Jun 2027 09:58:03.197           140.013                Anadyr2          4375.406
