uniorb/output/strategy_4/Drop/Drop_KinoSat_111801.txt

KinoSat_111801
-------------------------
    Access    *     Start Time (UTCG)     *     Stop Time (UTCG)  *   Duration (s)        *       Station  *  Data (Mbytes)
         1   01 Jun 2027 03:46:26.709   01 Jun 2027 03:48:35.030           128.321                Irkutsk          4010.031
         2   01 Jun 2027 03:48:49.736   01 Jun 2027 03:49:09.215            19.479                 Moscow           608.719
         3   01 Jun 2027 03:49:23.518   01 Jun 2027 03:51:22.759           119.241                Irkutsk          3726.281
         4   01 Jun 2027 03:51:24.606   01 Jun 2027 03:52:37.137            72.531                Novosib          2266.594
         5   01 Jun 2027 03:53:15.320   01 Jun 2027 03:53:46.894            31.574                 Moscow           986.688
         6   01 Jun 2027 03:53:53.513   01 Jun 2027 03:55:51.198           117.685                  Delhi          3677.656
         7   01 Jun 2027 05:24:11.648   01 Jun 2027 05:24:37.148            25.500              Murmansk1           796.875
         8   01 Jun 2027 05:24:51.436   01 Jun 2027 05:25:04.383            12.947              Murmansk2           404.594
         9   01 Jun 2027 05:25:04.383   01 Jun 2027 05:25:22.234            17.851              Murmansk1           557.844
        10   01 Jun 2027 05:25:32.079   01 Jun 2027 05:25:59.526            27.447                Norilsk           857.719
        11   01 Jun 2027 05:26:05.204   01 Jun 2027 05:28:01.717           116.513              Murmansk1          3641.031
        12   01 Jun 2027 05:28:03.373   01 Jun 2027 05:29:25.874            82.501              Murmansk1          2578.156
        13   01 Jun 2027 05:29:41.158   01 Jun 2027 05:29:44.935             3.777              Murmansk2           118.031
        14   01 Jun 2027 05:30:05.645   01 Jun 2027 05:32:51.675           166.030                 Moscow          5188.438
        15   01 Jun 2027 05:44:29.407   01 Jun 2027 05:47:05.538           156.131               CapeTown          4879.094
        16   01 Jun 2027 06:48:15.368   01 Jun 2027 06:49:50.178            94.810                Anadyr2          2962.812
        17   01 Jun 2027 06:53:13.866   01 Jun 2027 06:53:38.357            24.491              Murmansk1           765.344
        18   01 Jun 2027 07:25:14.104   01 Jun 2027 07:27:01.416           107.312               CapeTown          3353.500
        19   01 Jun 2027 08:22:11.783   01 Jun 2027 08:22:43.240            31.457                Anadyr1           983.031
        20   01 Jun 2027 08:24:02.760   01 Jun 2027 08:28:15.709           252.949                Anadyr1          7904.656
        21   01 Jun 2027 08:28:57.827   01 Jun 2027 08:29:39.630            41.803               Magadan2          1306.344
        22   01 Jun 2027 08:35:55.949   01 Jun 2027 08:37:00.164            64.215                 Moscow          2006.719
        23   01 Jun 2027 09:56:53.419   01 Jun 2027 09:57:49.004            55.585               Magadan2          1737.031
        24   01 Jun 2027 09:58:06.094   01 Jun 2027 10:04:59.165           413.071                Anadyr1         12908.469
        25   01 Jun 2027 11:33:46.023   01 Jun 2027 11:36:08.816           142.793               Magadan1          4462.281
        26   01 Jun 2027 11:36:51.858   01 Jun 2027 11:37:59.947            68.089               Magadan1          2127.781
        27   01 Jun 2027 11:38:06.104   01 Jun 2027 11:39:52.182           106.078               Magadan2          3314.938
        28   01 Jun 2027 16:27:53.928   01 Jun 2027 16:29:21.889            87.961                Norilsk          2748.781
        29   01 Jun 2027 16:30:18.921   01 Jun 2027 16:32:57.015           158.094                Norilsk          4940.438
        30   01 Jun 2027 17:57:30.310   01 Jun 2027 17:57:39.169             8.859                 Moscow           276.844
        31   01 Jun 2027 19:39:30.113   01 Jun 2027 19:47:32.844           482.731              Murmansk2         15085.344
        32   01 Jun 2027 21:29:53.377   01 Jun 2027 21:29:57.947             4.570               Magadan1           142.813
        33   01 Jun 2027 21:30:07.393   01 Jun 2027 21:30:32.575            25.182               Magadan1           786.938
        34   01 Jun 2027 21:32:11.464   01 Jun 2027 21:32:43.723            32.259               Magadan2          1008.094
        35   01 Jun 2027 22:22:34.415   01 Jun 2027 22:24:27.458           113.043            RioGallegos          3532.594
        36   01 Jun 2027 22:25:06.440   01 Jun 2027 22:25:56.614            50.174            RioGallegos          1567.937
        37   01 Jun 2027 23:01:19.178   01 Jun 2027 23:03:20.158           120.980                Anadyr2          3780.625
        38   01 Jun 2027 23:03:27.643   01 Jun 2027 23:04:58.589            90.946                Norilsk          2842.063
        39   01 Jun 2027 23:05:21.423   01 Jun 2027 23:06:47.151            85.728               Magadan1          2679.000
        40   01 Jun 2027 23:08:33.071   01 Jun 2027 23:08:46.149            13.078               Magadan1           408.688
        41   01 Jun 2027 23:09:01.780   01 Jun 2027 23:09:02.411             0.631                Irkutsk            19.719
        42   01 Jun 2027 23:09:41.022   01 Jun 2027 23:11:05.872            84.850                Irkutsk          2651.562
        43   01 Jun 2027 23:11:59.235   01 Jun 2027 23:13:47.345           108.110                Irkutsk          3378.438
        44   01 Jun 2027 23:24:12.407   01 Jun 2027 23:25:49.084            96.677                Sumatra          3021.156
        45   01 Jun 2027 23:57:30.772   01 Jun 2027 23:57:33.051             2.279            RioGallegos            71.219
        46   01 Jun 2027 23:57:47.114   01 Jun 2027 23:57:55.421             8.307            RioGallegos           259.594
        47   02 Jun 2027 00:00:13.176   02 Jun 2027 00:00:43.252            30.076            RioGallegos           939.875
        48   02 Jun 2027 00:04:58.008   02 Jun 2027 00:06:00.886            62.878            RioGallegos          1964.938
        49   02 Jun 2027 00:36:41.273   02 Jun 2027 00:36:55.117            13.844                Anadyr2           432.625
        50   02 Jun 2027 00:37:00.370   02 Jun 2027 00:37:23.027            22.657                Anadyr1           708.031
        51   02 Jun 2027 00:38:07.428   02 Jun 2027 00:38:54.281            46.853                Anadyr1          1464.156
        52   02 Jun 2027 00:39:10.554   02 Jun 2027 00:40:57.735           107.181                Norilsk          3349.406
        53   02 Jun 2027 00:41:48.502   02 Jun 2027 00:42:15.365            26.863               Magadan2           839.469
        54   02 Jun 2027 00:43:08.334   02 Jun 2027 00:44:19.376            71.042                Irkutsk          2220.062
        55   02 Jun 2027 00:45:59.777   02 Jun 2027 00:47:28.004            88.227                Novosib          2757.094
        56   02 Jun 2027 00:51:46.082   02 Jun 2027 00:52:16.607            30.525                Novosib           953.906
        57   02 Jun 2027 00:55:59.952   02 Jun 2027 00:56:55.864            55.912                  Delhi          1747.250
        58   02 Jun 2027 01:00:01.053   02 Jun 2027 01:01:10.575            69.522                Sumatra          2172.562
        59   02 Jun 2027 01:06:54.972   02 Jun 2027 01:08:39.856           104.884                Sumatra          3277.625
        60   02 Jun 2027 01:42:29.453   02 Jun 2027 01:42:29.802             0.349            RioGallegos            10.906
        61   02 Jun 2027 02:10:56.659   02 Jun 2027 02:11:05.954             9.295                Anadyr1           290.469
        62   02 Jun 2027 02:11:12.462   02 Jun 2027 02:11:40.867            28.405                Anadyr1           887.656
        63   02 Jun 2027 02:12:10.732   02 Jun 2027 02:12:55.375            44.643                Anadyr1          1395.094
        64   02 Jun 2027 02:15:11.286   02 Jun 2027 02:16:12.774            61.488                Norilsk          1921.500
        65   02 Jun 2027 02:16:21.429   02 Jun 2027 02:16:26.500             5.071                Norilsk           158.469
        66   02 Jun 2027 02:16:42.107   02 Jun 2027 02:16:47.915             5.808               Magadan2           181.500
        67   02 Jun 2027 02:17:54.583   02 Jun 2027 02:17:56.836             2.253               Magadan1            70.406
        68   02 Jun 2027 02:18:19.109   02 Jun 2027 02:19:13.225            54.116              Murmansk1          1691.125
        69   02 Jun 2027 02:19:37.954   02 Jun 2027 02:21:27.926           109.972                Irkutsk          3436.625
        70   02 Jun 2027 02:23:23.743   02 Jun 2027 02:23:52.385            28.642                Irkutsk           895.063
        71   02 Jun 2027 02:27:11.882   02 Jun 2027 02:29:12.977           121.095                  Delhi          3784.219
        72   02 Jun 2027 03:08:03.549   02 Jun 2027 03:12:13.696           250.147            RioGallegos          7817.094
        73   02 Jun 2027 03:58:02.146   02 Jun 2027 03:58:07.986             5.840                Irkutsk           182.500
        74   02 Jun 2027 03:59:39.140   02 Jun 2027 04:01:18.719            99.579                Irkutsk          3111.844
        75   02 Jun 2027 04:01:35.043   02 Jun 2027 04:01:37.561             2.518                Irkutsk            78.688
        76   02 Jun 2027 04:01:50.984   02 Jun 2027 04:03:50.069           119.085              Murmansk2          3721.406
        77   02 Jun 2027 04:04:04.562   02 Jun 2027 04:04:41.972            37.410                Novosib          1169.063
        78   02 Jun 2027 04:05:48.878   02 Jun 2027 04:06:20.832            31.954                Novosib           998.562
        79   02 Jun 2027 04:07:01.647   02 Jun 2027 04:08:45.743           104.096                  Delhi          3253.000
        80   02 Jun 2027 05:36:37.124   02 Jun 2027 05:37:03.722            26.598                Novosib           831.187
        81   02 Jun 2027 05:38:53.865   02 Jun 2027 05:38:57.260             3.395                Novosib           106.094
        82   02 Jun 2027 05:41:15.898   02 Jun 2027 05:41:36.426            20.528              Murmansk1           641.500
        83   02 Jun 2027 05:41:53.079   02 Jun 2027 05:42:06.599            13.520                 Moscow           422.500
        84   02 Jun 2027 05:44:58.876   02 Jun 2027 05:45:24.797            25.921                 Moscow           810.031
        85   02 Jun 2027 05:56:25.211   02 Jun 2027 05:59:15.096           169.885               CapeTown          5308.906
        86   02 Jun 2027 06:00:20.024   02 Jun 2027 06:00:53.139            33.115               CapeTown          1034.844
        87   02 Jun 2027 06:02:52.130   02 Jun 2027 06:03:20.876            28.746               CapeTown           898.312
        88   02 Jun 2027 06:04:44.087   02 Jun 2027 06:05:59.709            75.622               CapeTown          2363.187
        89   02 Jun 2027 06:06:44.173   02 Jun 2027 06:08:31.761           107.588               CapeTown          3362.125
        90   02 Jun 2027 06:59:33.341   02 Jun 2027 06:59:52.417            19.076               Magadan1           596.125
        91   02 Jun 2027 07:00:11.934   02 Jun 2027 07:02:45.751           153.817                Anadyr2          4806.781
        92   02 Jun 2027 07:03:18.405   02 Jun 2027 07:03:41.482            23.077               Magadan2           721.156
        93   02 Jun 2027 07:04:38.404   02 Jun 2027 07:05:37.270            58.866               Magadan2          1839.563
        94   02 Jun 2027 07:05:47.838   02 Jun 2027 07:06:04.452            16.614                Anadyr1           519.187
        95   02 Jun 2027 08:38:06.761   02 Jun 2027 08:41:53.642           226.881                Anadyr2          7090.031
        96   02 Jun 2027 10:09:50.172   02 Jun 2027 10:10:27.173            37.001               Magadan2          1156.281
        97   02 Jun 2027 10:10:57.109   02 Jun 2027 10:11:11.782            14.673               Magadan1           458.531
        98   02 Jun 2027 10:11:28.451   02 Jun 2027 10:15:34.007           245.556               Magadan1          7673.625
        99   02 Jun 2027 10:16:03.487   02 Jun 2027 10:16:12.489             9.002                Irkutsk           281.312
       100   02 Jun 2027 10:16:15.162   02 Jun 2027 10:16:44.994            29.832                Norilsk           932.250
       101   02 Jun 2027 10:16:56.110   02 Jun 2027 10:17:08.611            12.501                Norilsk           390.656
       102   02 Jun 2027 10:17:26.574   02 Jun 2027 10:18:17.564            50.990                Norilsk          1593.437
       103   02 Jun 2027 10:52:27.734   02 Jun 2027 10:52:57.268            29.534            RioGallegos           922.937
       104   02 Jun 2027 11:29:38.008   02 Jun 2027 11:31:14.470            96.462                Sumatra          3014.438
       105   02 Jun 2027 11:46:32.512   02 Jun 2027 11:47:26.631            54.119                Irkutsk          1691.219
       106   02 Jun 2027 11:48:25.879   02 Jun 2027 11:50:51.412           145.533               Magadan2          4547.906
       107   02 Jun 2027 11:51:15.430   02 Jun 2027 11:52:15.460            60.030                Norilsk          1875.937
       108   02 Jun 2027 11:52:33.609   02 Jun 2027 11:52:37.458             3.849                Norilsk           120.281
       109   02 Jun 2027 11:52:40.879   02 Jun 2027 11:53:23.971            43.092                Irkutsk          1346.625
       110   02 Jun 2027 12:28:30.089   02 Jun 2027 12:29:48.617            78.528            RioGallegos          2454.000
       111   02 Jun 2027 12:38:15.411   02 Jun 2027 12:38:19.162             3.751            RioGallegos           117.219
       112   02 Jun 2027 12:39:24.914   02 Jun 2027 12:40:39.829            74.915            RioGallegos          2341.094
       113   02 Jun 2027 13:05:10.196   02 Jun 2027 13:05:58.637            48.441                Sumatra          1513.781
       114   02 Jun 2027 13:07:28.612   02 Jun 2027 13:08:39.315            70.703                Sumatra          2209.469
       115   02 Jun 2027 13:17:37.053   02 Jun 2027 13:18:21.776            44.723                Irkutsk          1397.594
       116   02 Jun 2027 13:19:23.180   02 Jun 2027 13:21:31.573           128.393                Irkutsk          4012.281
       117   02 Jun 2027 14:10:36.632   02 Jun 2027 14:13:03.352           146.720            RioGallegos          4585.000
       118   02 Jun 2027 14:52:05.599   02 Jun 2027 14:52:22.606            17.007                  Delhi           531.469
       119   02 Jun 2027 14:55:27.066   02 Jun 2027 14:57:21.654           114.588                  Delhi          3580.875
       120   02 Jun 2027 14:58:57.967   02 Jun 2027 15:00:37.660            99.693                Novosib          3115.406
       121   02 Jun 2027 15:02:16.700   02 Jun 2027 15:02:31.377            14.677                Norilsk           458.656
       122   02 Jun 2027 15:02:58.565   02 Jun 2027 15:04:22.470            83.905                Norilsk          2622.031
       123   02 Jun 2027 16:31:30.762   02 Jun 2027 16:33:21.195           110.433                 Moscow          3451.031
       124   02 Jun 2027 16:35:00.825   02 Jun 2027 16:36:18.905            78.080              Murmansk1          2440.000
       125   02 Jun 2027 16:39:55.276   02 Jun 2027 16:44:25.303           270.027                Norilsk          8438.344
       126   02 Jun 2027 17:48:49.581   02 Jun 2027 17:48:57.803             8.222               CapeTown           256.938
       127   02 Jun 2027 17:51:53.004   02 Jun 2027 17:51:59.534             6.530               CapeTown           204.063
       128   02 Jun 2027 17:55:01.613   02 Jun 2027 17:55:10.734             9.121               CapeTown           285.031
       129   02 Jun 2027 17:55:45.571   02 Jun 2027 17:56:26.010            40.439               CapeTown          1263.719
       130   02 Jun 2027 18:09:30.808   02 Jun 2027 18:10:51.178            80.370                 Moscow          2511.563
       131   02 Jun 2027 18:12:23.999   02 Jun 2027 18:13:56.159            92.160              Murmansk1          2880.000
       132   02 Jun 2027 18:15:57.159   02 Jun 2027 18:17:39.378           102.219              Murmansk2          3194.344
       133   02 Jun 2027 18:19:31.185   02 Jun 2027 18:19:34.517             3.332                 Moscow           104.125
       134   02 Jun 2027 18:30:11.777   02 Jun 2027 18:30:34.462            22.685                Anadyr1           708.906
       135   02 Jun 2027 18:31:05.608   02 Jun 2027 18:31:46.130            40.522                Anadyr1          1266.312
       136   02 Jun 2027 19:21:09.815   02 Jun 2027 19:22:47.385            97.570               CapeTown          3049.063
       137   02 Jun 2027 19:29:48.661   02 Jun 2027 19:30:20.694            32.033               CapeTown          1001.031
       138   02 Jun 2027 19:52:11.965   02 Jun 2027 19:54:11.064           119.099              Murmansk2          3721.844
       139   02 Jun 2027 19:54:16.526   02 Jun 2027 19:56:50.801           154.275              Murmansk1          4821.094
       140   02 Jun 2027 19:57:46.596   02 Jun 2027 19:59:04.387            77.791              Murmansk2          2430.969
       141   02 Jun 2027 21:37:29.578   02 Jun 2027 21:39:08.700            99.122                Anadyr2          3097.562
       142   02 Jun 2027 21:39:17.779   02 Jun 2027 21:41:17.314           119.535                Anadyr1          3735.469
       143   02 Jun 2027 21:41:28.015   02 Jun 2027 21:44:52.728           204.713               Magadan1          6397.281
       144   02 Jun 2027 21:48:06.785   02 Jun 2027 21:49:25.515            78.730               Magadan1          2460.313
       145   02 Jun 2027 22:33:28.961   02 Jun 2027 22:35:22.471           113.510            RioGallegos          3547.187
       146   02 Jun 2027 22:35:25.220   02 Jun 2027 22:36:06.562            41.342            RioGallegos          1291.938
       147   02 Jun 2027 23:13:18.891   02 Jun 2027 23:14:34.175            75.284                Anadyr2          2352.625
       148   02 Jun 2027 23:14:49.157   02 Jun 2027 23:15:02.689            13.532                Anadyr1           422.875
       149   02 Jun 2027 23:15:02.689   02 Jun 2027 23:15:09.529             6.840                Anadyr2           213.750
       150   02 Jun 2027 23:15:13.538   02 Jun 2027 23:15:33.149            19.611                Anadyr2           612.844
       151   02 Jun 2027 23:15:43.468   02 Jun 2027 23:16:52.887            69.419               Magadan2          2169.344
       152   02 Jun 2027 23:17:29.572   02 Jun 2027 23:18:03.426            33.854               Magadan1          1057.938
       153   02 Jun 2027 23:18:28.847   02 Jun 2027 23:18:35.194             6.347                Norilsk           198.344
       154   02 Jun 2027 23:18:40.249   02 Jun 2027 23:18:50.617            10.368               Magadan1           324.000
       155   02 Jun 2027 23:18:50.617   02 Jun 2027 23:19:57.487            66.870               Magadan2          2089.687
       156   02 Jun 2027 23:22:05.946   02 Jun 2027 23:22:37.986            32.040                Irkutsk          1001.250
       157   02 Jun 2027 23:23:50.535   02 Jun 2027 23:24:34.874            44.339                Irkutsk          1385.594
       158   02 Jun 2027 23:35:10.115   02 Jun 2027 23:37:08.443           118.328                Sumatra          3697.750
       159   03 Jun 2027 00:10:12.710   03 Jun 2027 00:10:19.668             6.958            RioGallegos           217.438
       160   03 Jun 2027 00:11:10.274   03 Jun 2027 00:11:23.904            13.630            RioGallegos           425.937
       161   03 Jun 2027 00:13:11.762   03 Jun 2027 00:14:13.465            61.703            RioGallegos          1928.219
       162   03 Jun 2027 00:48:34.661   03 Jun 2027 00:49:30.318            55.657                Anadyr2          1739.281
       163   03 Jun 2027 00:50:03.373   03 Jun 2027 00:50:25.439            22.066                Anadyr2           689.563
       164   03 Jun 2027 00:51:09.348   03 Jun 2027 00:51:22.827            13.479                Anadyr2           421.219
       165   03 Jun 2027 00:51:28.775   03 Jun 2027 00:52:59.969            91.194                Norilsk          2849.813
       166   03 Jun 2027 00:53:16.183   03 Jun 2027 00:53:38.602            22.419               Magadan2           700.594
       167   03 Jun 2027 00:55:07.747   03 Jun 2027 00:57:14.883           127.136                Irkutsk          3973.000
       168   03 Jun 2027 00:58:50.626   03 Jun 2027 00:59:19.928            29.302                Novosib           915.688
       169   03 Jun 2027 01:02:25.642   03 Jun 2027 01:02:41.072            15.430                Irkutsk           482.188
       170   03 Jun 2027 01:04:09.398   03 Jun 2027 01:04:52.467            43.069                Novosib          1345.906
       171   03 Jun 2027 01:06:18.860   03 Jun 2027 01:06:56.831            37.971                  Delhi          1186.594
       172   03 Jun 2027 01:17:05.100   03 Jun 2027 01:17:49.126            44.026                Sumatra          1375.813
       173   03 Jun 2027 01:18:49.156   03 Jun 2027 01:19:13.740            24.584                Sumatra           768.250
       174   03 Jun 2027 01:44:55.582   03 Jun 2027 01:45:05.182             9.600            RioGallegos           300.000
       175   03 Jun 2027 01:48:20.717   03 Jun 2027 01:48:33.491            12.774            RioGallegos           399.188
       176   03 Jun 2027 01:48:53.871   03 Jun 2027 01:49:01.600             7.729            RioGallegos           241.531
       177   03 Jun 2027 01:50:05.267   03 Jun 2027 01:51:17.456            72.189            RioGallegos          2255.906
       178   03 Jun 2027 02:23:58.709   03 Jun 2027 02:24:10.701            11.992                Anadyr1           374.750
       179   03 Jun 2027 02:24:20.341   03 Jun 2027 02:24:42.189            21.848                Anadyr1           682.750
       180   03 Jun 2027 02:27:13.592   03 Jun 2027 02:28:59.316           105.724                Norilsk          3303.875
       181   03 Jun 2027 02:30:03.464   03 Jun 2027 02:31:02.771            59.307              Murmansk1          1853.344
       182   03 Jun 2027 02:31:11.114   03 Jun 2027 02:31:55.673            44.559                Novosib          1392.469
       183   03 Jun 2027 02:31:58.444   03 Jun 2027 02:32:39.707            41.263                Irkutsk          1289.469
       184   03 Jun 2027 02:38:10.334   03 Jun 2027 02:38:28.308            17.974                Novosib           561.688
       185   03 Jun 2027 02:40:16.807   03 Jun 2027 02:41:23.826            67.019                Novosib          2094.344
       186   03 Jun 2027 02:50:13.341   03 Jun 2027 02:50:39.131            25.790                  Delhi           805.937
       187   03 Jun 2027 03:20:21.830   03 Jun 2027 03:21:11.164            49.334            RioGallegos          1541.687
       188   03 Jun 2027 03:22:27.225   03 Jun 2027 03:25:27.096           179.871            RioGallegos          5620.969
       189   03 Jun 2027 04:09:34.064   03 Jun 2027 04:10:08.935            34.871                Irkutsk          1089.719
       190   03 Jun 2027 04:13:10.320   03 Jun 2027 04:13:15.406             5.086                Irkutsk           158.938
       191   03 Jun 2027 04:13:16.809   03 Jun 2027 04:13:34.885            18.076                Novosib           564.875
       192   03 Jun 2027 04:14:00.314   03 Jun 2027 04:14:31.306            30.992              Murmansk2           968.500
       193   03 Jun 2027 04:14:35.268   03 Jun 2027 04:15:47.301            72.033                Norilsk          2251.031
       194   03 Jun 2027 04:16:20.149   03 Jun 2027 04:23:17.115           416.966                  Delhi         13030.188
       195   03 Jun 2027 05:48:04.166   03 Jun 2027 05:48:25.614            21.448                Novosib           670.250
       196   03 Jun 2027 05:50:16.188   03 Jun 2027 05:51:14.795            58.607                 Moscow          1831.469
       197   03 Jun 2027 05:51:49.375   03 Jun 2027 05:52:47.895            58.520                 Moscow          1828.750
       198   03 Jun 2027 05:53:06.621   03 Jun 2027 05:54:05.216            58.595              Murmansk1          1831.094
       199   03 Jun 2027 06:08:26.050   03 Jun 2027 06:09:07.159            41.109               CapeTown          1284.656
       200   03 Jun 2027 06:14:14.579   03 Jun 2027 06:15:15.354            60.775               CapeTown          1899.219
       201   03 Jun 2027 07:11:23.104   03 Jun 2027 07:12:18.321            55.217                Anadyr2          1725.531
       202   03 Jun 2027 07:12:28.414   03 Jun 2027 07:12:40.716            12.302               Magadan2           384.437
       203   03 Jun 2027 07:12:43.941   03 Jun 2027 07:13:48.225            64.284                Anadyr1          2008.875
       204   03 Jun 2027 07:14:14.633   03 Jun 2027 07:14:40.670            26.037                Anadyr1           813.656
       205   03 Jun 2027 07:16:36.713   03 Jun 2027 07:17:23.120            46.407                Anadyr2          1450.219
       206   03 Jun 2027 07:48:40.563   03 Jun 2027 07:51:59.219           198.656               CapeTown          6208.000
       207   03 Jun 2027 08:47:52.857   03 Jun 2027 08:48:10.705            17.848               Magadan1           557.750
       208   03 Jun 2027 08:48:15.838   03 Jun 2027 08:50:07.094           111.256                Anadyr1          3476.750
       209   03 Jun 2027 08:50:23.928   03 Jun 2027 08:51:38.139            74.211               Magadan1          2319.094
       210   03 Jun 2027 10:21:50.878   03 Jun 2027 10:22:59.820            68.942               Magadan1          2154.437
       211   03 Jun 2027 10:22:59.820   03 Jun 2027 10:23:15.813            15.993               Magadan2           499.781
       212   03 Jun 2027 10:23:22.580   03 Jun 2027 10:24:01.414            38.834               Magadan1          1213.562
       213   03 Jun 2027 10:25:40.824   03 Jun 2027 10:26:40.886            60.062               Magadan1          1876.938
       214   03 Jun 2027 10:27:59.689   03 Jun 2027 10:28:21.576            21.887               Magadan1           683.969
       215   03 Jun 2027 10:28:31.124   03 Jun 2027 10:29:21.478            50.354               Magadan2          1573.563
       216   03 Jun 2027 11:04:18.600   03 Jun 2027 11:05:21.329            62.729            RioGallegos          1960.281
       217   03 Jun 2027 11:16:34.213   03 Jun 2027 11:16:57.474            23.261            RioGallegos           726.906
       218   03 Jun 2027 11:40:46.900   03 Jun 2027 11:42:37.501           110.601                Sumatra          3456.281
       219   03 Jun 2027 11:59:59.149   03 Jun 2027 12:01:32.379            93.230                Irkutsk          2913.437
       220   03 Jun 2027 12:02:46.403   03 Jun 2027 12:03:39.979            53.576                Novosib          1674.250
       221   03 Jun 2027 12:03:44.012   03 Jun 2027 12:04:23.536            39.524                Irkutsk          1235.125
       222   03 Jun 2027 12:09:03.577   03 Jun 2027 12:09:58.008            54.431                Norilsk          1700.969
       223   03 Jun 2027 12:45:08.024   03 Jun 2027 12:45:39.733            31.709            RioGallegos           990.906
       224   03 Jun 2027 12:46:30.833   03 Jun 2027 12:47:04.365            33.532            RioGallegos          1047.875
       225   03 Jun 2027 13:15:10.246   03 Jun 2027 13:16:56.884           106.638                Sumatra          3332.438
       226   03 Jun 2027 13:23:48.657   03 Jun 2027 13:24:58.560            69.903                Sumatra          2184.469
       227   03 Jun 2027 13:30:32.132   03 Jun 2027 13:31:10.925            38.793                Irkutsk          1212.281
       228   03 Jun 2027 13:33:30.909   03 Jun 2027 13:34:29.301            58.392                Irkutsk          1824.750
       229   03 Jun 2027 13:40:07.170   03 Jun 2027 13:40:17.187            10.017                Irkutsk           313.031
       230   03 Jun 2027 14:59:52.710   03 Jun 2027 15:01:18.984            86.274                  Delhi          2696.063
       231   03 Jun 2027 15:04:09.618   03 Jun 2027 15:05:09.634            60.016                  Delhi          1875.500
       232   03 Jun 2027 15:07:55.247   03 Jun 2027 15:09:50.579           115.332                  Delhi          3604.125
       233   03 Jun 2027 15:10:56.668   03 Jun 2027 15:11:50.943            54.275                Novosib          1696.094
       234   03 Jun 2027 15:13:02.360   03 Jun 2027 15:13:40.214            37.854                Novosib          1182.937
       235   03 Jun 2027 15:18:04.722   03 Jun 2027 15:18:05.446             0.724                Novosib            22.625
       236   03 Jun 2027 15:20:11.663   03 Jun 2027 15:21:02.182            50.519                Norilsk          1578.719
       237   03 Jun 2027 15:21:37.863   03 Jun 2027 15:21:54.535            16.672                Norilsk           521.000
       238   03 Jun 2027 16:43:35.799   03 Jun 2027 16:45:00.710            84.911                 Moscow          2653.469
       239   03 Jun 2027 16:46:40.052   03 Jun 2027 16:46:59.537            19.485                 Moscow           608.906
       240   03 Jun 2027 16:47:48.054   03 Jun 2027 16:48:20.905            32.851              Murmansk1          1026.594
       241   03 Jun 2027 16:48:47.488   03 Jun 2027 16:49:20.946            33.458              Murmansk2          1045.563
       242   03 Jun 2027 16:52:48.619   03 Jun 2027 16:57:09.446           260.827                Norilsk          8150.844
       243   03 Jun 2027 18:03:59.993   03 Jun 2027 18:04:36.259            36.266               CapeTown          1133.312
       244   03 Jun 2027 18:08:35.194   03 Jun 2027 18:08:52.643            17.449               CapeTown           545.281
       245   03 Jun 2027 18:22:08.707   03 Jun 2027 18:25:04.000           175.293                 Moscow          5477.906
       246   03 Jun 2027 18:26:25.181   03 Jun 2027 18:26:55.645            30.464                 Moscow           952.000
       247   03 Jun 2027 18:33:45.944   03 Jun 2027 18:34:29.523            43.579              Murmansk2          1361.844
       248   03 Jun 2027 19:33:22.122   03 Jun 2027 19:35:26.560           124.438               CapeTown          3888.687
       249   03 Jun 2027 19:37:53.508   03 Jun 2027 19:38:01.012             7.504               CapeTown           234.500
       250   03 Jun 2027 19:41:21.694   03 Jun 2027 19:43:08.861           107.167               CapeTown          3348.969
       251   03 Jun 2027 20:04:58.440   03 Jun 2027 20:11:13.163           374.723              Murmansk2         11710.094
       252   03 Jun 2027 21:49:31.229   03 Jun 2027 21:52:49.926           198.697                Anadyr1          6209.281
       253   03 Jun 2027 21:52:49.926   03 Jun 2027 21:52:55.789             5.863                Anadyr2           183.219
       254   03 Jun 2027 21:52:59.232   03 Jun 2027 21:53:31.426            32.194               Magadan1          1006.062
       255   03 Jun 2027 21:53:35.505   03 Jun 2027 21:55:47.297           131.792               Magadan2          4118.500
       256   03 Jun 2027 21:56:35.113   03 Jun 2027 21:56:42.411             7.298               Magadan2           228.062
       257   03 Jun 2027 21:56:42.411   03 Jun 2027 21:56:44.154             1.743               Magadan1            54.469
       258   03 Jun 2027 21:56:53.150   03 Jun 2027 21:57:49.400            56.250               Magadan1          1757.812
       259   03 Jun 2027 22:44:53.421   03 Jun 2027 22:47:08.565           135.144            RioGallegos          4223.250
       260   03 Jun 2027 22:50:02.911   03 Jun 2027 22:50:39.522            36.611            RioGallegos          1144.094
       261   03 Jun 2027 23:25:18.104   03 Jun 2027 23:26:28.177            70.073                Anadyr2          2189.781
       262   03 Jun 2027 23:26:28.177   03 Jun 2027 23:26:50.558            22.381                Anadyr1           699.406
       263   03 Jun 2027 23:27:18.955   03 Jun 2027 23:28:32.501            73.546                Anadyr2          2298.313
       264   03 Jun 2027 23:28:44.664   03 Jun 2027 23:29:09.363            24.699                Anadyr2           771.844
       265   03 Jun 2027 23:29:31.565   03 Jun 2027 23:30:19.689            48.124               Magadan1          1503.875
       266   03 Jun 2027 23:32:01.658   03 Jun 2027 23:32:58.133            56.475                Irkutsk          1764.844
       267   03 Jun 2027 23:34:04.757   03 Jun 2027 23:34:25.322            20.565                Irkutsk           642.656
       268   03 Jun 2027 23:36:02.581   03 Jun 2027 23:37:04.365            61.784                Irkutsk          1930.750
       269   03 Jun 2027 23:46:27.314   03 Jun 2027 23:47:58.563            91.249                Sumatra          2851.531
       270   03 Jun 2027 23:51:02.648   03 Jun 2027 23:51:38.390            35.742                Sumatra          1116.938
       271   04 Jun 2027 00:19:16.421   04 Jun 2027 00:20:26.481            70.060            RioGallegos          2189.375
       272   04 Jun 2027 01:00:26.847   04 Jun 2027 01:00:40.133            13.286                Anadyr1           415.187
       273   04 Jun 2027 01:01:02.324   04 Jun 2027 01:01:39.782            37.458                Anadyr1          1170.563
       274   04 Jun 2027 01:01:39.782   04 Jun 2027 01:02:01.072            21.290                Anadyr2           665.313
       275   04 Jun 2027 01:02:25.269   04 Jun 2027 01:02:48.587            23.318                Anadyr1           728.688
       276   04 Jun 2027 01:03:14.715   04 Jun 2027 01:05:02.159           107.444                Norilsk          3357.625
       277   04 Jun 2027 01:07:08.179   04 Jun 2027 01:09:09.919           121.740                Irkutsk          3804.375
       278   04 Jun 2027 01:09:57.483   04 Jun 2027 01:10:36.121            38.638                Novosib          1207.438
       279   04 Jun 2027 01:12:41.845   04 Jun 2027 01:13:05.942            24.097                Novosib           753.031
       280   04 Jun 2027 01:16:32.147   04 Jun 2027 01:16:54.426            22.279                  Delhi           696.219
       281   04 Jun 2027 01:18:38.249   04 Jun 2027 01:19:02.891            24.642                  Delhi           770.063
       282   04 Jun 2027 01:21:18.589   04 Jun 2027 01:21:57.148            38.559                Sumatra          1204.969
       283   04 Jun 2027 01:26:13.007   04 Jun 2027 01:26:44.221            31.214                Sumatra           975.437
       284   04 Jun 2027 01:31:09.930   04 Jun 2027 01:32:23.016            73.086                Sumatra          2283.937
       285   04 Jun 2027 01:57:58.025   04 Jun 2027 01:58:21.910            23.885            RioGallegos           746.406
       286   04 Jun 2027 02:00:39.899   04 Jun 2027 02:00:58.271            18.372            RioGallegos           574.125
       287   04 Jun 2027 02:06:34.335   04 Jun 2027 02:07:03.083            28.748            RioGallegos           898.375
       288   04 Jun 2027 02:36:11.018   04 Jun 2027 02:36:27.306            16.288                Anadyr1           509.000
       289   04 Jun 2027 02:37:05.354   04 Jun 2027 02:37:09.650             4.296                Anadyr2           134.250
       290   04 Jun 2027 02:39:15.809   04 Jun 2027 02:40:29.085            73.276                Norilsk          2289.875
       291   04 Jun 2027 02:41:53.857   04 Jun 2027 02:43:11.107            77.250              Murmansk2          2414.062
       292   04 Jun 2027 02:43:23.731   04 Jun 2027 02:44:43.995            80.264                Irkutsk          2508.250
       293   04 Jun 2027 02:45:56.350   04 Jun 2027 02:46:05.164             8.814                Novosib           275.437
       294   04 Jun 2027 02:47:21.776   04 Jun 2027 02:47:28.857             7.081                Irkutsk           221.281
       295   04 Jun 2027 02:50:02.896   04 Jun 2027 02:50:12.841             9.945                Novosib           310.781
       296   04 Jun 2027 02:50:20.606   04 Jun 2027 02:50:28.432             7.826                Novosib           244.562
       297   04 Jun 2027 02:50:34.569   04 Jun 2027 02:52:36.392           121.823                  Delhi          3806.969
       298   04 Jun 2027 03:32:45.882   04 Jun 2027 03:33:30.218            44.336            RioGallegos          1385.500
       299   04 Jun 2027 03:33:44.567   04 Jun 2027 03:34:00.884            16.317            RioGallegos           509.906
       300   04 Jun 2027 03:36:15.677   04 Jun 2027 03:37:56.448           100.771            RioGallegos          3149.094
       301   04 Jun 2027 04:23:11.214   04 Jun 2027 04:24:12.665            61.451                Irkutsk          1920.344
       302   04 Jun 2027 04:24:52.604   04 Jun 2027 04:26:54.742           122.138                Novosib          3816.812
       303   04 Jun 2027 04:26:58.313   04 Jun 2027 04:27:10.996            12.683                Novosib           396.344
       304   04 Jun 2027 04:27:41.358   04 Jun 2027 04:28:34.132            52.774              Murmansk1          1649.187
       305   04 Jun 2027 04:30:27.705   04 Jun 2027 04:33:45.808           198.103                  Delhi          6190.719
       306   04 Jun 2027 05:59:27.949   04 Jun 2027 06:01:21.504           113.555                Novosib          3548.594
       307   04 Jun 2027 06:05:35.608   04 Jun 2027 06:06:05.522            29.914                 Moscow           934.813
       308   04 Jun 2027 07:23:14.323   04 Jun 2027 07:24:19.501            65.178                Anadyr2          2036.813
       309   04 Jun 2027 07:24:35.233   04 Jun 2027 07:24:50.576            15.343               Magadan2           479.469
       310   04 Jun 2027 07:25:05.533   04 Jun 2027 07:25:30.118            24.585                Anadyr2           768.281
       311   04 Jun 2027 07:25:33.526   04 Jun 2027 07:25:48.446            14.920               Magadan2           466.250
       312   04 Jun 2027 07:26:16.498   04 Jun 2027 07:26:59.490            42.992                Anadyr2          1343.500
       313   04 Jun 2027 07:28:02.942   04 Jun 2027 07:28:36.153            33.211                Anadyr2          1037.844
       314   04 Jun 2027 08:59:54.497   04 Jun 2027 09:00:17.066            22.569                Anadyr2           705.281
       315   04 Jun 2027 09:00:19.814   04 Jun 2027 09:02:06.934           107.120                Anadyr2          3347.500
       316   04 Jun 2027 09:02:28.131   04 Jun 2027 09:03:37.412            69.281               Magadan1          2165.031
       317   04 Jun 2027 09:05:12.808   04 Jun 2027 09:05:27.013            14.205                Anadyr1           443.906
       318   04 Jun 2027 10:33:51.043   04 Jun 2027 10:35:14.612            83.569               Magadan2          2611.531
       319   04 Jun 2027 10:35:36.100   04 Jun 2027 10:35:37.743             1.643               Magadan1            51.344
       320   04 Jun 2027 10:37:33.904   04 Jun 2027 10:37:39.053             5.149               Magadan1           160.906
       321   04 Jun 2027 10:37:39.053   04 Jun 2027 10:38:24.051            44.998               Magadan2          1406.188
       322   04 Jun 2027 10:39:26.957   04 Jun 2027 10:39:53.069            26.112                Irkutsk           816.000
       323   04 Jun 2027 10:39:56.889   04 Jun 2027 10:41:03.305            66.416                Irkutsk          2075.500
       324   04 Jun 2027 10:41:10.795   04 Jun 2027 10:41:14.752             3.957                Norilsk           123.656
       325   04 Jun 2027 10:41:16.820   04 Jun 2027 10:42:20.417            63.597                Norilsk          1987.406
       326   04 Jun 2027 11:16:12.694   04 Jun 2027 11:17:21.187            68.493            RioGallegos          2140.406
       327   04 Jun 2027 11:52:10.710   04 Jun 2027 11:52:20.313             9.603                Sumatra           300.094
       328   04 Jun 2027 11:57:46.481   04 Jun 2027 11:58:35.839            49.358                Sumatra          1542.438
       329   04 Jun 2027 12:07:48.821   04 Jun 2027 12:08:55.948            67.127                Novosib          2097.719
       330   04 Jun 2027 12:20:08.998   04 Jun 2027 12:20:24.373            15.375                Norilsk           480.469
       331   04 Jun 2027 12:53:13.154   04 Jun 2027 12:53:43.951            30.797            RioGallegos           962.406
       332   04 Jun 2027 12:54:58.827   04 Jun 2027 12:57:08.389           129.562            RioGallegos          4048.813
       333   04 Jun 2027 13:01:10.577   04 Jun 2027 13:03:10.063           119.486            RioGallegos          3733.938
       334   04 Jun 2027 13:42:40.721   04 Jun 2027 13:44:53.466           132.745                Irkutsk          4148.281
       335   04 Jun 2027 15:12:23.523   04 Jun 2027 15:17:23.804           300.281                  Delhi          9383.781
       336   04 Jun 2027 15:21:30.791   04 Jun 2027 15:22:54.272            83.481                Novosib          2608.781
       337   04 Jun 2027 15:26:32.262   04 Jun 2027 15:26:45.103            12.841                Novosib           401.281
       338   04 Jun 2027 15:33:02.839   04 Jun 2027 15:34:21.806            78.967                Norilsk          2467.719
       339   04 Jun 2027 16:55:43.954   04 Jun 2027 16:56:30.665            46.711                 Moscow          1459.719
       340   04 Jun 2027 16:57:26.323   04 Jun 2027 16:58:50.345            84.022                 Moscow          2625.688
       341   04 Jun 2027 17:04:10.275   04 Jun 2027 17:05:38.010            87.735              Murmansk1          2741.719
       342   04 Jun 2027 17:05:52.114   04 Jun 2027 17:08:57.346           185.232                Norilsk          5788.500
       343   04 Jun 2027 18:34:54.123   04 Jun 2027 18:39:29.393           275.270                 Moscow          8602.187
       344   04 Jun 2027 18:46:26.488   04 Jun 2027 18:47:19.705            53.217              Murmansk2          1663.031
       345   04 Jun 2027 19:45:38.348   04 Jun 2027 19:46:40.531            62.183               CapeTown          1943.219
       346   04 Jun 2027 19:50:00.301   04 Jun 2027 19:50:25.220            24.919               CapeTown           778.719
       347   04 Jun 2027 19:53:26.154   04 Jun 2027 19:54:11.192            45.038               CapeTown          1407.438
       348   04 Jun 2027 20:17:51.051   04 Jun 2027 20:23:09.848           318.797              Murmansk1          9962.406
       349   04 Jun 2027 20:37:48.975   04 Jun 2027 20:37:55.019             6.044               Magadan2           188.875
       350   04 Jun 2027 22:01:32.737   04 Jun 2027 22:05:19.445           226.708                Anadyr2          7084.625
       351   04 Jun 2027 22:05:25.737   04 Jun 2027 22:09:37.753           252.016               Magadan2          7875.500
       352   04 Jun 2027 22:56:29.578   04 Jun 2027 22:58:46.191           136.613            RioGallegos          4269.156
       353   04 Jun 2027 22:59:09.746   04 Jun 2027 22:59:40.043            30.297            RioGallegos           946.781
       354   04 Jun 2027 23:02:09.279   04 Jun 2027 23:02:45.010            35.731            RioGallegos          1116.594
       355   04 Jun 2027 23:37:16.729   04 Jun 2027 23:38:38.425            81.696                Anadyr2          2553.000
       356   04 Jun 2027 23:39:22.704   04 Jun 2027 23:41:00.250            97.546                Norilsk          3048.313
       357   04 Jun 2027 23:41:03.246   04 Jun 2027 23:42:57.153           113.907               Magadan1          3559.594
       358   04 Jun 2027 23:43:49.899   04 Jun 2027 23:44:04.938            15.039                Irkutsk           469.969
       359   04 Jun 2027 23:44:47.203   04 Jun 2027 23:44:57.725            10.522                Irkutsk           328.813
       360   04 Jun 2027 23:51:10.550   04 Jun 2027 23:51:17.935             7.385               Magadan1           230.781
       361   04 Jun 2027 23:51:58.303   04 Jun 2027 23:52:26.052            27.749                Irkutsk           867.156
       362   04 Jun 2027 23:54:32.446   04 Jun 2027 23:54:37.545             5.099                Irkutsk           159.344
       363   04 Jun 2027 23:57:56.626   05 Jun 2027 00:01:00.414           183.788                Sumatra          5743.375
       364   05 Jun 2027 00:39:56.438   05 Jun 2027 00:40:09.808            13.370            RioGallegos           417.813
       365   05 Jun 2027 00:41:46.337   05 Jun 2027 00:41:51.150             4.813            RioGallegos           150.406
       366   05 Jun 2027 00:42:44.905   05 Jun 2027 00:42:53.766             8.861            RioGallegos           276.906
       367   05 Jun 2027 01:12:17.761   05 Jun 2027 01:13:51.510            93.749                Anadyr2          2929.656
       368   05 Jun 2027 01:14:00.581   05 Jun 2027 01:14:25.446            24.865                Anadyr2           777.031
       369   05 Jun 2027 01:15:16.996   05 Jun 2027 01:17:04.283           107.287                Norilsk          3352.719
       370   05 Jun 2027 01:17:58.310   05 Jun 2027 01:18:28.818            30.508               Magadan2           953.375
       371   05 Jun 2027 01:19:09.536   05 Jun 2027 01:21:06.601           117.065                Irkutsk          3658.281
       372   05 Jun 2027 01:25:46.726   05 Jun 2027 01:25:56.331             9.605                Novosib           300.156
       373   05 Jun 2027 01:27:53.956   05 Jun 2027 01:28:11.340            17.384                  Delhi           543.250
       374   05 Jun 2027 01:28:37.312   05 Jun 2027 01:30:45.960           128.648                  Delhi          4020.250
       375   05 Jun 2027 01:37:56.982   05 Jun 2027 01:38:54.888            57.906                Sumatra          1809.562
       376   05 Jun 2027 02:12:14.649   05 Jun 2027 02:12:41.924            27.275            RioGallegos           852.344
       377   05 Jun 2027 02:15:04.489   05 Jun 2027 02:15:29.020            24.531            RioGallegos           766.594
       378   05 Jun 2027 02:46:19.712   05 Jun 2027 02:46:34.846            15.134                Anadyr2           472.937
       379   05 Jun 2027 02:46:45.690   05 Jun 2027 02:46:58.561            12.871                Anadyr2           402.219
       380   05 Jun 2027 02:48:58.544   05 Jun 2027 02:49:03.787             5.243                Anadyr2           163.844
       381   05 Jun 2027 02:49:57.722   05 Jun 2027 02:50:19.053            21.331                Anadyr1           666.594
       382   05 Jun 2027 02:51:17.908   05 Jun 2027 02:52:26.515            68.607                Norilsk          2143.969
       383   05 Jun 2027 02:52:32.672   05 Jun 2027 02:53:04.321            31.649                Norilsk           989.031
       384   05 Jun 2027 02:53:47.654   05 Jun 2027 02:54:17.013            29.359              Murmansk2           917.469
       385   05 Jun 2027 02:54:34.755   05 Jun 2027 02:55:06.234            31.479              Murmansk1           983.719
       386   05 Jun 2027 02:55:31.781   05 Jun 2027 02:56:40.888            69.107                Irkutsk          2159.594
       387   05 Jun 2027 02:56:47.532   05 Jun 2027 02:58:42.450           114.918                Irkutsk          3591.188
       388   05 Jun 2027 03:00:45.896   05 Jun 2027 03:01:19.707            33.811              Murmansk1          1056.594
       389   05 Jun 2027 03:01:22.525   05 Jun 2027 03:02:20.884            58.359                Irkutsk          1823.719
       390   05 Jun 2027 03:02:27.998   05 Jun 2027 03:04:26.137           118.139                  Delhi          3691.844
       391   05 Jun 2027 03:45:21.902   05 Jun 2027 03:47:01.291            99.389            RioGallegos          3105.906
       392   05 Jun 2027 03:48:38.252   05 Jun 2027 03:49:08.046            29.794            RioGallegos           931.062
       393   05 Jun 2027 04:35:17.534   05 Jun 2027 04:35:40.001            22.467                Novosib           702.094
       394   05 Jun 2027 04:36:06.790   05 Jun 2027 04:36:57.767            50.977                Novosib          1593.031
       395   05 Jun 2027 04:37:18.091   05 Jun 2027 04:41:00.202           222.111              Murmansk1          6940.969
       396   05 Jun 2027 04:41:42.115   05 Jun 2027 04:41:50.151             8.036                Novosib           251.125
       397   05 Jun 2027 04:57:54.709   05 Jun 2027 04:58:17.294            22.585               CapeTown           705.781
       398   05 Jun 2027 04:58:48.967   05 Jun 2027 04:59:17.164            28.197               CapeTown           881.156
       399   05 Jun 2027 06:16:04.679   05 Jun 2027 06:16:17.434            12.755              Murmansk1           398.594
       400   05 Jun 2027 06:17:34.190   05 Jun 2027 06:17:39.224             5.034                 Moscow           157.312
       401   05 Jun 2027 06:32:43.468   05 Jun 2027 06:34:27.254           103.786               CapeTown          3243.312
       402   05 Jun 2027 06:41:39.459   05 Jun 2027 06:42:30.946            51.487               CapeTown          1608.969
       403   05 Jun 2027 07:35:30.640   05 Jun 2027 07:35:52.314            21.674               Magadan1           677.312
       404   05 Jun 2027 07:36:01.132   05 Jun 2027 07:36:32.065            30.933               Magadan2           966.656
       405   05 Jun 2027 07:36:34.128   05 Jun 2027 07:37:03.189            29.061               Magadan2           908.156
       406   05 Jun 2027 07:37:34.819   05 Jun 2027 07:37:37.532             2.713                Anadyr2            84.781
       407   05 Jun 2027 07:37:37.532   05 Jun 2027 07:38:05.121            27.589                Anadyr1           862.156
       408   05 Jun 2027 07:38:18.282   05 Jun 2027 07:38:24.044             5.762                Anadyr2           180.063
       409   05 Jun 2027 07:39:09.649   05 Jun 2027 07:40:02.873            53.224                Anadyr2          1663.250
       410   05 Jun 2027 09:06:02.857   05 Jun 2027 09:06:48.254            45.397               Magadan2          1418.656
       411   05 Jun 2027 09:11:48.963   05 Jun 2027 09:12:44.144            55.181                Anadyr2          1724.406
       412   05 Jun 2027 09:12:55.816   05 Jun 2027 09:13:06.185            10.369               Magadan2           324.031
       413   05 Jun 2027 09:13:21.813   05 Jun 2027 09:13:55.601            33.788               Magadan1          1055.875
       414   05 Jun 2027 09:14:06.170   05 Jun 2027 09:15:06.832            60.662                Anadyr2          1895.687
       415   05 Jun 2027 09:54:56.055   05 Jun 2027 09:55:07.031            10.976            RioGallegos           343.000
       416   05 Jun 2027 09:55:54.707   05 Jun 2027 09:56:03.165             8.458            RioGallegos           264.313
       417   05 Jun 2027 10:45:50.561   05 Jun 2027 10:48:00.012           129.451               Magadan1          4045.344
       418   05 Jun 2027 10:48:18.912   05 Jun 2027 10:49:14.265            55.353                Irkutsk          1729.781
       419   05 Jun 2027 10:49:23.125   05 Jun 2027 10:50:10.944            47.819                Irkutsk          1494.344
       420   05 Jun 2027 10:50:11.406   05 Jun 2027 10:53:03.403           171.997               Magadan1          5374.906
       421   05 Jun 2027 10:53:26.650   05 Jun 2027 10:53:42.671            16.021                Norilsk           500.656
       422   05 Jun 2027 11:28:10.045   05 Jun 2027 11:29:19.897            69.852            RioGallegos          2182.875
       423   05 Jun 2027 12:03:44.748   05 Jun 2027 12:05:05.304            80.556                Sumatra          2517.375
       424   05 Jun 2027 12:16:38.380   05 Jun 2027 12:18:37.973           119.593                Irkutsk          3737.281
       425   05 Jun 2027 12:33:21.465   05 Jun 2027 12:33:26.509             5.044              Murmansk2           157.625
       426   05 Jun 2027 12:36:14.010   05 Jun 2027 12:36:57.377            43.367              Murmansk2          1355.219
       427   05 Jun 2027 13:05:42.371   05 Jun 2027 13:06:54.123            71.752            RioGallegos          2242.250
       428   05 Jun 2027 13:09:07.624   05 Jun 2027 13:10:43.590            95.966            RioGallegos          2998.937
       429   05 Jun 2027 13:39:55.649   05 Jun 2027 13:40:48.461            52.812                Sumatra          1650.375
       430   05 Jun 2027 13:41:10.492   05 Jun 2027 13:43:13.665           123.173                Sumatra          3849.156
       431   05 Jun 2027 13:57:25.856   05 Jun 2027 14:00:03.545           157.689                Irkutsk          4927.781
       432   05 Jun 2027 15:27:02.634   05 Jun 2027 15:29:48.867           166.233                  Delhi          5194.781
       433   05 Jun 2027 15:33:34.420   05 Jun 2027 15:37:15.309           220.889                Novosib          6902.781
       434   05 Jun 2027 17:07:55.382   05 Jun 2027 17:09:24.810            89.428                 Moscow          2794.625
       435   05 Jun 2027 17:11:24.999   05 Jun 2027 17:12:24.597            59.598              Murmansk2          1862.438
       436   05 Jun 2027 17:18:14.181   05 Jun 2027 17:19:37.853            83.672              Murmansk1          2614.750
       437   05 Jun 2027 17:19:39.669   05 Jun 2027 17:20:27.392            47.723                Norilsk          1491.344
       438   05 Jun 2027 17:28:50.868   05 Jun 2027 17:29:11.470            20.602                Anadyr2           643.812
       439   05 Jun 2027 18:21:10.773   05 Jun 2027 18:22:05.182            54.409               CapeTown          1700.281
       440   05 Jun 2027 18:23:57.511   05 Jun 2027 18:24:12.152            14.641               CapeTown           457.531
       441   05 Jun 2027 18:24:22.656   05 Jun 2027 18:24:54.207            31.551               CapeTown           985.969
       442   05 Jun 2027 18:47:49.894   05 Jun 2027 18:51:43.697           233.803                 Moscow          7306.344
       443   05 Jun 2027 18:54:46.478   05 Jun 2027 18:55:06.705            20.227              Murmansk2           632.094
       444   05 Jun 2027 18:59:00.876   05 Jun 2027 18:59:18.187            17.311              Murmansk1           540.969
       445   05 Jun 2027 19:09:56.987   05 Jun 2027 19:10:47.671            50.684                Anadyr1          1583.875
       446   05 Jun 2027 19:57:59.547   05 Jun 2027 19:58:55.337            55.790               CapeTown          1743.437
       447   05 Jun 2027 20:00:27.414   05 Jun 2027 20:01:54.535            87.121               CapeTown          2722.531
       448   05 Jun 2027 20:06:44.265   05 Jun 2027 20:07:37.659            53.394               CapeTown          1668.562
       449   05 Jun 2027 20:30:53.420   05 Jun 2027 20:34:50.984           237.564              Murmansk2          7423.875
       450   05 Jun 2027 20:40:15.121   05 Jun 2027 20:40:18.368             3.247               Magadan2           101.469
       451   05 Jun 2027 20:40:41.830   05 Jun 2027 20:41:25.649            43.819               Magadan2          1369.344
       452   05 Jun 2027 20:47:23.434   05 Jun 2027 20:48:20.547            57.113               Magadan2          1784.781
       453   05 Jun 2027 22:13:34.061   05 Jun 2027 22:16:39.526           185.465                Anadyr2          5795.781
       454   05 Jun 2027 22:16:54.943   05 Jun 2027 22:17:12.372            17.429                Anadyr2           544.656
       455   05 Jun 2027 22:17:26.142   05 Jun 2027 22:18:51.149            85.007                Norilsk          2656.469
       456   05 Jun 2027 22:18:56.914   05 Jun 2027 22:19:31.664            34.750                Norilsk          1085.938
       457   05 Jun 2027 22:19:54.536   05 Jun 2027 22:20:17.482            22.946               Magadan1           717.062
       458   05 Jun 2027 22:20:25.198   05 Jun 2027 22:20:55.836            30.638               Magadan1           957.438
       459   05 Jun 2027 22:21:04.511   05 Jun 2027 22:21:17.028            12.517               Magadan1           391.156
       460   05 Jun 2027 22:22:45.876   05 Jun 2027 22:22:54.727             8.851               Magadan2           276.594
       461   05 Jun 2027 22:25:53.627   05 Jun 2027 22:26:09.860            16.233               Magadan1           507.281
       462   05 Jun 2027 23:08:12.461   05 Jun 2027 23:10:50.433           157.972            RioGallegos          4936.625
       463   05 Jun 2027 23:49:14.704   05 Jun 2027 23:51:15.572           120.868                Anadyr2          3777.125
       464   05 Jun 2027 23:51:22.890   05 Jun 2027 23:53:01.686            98.796                Norilsk          3087.375
       465   05 Jun 2027 23:53:30.880   05 Jun 2027 23:53:44.189            13.309               Magadan2           415.906
       466   05 Jun 2027 23:53:50.215   05 Jun 2027 23:55:00.184            69.969               Magadan1          2186.531
       467   05 Jun 2027 23:55:06.184   05 Jun 2027 23:55:44.061            37.877               Magadan2          1183.656
       468   05 Jun 2027 23:56:18.237   05 Jun 2027 23:56:58.298            40.061                Irkutsk          1251.906
       469   05 Jun 2027 23:57:53.007   05 Jun 2027 23:59:51.058           118.051                Irkutsk          3689.094
       470   06 Jun 2027 00:16:45.647   06 Jun 2027 00:17:08.524            22.877                Sumatra           714.906
       471   06 Jun 2027 00:20:50.952   06 Jun 2027 00:21:08.279            17.327                Sumatra           541.469
       472   06 Jun 2027 00:43:22.397   06 Jun 2027 00:43:33.112            10.715            RioGallegos           334.844
       473   06 Jun 2027 00:46:05.539   06 Jun 2027 00:46:33.137            27.598            RioGallegos           862.437
       474   06 Jun 2027 00:49:10.250   06 Jun 2027 00:50:17.321            67.071            RioGallegos          2095.969
       475   06 Jun 2027 01:24:07.352   06 Jun 2027 01:24:31.295            23.943                Anadyr2           748.219
       476   06 Jun 2027 01:25:04.792   06 Jun 2027 01:26:05.607            60.815                Anadyr2          1900.469
       477   06 Jun 2027 01:26:23.705   06 Jun 2027 01:26:39.255            15.550                Anadyr2           485.938
       478   06 Jun 2027 01:27:19.348   06 Jun 2027 01:29:05.944           106.596                Norilsk          3331.125
       479   06 Jun 2027 01:29:27.553   06 Jun 2027 01:29:43.523            15.970               Magadan1           499.062
       480   06 Jun 2027 01:31:11.738   06 Jun 2027 01:33:04.656           112.918                Irkutsk          3528.688
       481   06 Jun 2027 01:33:27.452   06 Jun 2027 01:33:43.999            16.547                Novosib           517.094
       482   06 Jun 2027 01:38:10.220   06 Jun 2027 01:38:29.992            19.772                Novosib           617.875
