uniorb/output/strategy_4/Drop/Drop_KinoSat_111104.txt

KinoSat_111104
-------------------------
    Access    *     Start Time (UTCG)     *     Stop Time (UTCG)  *   Duration (s)        *       Station  *  Data (Mbytes)
         1   01 Jun 2027 03:34:44.165   01 Jun 2027 03:36:00.449            76.284                Anadyr1          2383.875
         2   01 Jun 2027 03:37:32.108   01 Jun 2027 03:37:46.269            14.161               Magadan2           442.531
         3   01 Jun 2027 03:46:22.875   01 Jun 2027 03:47:30.116            67.241                 Moscow          2101.281
         4   01 Jun 2027 03:48:04.921   01 Jun 2027 03:49:35.721            90.800              Murmansk2          2837.500
         5   01 Jun 2027 03:50:34.305   01 Jun 2027 03:50:57.056            22.751              Murmansk1           710.969
         6   01 Jun 2027 05:08:55.270   01 Jun 2027 05:09:30.696            35.426               Magadan1          1107.063
         7   01 Jun 2027 05:09:42.649   01 Jun 2027 05:09:47.412             4.763               Magadan1           148.844
         8   01 Jun 2027 05:09:47.412   01 Jun 2027 05:09:50.519             3.107               Magadan2            97.094
         9   01 Jun 2027 05:10:00.197   01 Jun 2027 05:12:17.982           137.785                Anadyr2          4305.781
        10   01 Jun 2027 05:12:19.017   01 Jun 2027 05:12:55.352            36.335                Anadyr1          1135.469
        11   01 Jun 2027 05:13:31.014   01 Jun 2027 05:13:37.384             6.370               Magadan2           199.063
        12   01 Jun 2027 05:13:43.477   01 Jun 2027 05:14:52.724            69.247               Magadan2          2163.969
        13   01 Jun 2027 05:15:34.321   01 Jun 2027 05:15:44.298             9.977                Anadyr1           311.781
        14   01 Jun 2027 06:45:00.546   01 Jun 2027 06:46:08.845            68.299                Anadyr1          2134.344
        15   01 Jun 2027 06:46:19.931   01 Jun 2027 06:46:27.301             7.370               Magadan1           230.313
        16   01 Jun 2027 06:46:28.817   01 Jun 2027 06:47:46.887            78.070                Norilsk          2439.688
        17   01 Jun 2027 06:47:49.283   01 Jun 2027 06:48:26.148            36.865               Magadan1          1152.031
        18   01 Jun 2027 06:48:26.148   01 Jun 2027 06:48:35.213             9.065               Magadan2           283.281
        19   01 Jun 2027 06:48:42.291   01 Jun 2027 06:49:03.621            21.330                Norilsk           666.563
        20   01 Jun 2027 06:49:12.117   01 Jun 2027 06:49:38.368            26.251               Magadan1           820.344
        21   01 Jun 2027 06:49:50.178   01 Jun 2027 06:50:42.000            51.822                Anadyr2          1619.438
        22   01 Jun 2027 06:50:42.703   01 Jun 2027 06:52:42.413           119.710              Murmansk2          3740.937
        23   01 Jun 2027 07:26:58.401   01 Jun 2027 07:28:15.144            76.743            RioGallegos          2398.219
        24   01 Jun 2027 08:21:44.866   01 Jun 2027 08:22:45.857            60.991               Magadan1          1905.969
        25   01 Jun 2027 08:22:57.478   01 Jun 2027 08:26:16.189           198.711               Magadan1          6209.719
        26   01 Jun 2027 08:26:40.023   01 Jun 2027 08:27:06.731            26.708                Irkutsk           834.625
        27   01 Jun 2027 08:27:41.231   01 Jun 2027 08:28:18.780            37.549                Novosib          1173.406
        28   01 Jun 2027 08:33:01.004   01 Jun 2027 08:33:50.416            49.412              Murmansk1          1544.125
        29   01 Jun 2027 09:03:01.142   01 Jun 2027 09:03:22.551            21.409            RioGallegos           669.031
        30   01 Jun 2027 09:05:52.851   01 Jun 2027 09:06:10.462            17.611            RioGallegos           550.344
        31   01 Jun 2027 09:36:47.480   01 Jun 2027 09:39:08.215           140.735                Sumatra          4397.969
        32   01 Jun 2027 09:59:12.263   01 Jun 2027 10:00:32.591            80.328                Irkutsk          2510.250
        33   01 Jun 2027 10:00:41.782   01 Jun 2027 10:02:56.612           134.830                Irkutsk          4213.438
        34   01 Jun 2027 10:03:40.515   01 Jun 2027 10:03:56.198            15.683                 Moscow           490.094
        35   01 Jun 2027 10:41:18.571   01 Jun 2027 10:41:49.253            30.682            RioGallegos           958.813
        36   01 Jun 2027 10:42:41.088   01 Jun 2027 10:43:10.156            29.068            RioGallegos           908.375
        37   01 Jun 2027 10:45:25.401   01 Jun 2027 10:45:55.704            30.303            RioGallegos           946.969
        38   01 Jun 2027 11:15:23.518   01 Jun 2027 11:16:46.278            82.760                Sumatra          2586.250
        39   01 Jun 2027 11:20:13.609   01 Jun 2027 11:20:15.375             1.766                Sumatra            55.188
        40   01 Jun 2027 11:20:25.158   01 Jun 2027 11:20:26.821             1.663                Sumatra            51.969
        41   01 Jun 2027 11:37:12.077   01 Jun 2027 11:37:45.200            33.123                Norilsk          1035.094
        42   01 Jun 2027 11:37:46.231   01 Jun 2027 11:41:54.544           248.313                 Moscow          7759.781
        43   01 Jun 2027 11:42:21.442   01 Jun 2027 11:42:30.331             8.889                Norilsk           277.781
        44   01 Jun 2027 13:01:49.103   01 Jun 2027 13:04:04.528           135.425                  Delhi          4232.031
        45   01 Jun 2027 13:08:43.260   01 Jun 2027 13:09:50.847            67.587              Murmansk1          2112.094
        46   01 Jun 2027 13:09:50.847   01 Jun 2027 13:12:04.760           133.913              Murmansk2          4184.781
        47   01 Jun 2027 13:12:22.965   01 Jun 2027 13:13:36.832            73.867                Norilsk          2308.344
        48   01 Jun 2027 13:13:59.323   01 Jun 2027 13:14:28.406            29.083                Norilsk           908.844
        49   01 Jun 2027 14:20:36.746   01 Jun 2027 14:23:22.209           165.463               CapeTown          5170.719
        50   01 Jun 2027 14:42:08.981   01 Jun 2027 14:43:15.570            66.589                 Moscow          2080.906
        51   01 Jun 2027 14:44:17.607   01 Jun 2027 14:45:21.830            64.223                 Moscow          2006.969
        52   01 Jun 2027 14:45:28.635   01 Jun 2027 14:46:47.076            78.441              Murmansk2          2451.281
        53   01 Jun 2027 14:47:28.390   01 Jun 2027 14:48:03.074            34.684              Murmansk1          1083.875
        54   01 Jun 2027 14:49:59.253   01 Jun 2027 14:50:21.159            21.906              Murmansk2           684.562
        55   01 Jun 2027 14:59:59.667   01 Jun 2027 15:01:51.102           111.435                Anadyr2          3482.344
        56   01 Jun 2027 15:02:43.142   01 Jun 2027 15:03:28.584            45.442                Anadyr1          1420.062
        57   01 Jun 2027 15:05:22.865   01 Jun 2027 15:06:05.449            42.584                Anadyr2          1330.750
        58   01 Jun 2027 15:54:43.620   01 Jun 2027 15:55:11.267            27.647               CapeTown           863.969
        59   01 Jun 2027 15:58:48.046   01 Jun 2027 15:58:49.683             1.637               CapeTown            51.156
        60   01 Jun 2027 16:24:22.275   01 Jun 2027 16:25:56.525            94.250              Murmansk1          2945.312
        61   01 Jun 2027 16:26:16.648   01 Jun 2027 16:26:54.293            37.645              Murmansk1          1176.406
        62   01 Jun 2027 16:28:38.963   01 Jun 2027 16:29:41.512            62.549              Murmansk1          1954.656
        63   01 Jun 2027 16:35:22.572   01 Jun 2027 16:37:43.205           140.633                Anadyr2          4394.781
        64   01 Jun 2027 16:39:20.887   01 Jun 2027 16:40:12.057            51.170               Magadan1          1599.063
        65   01 Jun 2027 16:41:10.787   01 Jun 2027 16:42:21.232            70.445               Magadan2          2201.406
        66   01 Jun 2027 16:42:57.351   01 Jun 2027 16:44:14.073            76.722               Magadan1          2397.563
        67   01 Jun 2027 18:11:15.938   01 Jun 2027 18:15:20.989           245.051                Anadyr1          7657.844
        68   01 Jun 2027 18:15:54.356   01 Jun 2027 18:17:50.271           115.915               Magadan1          3622.344
        69   01 Jun 2027 18:18:51.357   01 Jun 2027 18:19:14.058            22.701               Magadan1           709.406
        70   01 Jun 2027 18:23:09.573   01 Jun 2027 18:23:47.054            37.481               Magadan1          1171.281
        71   01 Jun 2027 18:24:06.667   01 Jun 2027 18:24:28.674            22.007               Magadan2           687.719
        72   01 Jun 2027 19:47:08.989   01 Jun 2027 19:50:58.989           230.000                Anadyr2          7187.500
        73   01 Jun 2027 19:51:15.752   01 Jun 2027 19:53:40.000           144.248               Magadan1          4507.750
        74   01 Jun 2027 19:53:44.323   01 Jun 2027 19:54:36.137            51.814               Magadan2          1619.187
        75   01 Jun 2027 19:55:40.094   01 Jun 2027 19:55:57.744            17.650                Irkutsk           551.562
        76   01 Jun 2027 19:56:46.691   01 Jun 2027 19:58:03.359            76.668                Irkutsk          2395.875
        77   01 Jun 2027 19:58:41.779   01 Jun 2027 19:58:47.784             6.005                Irkutsk           187.656
        78   01 Jun 2027 19:59:09.570   01 Jun 2027 20:00:27.155            77.585                Irkutsk          2424.531
        79   01 Jun 2027 20:42:07.679   01 Jun 2027 20:42:27.364            19.685            RioGallegos           615.156
        80   01 Jun 2027 20:42:29.174   01 Jun 2027 20:42:46.986            17.812            RioGallegos           556.625
        81   01 Jun 2027 20:49:51.879   01 Jun 2027 20:50:26.558            34.679            RioGallegos          1083.719
        82   01 Jun 2027 21:22:55.903   01 Jun 2027 21:23:03.850             7.947                Anadyr2           248.344
        83   01 Jun 2027 21:23:47.605   01 Jun 2027 21:24:54.997            67.392                Anadyr2          2106.000
        84   01 Jun 2027 21:25:00.581   01 Jun 2027 21:27:26.190           145.609                Norilsk          4550.281
        85   01 Jun 2027 21:27:39.659   01 Jun 2027 21:28:50.266            70.607                Norilsk          2206.469
        86   01 Jun 2027 21:30:22.212   01 Jun 2027 21:31:48.802            86.590                Novosib          2705.938
        87   01 Jun 2027 21:33:33.097   01 Jun 2027 21:34:00.196            27.099                Novosib           846.844
        88   01 Jun 2027 21:35:06.241   01 Jun 2027 21:35:45.692            39.451                Novosib          1232.844
        89   01 Jun 2027 21:42:44.729   01 Jun 2027 21:44:19.658            94.929                Sumatra          2966.531
        90   01 Jun 2027 21:54:32.142   01 Jun 2027 21:55:09.278            37.136                Sumatra          1160.500
        91   01 Jun 2027 22:57:10.383   01 Jun 2027 22:57:16.628             6.245                Anadyr2           195.156
        92   01 Jun 2027 22:57:23.741   01 Jun 2027 22:57:31.027             7.286                Anadyr2           227.688
        93   01 Jun 2027 22:57:58.294   01 Jun 2027 22:59:25.066            86.772                Anadyr1          2711.625
        94   01 Jun 2027 22:59:37.089   01 Jun 2027 22:59:50.386            13.297                Anadyr1           415.531
        95   01 Jun 2027 23:00:59.128   01 Jun 2027 23:02:54.078           114.950                Norilsk          3592.188
        96   01 Jun 2027 23:03:07.039   01 Jun 2027 23:03:23.013            15.974               Magadan2           499.187
        97   01 Jun 2027 23:04:52.961   01 Jun 2027 23:05:33.803            40.842                Irkutsk          1276.313
        98   01 Jun 2027 23:05:34.704   01 Jun 2027 23:06:21.839            47.135                Novosib          1472.969
        99   01 Jun 2027 23:12:25.716   01 Jun 2027 23:14:17.894           112.178                  Delhi          3505.562
       100   01 Jun 2027 23:14:59.021   01 Jun 2027 23:16:02.270            63.249                  Delhi          1976.531
       101   01 Jun 2027 23:59:00.220   02 Jun 2027 00:00:06.526            66.306            RioGallegos          2072.062
       102   02 Jun 2027 00:30:35.594   02 Jun 2027 00:30:53.989            18.395                Anadyr2           574.844
       103   02 Jun 2027 00:31:41.763   02 Jun 2027 00:32:46.369            64.606                Anadyr1          2018.938
       104   02 Jun 2027 00:36:44.961   02 Jun 2027 00:39:20.984           156.023               Magadan2          4875.719
       105   02 Jun 2027 00:39:27.944   02 Jun 2027 00:41:32.969           125.025              Murmansk1          3907.031
       106   02 Jun 2027 00:43:35.482   02 Jun 2027 00:45:05.739            90.257                 Moscow          2820.531
       107   02 Jun 2027 00:49:43.241   02 Jun 2027 00:50:07.013            23.772                 Moscow           742.875
       108   02 Jun 2027 00:59:02.728   02 Jun 2027 00:59:18.534            15.806                  Delhi           493.938
       109   02 Jun 2027 01:12:15.721   02 Jun 2027 01:12:54.263            38.542               CapeTown          1204.438
       110   02 Jun 2027 01:13:26.379   02 Jun 2027 01:14:17.251            50.872               CapeTown          1589.750
       111   02 Jun 2027 02:04:07.592   02 Jun 2027 02:04:39.464            31.872                Anadyr2           996.000
       112   02 Jun 2027 02:04:51.140   02 Jun 2027 02:05:25.775            34.635                Anadyr1          1082.344
       113   02 Jun 2027 02:05:52.082   02 Jun 2027 02:06:23.495            31.413                Anadyr2           981.656
       114   02 Jun 2027 02:08:28.420   02 Jun 2027 02:08:44.259            15.839                Anadyr1           494.969
       115   02 Jun 2027 02:08:47.613   02 Jun 2027 02:10:25.693            98.080               Magadan1          3065.000
       116   02 Jun 2027 02:12:55.766   02 Jun 2027 02:13:42.477            46.711               Magadan1          1459.719
       117   02 Jun 2027 02:15:05.569   02 Jun 2027 02:16:40.051            94.482              Murmansk2          2952.562
       118   02 Jun 2027 02:18:23.008   02 Jun 2027 02:19:54.153            91.145                 Moscow          2848.281
       119   02 Jun 2027 02:30:04.288   02 Jun 2027 02:30:09.030             4.742                 Moscow           148.187
       120   02 Jun 2027 02:43:36.521   02 Jun 2027 02:44:06.524            30.003               CapeTown           937.594
       121   02 Jun 2027 02:49:48.619   02 Jun 2027 02:50:28.910            40.291               CapeTown          1259.094
       122   02 Jun 2027 02:52:17.529   02 Jun 2027 02:52:28.041            10.512               CapeTown           328.500
       123   02 Jun 2027 03:45:13.638   02 Jun 2027 03:47:59.946           166.308               Magadan1          5197.125
       124   02 Jun 2027 03:48:15.893   02 Jun 2027 03:49:28.118            72.225               Magadan1          2257.031
       125   02 Jun 2027 03:50:39.033   02 Jun 2027 03:51:49.571            70.538                Anadyr1          2204.313
       126   02 Jun 2027 05:22:15.893   02 Jun 2027 05:23:30.558            74.665                Anadyr2          2333.281
       127   02 Jun 2027 05:23:36.881   02 Jun 2027 05:26:20.837           163.956               Magadan2          5123.625
       128   02 Jun 2027 06:57:52.166   02 Jun 2027 06:59:33.341           101.175               Magadan2          3161.719
       129   02 Jun 2027 06:59:52.417   02 Jun 2027 07:00:51.294            58.877               Magadan2          1839.906
       130   02 Jun 2027 07:00:59.425   02 Jun 2027 07:03:18.405           138.980               Magadan2          4343.125
       131   02 Jun 2027 08:34:41.354   02 Jun 2027 08:36:35.888           114.534               Magadan2          3579.187
       132   02 Jun 2027 08:36:35.888   02 Jun 2027 08:37:21.096            45.208               Magadan1          1412.750
       133   02 Jun 2027 08:37:48.842   02 Jun 2027 08:37:56.695             7.853               Magadan1           245.406
       134   02 Jun 2027 08:38:13.136   02 Jun 2027 08:38:56.505            43.369                Irkutsk          1355.281
       135   02 Jun 2027 09:13:58.834   02 Jun 2027 09:14:53.141            54.307            RioGallegos          1697.094
       136   02 Jun 2027 09:22:33.678   02 Jun 2027 09:22:50.771            17.093            RioGallegos           534.156
       137   02 Jun 2027 09:24:19.376   02 Jun 2027 09:24:49.793            30.417            RioGallegos           950.531
       138   02 Jun 2027 09:48:43.396   02 Jun 2027 09:49:17.846            34.450                Sumatra          1076.562
       139   02 Jun 2027 09:51:19.387   02 Jun 2027 09:51:42.940            23.553                Sumatra           736.031
       140   02 Jun 2027 09:57:34.317   02 Jun 2027 09:57:50.934            16.617                Sumatra           519.281
       141   02 Jun 2027 10:00:43.431   02 Jun 2027 10:00:57.335            13.904                Sumatra           434.500
       142   02 Jun 2027 10:09:31.797   02 Jun 2027 10:09:44.260            12.463                Irkutsk           389.469
       143   02 Jun 2027 10:10:43.729   02 Jun 2027 10:10:59.813            16.084                Novosib           502.625
       144   02 Jun 2027 10:11:13.442   02 Jun 2027 10:11:20.381             6.939                Irkutsk           216.844
       145   02 Jun 2027 10:11:25.347   02 Jun 2027 10:11:28.723             3.376                Norilsk           105.500
       146   02 Jun 2027 10:11:40.924   02 Jun 2027 10:12:15.757            34.833                Irkutsk          1088.531
       147   02 Jun 2027 10:12:20.524   02 Jun 2027 10:12:47.553            27.029                Novosib           844.656
       148   02 Jun 2027 10:13:20.229   02 Jun 2027 10:13:29.087             8.858                Irkutsk           276.812
       149   02 Jun 2027 10:13:31.176   02 Jun 2027 10:14:19.539            48.363              Murmansk2          1511.344
       150   02 Jun 2027 10:14:33.438   02 Jun 2027 10:14:52.303            18.865                Irkutsk           589.531
       151   02 Jun 2027 10:14:54.894   02 Jun 2027 10:15:56.101            61.207                Novosib          1912.719
       152   02 Jun 2027 10:53:47.657   02 Jun 2027 10:53:57.712            10.055            RioGallegos           314.219
       153   02 Jun 2027 10:57:01.815   02 Jun 2027 10:57:51.730            49.915            RioGallegos          1559.844
       154   02 Jun 2027 11:35:02.473   02 Jun 2027 11:35:13.716            11.243                  Delhi           351.344
       155   02 Jun 2027 11:36:03.755   02 Jun 2027 11:37:31.445            87.690                  Delhi          2740.313
       156   02 Jun 2027 11:47:30.566   02 Jun 2027 11:48:38.995            68.429                Novosib          2138.406
       157   02 Jun 2027 11:48:45.166   02 Jun 2027 11:48:45.803             0.637                Norilsk            19.906
       158   02 Jun 2027 11:49:15.966   02 Jun 2027 11:49:36.666            20.700                Novosib           646.875
       159   02 Jun 2027 11:49:38.127   02 Jun 2027 11:50:01.722            23.595                Norilsk           737.344
       160   02 Jun 2027 11:50:17.812   02 Jun 2027 11:50:22.009             4.197              Murmansk2           131.156
       161   02 Jun 2027 11:50:24.984   02 Jun 2027 11:50:29.950             4.966                Norilsk           155.188
       162   02 Jun 2027 11:50:33.458   02 Jun 2027 11:51:25.567            52.109              Murmansk2          1628.406
       163   02 Jun 2027 13:17:19.957   02 Jun 2027 13:18:08.528            48.571                 Moscow          1517.844
       164   02 Jun 2027 13:19:52.423   02 Jun 2027 13:20:44.068            51.645                 Moscow          1613.906
       165   02 Jun 2027 13:20:45.095   02 Jun 2027 13:21:38.097            53.002              Murmansk2          1656.312
       166   02 Jun 2027 13:21:38.097   02 Jun 2027 13:22:20.516            42.419              Murmansk1          1325.594
       167   02 Jun 2027 13:22:50.139   02 Jun 2027 13:23:09.860            19.721              Murmansk1           616.281
       168   02 Jun 2027 13:24:06.304   02 Jun 2027 13:24:54.335            48.031              Murmansk1          1500.969
       169   02 Jun 2027 13:25:49.438   02 Jun 2027 13:27:24.888            95.450                Norilsk          2982.813
       170   02 Jun 2027 13:28:27.011   02 Jun 2027 13:29:14.920            47.909                Norilsk          1497.156
       171   02 Jun 2027 14:32:04.588   02 Jun 2027 14:33:41.038            96.450               CapeTown          3014.062
       172   02 Jun 2027 14:35:08.234   02 Jun 2027 14:35:51.494            43.260               CapeTown          1351.875
       173   02 Jun 2027 14:36:24.065   02 Jun 2027 14:37:17.615            53.550               CapeTown          1673.437
       174   02 Jun 2027 14:54:32.545   02 Jun 2027 14:54:45.329            12.784                 Moscow           399.500
       175   02 Jun 2027 14:55:18.990   02 Jun 2027 14:55:24.236             5.246                 Moscow           163.938
       176   02 Jun 2027 14:57:44.470   02 Jun 2027 14:58:35.818            51.348              Murmansk1          1604.625
       177   02 Jun 2027 15:00:20.461   02 Jun 2027 15:00:30.585            10.124              Murmansk2           316.375
       178   02 Jun 2027 15:02:01.165   02 Jun 2027 15:02:25.750            24.585              Murmansk1           768.281
       179   02 Jun 2027 15:02:55.808   02 Jun 2027 15:03:06.426            10.618              Murmansk1           331.812
       180   02 Jun 2027 15:04:19.751   02 Jun 2027 15:05:49.484            89.733              Murmansk2          2804.156
       181   02 Jun 2027 15:11:52.553   02 Jun 2027 15:13:25.916            93.363                Anadyr1          2917.594
       182   02 Jun 2027 15:20:23.233   02 Jun 2027 15:21:07.888            44.655                Anadyr2          1395.469
       183   02 Jun 2027 16:13:10.088   02 Jun 2027 16:15:00.156           110.068               CapeTown          3439.625
       184   02 Jun 2027 16:36:57.925   02 Jun 2027 16:37:57.346            59.421              Murmansk1          1856.906
       185   02 Jun 2027 16:41:41.132   02 Jun 2027 16:42:07.945            26.813              Murmansk2           837.906
       186   02 Jun 2027 16:47:22.976   02 Jun 2027 16:49:08.708           105.732                Anadyr2          3304.125
       187   02 Jun 2027 16:50:54.305   02 Jun 2027 16:51:03.535             9.230                Anadyr1           288.437
       188   02 Jun 2027 16:51:03.535   02 Jun 2027 16:51:12.582             9.047                Anadyr2           282.719
       189   02 Jun 2027 16:52:58.004   02 Jun 2027 16:53:55.510            57.506                Anadyr1          1797.062
       190   02 Jun 2027 16:54:00.040   02 Jun 2027 16:55:09.480            69.440               Magadan1          2170.000
       191   02 Jun 2027 16:55:18.836   02 Jun 2027 16:56:13.706            54.870               Magadan1          1714.687
       192   02 Jun 2027 18:23:17.413   02 Jun 2027 18:25:36.986           139.573                Anadyr1          4361.656
       193   02 Jun 2027 18:25:39.841   02 Jun 2027 18:27:56.977           137.136               Magadan2          4285.500
       194   02 Jun 2027 18:28:12.673   02 Jun 2027 18:28:38.426            25.753               Magadan1           804.781
       195   02 Jun 2027 18:29:20.841   02 Jun 2027 18:30:44.523            83.682               Magadan2          2615.062
       196   02 Jun 2027 19:59:09.026   02 Jun 2027 20:03:25.689           256.663                Anadyr1          8020.719
       197   02 Jun 2027 20:03:27.204   02 Jun 2027 20:05:25.672           118.468               Magadan2          3702.125
       198   02 Jun 2027 20:06:53.584   02 Jun 2027 20:07:31.307            37.723                Irkutsk          1178.844
       199   02 Jun 2027 20:07:40.811   02 Jun 2027 20:08:06.358            25.547                Norilsk           798.344
       200   02 Jun 2027 20:09:31.442   02 Jun 2027 20:10:39.010            67.568                Irkutsk          2111.500
       201   02 Jun 2027 20:11:33.710   02 Jun 2027 20:12:44.093            70.383                Irkutsk          2199.469
       202   02 Jun 2027 20:23:06.187   02 Jun 2027 20:24:12.818            66.631                Sumatra          2082.219
       203   02 Jun 2027 20:25:36.747   02 Jun 2027 20:27:02.157            85.410                Sumatra          2669.062
       204   02 Jun 2027 21:37:01.768   02 Jun 2027 21:37:55.720            53.952                Norilsk          1686.000
       205   02 Jun 2027 21:38:15.335   02 Jun 2027 21:39:28.115            72.780                Norilsk          2274.375
       206   02 Jun 2027 21:41:00.914   02 Jun 2027 21:42:29.552            88.638                Irkutsk          2769.937
       207   02 Jun 2027 21:45:24.597   02 Jun 2027 21:46:09.055            44.458                Novosib          1389.312
       208   02 Jun 2027 21:54:43.453   02 Jun 2027 21:55:13.783            30.330                Sumatra           947.813
       209   02 Jun 2027 21:56:40.916   02 Jun 2027 21:57:29.740            48.824                Sumatra          1525.750
       210   02 Jun 2027 23:08:55.619   02 Jun 2027 23:11:03.440           127.821                Anadyr2          3994.406
       211   02 Jun 2027 23:13:01.149   02 Jun 2027 23:13:21.689            20.540                Norilsk           641.875
       212   02 Jun 2027 23:13:37.478   02 Jun 2027 23:15:05.920            88.442               Magadan2          2763.812
       213   02 Jun 2027 23:16:35.851   02 Jun 2027 23:19:42.532           186.681              Murmansk2          5833.781
       214   02 Jun 2027 23:24:17.458   02 Jun 2027 23:25:23.909            66.451                  Delhi          2076.594
       215   02 Jun 2027 23:31:23.599   02 Jun 2027 23:32:18.148            54.549                  Delhi          1704.656
       216   03 Jun 2027 00:42:16.753   03 Jun 2027 00:42:44.514            27.761                Anadyr1           867.531
       217   03 Jun 2027 00:43:03.411   03 Jun 2027 00:43:42.972            39.561                Anadyr1          1236.281
       218   03 Jun 2027 00:44:46.772   03 Jun 2027 00:45:02.019            15.247                Anadyr2           476.469
       219   03 Jun 2027 00:45:06.419   03 Jun 2027 00:45:20.929            14.510                Anadyr1           453.437
       220   03 Jun 2027 00:47:39.858   03 Jun 2027 00:48:01.755            21.897                Anadyr1           684.281
       221   03 Jun 2027 00:48:01.755   03 Jun 2027 00:48:32.985            31.230                Anadyr2           975.937
       222   03 Jun 2027 00:48:49.125   03 Jun 2027 00:50:49.537           120.412               Magadan1          3762.875
       223   03 Jun 2027 00:51:14.699   03 Jun 2027 00:53:26.942           132.243              Murmansk1          4132.594
       224   03 Jun 2027 00:55:19.070   03 Jun 2027 00:55:42.473            23.403                 Moscow           731.344
       225   03 Jun 2027 00:55:48.180   03 Jun 2027 00:56:02.456            14.276              Murmansk2           446.125
       226   03 Jun 2027 01:00:16.289   03 Jun 2027 01:01:37.207            80.918                 Moscow          2528.687
       227   03 Jun 2027 01:22:36.719   03 Jun 2027 01:23:50.616            73.897               CapeTown          2309.281
       228   03 Jun 2027 02:15:55.387   03 Jun 2027 02:16:13.426            18.039                Anadyr2           563.719
       229   03 Jun 2027 02:16:40.693   03 Jun 2027 02:17:35.041            54.348                Anadyr2          1698.375
       230   03 Jun 2027 02:18:33.670   03 Jun 2027 02:18:47.974            14.304                Anadyr1           447.000
       231   03 Jun 2027 02:20:16.003   03 Jun 2027 02:21:36.347            80.344               Magadan1          2510.750
       232   03 Jun 2027 02:23:44.635   03 Jun 2027 02:24:04.529            19.894               Magadan1           621.687
       233   03 Jun 2027 02:24:39.582   03 Jun 2027 02:24:47.558             7.976                Norilsk           249.250
       234   03 Jun 2027 02:26:14.102   03 Jun 2027 02:26:21.967             7.865                Norilsk           245.781
       235   03 Jun 2027 02:26:47.703   03 Jun 2027 02:27:04.525            16.822                Norilsk           525.688
       236   03 Jun 2027 02:27:07.283   03 Jun 2027 02:28:45.581            98.298              Murmansk1          3071.813
       237   03 Jun 2027 02:30:07.044   03 Jun 2027 02:31:11.114            64.070                Novosib          2002.187
       238   03 Jun 2027 02:41:20.060   03 Jun 2027 02:41:36.804            16.744                 Moscow           523.250
       239   03 Jun 2027 02:54:18.273   03 Jun 2027 02:55:11.451            53.178               CapeTown          1661.813
       240   03 Jun 2027 03:52:44.068   03 Jun 2027 03:52:55.102            11.034                Anadyr2           344.813
       241   03 Jun 2027 03:57:07.827   03 Jun 2027 03:58:20.902            73.075               Magadan1          2283.594
       242   03 Jun 2027 03:58:30.682   03 Jun 2027 03:58:54.466            23.784               Magadan1           743.250
       243   03 Jun 2027 03:59:00.069   03 Jun 2027 03:59:12.478            12.409                Anadyr1           387.781
       244   03 Jun 2027 03:59:32.793   03 Jun 2027 04:00:54.146            81.353               Magadan2          2542.281
       245   03 Jun 2027 04:02:10.805   03 Jun 2027 04:03:54.064           103.259                Anadyr2          3226.844
       246   03 Jun 2027 05:33:45.996   03 Jun 2027 05:34:43.999            58.003               Magadan1          1812.594
       247   03 Jun 2027 05:34:47.139   03 Jun 2027 05:35:00.535            13.396                Anadyr1           418.625
       248   03 Jun 2027 05:35:00.535   03 Jun 2027 05:35:52.431            51.896                Anadyr2          1621.750
       249   03 Jun 2027 05:35:57.305   03 Jun 2027 05:36:22.116            24.811                Anadyr1           775.344
       250   03 Jun 2027 05:36:49.572   03 Jun 2027 05:39:43.732           174.160                Anadyr2          5442.500
       251   03 Jun 2027 07:07:00.067   03 Jun 2027 07:07:48.850            48.783               Magadan1          1524.469
       252   03 Jun 2027 07:08:03.692   03 Jun 2027 07:08:10.295             6.603               Magadan2           206.344
       253   03 Jun 2027 07:08:18.423   03 Jun 2027 07:08:30.561            12.138                Anadyr2           379.312
       254   03 Jun 2027 07:08:41.651   03 Jun 2027 07:09:20.315            38.664               Magadan2          1208.250
       255   03 Jun 2027 07:09:26.307   03 Jun 2027 07:09:34.813             8.506               Magadan1           265.812
       256   03 Jun 2027 07:09:45.296   03 Jun 2027 07:09:46.417             1.121               Magadan1            35.031
       257   03 Jun 2027 07:09:54.450   03 Jun 2027 07:10:19.950            25.500               Magadan2           796.875
       258   03 Jun 2027 07:10:53.757   03 Jun 2027 07:11:23.104            29.347                Anadyr2           917.094
       259   03 Jun 2027 07:11:23.104   03 Jun 2027 07:12:18.321            55.217                Anadyr1          1725.531
       260   03 Jun 2027 07:12:28.414   03 Jun 2027 07:12:40.716            12.302               Magadan1           384.437
       261   03 Jun 2027 07:12:43.941   03 Jun 2027 07:13:28.053            44.112                Anadyr2          1378.500
       262   03 Jun 2027 07:13:38.154   03 Jun 2027 07:13:45.087             6.933               Magadan2           216.656
       263   03 Jun 2027 07:13:48.225   03 Jun 2027 07:14:40.670            52.445                Anadyr2          1638.906
       264   03 Jun 2027 07:16:54.661   03 Jun 2027 07:17:13.587            18.926                Norilsk           591.437
       265   03 Jun 2027 07:18:51.895   03 Jun 2027 07:18:54.285             2.390              Murmansk2            74.687
       266   03 Jun 2027 07:57:04.886   03 Jun 2027 07:57:28.668            23.782            RioGallegos           743.187
       267   03 Jun 2027 07:58:41.086   03 Jun 2027 07:59:25.421            44.335            RioGallegos          1385.469
       268   03 Jun 2027 08:30:42.738   03 Jun 2027 08:31:45.066            62.328                Sumatra          1947.750
       269   03 Jun 2027 08:45:43.222   03 Jun 2027 08:45:53.439            10.217               Magadan1           319.281
       270   03 Jun 2027 08:46:36.691   03 Jun 2027 08:47:52.857            76.166               Magadan2          2380.188
       271   03 Jun 2027 08:48:30.462   03 Jun 2027 08:49:44.392            73.930                Novosib          2310.313
       272   03 Jun 2027 08:49:59.386   03 Jun 2027 08:50:55.395            56.009                Novosib          1750.281
       273   03 Jun 2027 08:51:01.884   03 Jun 2027 08:51:16.251            14.367                Novosib           448.969
       274   03 Jun 2027 09:26:10.902   03 Jun 2027 09:26:11.672             0.770            RioGallegos            24.062
       275   03 Jun 2027 09:26:42.462   03 Jun 2027 09:27:16.265            33.803            RioGallegos          1056.344
       276   03 Jun 2027 09:29:00.590   03 Jun 2027 09:29:19.926            19.336            RioGallegos           604.250
       277   03 Jun 2027 10:00:44.919   03 Jun 2027 10:01:48.610            63.691                Sumatra          1990.344
       278   03 Jun 2027 10:07:16.324   03 Jun 2027 10:08:15.349            59.025                Sumatra          1844.531
       279   03 Jun 2027 10:11:16.845   03 Jun 2027 10:11:29.794            12.949                  Delhi           404.656
       280   03 Jun 2027 10:24:33.704   03 Jun 2027 10:24:53.592            19.888                Irkutsk           621.500
       281   03 Jun 2027 10:25:06.243   03 Jun 2027 10:25:08.212             1.969                Irkutsk            61.531
       282   03 Jun 2027 10:25:22.072   03 Jun 2027 10:25:58.476            36.404                Irkutsk          1137.625
       283   03 Jun 2027 10:26:28.993   03 Jun 2027 10:26:46.265            17.272                Irkutsk           539.750
       284   03 Jun 2027 10:26:53.116   03 Jun 2027 10:27:44.877            51.761                Novosib          1617.531
       285   03 Jun 2027 11:07:07.094   03 Jun 2027 11:07:53.996            46.902            RioGallegos          1465.687
       286   03 Jun 2027 11:45:10.043   03 Jun 2027 11:45:49.620            39.577                  Delhi          1236.781
       287   03 Jun 2027 11:48:36.004   03 Jun 2027 11:50:00.882            84.878                  Delhi          2652.438
       288   03 Jun 2027 11:59:05.992   03 Jun 2027 11:59:35.088            29.096                Novosib           909.250
       289   03 Jun 2027 12:00:05.677   03 Jun 2027 12:00:30.150            24.473                 Moscow           764.781
       290   03 Jun 2027 12:00:36.245   03 Jun 2027 12:01:05.077            28.832                Novosib           901.000
       291   03 Jun 2027 12:01:46.038   03 Jun 2027 12:02:46.403            60.365                Novosib          1886.406
       292   03 Jun 2027 12:03:39.979   03 Jun 2027 12:04:10.034            30.055                Novosib           939.219
       293   03 Jun 2027 12:07:01.814   03 Jun 2027 12:07:28.577            26.763                Norilsk           836.344
       294   03 Jun 2027 13:31:41.187   03 Jun 2027 13:32:29.328            48.141                 Moscow          1504.406
       295   03 Jun 2027 13:33:08.011   03 Jun 2027 13:33:25.450            17.439              Murmansk1           544.969
       296   03 Jun 2027 13:34:25.496   03 Jun 2027 13:34:32.141             6.645                 Moscow           207.656
       297   03 Jun 2027 13:34:38.882   03 Jun 2027 13:34:51.302            12.420                 Moscow           388.125
       298   03 Jun 2027 13:36:01.594   03 Jun 2027 13:36:21.818            20.224                 Moscow           632.000
       299   03 Jun 2027 13:37:07.598   03 Jun 2027 13:37:15.899             8.301              Murmansk1           259.406
       300   03 Jun 2027 13:37:17.719   03 Jun 2027 13:41:47.808           270.089                Norilsk          8440.281
       301   03 Jun 2027 14:45:29.345   03 Jun 2027 14:46:58.499            89.154               CapeTown          2786.062
       302   03 Jun 2027 14:52:27.325   03 Jun 2027 14:53:02.117            34.792               CapeTown          1087.250
       303   03 Jun 2027 15:08:06.329   03 Jun 2027 15:08:49.121            42.792                 Moscow          1337.250
       304   03 Jun 2027 15:11:45.801   03 Jun 2027 15:12:03.531            17.730                 Moscow           554.063
       305   03 Jun 2027 15:14:03.073   03 Jun 2027 15:14:17.638            14.565              Murmansk1           455.156
       306   03 Jun 2027 15:15:20.941   03 Jun 2027 15:15:59.427            38.486              Murmansk2          1202.688
       307   03 Jun 2027 15:18:36.195   03 Jun 2027 15:19:32.802            56.607              Murmansk2          1768.969
       308   03 Jun 2027 15:23:47.402   03 Jun 2027 15:24:43.197            55.795                Anadyr1          1743.594
       309   03 Jun 2027 15:25:09.795   03 Jun 2027 15:26:12.589            62.794                Anadyr2          1962.313
       310   03 Jun 2027 15:32:56.548   03 Jun 2027 15:33:38.595            42.047                Anadyr1          1313.969
       311   03 Jun 2027 16:25:26.879   03 Jun 2027 16:26:49.697            82.818               CapeTown          2588.063
       312   03 Jun 2027 16:49:37.086   03 Jun 2027 16:51:13.505            96.419              Murmansk1          3013.094
       313   03 Jun 2027 16:53:40.038   03 Jun 2027 16:54:09.180            29.142              Murmansk2           910.687
       314   03 Jun 2027 16:59:23.685   03 Jun 2027 17:00:51.389            87.704                Anadyr2          2740.750
       315   03 Jun 2027 17:02:37.787   03 Jun 2027 17:02:54.919            17.132               Magadan2           535.375
       316   03 Jun 2027 17:03:40.798   03 Jun 2027 17:03:57.180            16.382                Anadyr1           511.938
       317   03 Jun 2027 17:04:07.834   03 Jun 2027 17:05:30.722            82.888               Magadan2          2590.250
       318   03 Jun 2027 17:06:14.741   03 Jun 2027 17:06:30.276            15.535               Magadan1           485.469
       319   03 Jun 2027 17:07:02.711   03 Jun 2027 17:07:11.364             8.653               Magadan1           270.406
       320   03 Jun 2027 17:07:20.819   03 Jun 2027 17:08:30.981            70.162               Magadan1          2192.562
       321   03 Jun 2027 18:35:18.849   03 Jun 2027 18:37:36.798           137.949                Anadyr2          4310.906
       322   03 Jun 2027 18:37:38.808   03 Jun 2027 18:39:51.699           132.891               Magadan2          4152.844
       323   03 Jun 2027 18:40:27.798   03 Jun 2027 18:41:08.575            40.777               Magadan1          1274.281
       324   03 Jun 2027 18:42:34.356   03 Jun 2027 18:42:35.431             1.075               Magadan1            33.594
       325   03 Jun 2027 18:43:08.420   03 Jun 2027 18:43:26.332            17.912               Magadan2           559.750
       326   03 Jun 2027 18:45:13.542   03 Jun 2027 18:45:48.199            34.657               Magadan1          1083.031
       327   03 Jun 2027 19:32:02.122   03 Jun 2027 19:34:15.271           133.149            RioGallegos          4160.906
       328   03 Jun 2027 19:35:41.590   03 Jun 2027 19:36:23.689            42.099            RioGallegos          1315.594
       329   03 Jun 2027 20:11:08.669   03 Jun 2027 20:13:11.564           122.895                Anadyr1          3840.469
       330   03 Jun 2027 20:13:20.519   03 Jun 2027 20:13:35.207            14.688                Norilsk           459.000
       331   03 Jun 2027 20:13:35.749   03 Jun 2027 20:13:49.672            13.923               Magadan1           435.094
       332   03 Jun 2027 20:14:55.183   03 Jun 2027 20:15:02.346             7.163               Magadan1           223.844
       333   03 Jun 2027 20:15:07.769   03 Jun 2027 20:16:41.545            93.776                Norilsk          2930.500
       334   03 Jun 2027 20:18:24.622   03 Jun 2027 20:19:17.288            52.666                Irkutsk          1645.813
       335   03 Jun 2027 20:19:28.578   03 Jun 2027 20:21:27.992           119.414                Irkutsk          3731.688
       336   03 Jun 2027 20:23:34.132   03 Jun 2027 20:25:08.879            94.747                Irkutsk          2960.844
       337   03 Jun 2027 20:33:39.679   03 Jun 2027 20:35:40.887           121.208                Sumatra          3787.750
       338   03 Jun 2027 21:50:38.245   03 Jun 2027 21:50:54.292            16.047                Norilsk           501.469
       339   03 Jun 2027 21:52:59.175   03 Jun 2027 21:54:26.500            87.325                Irkutsk          2728.906
       340   03 Jun 2027 21:55:10.721   03 Jun 2027 21:57:12.491           121.770                Novosib          3805.312
       341   03 Jun 2027 22:04:33.325   03 Jun 2027 22:05:40.014            66.689                  Delhi          2084.031
       342   03 Jun 2027 22:07:23.404   03 Jun 2027 22:08:11.077            47.673                  Delhi          1489.781
       343   03 Jun 2027 23:21:06.654   03 Jun 2027 23:21:34.843            28.189                Anadyr1           880.906
       344   03 Jun 2027 23:22:51.100   03 Jun 2027 23:22:59.774             8.674                Anadyr1           271.062
       345   03 Jun 2027 23:25:03.131   03 Jun 2027 23:25:16.950            13.819                Norilsk           431.844
       346   03 Jun 2027 23:25:37.754   03 Jun 2027 23:26:28.440            50.686               Magadan1          1583.937
       347   03 Jun 2027 23:26:28.440   03 Jun 2027 23:26:46.370            17.930               Magadan2           560.312
       348   03 Jun 2027 23:27:08.489   03 Jun 2027 23:28:15.551            67.062                Norilsk          2095.687
       349   03 Jun 2027 23:28:32.992   03 Jun 2027 23:29:43.268            70.276              Murmansk2          2196.125
       350   03 Jun 2027 23:30:00.083   03 Jun 2027 23:32:30.503           150.420              Murmansk1          4700.625
       351   03 Jun 2027 23:45:37.010   03 Jun 2027 23:45:46.379             9.369                  Delhi           292.781
       352   03 Jun 2027 23:46:27.861   03 Jun 2027 23:47:30.004            62.143                  Delhi          1941.969
       353   04 Jun 2027 00:53:58.231   04 Jun 2027 00:54:20.371            22.140                Anadyr2           691.875
       354   04 Jun 2027 00:55:04.430   04 Jun 2027 00:55:44.261            39.831                Anadyr1          1244.719
       355   04 Jun 2027 00:56:37.898   04 Jun 2027 00:56:57.053            19.155                Anadyr2           598.594
       356   04 Jun 2027 00:59:39.942   04 Jun 2027 01:00:08.902            28.960                Anadyr1           905.000
       357   04 Jun 2027 01:00:28.986   04 Jun 2027 01:02:41.555           132.569               Magadan1          4142.781
       358   04 Jun 2027 01:03:14.549   04 Jun 2027 01:04:31.003            76.454              Murmansk2          2389.188
       359   04 Jun 2027 01:04:55.252   04 Jun 2027 01:06:07.483            72.231                Novosib          2257.219
       360   04 Jun 2027 01:11:04.431   04 Jun 2027 01:11:22.044            17.613              Murmansk1           550.406
       361   04 Jun 2027 01:12:54.873   04 Jun 2027 01:12:57.363             2.490              Murmansk2            77.812
       362   04 Jun 2027 01:13:00.570   04 Jun 2027 01:13:16.831            16.261                 Moscow           508.156
       363   04 Jun 2027 01:16:17.633   04 Jun 2027 01:16:33.867            16.234                 Moscow           507.313
       364   04 Jun 2027 01:19:46.554   04 Jun 2027 01:20:15.216            28.662                  Delhi           895.688
       365   04 Jun 2027 01:34:18.631   04 Jun 2027 01:35:38.390            79.759               CapeTown          2492.469
       366   04 Jun 2027 02:27:44.544   04 Jun 2027 02:29:07.849            83.305                Anadyr1          2603.281
       367   04 Jun 2027 02:30:24.726   04 Jun 2027 02:30:45.316            20.590                Anadyr2           643.438
       368   04 Jun 2027 02:31:45.126   04 Jun 2027 02:33:04.572            79.446               Magadan1          2482.688
       369   04 Jun 2027 02:34:26.886   04 Jun 2027 02:35:14.963            48.077               Magadan1          1502.406
       370   04 Jun 2027 02:39:09.067   04 Jun 2027 02:39:32.228            23.161              Murmansk2           723.781
       371   04 Jun 2027 02:39:45.322   04 Jun 2027 02:40:22.675            37.353              Murmansk1          1167.281
       372   04 Jun 2027 02:40:49.485   04 Jun 2027 02:41:29.288            39.803              Murmansk2          1243.844
       373   04 Jun 2027 02:42:18.855   04 Jun 2027 02:43:04.893            46.038                Novosib          1438.687
       374   04 Jun 2027 02:49:32.740   04 Jun 2027 02:50:19.961            47.221                 Moscow          1475.656
       375   04 Jun 2027 03:07:18.329   04 Jun 2027 03:09:02.071           103.742               CapeTown          3241.937
       376   04 Jun 2027 04:09:27.339   04 Jun 2027 04:09:46.109            18.770               Magadan2           586.563
       377   04 Jun 2027 04:09:46.109   04 Jun 2027 04:11:53.586           127.477               Magadan1          3983.656
       378   04 Jun 2027 04:11:58.706   04 Jun 2027 04:14:07.500           128.794                Anadyr1          4024.813
       379   04 Jun 2027 05:48:06.561   04 Jun 2027 05:49:15.542            68.981               Magadan2          2155.656
       380   04 Jun 2027 07:20:40.343   04 Jun 2027 07:20:56.293            15.950               Magadan2           498.438
       381   04 Jun 2027 07:21:09.632   04 Jun 2027 07:21:11.046             1.414               Magadan2            44.187
       382   04 Jun 2027 07:21:20.010   04 Jun 2027 07:21:26.723             6.713                Anadyr2           209.781
       383   04 Jun 2027 07:21:48.668   04 Jun 2027 07:22:23.686            35.018               Magadan1          1094.312
       384   04 Jun 2027 07:22:56.589   04 Jun 2027 07:23:14.323            17.734                Anadyr1           554.187
       385   04 Jun 2027 07:23:18.567   04 Jun 2027 07:23:19.969             1.402                Irkutsk            43.812
       386   04 Jun 2027 07:23:32.252   04 Jun 2027 07:24:09.377            37.125               Magadan1          1160.156
       387   04 Jun 2027 07:24:19.501   04 Jun 2027 07:25:05.533            46.032                Anadyr2          1438.500
       388   04 Jun 2027 07:25:05.533   04 Jun 2027 07:25:30.118            24.585                Anadyr1           768.281
       389   04 Jun 2027 07:25:31.933   04 Jun 2027 07:25:45.502            13.569                Irkutsk           424.031
       390   04 Jun 2027 07:25:48.446   04 Jun 2027 07:26:23.665            35.219               Magadan1          1100.594
       391   04 Jun 2027 07:26:43.836   04 Jun 2027 07:26:51.881             8.045                Irkutsk           251.406
       392   04 Jun 2027 07:28:45.318   04 Jun 2027 07:29:14.830            29.512                Norilsk           922.250
       393   04 Jun 2027 07:30:42.103   04 Jun 2027 07:30:42.429             0.326              Murmansk2            10.188
       394   04 Jun 2027 07:30:50.829   04 Jun 2027 07:31:07.651            16.822              Murmansk1           525.688
       395   04 Jun 2027 08:02:14.654   04 Jun 2027 08:02:40.181            25.527            RioGallegos           797.719
       396   04 Jun 2027 08:13:04.876   04 Jun 2027 08:13:32.735            27.859            RioGallegos           870.594
       397   04 Jun 2027 08:39:09.959   04 Jun 2027 08:39:14.556             4.597                Sumatra           143.656
       398   04 Jun 2027 08:42:19.274   04 Jun 2027 08:43:13.383            54.109                Sumatra          1690.906
       399   04 Jun 2027 08:57:41.199   04 Jun 2027 08:57:56.308            15.109               Magadan1           472.156
       400   04 Jun 2027 08:58:20.266   04 Jun 2027 08:58:35.196            14.930               Magadan1           466.562
       401   04 Jun 2027 08:59:21.764   04 Jun 2027 08:59:24.977             3.213                Irkutsk           100.406
       402   04 Jun 2027 08:59:30.586   04 Jun 2027 08:59:44.366            13.780                Irkutsk           430.625
       403   04 Jun 2027 08:59:57.583   04 Jun 2027 09:01:09.189            71.606                Irkutsk          2237.687
       404   04 Jun 2027 09:01:25.337   04 Jun 2027 09:02:14.596            49.259                Irkutsk          1539.344
       405   04 Jun 2027 09:02:28.093   04 Jun 2027 09:02:44.506            16.413                Irkutsk           512.906
       406   04 Jun 2027 09:03:48.088   04 Jun 2027 09:03:52.296             4.208                Novosib           131.500
       407   04 Jun 2027 09:38:26.958   04 Jun 2027 09:39:04.322            37.364            RioGallegos          1167.625
       408   04 Jun 2027 09:39:19.833   04 Jun 2027 09:39:48.960            29.127            RioGallegos           910.219
       409   04 Jun 2027 09:40:57.241   04 Jun 2027 09:41:10.938            13.697            RioGallegos           428.031
       410   04 Jun 2027 10:12:52.151   04 Jun 2027 10:13:14.377            22.226                Sumatra           694.563
       411   04 Jun 2027 10:15:46.625   04 Jun 2027 10:17:32.227           105.602                Sumatra          3300.063
       412   04 Jun 2027 10:36:38.220   04 Jun 2027 10:37:04.690            26.470                Irkutsk           827.188
       413   04 Jun 2027 10:37:26.483   04 Jun 2027 10:37:40.306            13.823                Novosib           431.969
       414   04 Jun 2027 10:37:52.754   04 Jun 2027 10:38:48.567            55.813                Novosib          1744.156
       415   04 Jun 2027 10:39:25.170   04 Jun 2027 10:39:36.344            11.174                Novosib           349.187
       416   04 Jun 2027 11:57:27.501   04 Jun 2027 11:59:09.007           101.506                  Delhi          3172.062
       417   04 Jun 2027 12:02:01.835   04 Jun 2027 12:02:40.697            38.862                  Delhi          1214.438
       418   04 Jun 2027 12:05:36.549   04 Jun 2027 12:06:08.452            31.903                Novosib           996.969
       419   04 Jun 2027 12:06:57.953   04 Jun 2027 12:07:21.799            23.846                Novosib           745.188
       420   04 Jun 2027 12:10:13.318   04 Jun 2027 12:10:37.693            24.375                Novosib           761.719
       421   04 Jun 2027 12:13:42.363   04 Jun 2027 12:14:50.032            67.669                Novosib          2114.656
       422   04 Jun 2027 13:41:22.719   04 Jun 2027 13:41:48.975            26.256                 Moscow           820.500
       423   04 Jun 2027 13:42:44.818   04 Jun 2027 13:43:32.641            47.823                 Moscow          1494.469
       424   04 Jun 2027 13:44:13.632   04 Jun 2027 13:45:34.879            81.247                 Moscow          2538.969
       425   04 Jun 2027 13:50:07.121   04 Jun 2027 13:52:38.263           151.142                Norilsk          4723.188
       426   04 Jun 2027 13:54:16.755   04 Jun 2027 13:54:31.814            15.059                Norilsk           470.594
       427   04 Jun 2027 14:55:24.669   04 Jun 2027 14:56:17.509            52.840               CapeTown          1651.250
       428   04 Jun 2027 14:57:12.233   04 Jun 2027 14:58:01.010            48.777               CapeTown          1524.281
       429   04 Jun 2027 15:00:08.165   04 Jun 2027 15:01:43.662            95.497               CapeTown          2984.281
       430   04 Jun 2027 15:20:54.446   04 Jun 2027 15:21:22.016            27.570                 Moscow           861.562
       431   04 Jun 2027 15:22:22.405   04 Jun 2027 15:22:32.760            10.355              Murmansk2           323.594
       432   04 Jun 2027 15:23:12.919   04 Jun 2027 15:23:17.191             4.272              Murmansk2           133.500
       433   04 Jun 2027 15:24:20.581   04 Jun 2027 15:24:39.286            18.705                 Moscow           584.531
       434   04 Jun 2027 15:26:04.949   04 Jun 2027 15:26:14.157             9.208              Murmansk2           287.750
       435   04 Jun 2027 15:26:25.787   04 Jun 2027 15:27:37.466            71.679              Murmansk1          2239.969
       436   04 Jun 2027 15:35:43.699   04 Jun 2027 15:38:13.141           149.442                Anadyr2          4670.063
       437   04 Jun 2027 15:44:14.682   04 Jun 2027 15:44:29.901            15.219                Anadyr2           475.594
       438   04 Jun 2027 15:45:47.046   04 Jun 2027 15:45:59.328            12.282                Anadyr1           383.812
       439   04 Jun 2027 16:39:37.770   04 Jun 2027 16:40:47.818            70.048               CapeTown          2189.000
       440   04 Jun 2027 17:02:20.378   04 Jun 2027 17:04:07.384           107.006              Murmansk2          3343.938
       441   04 Jun 2027 17:06:12.162   04 Jun 2027 17:06:57.423            45.261              Murmansk1          1414.406
       442   04 Jun 2027 17:11:24.642   04 Jun 2027 17:12:33.413            68.771                Anadyr1          2149.094
       443   04 Jun 2027 17:14:25.153   04 Jun 2027 17:16:40.953           135.800               Magadan1          4243.750
       444   04 Jun 2027 18:47:20.205   04 Jun 2027 18:51:14.992           234.787                Anadyr2          7337.094
       445   04 Jun 2027 18:51:17.902   04 Jun 2027 18:52:39.919            82.017               Magadan1          2563.031
       446   04 Jun 2027 18:52:39.919   04 Jun 2027 18:53:30.580            50.661               Magadan2          1583.156
       447   04 Jun 2027 19:01:59.270   04 Jun 2027 19:02:21.302            22.032               Magadan2           688.500
       448   04 Jun 2027 19:43:09.308   04 Jun 2027 19:45:56.899           167.591            RioGallegos          5237.219
       449   04 Jun 2027 19:49:23.175   04 Jun 2027 19:49:47.636            24.461            RioGallegos           764.406
       450   04 Jun 2027 20:23:07.858   04 Jun 2027 20:23:43.949            36.091                Anadyr1          1127.844
       451   04 Jun 2027 20:25:17.489   04 Jun 2027 20:27:32.123           134.634                Norilsk          4207.312
       452   04 Jun 2027 20:27:58.026   04 Jun 2027 20:28:35.874            37.848                Norilsk          1182.750
       453   04 Jun 2027 20:30:04.319   04 Jun 2027 20:30:20.478            16.159                Irkutsk           504.969
       454   04 Jun 2027 20:30:52.563   04 Jun 2027 20:31:27.056            34.493                Irkutsk          1077.906
       455   04 Jun 2027 20:33:21.465   04 Jun 2027 20:34:23.530            62.065                Irkutsk          1939.531
       456   04 Jun 2027 20:35:35.417   04 Jun 2027 20:36:30.093            54.676                Irkutsk          1708.625
       457   04 Jun 2027 20:45:18.247   04 Jun 2027 20:47:00.876           102.629                Sumatra          3207.156
       458   04 Jun 2027 20:47:05.588   04 Jun 2027 20:47:17.974            12.386                Sumatra           387.062
       459   04 Jun 2027 20:49:25.095   04 Jun 2027 20:50:22.041            56.946                Sumatra          1779.563
       460   04 Jun 2027 22:01:40.523   04 Jun 2027 22:02:19.493            38.970                Norilsk          1217.813
       461   04 Jun 2027 22:02:23.670   04 Jun 2027 22:02:59.034            35.364                Norilsk          1105.125
       462   04 Jun 2027 22:04:04.530   04 Jun 2027 22:04:20.475            15.945               Magadan2           498.281
       463   04 Jun 2027 22:04:41.054   04 Jun 2027 22:05:00.846            19.792               Magadan1           618.500
       464   04 Jun 2027 22:05:34.067   04 Jun 2027 22:08:59.242           205.175                Novosib          6411.719
       465   04 Jun 2027 22:15:00.781   04 Jun 2027 22:15:47.870            47.089                  Delhi          1471.531
       466   04 Jun 2027 22:21:49.211   04 Jun 2027 22:21:57.601             8.390                  Delhi           262.188
       467   04 Jun 2027 23:33:12.490   04 Jun 2027 23:34:35.567            83.077                Anadyr1          2596.156
       468   04 Jun 2027 23:37:05.049   04 Jun 2027 23:37:33.404            28.355                Norilsk           886.094
       469   04 Jun 2027 23:37:36.998   04 Jun 2027 23:38:56.591            79.593               Magadan1          2487.281
       470   04 Jun 2027 23:39:54.731   04 Jun 2027 23:41:43.142           108.411              Murmansk1          3387.844
       471   04 Jun 2027 23:42:28.475   04 Jun 2027 23:43:27.811            59.336              Murmansk2          1854.250
       472   04 Jun 2027 23:44:30.001   04 Jun 2027 23:45:48.432            78.431              Murmansk1          2450.969
       473   04 Jun 2027 23:56:51.110   04 Jun 2027 23:57:06.525            15.415                  Delhi           481.719
       474   04 Jun 2027 23:57:48.008   04 Jun 2027 23:58:02.000            13.992                  Delhi           437.250
       475   05 Jun 2027 00:32:22.381   05 Jun 2027 00:33:05.916            43.535            RioGallegos          1360.469
       476   05 Jun 2027 01:05:40.211   05 Jun 2027 01:06:40.844            60.633                Anadyr2          1894.781
       477   05 Jun 2027 01:07:05.253   05 Jun 2027 01:07:45.591            40.338                Anadyr2          1260.562
       478   05 Jun 2027 01:08:24.500   05 Jun 2027 01:08:53.247            28.747                Anadyr2           898.344
       479   05 Jun 2027 01:11:37.557   05 Jun 2027 01:12:28.747            51.190               Magadan1          1599.687
       480   05 Jun 2027 01:12:28.747   05 Jun 2027 01:13:28.454            59.707               Magadan2          1865.844
       481   05 Jun 2027 01:15:14.890   05 Jun 2027 01:17:28.367           133.477              Murmansk1          4171.156
       482   05 Jun 2027 01:18:39.806   05 Jun 2027 01:19:09.536            29.730                Irkutsk           929.062
