uniorb/output/strategy_4/Drop/Drop_KinoSat_112006.txt

KinoSat_112006
-------------------------
    Access    *     Start Time (UTCG)     *     Stop Time (UTCG)  *   Duration (s)        *       Station  *  Data (Mbytes)
         1   01 Jun 2027 04:26:20.805   01 Jun 2027 04:31:14.438           293.633                Irkutsk          9176.031
         2   01 Jun 2027 04:32:40.671   01 Jun 2027 04:33:20.533            39.862                  Delhi          1245.688
         3   01 Jun 2027 04:33:54.845   01 Jun 2027 04:34:10.522            15.677                Novosib           489.906
         4   01 Jun 2027 04:34:51.586   01 Jun 2027 04:36:00.988            69.402                  Delhi          2168.812
         5   01 Jun 2027 06:05:14.808   01 Jun 2027 06:07:14.644           119.836              Murmansk1          3744.875
         6   01 Jun 2027 06:07:14.644   01 Jun 2027 06:08:09.881            55.237              Murmansk2          1726.156
         7   01 Jun 2027 06:08:18.050   01 Jun 2027 06:09:43.925            85.875              Murmansk2          2683.594
         8   01 Jun 2027 06:09:59.453   01 Jun 2027 06:11:30.213            90.760                 Moscow          2836.250
         9   01 Jun 2027 06:24:52.501   01 Jun 2027 06:27:14.718           142.217               CapeTown          4444.281
        10   01 Jun 2027 06:28:01.537   01 Jun 2027 06:28:29.021            27.484               CapeTown           858.875
        11   01 Jun 2027 06:31:42.775   01 Jun 2027 06:32:18.737            35.962               CapeTown          1123.813
        12   01 Jun 2027 07:32:24.966   01 Jun 2027 07:33:31.445            66.479                Anadyr1          2077.469
        13   01 Jun 2027 07:40:35.179   01 Jun 2027 07:41:21.775            46.596                Norilsk          1456.125
        14   01 Jun 2027 07:41:33.132   01 Jun 2027 07:42:15.012            41.880                 Moscow          1308.750
        15   01 Jun 2027 07:42:18.725   01 Jun 2027 07:42:41.061            22.336              Murmansk1           698.000
        16   01 Jun 2027 07:42:41.061   01 Jun 2027 07:44:15.322            94.261              Murmansk2          2945.656
        17   01 Jun 2027 07:44:23.634   01 Jun 2027 07:45:18.032            54.398                 Moscow          1699.938
        18   01 Jun 2027 07:46:19.429   01 Jun 2027 07:47:20.890            61.461                 Moscow          1920.656
        19   01 Jun 2027 07:48:17.014   01 Jun 2027 07:48:48.662            31.648                 Moscow           989.000
        20   01 Jun 2027 08:01:46.814   01 Jun 2027 08:07:55.483           368.669               CapeTown         11520.906
        21   01 Jun 2027 09:05:32.338   01 Jun 2027 09:06:18.383            46.045                Norilsk          1438.906
        22   01 Jun 2027 09:06:39.508   01 Jun 2027 09:09:49.899           190.391               Magadan1          5949.719
        23   01 Jun 2027 09:09:58.172   01 Jun 2027 09:10:48.560            50.388              Murmansk2          1574.625
        24   01 Jun 2027 09:13:26.952   01 Jun 2027 09:14:25.011            58.059                Norilsk          1814.344
        25   01 Jun 2027 09:50:01.799   01 Jun 2027 09:50:26.495            24.696            RioGallegos           771.750
        26   01 Jun 2027 09:51:14.339   01 Jun 2027 09:51:35.484            21.145            RioGallegos           660.781
        27   01 Jun 2027 10:37:26.674   01 Jun 2027 10:45:25.723           479.049                Anadyr1         14970.281
        28   01 Jun 2027 12:12:55.351   01 Jun 2027 12:20:03.464           428.113               Magadan2         13378.531
        29   01 Jun 2027 14:36:08.549   01 Jun 2027 14:43:18.923           430.374            RioGallegos         13449.187
        30   01 Jun 2027 15:10:45.271   01 Jun 2027 15:15:07.499           262.228                Sumatra          8194.625
        31   01 Jun 2027 15:26:40.130   01 Jun 2027 15:30:13.610           213.480                Irkutsk          6671.250
        32   01 Jun 2027 17:06:12.463   01 Jun 2027 17:06:24.608            12.145                Novosib           379.531
        33   01 Jun 2027 20:19:01.810   01 Jun 2027 20:20:34.918            93.108              Murmansk1          2909.625
        34   01 Jun 2027 20:22:00.042   01 Jun 2027 20:24:37.734           157.692              Murmansk1          4927.875
        35   01 Jun 2027 20:25:24.453   01 Jun 2027 20:27:49.430           144.977              Murmansk2          4530.531
        36   01 Jun 2027 21:27:54.974   01 Jun 2027 21:32:34.406           279.432               CapeTown          8732.250
        37   02 Jun 2027 01:19:21.217   02 Jun 2027 01:19:22.009             0.792                Norilsk            24.750
        38   02 Jun 2027 01:19:57.555   02 Jun 2027 01:21:46.178           108.623               Magadan2          3394.469
        39   02 Jun 2027 01:23:12.843   02 Jun 2027 01:23:28.228            15.385               Magadan1           480.781
        40   02 Jun 2027 01:23:44.227   02 Jun 2027 01:25:17.908            93.681                Irkutsk          2927.531
        41   02 Jun 2027 01:26:47.180   02 Jun 2027 01:27:27.284            40.104                Novosib          1253.250
        42   02 Jun 2027 01:30:26.282   02 Jun 2027 01:31:02.913            36.631                Irkutsk          1144.719
        43   02 Jun 2027 01:37:05.109   02 Jun 2027 01:39:50.282           165.173                Sumatra          5161.656
        44   02 Jun 2027 02:11:18.262   02 Jun 2027 02:11:38.870            20.608            RioGallegos           644.000
        45   02 Jun 2027 02:15:01.603   02 Jun 2027 02:15:21.438            19.835            RioGallegos           619.844
        46   02 Jun 2027 02:16:53.172   02 Jun 2027 02:17:20.439            27.267            RioGallegos           852.094
        47   02 Jun 2027 02:23:38.209   02 Jun 2027 02:23:55.637            17.428            RioGallegos           544.625
        48   02 Jun 2027 02:54:54.357   02 Jun 2027 02:55:14.633            20.276                Anadyr2           633.625
        49   02 Jun 2027 02:55:21.557   02 Jun 2027 02:56:26.776            65.219                Norilsk          2038.094
        50   02 Jun 2027 02:56:56.666   02 Jun 2027 02:57:23.757            27.091                Norilsk           846.594
        51   02 Jun 2027 02:59:03.441   02 Jun 2027 03:00:01.799            58.358              Murmansk1          1823.687
        52   02 Jun 2027 03:00:19.390   02 Jun 2027 03:01:15.941            56.551               Magadan2          1767.219
        53   02 Jun 2027 03:01:15.941   02 Jun 2027 03:01:35.754            19.813               Magadan1           619.156
        54   02 Jun 2027 03:01:45.651   02 Jun 2027 03:02:32.596            46.945               Magadan1          1467.031
        55   02 Jun 2027 03:02:54.910   02 Jun 2027 03:04:31.450            96.540                Irkutsk          3016.875
        56   02 Jun 2027 03:04:49.105   02 Jun 2027 03:06:40.545           111.440                Novosib          3482.500
        57   02 Jun 2027 03:06:41.708   02 Jun 2027 03:08:56.092           134.384                  Delhi          4199.500
        58   02 Jun 2027 03:48:01.203   02 Jun 2027 03:49:15.786            74.583            RioGallegos          2330.719
        59   02 Jun 2027 03:49:52.929   02 Jun 2027 03:51:00.074            67.145            RioGallegos          2098.281
        60   02 Jun 2027 03:51:11.029   02 Jun 2027 03:52:37.200            86.171            RioGallegos          2692.844
        61   02 Jun 2027 04:38:04.690   02 Jun 2027 04:38:22.989            18.299                Novosib           571.844
        62   02 Jun 2027 04:38:50.638   02 Jun 2027 04:39:59.578            68.940                 Moscow          2154.375
        63   02 Jun 2027 04:40:00.073   02 Jun 2027 04:40:06.583             6.510                Norilsk           203.437
        64   02 Jun 2027 04:40:21.397   02 Jun 2027 04:41:17.903            56.506              Murmansk2          1765.813
        65   02 Jun 2027 04:41:20.393   02 Jun 2027 04:42:53.722            93.329                Irkutsk          2916.531
        66   02 Jun 2027 04:43:19.947   02 Jun 2027 04:48:53.080           333.133                  Delhi         10410.406
        67   02 Jun 2027 06:18:38.488   02 Jun 2027 06:20:48.246           129.758                 Moscow          4054.937
        68   02 Jun 2027 06:20:49.501   02 Jun 2027 06:22:00.449            70.948                 Moscow          2217.125
        69   02 Jun 2027 06:36:42.876   02 Jun 2027 06:39:43.119           180.243               CapeTown          5632.594
        70   02 Jun 2027 07:40:23.590   02 Jun 2027 07:40:57.853            34.263               Magadan1          1070.719
        71   02 Jun 2027 07:41:25.888   02 Jun 2027 07:41:48.369            22.481               Magadan2           702.531
        72   02 Jun 2027 08:14:27.747   02 Jun 2027 08:16:23.781           116.034               CapeTown          3626.062
        73   02 Jun 2027 08:20:16.418   02 Jun 2027 08:21:56.304            99.886               CapeTown          3121.438
        74   02 Jun 2027 09:12:33.001   02 Jun 2027 09:12:49.706            16.705                Anadyr1           522.031
        75   02 Jun 2027 09:17:21.407   02 Jun 2027 09:18:36.118            74.711                Anadyr2          2334.719
        76   02 Jun 2027 09:19:43.907   02 Jun 2027 09:21:03.935            80.028                Anadyr1          2500.875
        77   02 Jun 2027 09:21:25.713   02 Jun 2027 09:21:52.365            26.652               Magadan2           832.875
        78   02 Jun 2027 10:49:18.763   02 Jun 2027 10:50:21.237            62.474               Magadan2          1952.313
        79   02 Jun 2027 10:50:21.237   02 Jun 2027 10:50:47.561            26.324               Magadan1           822.625
        80   02 Jun 2027 10:51:52.616   02 Jun 2027 10:52:21.381            28.765               Magadan2           898.906
        81   02 Jun 2027 10:52:21.381   02 Jun 2027 10:55:23.427           182.046               Magadan1          5688.938
        82   02 Jun 2027 10:56:39.924   02 Jun 2027 10:56:50.956            11.032                Norilsk           344.750
        83   02 Jun 2027 10:56:56.215   02 Jun 2027 10:56:58.054             1.839                Irkutsk            57.469
        84   02 Jun 2027 10:57:05.158   02 Jun 2027 10:57:40.450            35.292               Magadan2          1102.875
        85   02 Jun 2027 11:32:54.205   02 Jun 2027 11:33:08.216            14.011            RioGallegos           437.844
        86   02 Jun 2027 11:35:08.576   02 Jun 2027 11:35:22.483            13.907            RioGallegos           434.594
        87   02 Jun 2027 11:37:30.839   02 Jun 2027 11:37:59.578            28.739            RioGallegos           898.094
        88   02 Jun 2027 12:11:18.071   02 Jun 2027 12:12:13.579            55.508                Sumatra          1734.625
        89   02 Jun 2027 12:20:53.631   02 Jun 2027 12:23:07.057           133.426                Irkutsk          4169.563
        90   02 Jun 2027 12:25:46.105   02 Jun 2027 12:26:01.298            15.193                Norilsk           474.781
        91   02 Jun 2027 12:27:39.130   02 Jun 2027 12:28:43.594            64.464                Norilsk          2014.500
        92   02 Jun 2027 12:31:31.830   02 Jun 2027 12:32:08.252            36.422               Magadan1          1138.187
        93   02 Jun 2027 13:09:06.260   02 Jun 2027 13:09:26.334            20.074            RioGallegos           627.312
        94   02 Jun 2027 13:11:24.225   02 Jun 2027 13:12:15.775            51.550            RioGallegos          1610.938
        95   02 Jun 2027 13:43:05.619   02 Jun 2027 13:45:19.669           134.050                Sumatra          4189.063
        96   02 Jun 2027 13:47:22.528   02 Jun 2027 13:48:18.139            55.611                Sumatra          1737.844
        97   02 Jun 2027 13:57:24.639   02 Jun 2027 13:57:47.916            23.277                Irkutsk           727.406
        98   02 Jun 2027 13:59:36.712   02 Jun 2027 14:00:40.633            63.921                Novosib          1997.531
        99   02 Jun 2027 14:03:08.501   02 Jun 2027 14:04:17.775            69.274                Norilsk          2164.813
       100   02 Jun 2027 14:08:51.605   02 Jun 2027 14:09:32.888            41.283                Norilsk          1290.094
       101   02 Jun 2027 14:48:48.613   02 Jun 2027 14:54:41.511           352.898            RioGallegos         11028.062
       102   02 Jun 2027 15:39:19.822   02 Jun 2027 15:39:44.072            24.250                Norilsk           757.812
       103   02 Jun 2027 15:42:47.498   02 Jun 2027 15:43:52.544            65.046                Norilsk          2032.688
       104   02 Jun 2027 17:11:41.668   02 Jun 2027 17:14:01.591           139.923                 Moscow          4372.594
       105   02 Jun 2027 17:16:14.387   02 Jun 2027 17:16:42.601            28.214              Murmansk2           881.688
       106   02 Jun 2027 17:19:16.922   02 Jun 2027 17:23:16.842           239.920                Norilsk          7497.500
       107   02 Jun 2027 17:23:50.711   02 Jun 2027 17:24:41.392            50.681                Norilsk          1583.781
       108   02 Jun 2027 18:49:09.558   02 Jun 2027 18:50:17.608            68.050                 Moscow          2126.562
       109   02 Jun 2027 18:52:15.869   02 Jun 2027 18:53:13.227            57.358              Murmansk2          1792.438
       110   02 Jun 2027 18:54:00.021   02 Jun 2027 18:54:33.812            33.791                 Moscow          1055.969
       111   02 Jun 2027 18:55:54.880   02 Jun 2027 18:56:58.189            63.309              Murmansk1          1978.406
       112   02 Jun 2027 19:01:25.111   02 Jun 2027 19:02:12.713            47.602              Murmansk1          1487.562
       113   02 Jun 2027 19:12:48.150   02 Jun 2027 19:13:03.862            15.712                Anadyr2           491.000
       114   02 Jun 2027 20:01:13.335   02 Jun 2027 20:02:33.766            80.431               CapeTown          2513.469
       115   02 Jun 2027 20:04:09.951   02 Jun 2027 20:05:33.752            83.801               CapeTown          2618.781
       116   02 Jun 2027 20:09:07.485   02 Jun 2027 20:09:47.711            40.226               CapeTown          1257.062
       117   02 Jun 2027 20:31:39.613   02 Jun 2027 20:39:46.756           487.143              Murmansk1         15223.219
       118   02 Jun 2027 22:17:40.730   02 Jun 2027 22:18:07.832            27.102                Anadyr1           846.937
       119   02 Jun 2027 22:18:27.534   02 Jun 2027 22:18:57.855            30.321                Anadyr1           947.531
       120   02 Jun 2027 22:19:26.904   02 Jun 2027 22:19:37.313            10.409                Anadyr1           325.281
       121   02 Jun 2027 22:20:00.393   02 Jun 2027 22:21:44.987           104.594               Magadan2          3268.563
       122   02 Jun 2027 22:21:50.606   02 Jun 2027 22:22:32.878            42.272               Magadan1          1321.000
       123   02 Jun 2027 22:22:44.539   02 Jun 2027 22:23:14.314            29.775               Magadan2           930.469
       124   02 Jun 2027 22:28:03.121   02 Jun 2027 22:28:11.821             8.700               Magadan1           271.875
       125   02 Jun 2027 22:28:40.473   02 Jun 2027 22:28:40.988             0.515               Magadan1            16.094
       126   02 Jun 2027 22:29:25.131   02 Jun 2027 22:29:34.438             9.307               Magadan2           290.844
       127   02 Jun 2027 23:14:53.662   02 Jun 2027 23:16:44.437           110.775            RioGallegos          3461.719
       128   02 Jun 2027 23:53:32.428   02 Jun 2027 23:55:06.776            94.348                Anadyr2          2948.375
       129   02 Jun 2027 23:55:10.499   02 Jun 2027 23:55:44.141            33.642                Anadyr1          1051.313
       130   02 Jun 2027 23:55:53.650   02 Jun 2027 23:58:01.755           128.105               Magadan2          4003.281
       131   02 Jun 2027 23:58:19.902   02 Jun 2027 23:59:17.360            57.458               Magadan1          1795.562
       132   02 Jun 2027 23:59:23.892   02 Jun 2027 23:59:37.131            13.239               Magadan1           413.719
       133   03 Jun 2027 00:00:30.771   03 Jun 2027 00:00:50.162            19.391               Magadan1           605.969
       134   03 Jun 2027 00:00:53.875   03 Jun 2027 00:01:29.687            35.812                Irkutsk          1119.125
       135   03 Jun 2027 00:02:00.910   03 Jun 2027 00:02:33.864            32.954                Irkutsk          1029.813
       136   03 Jun 2027 00:04:23.162   03 Jun 2027 00:05:08.370            45.208                Irkutsk          1412.750
       137   03 Jun 2027 00:16:31.068   03 Jun 2027 00:18:15.024           103.956                Sumatra          3248.625
       138   03 Jun 2027 00:21:12.042   03 Jun 2027 00:23:20.570           128.528                Sumatra          4016.500
       139   03 Jun 2027 01:28:55.165   03 Jun 2027 01:29:45.688            50.523                Anadyr1          1578.844
       140   03 Jun 2027 01:30:25.762   03 Jun 2027 01:31:40.920            75.158                Anadyr2          2348.687
       141   03 Jun 2027 01:32:00.963   03 Jun 2027 01:33:45.465           104.502               Magadan2          3265.687
       142   03 Jun 2027 01:34:06.599   03 Jun 2027 01:34:30.698            24.099               Magadan1           753.094
       143   03 Jun 2027 01:35:21.289   03 Jun 2027 01:36:59.596            98.307                Irkutsk          3072.094
       144   03 Jun 2027 01:38:31.497   03 Jun 2027 01:38:50.259            18.762                Irkutsk           586.313
       145   03 Jun 2027 01:40:51.938   03 Jun 2027 01:42:04.439            72.501                Novosib          2265.656
       146   03 Jun 2027 01:49:07.565   03 Jun 2027 01:50:41.165            93.600                Sumatra          2925.000
       147   03 Jun 2027 01:52:14.296   03 Jun 2027 01:53:32.720            78.424                Sumatra          2450.750
       148   03 Jun 2027 02:29:10.723   03 Jun 2027 02:29:38.108            27.385            RioGallegos           855.781
       149   03 Jun 2027 02:32:33.141   03 Jun 2027 02:33:00.435            27.294            RioGallegos           852.937
       150   03 Jun 2027 03:09:19.484   03 Jun 2027 03:09:53.296            33.812                Anadyr1          1056.625
       151   03 Jun 2027 03:11:30.454   03 Jun 2027 03:13:32.848           122.394               Magadan1          3824.813
       152   03 Jun 2027 03:13:32.848   03 Jun 2027 03:14:00.086            27.238               Magadan2           851.187
       153   03 Jun 2027 03:15:05.536   03 Jun 2027 03:15:12.888             7.352                Norilsk           229.750
       154   03 Jun 2027 03:15:42.189   03 Jun 2027 03:15:46.616             4.427                Irkutsk           138.344
       155   03 Jun 2027 03:15:49.332   03 Jun 2027 03:16:03.880            14.548                Novosib           454.625
       156   03 Jun 2027 03:16:15.514   03 Jun 2027 03:16:17.599             2.085                Norilsk            65.156
       157   03 Jun 2027 03:16:51.231   03 Jun 2027 03:17:00.121             8.890                Norilsk           277.813
       158   03 Jun 2027 03:17:08.955   03 Jun 2027 03:18:08.049            59.094                Novosib          1846.687
       159   03 Jun 2027 03:18:17.299   03 Jun 2027 03:18:26.213             8.914                Novosib           278.563
       160   03 Jun 2027 03:18:36.213   03 Jun 2027 03:25:36.579           420.366                  Delhi         13136.438
       161   03 Jun 2027 04:00:15.934   03 Jun 2027 04:00:59.043            43.109            RioGallegos          1347.156
       162   03 Jun 2027 04:03:16.528   03 Jun 2027 04:05:06.029           109.501            RioGallegos          3421.906
       163   03 Jun 2027 04:48:19.432   03 Jun 2027 04:48:26.160             6.728                Novosib           210.250
       164   03 Jun 2027 04:48:31.443   03 Jun 2027 04:48:52.537            21.094                Irkutsk           659.187
       165   03 Jun 2027 04:51:25.402   03 Jun 2027 04:54:51.908           206.506                Irkutsk          6453.312
       166   03 Jun 2027 04:55:49.080   03 Jun 2027 05:02:52.867           423.787                  Delhi         13243.344
       167   03 Jun 2027 05:04:19.236   03 Jun 2027 05:04:34.295            15.059                  Delhi           470.594
       168   03 Jun 2027 06:29:41.144   03 Jun 2027 06:30:32.893            51.749                 Moscow          1617.156
       169   03 Jun 2027 06:30:43.701   03 Jun 2027 06:31:10.810            27.109                 Moscow           847.156
       170   03 Jun 2027 06:31:22.343   03 Jun 2027 06:31:52.742            30.399              Murmansk1           949.969
       171   03 Jun 2027 06:35:40.002   03 Jun 2027 06:36:20.647            40.645                 Moscow          1270.156
       172   03 Jun 2027 06:48:38.351   03 Jun 2027 06:49:41.732            63.381               CapeTown          1980.656
       173   03 Jun 2027 06:51:50.314   03 Jun 2027 06:52:20.791            30.477               CapeTown           952.406
       174   03 Jun 2027 07:51:54.953   03 Jun 2027 07:52:37.137            42.184                Anadyr2          1318.250
       175   03 Jun 2027 07:52:37.137   03 Jun 2027 07:52:37.953             0.816                Anadyr1            25.500
       176   03 Jun 2027 07:52:49.290   03 Jun 2027 07:53:41.462            52.172                Anadyr1          1630.375
       177   03 Jun 2027 07:56:27.386   03 Jun 2027 07:57:36.590            69.204                Anadyr2          2162.625
       178   03 Jun 2027 08:33:57.614   03 Jun 2027 08:35:07.590            69.976               CapeTown          2186.750
       179   03 Jun 2027 09:27:33.405   03 Jun 2027 09:28:06.927            33.522                Anadyr1          1047.562
       180   03 Jun 2027 09:28:14.417   03 Jun 2027 09:29:03.446            49.029               Magadan1          1532.156
       181   03 Jun 2027 09:29:50.222   03 Jun 2027 09:30:16.363            26.141               Magadan1           816.906
       182   03 Jun 2027 09:30:35.252   03 Jun 2027 09:32:03.582            88.330               Magadan1          2760.313
       183   03 Jun 2027 11:02:49.834   03 Jun 2027 11:03:23.934            34.100               Magadan1          1065.625
       184   03 Jun 2027 11:03:42.345   03 Jun 2027 11:03:50.536             8.191               Magadan1           255.969
       185   03 Jun 2027 11:07:02.927   03 Jun 2027 11:07:26.540            23.613                Norilsk           737.906
       186   03 Jun 2027 11:07:28.714   03 Jun 2027 11:07:39.226            10.512                Norilsk           328.500
       187   03 Jun 2027 11:07:43.910   03 Jun 2027 11:08:27.665            43.755                Irkutsk          1367.344
       188   03 Jun 2027 11:08:41.786   03 Jun 2027 11:08:42.550             0.764                Norilsk            23.875
       189   03 Jun 2027 11:08:52.310   03 Jun 2027 11:09:04.746            12.436                Norilsk           388.625
       190   03 Jun 2027 11:09:18.144   03 Jun 2027 11:09:50.581            32.437                Norilsk          1013.656
       191   03 Jun 2027 11:44:41.610   03 Jun 2027 11:45:34.618            53.008            RioGallegos          1656.500
       192   03 Jun 2027 12:21:55.443   03 Jun 2027 12:23:49.129           113.686                Sumatra          3552.688
       193   03 Jun 2027 12:32:48.206   03 Jun 2027 12:34:09.791            81.585                Irkutsk          2549.531
       194   03 Jun 2027 12:35:05.483   03 Jun 2027 12:35:24.643            19.160                Irkutsk           598.750
       195   03 Jun 2027 12:39:09.290   03 Jun 2027 12:43:30.180           260.890               Magadan2          8152.813
       196   03 Jun 2027 13:55:10.959   03 Jun 2027 13:58:12.128           181.169                Sumatra          5661.531
       197   03 Jun 2027 14:09:48.039   03 Jun 2027 14:10:42.108            54.069                Irkutsk          1689.656
       198   03 Jun 2027 14:15:03.843   03 Jun 2027 14:15:04.382             0.539                Irkutsk            16.844
       199   03 Jun 2027 14:16:53.511   03 Jun 2027 14:16:58.485             4.974                Norilsk           155.438
       200   03 Jun 2027 14:17:59.909   03 Jun 2027 14:19:44.321           104.412                Irkutsk          3262.875
       201   03 Jun 2027 15:02:35.266   03 Jun 2027 15:05:28.493           173.227            RioGallegos          5413.344
       202   03 Jun 2027 15:39:41.853   03 Jun 2027 15:40:31.979            50.126                  Delhi          1566.437
       203   03 Jun 2027 15:47:45.334   03 Jun 2027 15:52:26.555           281.221                Novosib          8788.156
       204   03 Jun 2027 17:25:45.472   03 Jun 2027 17:27:02.042            76.570                 Moscow          2392.812
       205   03 Jun 2027 17:28:44.755   03 Jun 2027 17:29:22.681            37.926              Murmansk2          1185.188
       206   03 Jun 2027 17:32:03.796   03 Jun 2027 17:35:18.256           194.460                Norilsk          6076.875
       207   03 Jun 2027 17:35:22.521   03 Jun 2027 17:35:49.001            26.480                Norilsk           827.500
       208   03 Jun 2027 17:37:03.065   03 Jun 2027 17:38:05.101            62.036                Norilsk          1938.625
       209   03 Jun 2027 19:01:41.105   03 Jun 2027 19:03:35.196           114.091                 Moscow          3565.344
       210   03 Jun 2027 19:04:35.341   03 Jun 2027 19:05:44.219            68.878              Murmansk2          2152.437
       211   03 Jun 2027 19:06:30.696   03 Jun 2027 19:06:50.461            19.765              Murmansk2           617.656
       212   03 Jun 2027 19:08:57.020   03 Jun 2027 19:10:25.003            87.983              Murmansk1          2749.469
       213   03 Jun 2027 20:13:22.220   03 Jun 2027 20:15:58.203           155.983               CapeTown          4874.469
       214   03 Jun 2027 20:21:30.455   03 Jun 2027 20:22:56.514            86.059               CapeTown          2689.344
       215   03 Jun 2027 20:44:21.180   03 Jun 2027 20:51:42.431           441.251              Murmansk2         13789.094
       216   03 Jun 2027 22:29:42.580   03 Jun 2027 22:30:13.622            31.042                Anadyr1           970.062
       217   03 Jun 2027 22:30:21.981   03 Jun 2027 22:30:51.042            29.061                Anadyr1           908.156
       218   03 Jun 2027 22:32:00.258   03 Jun 2027 22:33:50.249           109.991               Magadan1          3437.219
       219   03 Jun 2027 22:34:20.445   03 Jun 2027 22:34:58.172            37.727               Magadan1          1178.969
       220   03 Jun 2027 22:35:47.135   03 Jun 2027 22:35:56.202             9.067               Magadan1           283.344
       221   03 Jun 2027 22:40:05.791   03 Jun 2027 22:40:12.511             6.720               Magadan2           210.000
       222   03 Jun 2027 22:40:31.853   03 Jun 2027 22:41:14.566            42.713               Magadan2          1334.781
       223   03 Jun 2027 23:25:44.389   03 Jun 2027 23:27:58.295           133.906            RioGallegos          4184.563
       224   03 Jun 2027 23:28:05.379   03 Jun 2027 23:28:24.353            18.974            RioGallegos           592.938
       225   04 Jun 2027 00:05:32.262   04 Jun 2027 00:07:20.916           108.654                Anadyr1          3395.438
       226   04 Jun 2027 00:07:37.283   04 Jun 2027 00:09:28.626           111.343                Norilsk          3479.469
       227   04 Jun 2027 00:09:49.861   04 Jun 2027 00:10:53.785            63.924               Magadan1          1997.625
       228   04 Jun 2027 00:12:18.241   04 Jun 2027 00:12:30.616            12.375               Magadan1           386.719
       229   04 Jun 2027 00:12:31.431   04 Jun 2027 00:13:27.434            56.003                Irkutsk          1750.094
       230   04 Jun 2027 00:14:34.949   04 Jun 2027 00:15:02.734            27.785                Irkutsk           868.281
       231   04 Jun 2027 00:16:58.219   04 Jun 2027 00:17:08.671            10.452                Irkutsk           326.625
       232   04 Jun 2027 00:17:50.079   04 Jun 2027 00:18:06.160            16.081                Irkutsk           502.531
       233   04 Jun 2027 00:27:26.738   04 Jun 2027 00:29:49.009           142.271                Sumatra          4445.969
       234   04 Jun 2027 00:59:31.394   04 Jun 2027 00:59:37.518             6.124            RioGallegos           191.375
       235   04 Jun 2027 01:00:37.504   04 Jun 2027 01:00:52.628            15.124            RioGallegos           472.625
       236   04 Jun 2027 01:02:33.608   04 Jun 2027 01:03:19.946            46.338            RioGallegos          1448.063
       237   04 Jun 2027 01:07:42.824   04 Jun 2027 01:07:52.106             9.282            RioGallegos           290.062
       238   04 Jun 2027 01:09:18.314   04 Jun 2027 01:10:25.957            67.643            RioGallegos          2113.844
       239   04 Jun 2027 01:40:48.711   04 Jun 2027 01:40:58.433             9.722                Anadyr1           303.813
       240   04 Jun 2027 01:42:58.724   04 Jun 2027 01:43:27.169            28.445                Anadyr1           888.906
       241   04 Jun 2027 01:43:42.176   04 Jun 2027 01:43:56.101            13.925                Anadyr1           435.156
       242   04 Jun 2027 01:44:04.351   04 Jun 2027 01:44:31.623            27.272               Magadan1           852.250
       243   04 Jun 2027 01:44:34.870   04 Jun 2027 01:45:29.043            54.173                Norilsk          1692.906
       244   04 Jun 2027 01:45:33.904   04 Jun 2027 01:45:58.973            25.069               Magadan1           783.406
       245   04 Jun 2027 01:47:20.720   04 Jun 2027 01:50:18.967           178.247                Irkutsk          5570.219
       246   04 Jun 2027 01:54:43.286   04 Jun 2027 01:54:59.004            15.718                Irkutsk           491.188
       247   04 Jun 2027 01:57:48.945   04 Jun 2027 01:58:49.296            60.351                  Delhi          1885.969
       248   04 Jun 2027 02:01:15.854   04 Jun 2027 02:04:08.495           172.641                Sumatra          5395.031
       249   04 Jun 2027 02:09:16.693   04 Jun 2027 02:11:58.458           161.765                Sumatra          5055.156
       250   04 Jun 2027 03:23:32.947   04 Jun 2027 03:25:27.380           114.433               Magadan1          3576.031
       251   04 Jun 2027 03:28:32.713   04 Jun 2027 03:29:28.300            55.587                Irkutsk          1737.094
       252   04 Jun 2027 03:30:09.865   04 Jun 2027 03:32:08.665           118.800                Norilsk          3712.500
       253   04 Jun 2027 03:33:44.857   04 Jun 2027 03:34:42.847            57.990                Novosib          1812.187
       254   04 Jun 2027 03:35:29.474   04 Jun 2027 03:37:29.274           119.800                  Delhi          3743.750
       255   04 Jun 2027 04:12:34.131   04 Jun 2027 04:17:56.663           322.532            RioGallegos         10079.125
       256   04 Jun 2027 05:00:56.122   04 Jun 2027 05:01:08.242            12.120                Irkutsk           378.750
       257   04 Jun 2027 05:03:00.528   04 Jun 2027 05:04:01.323            60.795                Irkutsk          1899.844
       258   04 Jun 2027 05:04:18.724   04 Jun 2027 05:05:56.967            98.243                Irkutsk          3070.094
       259   04 Jun 2027 05:06:34.768   04 Jun 2027 05:06:45.522            10.754                 Moscow           336.062
       260   04 Jun 2027 05:06:55.922   04 Jun 2027 05:07:08.429            12.507                 Moscow           390.844
       261   04 Jun 2027 05:07:20.493   04 Jun 2027 05:08:25.201            64.708                 Moscow          2022.125
       262   04 Jun 2027 05:08:30.103   04 Jun 2027 05:15:34.947           424.844                  Delhi         13276.375
       263   04 Jun 2027 06:41:56.804   04 Jun 2027 06:42:29.026            32.222              Murmansk2          1006.938
       264   04 Jun 2027 06:42:39.115   04 Jun 2027 06:43:53.946            74.831                 Moscow          2338.469
       265   04 Jun 2027 06:47:44.147   04 Jun 2027 06:47:47.850             3.703                 Moscow           115.719
       266   04 Jun 2027 07:00:38.871   04 Jun 2027 07:01:30.911            52.040               CapeTown          1626.250
       267   04 Jun 2027 07:03:52.286   04 Jun 2027 07:04:20.604            28.318               CapeTown           884.938
       268   04 Jun 2027 07:07:34.820   04 Jun 2027 07:09:46.934           132.114               CapeTown          4128.563
       269   04 Jun 2027 08:03:48.286   04 Jun 2027 08:04:38.617            50.331                Anadyr2          1572.844
       270   04 Jun 2027 08:05:04.620   04 Jun 2027 08:05:11.604             6.984               Magadan1           218.250
       271   04 Jun 2027 08:05:15.572   04 Jun 2027 08:05:19.617             4.045                Anadyr1           126.406
       272   04 Jun 2027 08:05:32.797   04 Jun 2027 08:05:34.120             1.323               Magadan2            41.344
       273   04 Jun 2027 08:05:56.761   04 Jun 2027 08:06:17.926            21.165                Anadyr2           661.406
       274   04 Jun 2027 08:07:01.105   04 Jun 2027 08:07:04.084             2.979                Anadyr2            93.094
       275   04 Jun 2027 08:07:37.665   04 Jun 2027 08:07:46.369             8.704               Magadan1           272.000
       276   04 Jun 2027 08:08:28.164   04 Jun 2027 08:09:51.418            83.254                Anadyr2          2601.687
       277   04 Jun 2027 09:40:04.963   04 Jun 2027 09:41:00.450            55.487                Anadyr1          1733.969
       278   04 Jun 2027 09:41:16.394   04 Jun 2027 09:41:45.671            29.277               Magadan1           914.906
       279   04 Jun 2027 09:41:46.454   04 Jun 2027 09:42:36.781            50.327               Magadan2          1572.719
       280   04 Jun 2027 09:44:03.480   04 Jun 2027 09:45:11.973            68.493               Magadan1          2140.406
       281   04 Jun 2027 11:12:03.561   04 Jun 2027 11:15:42.401           218.840               Magadan2          6838.750
       282   04 Jun 2027 11:16:51.992   04 Jun 2027 11:19:03.632           131.640               Magadan2          4113.750
       283   04 Jun 2027 11:19:03.632   04 Jun 2027 11:20:10.593            66.961               Magadan1          2092.531
       284   04 Jun 2027 11:20:43.761   04 Jun 2027 11:20:53.393             9.632                Norilsk           301.000
       285   04 Jun 2027 11:20:57.886   04 Jun 2027 11:21:35.136            37.250               Magadan2          1164.062
       286   04 Jun 2027 11:56:32.268   04 Jun 2027 11:57:46.721            74.453            RioGallegos          2326.656
       287   04 Jun 2027 12:33:02.928   04 Jun 2027 12:34:47.100           104.172                Sumatra          3255.375
       288   04 Jun 2027 12:44:45.935   04 Jun 2027 12:46:08.477            82.542                Irkutsk          2579.437
       289   04 Jun 2027 12:46:49.391   04 Jun 2027 12:47:46.609            57.218                Irkutsk          1788.063
       290   04 Jun 2027 12:51:57.204   04 Jun 2027 12:53:03.648            66.444                Irkutsk          2076.375
       291   04 Jun 2027 13:33:00.726   04 Jun 2027 13:33:26.404            25.678            RioGallegos           802.438
       292   04 Jun 2027 13:35:14.889   04 Jun 2027 13:38:03.003           168.114            RioGallegos          5253.563
       293   04 Jun 2027 14:07:22.323   04 Jun 2027 14:07:59.486            37.163                Sumatra          1161.344
       294   04 Jun 2027 14:22:16.533   04 Jun 2027 14:23:53.484            96.951                Irkutsk          3029.719
       295   04 Jun 2027 14:25:31.834   04 Jun 2027 14:25:42.793            10.959                Novosib           342.469
       296   04 Jun 2027 14:26:00.312   04 Jun 2027 14:26:08.778             8.466                Norilsk           264.562
       297   04 Jun 2027 14:26:33.808   04 Jun 2027 14:27:13.109            39.301                Norilsk          1228.156
       298   04 Jun 2027 14:28:44.007   04 Jun 2027 14:29:19.997            35.990                Irkutsk          1124.687
       299   04 Jun 2027 14:31:20.934   04 Jun 2027 14:32:56.486            95.552                Irkutsk          2986.000
       300   04 Jun 2027 15:52:03.909   04 Jun 2027 15:54:13.337           129.428                  Delhi          4044.625
       301   04 Jun 2027 15:56:58.877   04 Jun 2027 15:57:35.107            36.230                  Delhi          1132.187
       302   04 Jun 2027 15:58:13.370   04 Jun 2027 16:02:01.263           227.893                  Delhi          7121.656
       303   04 Jun 2027 16:09:56.774   04 Jun 2027 16:09:56.784             0.010                Norilsk             0.312
       304   04 Jun 2027 16:13:37.113   04 Jun 2027 16:14:34.337            57.224                Norilsk          1788.250
       305   04 Jun 2027 17:35:48.397   04 Jun 2027 17:37:02.114            73.717                 Moscow          2303.656
       306   04 Jun 2027 17:39:03.176   04 Jun 2027 17:39:37.390            34.214                 Moscow          1069.187
       307   04 Jun 2027 17:40:09.774   04 Jun 2027 17:40:46.845            37.071              Murmansk2          1158.469
       308   04 Jun 2027 17:44:56.490   04 Jun 2027 17:49:55.172           298.682                Norilsk          9333.812
       309   04 Jun 2027 19:14:18.584   04 Jun 2027 19:20:26.660           368.076                 Moscow         11502.375
       310   04 Jun 2027 20:27:10.782   04 Jun 2027 20:29:41.568           150.786               CapeTown          4712.063
       311   04 Jun 2027 20:57:07.268   04 Jun 2027 21:03:35.685           388.417              Murmansk2         12138.031
       312   04 Jun 2027 22:41:44.328   04 Jun 2027 22:43:37.379           113.051                Anadyr1          3532.844
       313   04 Jun 2027 22:44:00.707   04 Jun 2027 22:45:24.273            83.566               Magadan2          2611.437
       314   04 Jun 2027 22:45:24.273   04 Jun 2027 22:46:05.930            41.657               Magadan1          1301.781
       315   04 Jun 2027 22:46:29.062   04 Jun 2027 22:47:08.865            39.803               Magadan2          1243.844
       316   04 Jun 2027 22:47:37.891   04 Jun 2027 22:47:45.298             7.407               Magadan1           231.469
       317   04 Jun 2027 22:48:40.263   04 Jun 2027 22:49:05.530            25.267               Magadan1           789.594
       318   04 Jun 2027 22:49:27.937   04 Jun 2027 22:49:42.569            14.632               Magadan2           457.250
       319   04 Jun 2027 22:51:40.127   04 Jun 2027 22:51:55.476            15.349               Magadan2           479.656
       320   04 Jun 2027 22:52:20.558   04 Jun 2027 22:53:02.734            42.176               Magadan1          1318.000
       321   04 Jun 2027 23:37:07.897   04 Jun 2027 23:39:24.054           136.157            RioGallegos          4254.906
       322   04 Jun 2027 23:43:35.120   04 Jun 2027 23:44:27.505            52.385            RioGallegos          1637.031
       323   05 Jun 2027 00:17:31.599   05 Jun 2027 00:18:55.371            83.772                Anadyr1          2617.875
       324   05 Jun 2027 00:19:35.816   05 Jun 2027 00:21:13.108            97.292                Norilsk          3040.375
       325   05 Jun 2027 00:21:18.827   05 Jun 2027 00:22:37.090            78.263               Magadan2          2445.719
       326   05 Jun 2027 00:24:15.303   05 Jun 2027 00:25:26.394            71.091                Irkutsk          2221.594
       327   05 Jun 2027 00:26:32.843   05 Jun 2027 00:28:34.148           121.305                Irkutsk          3790.781
       328   05 Jun 2027 00:39:18.289   05 Jun 2027 00:40:02.706            44.417                Sumatra          1388.031
       329   05 Jun 2027 00:43:40.836   05 Jun 2027 00:44:00.138            19.302                Sumatra           603.188
       330   05 Jun 2027 00:47:44.023   05 Jun 2027 00:47:51.446             7.423                Sumatra           231.969
       331   05 Jun 2027 00:48:57.276   05 Jun 2027 00:48:59.789             2.513                Sumatra            78.531
       332   05 Jun 2027 01:11:29.502   05 Jun 2027 01:11:45.772            16.270            RioGallegos           508.438
       333   05 Jun 2027 01:13:00.260   05 Jun 2027 01:13:31.081            30.821            RioGallegos           963.156
       334   05 Jun 2027 01:18:38.901   05 Jun 2027 01:19:07.499            28.598            RioGallegos           893.687
       335   05 Jun 2027 01:21:03.106   05 Jun 2027 01:21:27.605            24.499            RioGallegos           765.594
       336   05 Jun 2027 01:24:01.576   05 Jun 2027 01:24:12.409            10.833            RioGallegos           338.531
       337   05 Jun 2027 01:52:41.051   05 Jun 2027 01:53:35.629            54.578                Anadyr1          1705.562
       338   05 Jun 2027 01:54:31.058   05 Jun 2027 01:54:58.179            27.121                Anadyr2           847.531
       339   05 Jun 2027 01:55:27.421   05 Jun 2027 01:56:40.560            73.139                Norilsk          2285.594
       340   05 Jun 2027 01:57:00.871   05 Jun 2027 01:57:27.585            26.714                Norilsk           834.813
       341   05 Jun 2027 01:58:49.197   05 Jun 2027 01:58:52.227             3.030                Norilsk            94.687
       342   05 Jun 2027 01:59:02.942   05 Jun 2027 01:59:24.587            21.645                Norilsk           676.406
       343   05 Jun 2027 01:59:49.509   05 Jun 2027 02:01:47.445           117.936                Novosib          3685.500
       344   05 Jun 2027 02:03:17.262   05 Jun 2027 02:03:17.306             0.044                Irkutsk             1.375
       345   05 Jun 2027 02:04:33.683   05 Jun 2027 02:05:16.337            42.654                Novosib          1332.938
       346   05 Jun 2027 02:08:48.121   05 Jun 2027 02:09:18.919            30.798                  Delhi           962.438
       347   05 Jun 2027 02:12:05.617   05 Jun 2027 02:12:28.182            22.565                  Delhi           705.156
       348   05 Jun 2027 02:13:30.477   05 Jun 2027 02:14:45.306            74.829                Sumatra          2338.406
       349   05 Jun 2027 02:15:56.614   05 Jun 2027 02:18:37.679           161.065                Sumatra          5033.281
       350   05 Jun 2027 02:54:32.824   05 Jun 2027 02:54:53.753            20.929            RioGallegos           654.031
       351   05 Jun 2027 03:35:51.076   05 Jun 2027 03:36:54.965            63.889               Magadan2          1996.531
       352   05 Jun 2027 03:40:06.475   05 Jun 2027 03:41:12.042            65.567                Norilsk          2048.969
       353   05 Jun 2027 03:41:20.151   05 Jun 2027 03:44:51.060           210.909                Novosib          6590.906
       354   05 Jun 2027 03:44:57.789   05 Jun 2027 03:45:47.066            49.277                  Delhi          1539.906
       355   05 Jun 2027 03:46:17.580   05 Jun 2027 03:46:34.599            17.019                Irkutsk           531.844
       356   05 Jun 2027 03:46:46.283   05 Jun 2027 03:49:16.385           150.102                  Delhi          4690.687
       357   05 Jun 2027 03:53:59.774   05 Jun 2027 03:55:18.636            78.862                  Delhi          2464.437
       358   05 Jun 2027 04:24:57.970   05 Jun 2027 04:30:32.089           334.119            RioGallegos         10441.219
       359   05 Jun 2027 05:13:34.967   05 Jun 2027 05:14:38.917            63.950                Irkutsk          1998.437
       360   05 Jun 2027 05:15:34.855   05 Jun 2027 05:16:45.678            70.823                Irkutsk          2213.219
       361   05 Jun 2027 05:17:23.125   05 Jun 2027 05:19:00.199            97.074                Novosib          3033.563
       362   05 Jun 2027 05:19:42.722   05 Jun 2027 05:20:49.935            67.213                Novosib          2100.406
       363   05 Jun 2027 05:21:36.966   05 Jun 2027 05:26:06.729           269.763                  Delhi          8430.094
       364   05 Jun 2027 06:52:45.382   05 Jun 2027 06:53:50.257            64.875                 Moscow          2027.344
       365   05 Jun 2027 06:54:13.329   05 Jun 2027 06:54:44.727            31.398                 Moscow           981.188
       366   05 Jun 2027 06:54:48.479   05 Jun 2027 06:55:01.027            12.548              Murmansk1           392.125
       367   05 Jun 2027 06:55:10.320   05 Jun 2027 06:55:26.990            16.670              Murmansk1           520.938
       368   05 Jun 2027 06:59:20.714   05 Jun 2027 06:59:47.823            27.109                 Moscow           847.156
       369   05 Jun 2027 07:12:44.556   05 Jun 2027 07:15:41.731           177.175               CapeTown          5536.719
       370   05 Jun 2027 08:15:38.996   05 Jun 2027 08:16:39.874            60.878                Anadyr1          1902.437
       371   05 Jun 2027 08:16:59.687   05 Jun 2027 08:17:00.649             0.962               Magadan1            30.063
       372   05 Jun 2027 08:17:45.199   05 Jun 2027 08:18:14.625            29.426                Anadyr1           919.562
       373   05 Jun 2027 08:19:11.922   05 Jun 2027 08:20:28.570            76.648                Anadyr1          2395.250
       374   05 Jun 2027 09:52:16.371   05 Jun 2027 09:52:44.254            27.883               Magadan2           871.344
       375   05 Jun 2027 09:53:02.186   05 Jun 2027 09:53:41.223            39.037               Magadan2          1219.906
       376   05 Jun 2027 09:53:46.012   05 Jun 2027 09:54:40.851            54.839               Magadan1          1713.719
       377   05 Jun 2027 09:55:42.669   05 Jun 2027 09:56:12.629            29.960                Norilsk           936.250
       378   05 Jun 2027 10:35:03.440   05 Jun 2027 10:35:32.921            29.481            RioGallegos           921.281
       379   05 Jun 2027 10:42:48.947   05 Jun 2027 10:43:19.125            30.178            RioGallegos           943.063
       380   05 Jun 2027 11:23:35.002   05 Jun 2027 11:24:27.786            52.784               Magadan2          1649.500
       381   05 Jun 2027 11:27:21.415   05 Jun 2027 11:27:34.328            12.913               Magadan2           403.531
       382   05 Jun 2027 11:28:01.564   05 Jun 2027 11:30:45.633           164.069               Magadan2          5127.156
       383   05 Jun 2027 11:30:45.633   05 Jun 2027 11:30:46.491             0.858               Magadan1            26.812
       384   05 Jun 2027 11:31:21.305   05 Jun 2027 11:31:29.163             7.858                Norilsk           245.563
       385   05 Jun 2027 11:31:31.944   05 Jun 2027 11:31:41.056             9.112                Irkutsk           284.750
       386   05 Jun 2027 11:31:53.027   05 Jun 2027 11:32:25.639            32.612                Irkutsk          1019.125
       387   05 Jun 2027 11:32:31.689   05 Jun 2027 11:32:34.682             2.993                Norilsk            93.531
       388   05 Jun 2027 11:32:40.213   05 Jun 2027 11:33:30.559            50.346               Magadan1          1573.313
       389   05 Jun 2027 12:08:26.165   05 Jun 2027 12:09:46.453            80.288            RioGallegos          2509.000
       390   05 Jun 2027 12:44:25.893   05 Jun 2027 12:44:56.126            30.233                Sumatra           944.781
       391   05 Jun 2027 12:48:11.847   05 Jun 2027 12:49:55.269           103.422                Sumatra          3231.937
       392   05 Jun 2027 12:58:05.895   05 Jun 2027 13:00:03.993           118.098                Irkutsk          3690.563
       393   05 Jun 2027 13:45:24.320   05 Jun 2027 13:46:22.663            58.343            RioGallegos          1823.219
       394   05 Jun 2027 13:47:29.619   05 Jun 2027 13:50:37.727           188.108            RioGallegos          5878.375
       395   05 Jun 2027 14:19:40.467   05 Jun 2027 14:21:48.185           127.718                Sumatra          3991.188
       396   05 Jun 2027 14:24:29.476   05 Jun 2027 14:25:02.781            33.305                Sumatra          1040.781
       397   05 Jun 2027 14:34:50.975   05 Jun 2027 14:37:57.360           186.385                Irkutsk          5824.531
       398   05 Jun 2027 14:39:50.848   05 Jun 2027 14:40:49.761            58.913                Irkutsk          1841.031
       399   05 Jun 2027 16:04:34.162   05 Jun 2027 16:10:45.255           371.093                  Delhi         11596.656
       400   05 Jun 2027 16:12:56.966   05 Jun 2027 16:15:06.991           130.025                Novosib          4063.281
       401   05 Jun 2027 16:15:45.902   05 Jun 2027 16:19:12.013           206.111                Novosib          6440.969
       402   05 Jun 2027 17:57:58.618   05 Jun 2027 18:01:37.744           219.126                Norilsk          6847.687
       403   05 Jun 2027 19:27:03.437   05 Jun 2027 19:33:55.750           412.313                 Moscow         12884.781
       404   05 Jun 2027 20:37:50.473   05 Jun 2027 20:38:46.062            55.589               CapeTown          1737.156
       405   05 Jun 2027 20:42:17.832   05 Jun 2027 20:42:49.745            31.913               CapeTown           997.281
       406   05 Jun 2027 20:47:40.792   05 Jun 2027 20:48:29.301            48.509               CapeTown          1515.906
       407   05 Jun 2027 21:09:59.282   05 Jun 2027 21:15:25.122           325.840              Murmansk2         10182.500
       408   05 Jun 2027 22:53:45.934   05 Jun 2027 22:55:01.948            76.014                Anadyr1          2375.438
       409   05 Jun 2027 22:55:14.490   05 Jun 2027 22:56:01.846            47.356                Anadyr1          1479.875
       410   05 Jun 2027 22:56:17.460   05 Jun 2027 22:56:55.664            38.204               Magadan2          1193.875
       411   05 Jun 2027 22:57:22.131   05 Jun 2027 22:57:49.389            27.258               Magadan1           851.813
       412   05 Jun 2027 22:59:12.232   05 Jun 2027 22:59:51.507            39.275               Magadan2          1227.344
       413   05 Jun 2027 23:00:10.374   05 Jun 2027 23:00:44.538            34.164               Magadan1          1067.625
       414   05 Jun 2027 23:01:12.870   05 Jun 2027 23:02:00.500            47.630               Magadan1          1488.437
       415   05 Jun 2027 23:48:43.611   05 Jun 2027 23:51:58.871           195.260            RioGallegos          6101.875
       416   05 Jun 2027 23:55:30.200   05 Jun 2027 23:56:06.143            35.943            RioGallegos          1123.219
       417   06 Jun 2027 00:29:30.352   06 Jun 2027 00:30:47.956            77.604                Anadyr2          2425.125
       418   06 Jun 2027 00:31:35.335   06 Jun 2027 00:33:14.787            99.452                Norilsk          3107.875
       419   06 Jun 2027 00:34:16.889   06 Jun 2027 00:34:50.428            33.539               Magadan1          1048.094
       420   06 Jun 2027 00:35:01.968   06 Jun 2027 00:35:15.984            14.016                Norilsk           438.000
       421   06 Jun 2027 00:35:27.206   06 Jun 2027 00:35:44.316            17.110               Magadan1           534.688
       422   06 Jun 2027 00:36:03.411   06 Jun 2027 00:37:26.415            83.004                Irkutsk          2593.875
       423   06 Jun 2027 00:38:27.603   06 Jun 2027 00:39:36.433            68.830                Irkutsk          2150.937
       424   06 Jun 2027 00:42:47.849   06 Jun 2027 00:43:17.019            29.170                Irkutsk           911.562
       425   06 Jun 2027 00:50:11.501   06 Jun 2027 00:51:30.842            79.341                Sumatra          2479.406
       426   06 Jun 2027 00:56:12.435   06 Jun 2027 00:56:56.392            43.957                Sumatra          1373.656
       427   06 Jun 2027 00:58:42.658   06 Jun 2027 00:59:27.440            44.782                Sumatra          1399.437
       428   06 Jun 2027 01:28:05.095   06 Jun 2027 01:28:09.248             4.153            RioGallegos           129.781
       429   06 Jun 2027 01:29:00.808   06 Jun 2027 01:29:34.876            34.068            RioGallegos          1064.625
       430   06 Jun 2027 01:34:14.499   06 Jun 2027 01:35:15.788            61.289            RioGallegos          1915.281
       431   06 Jun 2027 02:05:59.387   06 Jun 2027 02:06:31.224            31.837                Anadyr2           994.906
       432   06 Jun 2027 02:07:29.781   06 Jun 2027 02:09:04.794            95.013                Norilsk          2969.156
       433   06 Jun 2027 02:10:51.481   06 Jun 2027 02:11:27.046            35.565                Norilsk          1111.406
       434   06 Jun 2027 02:11:37.234   06 Jun 2027 02:13:39.404           122.170                Irkutsk          3817.812
       435   06 Jun 2027 02:18:21.605   06 Jun 2027 02:18:25.002             3.397                Irkutsk           106.156
       436   06 Jun 2027 02:19:45.417   06 Jun 2027 02:20:17.729            32.312                Irkutsk          1009.750
       437   06 Jun 2027 02:23:29.651   06 Jun 2027 02:23:38.426             8.775                  Delhi           274.219
       438   06 Jun 2027 02:24:36.472   06 Jun 2027 02:24:55.811            19.339                  Delhi           604.344
       439   06 Jun 2027 02:25:52.483   06 Jun 2027 02:35:50.563           598.080                Sumatra         18690.000
       440   06 Jun 2027 03:51:15.599   06 Jun 2027 03:51:36.333            20.734                Novosib           647.937
       441   06 Jun 2027 03:51:45.720   06 Jun 2027 03:57:26.115           340.395                Irkutsk         10637.344
       442   06 Jun 2027 03:57:43.091   06 Jun 2027 04:00:57.542           194.451                  Delhi          6076.594
       443   06 Jun 2027 04:37:33.318   06 Jun 2027 04:41:25.353           232.035            RioGallegos          7251.094
       444   06 Jun 2027 05:28:32.358   06 Jun 2027 05:30:05.190            92.832                Norilsk          2901.000
       445   06 Jun 2027 05:30:11.066   06 Jun 2027 05:30:21.429            10.363                 Moscow           323.844
       446   06 Jun 2027 05:30:26.405   06 Jun 2027 05:34:04.754           218.349                Novosib          6823.406
       447   06 Jun 2027 07:04:24.302   06 Jun 2027 07:04:27.155             2.853                Norilsk            89.156
       448   06 Jun 2027 07:04:28.531   06 Jun 2027 07:04:59.402            30.871                Norilsk           964.719
       449   06 Jun 2027 07:06:43.730   06 Jun 2027 07:06:50.317             6.587              Murmansk1           205.844
       450   06 Jun 2027 07:07:00.788   06 Jun 2027 07:07:12.533            11.745              Murmansk1           367.031
       451   06 Jun 2027 07:07:14.243   06 Jun 2027 07:07:14.474             0.231              Murmansk1             7.219
       452   06 Jun 2027 07:08:47.598   06 Jun 2027 07:09:11.270            23.672              Murmansk2           739.750
       453   06 Jun 2027 07:24:55.657   06 Jun 2027 07:25:05.381             9.724               CapeTown           303.875
       454   06 Jun 2027 07:26:40.057   06 Jun 2027 07:29:43.861           183.804               CapeTown          5743.875
       455   06 Jun 2027 07:34:19.349   06 Jun 2027 07:34:42.796            23.447               CapeTown           732.719
       456   06 Jun 2027 08:27:56.779   06 Jun 2027 08:28:21.453            24.674               Magadan1           771.062
       457   06 Jun 2027 08:28:45.724   06 Jun 2027 08:28:57.099            11.375               Magadan1           355.469
       458   06 Jun 2027 08:29:50.972   06 Jun 2027 08:30:35.184            44.212                Anadyr1          1381.625
       459   06 Jun 2027 08:32:28.503   06 Jun 2027 08:33:38.198            69.695                Anadyr1          2177.969
       460   06 Jun 2027 10:04:16.595   06 Jun 2027 10:05:34.120            77.525               Magadan1          2422.656
       461   06 Jun 2027 10:05:51.696   06 Jun 2027 10:06:47.556            55.860               Magadan2          1745.625
       462   06 Jun 2027 10:07:02.178   06 Jun 2027 10:08:01.134            58.956               Magadan2          1842.375
       463   06 Jun 2027 10:47:36.289   06 Jun 2027 10:48:07.034            30.745            RioGallegos           960.781
       464   06 Jun 2027 11:35:12.785   06 Jun 2027 11:35:55.182            42.397               Magadan2          1324.906
       465   06 Jun 2027 11:35:55.182   06 Jun 2027 11:36:37.600            42.418               Magadan1          1325.563
       466   06 Jun 2027 11:40:46.716   06 Jun 2027 11:42:18.673            91.957               Magadan2          2873.656
       467   06 Jun 2027 11:42:36.561   06 Jun 2027 11:42:47.660            11.099                Irkutsk           346.844
       468   06 Jun 2027 11:43:16.200   06 Jun 2027 11:43:31.477            15.277                Norilsk           477.406
       469   06 Jun 2027 11:43:48.866   06 Jun 2027 11:44:47.968            59.102                Norilsk          1846.938
       470   06 Jun 2027 11:44:54.458   06 Jun 2027 11:44:54.529             0.071                Norilsk             2.219
       471   06 Jun 2027 11:45:05.102   06 Jun 2027 11:45:38.540            33.438                Norilsk          1044.938
       472   06 Jun 2027 12:20:23.326   06 Jun 2027 12:21:45.000            81.674            RioGallegos          2552.313
       473   06 Jun 2027 12:55:59.355   06 Jun 2027 12:57:39.656           100.301                Sumatra          3134.406
       474   06 Jun 2027 13:08:51.138   06 Jun 2027 13:12:06.135           194.997                Irkutsk          6093.656
       475   06 Jun 2027 13:57:53.207   06 Jun 2027 13:59:38.485           105.278            RioGallegos          3289.937
       476   06 Jun 2027 14:02:20.767   06 Jun 2027 14:03:30.256            69.489            RioGallegos          2171.531
       477   06 Jun 2027 14:07:34.734   06 Jun 2027 14:07:54.593            19.859            RioGallegos           620.594
       478   06 Jun 2027 14:32:06.813   06 Jun 2027 14:38:14.756           367.943                Sumatra         11498.219
       479   06 Jun 2027 14:47:32.689   06 Jun 2027 14:54:10.174           397.485                Irkutsk         12421.406
       480   06 Jun 2027 16:19:15.232   06 Jun 2027 16:25:07.094           351.862                  Delhi         10995.687
       481   06 Jun 2027 16:27:08.812   06 Jun 2027 16:32:52.763           343.951                Novosib         10748.469
       482   06 Jun 2027 19:39:58.344   06 Jun 2027 19:46:59.553           421.209                 Moscow         13162.781
