uniorb/output/strategy_4/Drop/Drop_KinoSat_111905.txt

KinoSat_111905
-------------------------
    Access    *     Start Time (UTCG)     *     Stop Time (UTCG)  *   Duration (s)        *       Station  *  Data (Mbytes)
         1   01 Jun 2027 03:00:55.137   01 Jun 2027 03:01:31.758            36.621               Magadan1          1144.406
         2   01 Jun 2027 03:01:31.758   01 Jun 2027 03:01:41.989            10.231               Magadan2           319.719
         3   01 Jun 2027 03:01:43.860   01 Jun 2027 03:02:26.641            42.781               Magadan1          1336.906
         4   01 Jun 2027 03:02:58.419   01 Jun 2027 03:03:26.731            28.312                Novosib           884.750
         5   01 Jun 2027 03:03:31.576   01 Jun 2027 03:03:51.308            19.732                Norilsk           616.625
         6   01 Jun 2027 03:04:06.675   01 Jun 2027 03:05:17.472            70.797                Norilsk          2212.406
         7   01 Jun 2027 03:05:39.879   01 Jun 2027 03:07:30.067           110.188                Norilsk          3443.375
         8   01 Jun 2027 03:07:33.994   01 Jun 2027 03:07:46.605            12.611                Novosib           394.094
         9   01 Jun 2027 03:07:58.939   01 Jun 2027 03:09:48.043           109.104                Norilsk          3409.500
        10   01 Jun 2027 03:10:20.492   01 Jun 2027 03:10:36.989            16.497                Irkutsk           515.531
        11   01 Jun 2027 03:11:04.337   01 Jun 2027 03:11:12.425             8.088                  Delhi           252.750
        12   01 Jun 2027 03:11:38.048   01 Jun 2027 03:12:14.092            36.044                Irkutsk          1126.375
        13   01 Jun 2027 03:50:06.595   01 Jun 2027 03:50:58.626            52.031            RioGallegos          1625.969
        14   01 Jun 2027 03:53:03.738   01 Jun 2027 03:54:30.719            86.981            RioGallegos          2718.156
        15   01 Jun 2027 04:40:37.606   01 Jun 2027 04:42:18.909           101.303              Murmansk2          3165.719
        16   01 Jun 2027 04:42:19.229   01 Jun 2027 04:42:50.717            31.488                Norilsk           984.000
        17   01 Jun 2027 04:43:14.747   01 Jun 2027 04:45:24.001           129.254                Norilsk          4039.187
        18   01 Jun 2027 04:46:14.206   01 Jun 2027 04:50:44.199           269.993                  Delhi          8437.281
        19   01 Jun 2027 06:19:00.836   01 Jun 2027 06:19:15.096            14.260                Novosib           445.625
        20   01 Jun 2027 06:19:18.240   01 Jun 2027 06:21:57.066           158.826                 Moscow          4963.312
        21   01 Jun 2027 06:22:01.105   01 Jun 2027 06:22:17.962            16.857              Murmansk1           526.781
        22   01 Jun 2027 06:22:32.041   01 Jun 2027 06:23:47.070            75.029                 Moscow          2344.656
        23   01 Jun 2027 06:24:01.810   01 Jun 2027 06:24:38.937            37.127                 Moscow          1160.219
        24   01 Jun 2027 06:38:05.492   01 Jun 2027 06:41:17.514           192.022               CapeTown          6000.687
        25   01 Jun 2027 07:42:34.299   01 Jun 2027 07:43:18.405            44.106                Anadyr1          1378.313
        26   01 Jun 2027 07:44:15.107   01 Jun 2027 07:47:44.931           209.824                Anadyr2          6557.000
        27   01 Jun 2027 08:18:54.491   01 Jun 2027 08:22:35.754           221.263               CapeTown          6914.469
        28   01 Jun 2027 09:17:38.893   01 Jun 2027 09:18:25.423            46.530                Anadyr2          1454.062
        29   01 Jun 2027 09:19:26.077   01 Jun 2027 09:21:21.723           115.646               Magadan2          3613.937
        30   01 Jun 2027 09:22:25.887   01 Jun 2027 09:23:22.257            56.370               Magadan1          1761.563
        31   01 Jun 2027 10:52:53.540   01 Jun 2027 10:54:52.724           119.184               Magadan1          3724.500
        32   01 Jun 2027 10:55:04.265   01 Jun 2027 10:57:35.877           151.612                Anadyr1          4737.875
        33   01 Jun 2027 10:57:45.829   01 Jun 2027 10:58:26.824            40.995               Magadan2          1281.094
        34   01 Jun 2027 10:58:56.372   01 Jun 2027 10:58:58.765             2.393               Magadan1            74.781
        35   01 Jun 2027 13:21:03.001   01 Jun 2027 13:21:14.259            11.258            RioGallegos           351.813
        36   01 Jun 2027 13:51:42.068   01 Jun 2027 13:56:44.830           302.762                Sumatra          9461.313
        37   01 Jun 2027 14:06:27.425   01 Jun 2027 14:09:36.224           188.799                Irkutsk          5899.969
        38   01 Jun 2027 15:35:01.885   01 Jun 2027 15:37:28.316           146.431                  Delhi          4575.969
        39   01 Jun 2027 15:43:30.943   01 Jun 2027 15:44:12.081            41.138                Novosib          1285.562
        40   01 Jun 2027 15:47:39.602   01 Jun 2027 15:47:40.611             1.009                Novosib            31.531
        41   01 Jun 2027 17:22:54.127   01 Jun 2027 17:25:37.226           163.099                Norilsk          5096.844
        42   01 Jun 2027 17:25:37.914   01 Jun 2027 17:27:14.801            96.887                Norilsk          3027.719
        43   01 Jun 2027 18:54:08.989   01 Jun 2027 18:58:07.880           238.891                 Moscow          7465.344
        44   01 Jun 2027 19:03:46.401   01 Jun 2027 19:04:27.857            41.456              Murmansk2          1295.500
        45   01 Jun 2027 20:09:00.075   01 Jun 2027 20:11:12.175           132.100               CapeTown          4128.125
        46   01 Jun 2027 20:34:50.365   01 Jun 2027 20:40:57.275           366.910              Murmansk1         11465.938
        47   01 Jun 2027 22:24:37.134   01 Jun 2027 22:25:13.385            36.251               Magadan2          1132.844
        48   01 Jun 2027 22:30:19.513   01 Jun 2027 22:30:24.548             5.035               Magadan1           157.344
        49   01 Jun 2027 22:30:57.404   01 Jun 2027 22:31:01.263             3.859               Magadan2           120.594
        50   01 Jun 2027 23:14:23.790   01 Jun 2027 23:16:40.484           136.694            RioGallegos          4271.687
        51   01 Jun 2027 23:20:20.923   01 Jun 2027 23:20:52.587            31.664            RioGallegos           989.500
        52   01 Jun 2027 23:54:56.277   01 Jun 2027 23:56:20.146            83.869                Anadyr2          2620.906
        53   01 Jun 2027 23:56:27.759   01 Jun 2027 23:56:30.882             3.123                Anadyr2            97.594
        54   01 Jun 2027 23:56:37.103   01 Jun 2027 23:57:12.936            35.833                Anadyr1          1119.781
        55   01 Jun 2027 23:57:25.572   01 Jun 2027 23:58:59.637            94.065               Magadan1          2939.531
        56   02 Jun 2027 00:00:03.357   02 Jun 2027 00:00:22.995            19.638                Norilsk           613.688
        57   02 Jun 2027 00:00:58.589   02 Jun 2027 00:01:33.392            34.803               Magadan1          1087.594
        58   02 Jun 2027 00:01:36.076   02 Jun 2027 00:02:42.743            66.667                Irkutsk          2083.344
        59   02 Jun 2027 00:03:56.101   02 Jun 2027 00:05:01.718            65.617                Irkutsk          2050.531
        60   02 Jun 2027 00:15:55.881   02 Jun 2027 00:16:35.111            39.230                Sumatra          1225.937
        61   02 Jun 2027 00:17:03.208   02 Jun 2027 00:18:48.837           105.629                Sumatra          3300.906
        62   02 Jun 2027 00:56:39.129   02 Jun 2027 00:56:42.722             3.593            RioGallegos           112.281
        63   02 Jun 2027 00:59:26.844   02 Jun 2027 00:59:39.145            12.301            RioGallegos           384.406
        64   02 Jun 2027 01:30:03.024   02 Jun 2027 01:31:15.232            72.208                Anadyr2          2256.500
        65   02 Jun 2027 01:31:56.495   02 Jun 2027 01:32:09.071            12.576                Anadyr2           393.000
        66   02 Jun 2027 01:32:28.592   02 Jun 2027 01:32:50.490            21.898                Anadyr2           684.313
        67   02 Jun 2027 01:33:01.765   02 Jun 2027 01:34:42.592           100.827                Norilsk          3150.844
        68   02 Jun 2027 01:34:42.623   02 Jun 2027 01:35:17.857            35.234               Magadan2          1101.063
        69   02 Jun 2027 01:35:58.635   02 Jun 2027 01:36:38.813            40.178               Magadan2          1255.562
        70   02 Jun 2027 01:36:46.776   02 Jun 2027 01:39:39.532           172.756                Irkutsk          5398.625
        71   02 Jun 2027 01:51:02.459   02 Jun 2027 01:52:26.291            83.832                Sumatra          2619.750
        72   02 Jun 2027 01:53:16.030   02 Jun 2027 01:55:53.575           157.545                Sumatra          4923.281
        73   02 Jun 2027 03:13:02.670   02 Jun 2027 03:13:05.228             2.558               Magadan2            79.938
        74   02 Jun 2027 03:13:31.562   02 Jun 2027 03:14:09.449            37.887               Magadan1          1183.969
        75   02 Jun 2027 03:15:41.506   02 Jun 2027 03:17:21.885           100.379              Murmansk1          3136.844
        76   02 Jun 2027 03:17:21.885   02 Jun 2027 03:18:01.136            39.251              Murmansk2          1226.594
        77   02 Jun 2027 03:18:09.027   02 Jun 2027 03:18:26.722            17.695              Murmansk2           552.969
        78   02 Jun 2027 03:18:30.619   02 Jun 2027 03:18:36.884             6.265                Norilsk           195.781
        79   02 Jun 2027 03:18:57.120   02 Jun 2027 03:19:50.196            53.076                Norilsk          1658.625
        80   02 Jun 2027 03:19:51.703   02 Jun 2027 03:21:35.773           104.070                Novosib          3252.188
        81   02 Jun 2027 03:22:19.140   02 Jun 2027 03:25:43.122           203.982                  Delhi          6374.437
        82   02 Jun 2027 04:02:33.251   02 Jun 2027 04:07:34.422           301.171            RioGallegos          9411.594
        83   02 Jun 2027 04:55:25.327   02 Jun 2027 04:55:52.514            27.187                 Moscow           849.594
        84   02 Jun 2027 04:56:18.678   02 Jun 2027 04:59:45.132           206.454                Novosib          6451.687
        85   02 Jun 2027 05:01:58.429   02 Jun 2027 05:02:42.768            44.339                  Delhi          1385.594
        86   02 Jun 2027 05:15:55.918   02 Jun 2027 05:16:00.266             4.348               CapeTown           135.875
        87   02 Jun 2027 05:16:41.335   02 Jun 2027 05:18:39.145           117.810               CapeTown          3681.562
        88   02 Jun 2027 06:11:16.108   02 Jun 2027 06:13:08.086           111.978                Anadyr2          3499.313
        89   02 Jun 2027 06:14:38.025   02 Jun 2027 06:15:01.100            23.075               Magadan1           721.094
        90   02 Jun 2027 06:32:44.289   02 Jun 2027 06:33:43.686            59.397              Murmansk1          1856.156
        91   02 Jun 2027 06:34:01.460   02 Jun 2027 06:34:47.408            45.948                 Moscow          1435.875
        92   02 Jun 2027 06:37:45.724   02 Jun 2027 06:39:03.873            78.149                 Moscow          2442.156
        93   02 Jun 2027 06:50:13.016   02 Jun 2027 06:54:43.778           270.762               CapeTown          8461.313
        94   02 Jun 2027 07:53:40.512   02 Jun 2027 07:54:17.391            36.879               Magadan1          1152.469
        95   02 Jun 2027 07:54:20.750   02 Jun 2027 07:55:59.780            99.030               Magadan1          3094.687
        96   02 Jun 2027 07:57:09.208   02 Jun 2027 07:57:58.181            48.973               Magadan2          1530.406
        97   02 Jun 2027 08:04:20.936   02 Jun 2027 08:05:09.419            48.483                 Moscow          1515.094
        98   02 Jun 2027 09:30:11.901   02 Jun 2027 09:33:25.364           193.463                Anadyr2          6045.719
        99   02 Jun 2027 11:04:52.915   02 Jun 2027 11:05:34.078            41.163               Magadan1          1286.344
       100   02 Jun 2027 11:06:05.734   02 Jun 2027 11:06:07.551             1.817                Irkutsk            56.781
       101   02 Jun 2027 11:06:40.713   02 Jun 2027 11:07:08.480            27.767                Irkutsk           867.719
       102   02 Jun 2027 11:07:13.085   02 Jun 2027 11:10:17.014           183.929               Magadan1          5747.781
       103   02 Jun 2027 11:10:46.625   02 Jun 2027 11:10:53.573             6.948               Magadan2           217.125
       104   02 Jun 2027 11:10:57.880   02 Jun 2027 11:10:59.132             1.252                Norilsk            39.125
       105   02 Jun 2027 11:12:02.684   02 Jun 2027 11:12:06.383             3.699                Norilsk           115.594
       106   02 Jun 2027 11:45:49.957   02 Jun 2027 11:47:04.602            74.645            RioGallegos          2332.656
       107   02 Jun 2027 12:21:40.752   02 Jun 2027 12:22:27.272            46.520                Sumatra          1453.750
       108   02 Jun 2027 12:25:26.693   02 Jun 2027 12:27:14.134           107.441                Sumatra          3357.531
       109   02 Jun 2027 12:35:18.731   02 Jun 2027 12:36:53.120            94.389                Irkutsk          2949.656
       110   02 Jun 2027 12:37:30.705   02 Jun 2027 12:37:34.043             3.338                Irkutsk           104.312
       111   02 Jun 2027 12:39:06.338   02 Jun 2027 12:39:19.802            13.464                Norilsk           420.750
       112   02 Jun 2027 12:44:45.290   02 Jun 2027 12:45:10.761            25.471              Murmansk2           795.969
       113   02 Jun 2027 13:22:59.073   02 Jun 2027 13:23:53.557            54.484            RioGallegos          1702.625
       114   02 Jun 2027 13:24:35.302   02 Jun 2027 13:27:54.971           199.669            RioGallegos          6239.656
       115   02 Jun 2027 13:57:13.819   02 Jun 2027 13:59:06.310           112.491                Sumatra          3515.344
       116   02 Jun 2027 14:12:30.001   02 Jun 2027 14:15:40.388           190.387                Irkutsk          5949.594
       117   02 Jun 2027 15:42:12.336   02 Jun 2027 15:47:02.184           289.848                  Delhi          9057.750
       118   02 Jun 2027 15:50:37.698   02 Jun 2027 15:52:58.954           141.256                Novosib          4414.250
       119   02 Jun 2027 17:25:58.025   02 Jun 2027 17:28:28.670           150.645                 Moscow          4707.656
       120   02 Jun 2027 17:32:02.043   02 Jun 2027 17:32:13.883            11.840              Murmansk2           370.000
       121   02 Jun 2027 17:35:50.612   02 Jun 2027 17:38:45.233           174.621                Norilsk          5456.906
       122   02 Jun 2027 18:38:52.551   02 Jun 2027 18:39:33.386            40.835               CapeTown          1276.094
       123   02 Jun 2027 19:04:46.741   02 Jun 2027 19:09:10.512           263.771                 Moscow          8242.844
       124   02 Jun 2027 19:11:09.968   02 Jun 2027 19:11:24.434            14.466              Murmansk1           452.062
       125   02 Jun 2027 19:11:46.881   02 Jun 2027 19:11:53.793             6.912              Murmansk1           216.000
       126   02 Jun 2027 19:14:25.006   02 Jun 2027 19:15:27.123            62.117              Murmansk2          1941.156
       127   02 Jun 2027 20:15:22.262   02 Jun 2027 20:16:28.208            65.946               CapeTown          2060.812
       128   02 Jun 2027 20:18:05.449   02 Jun 2027 20:20:21.406           135.957               CapeTown          4248.656
       129   02 Jun 2027 20:47:45.112   02 Jun 2027 20:51:55.759           250.647              Murmansk2          7832.719
       130   02 Jun 2027 20:52:06.327   02 Jun 2027 20:52:44.629            38.302              Murmansk1          1196.937
       131   02 Jun 2027 22:31:11.562   02 Jun 2027 22:36:29.355           317.793                Anadyr2          9931.031
       132   02 Jun 2027 22:36:44.050   02 Jun 2027 22:39:09.531           145.481               Magadan2          4546.281
       133   02 Jun 2027 23:26:02.253   02 Jun 2027 23:28:19.826           137.573            RioGallegos          4299.156
       134   02 Jun 2027 23:28:30.357   02 Jun 2027 23:29:00.897            30.540            RioGallegos           954.375
       135   02 Jun 2027 23:30:31.928   02 Jun 2027 23:30:36.167             4.239            RioGallegos           132.469
       136   02 Jun 2027 23:31:07.101   02 Jun 2027 23:31:18.727            11.626            RioGallegos           363.312
       137   02 Jun 2027 23:31:26.931   02 Jun 2027 23:32:26.751            59.820            RioGallegos          1869.375
       138   03 Jun 2027 00:06:54.775   03 Jun 2027 00:08:02.860            68.085                Anadyr2          2127.656
       139   03 Jun 2027 00:09:00.743   03 Jun 2027 00:10:49.312           108.569                Norilsk          3392.781
       140   03 Jun 2027 00:11:29.965   03 Jun 2027 00:12:26.181            56.216               Magadan1          1756.750
       141   03 Jun 2027 00:12:26.181   03 Jun 2027 00:13:01.486            35.305               Magadan2          1103.281
       142   03 Jun 2027 00:13:54.680   03 Jun 2027 00:14:42.842            48.162                Irkutsk          1505.063
       143   03 Jun 2027 00:15:30.215   03 Jun 2027 00:17:57.942           147.727                Irkutsk          4616.469
       144   03 Jun 2027 00:35:48.817   03 Jun 2027 00:36:46.090            57.273                Sumatra          1789.781
       145   03 Jun 2027 01:04:44.874   03 Jun 2027 01:05:14.531            29.657            RioGallegos           926.781
       146   03 Jun 2027 01:09:33.348   03 Jun 2027 01:09:59.260            25.912            RioGallegos           809.750
       147   03 Jun 2027 01:41:53.599   03 Jun 2027 01:43:14.144            80.545                Anadyr1          2517.031
       148   03 Jun 2027 01:43:45.825   03 Jun 2027 01:44:11.207            25.382                Anadyr1           793.187
       149   03 Jun 2027 01:44:55.889   03 Jun 2027 01:46:10.575            74.686                Norilsk          2333.937
       150   03 Jun 2027 01:46:17.800   03 Jun 2027 01:46:35.020            17.220                Norilsk           538.125
       151   03 Jun 2027 01:46:38.484   03 Jun 2027 01:46:52.068            13.584               Magadan1           424.500
       152   03 Jun 2027 01:47:19.591   03 Jun 2027 01:48:22.086            62.495               Magadan1          1952.969
       153   03 Jun 2027 01:48:48.425   03 Jun 2027 01:51:00.341           131.916                Irkutsk          4122.375
       154   03 Jun 2027 01:57:23.599   03 Jun 2027 01:58:12.639            49.040                  Delhi          1532.500
       155   03 Jun 2027 02:03:27.398   03 Jun 2027 02:04:54.640            87.242                Sumatra          2726.313
       156   03 Jun 2027 02:07:03.892   03 Jun 2027 02:08:31.954            88.062                Sumatra          2751.938
       157   03 Jun 2027 02:41:52.503   03 Jun 2027 02:42:39.071            46.568            RioGallegos          1455.250
       158   03 Jun 2027 03:25:24.798   03 Jun 2027 03:25:38.520            13.722               Magadan2           428.812
       159   03 Jun 2027 03:28:08.104   03 Jun 2027 03:28:45.491            37.387                Irkutsk          1168.344
       160   03 Jun 2027 03:29:18.529   03 Jun 2027 03:30:06.933            48.404              Murmansk2          1512.625
       161   03 Jun 2027 03:30:16.003   03 Jun 2027 03:30:41.477            25.474                 Moscow           796.062
       162   03 Jun 2027 03:30:41.923   03 Jun 2027 03:35:25.649           283.726                Irkutsk          8866.438
       163   03 Jun 2027 03:35:34.609   03 Jun 2027 03:36:16.219            41.610                Novosib          1300.312
       164   03 Jun 2027 03:41:46.313   03 Jun 2027 03:44:30.928           164.615                  Delhi          5144.219
       165   03 Jun 2027 04:15:16.351   03 Jun 2027 04:18:21.025           184.674            RioGallegos          5771.063
       166   03 Jun 2027 05:04:48.288   03 Jun 2027 05:05:05.940            17.652                Novosib           551.625
       167   03 Jun 2027 05:05:56.322   03 Jun 2027 05:06:44.752            48.430              Murmansk2          1513.437
       168   03 Jun 2027 05:07:47.745   03 Jun 2027 05:08:24.916            37.171                Novosib          1161.594
       169   03 Jun 2027 05:09:08.896   03 Jun 2027 05:09:34.121            25.225                 Moscow           788.281
       170   03 Jun 2027 05:10:36.960   03 Jun 2027 05:11:21.363            44.403                Novosib          1387.594
       171   03 Jun 2027 05:27:28.249   03 Jun 2027 05:28:05.034            36.785               CapeTown          1149.531
       172   03 Jun 2027 05:33:07.272   03 Jun 2027 05:33:45.791            38.519               CapeTown          1203.719
       173   03 Jun 2027 06:42:31.035   03 Jun 2027 06:43:08.115            37.080                Norilsk          1158.750
       174   03 Jun 2027 06:44:40.365   03 Jun 2027 06:44:51.341            10.976              Murmansk1           343.000
       175   03 Jun 2027 06:50:44.062   03 Jun 2027 06:50:59.548            15.486                 Moscow           483.938
       176   03 Jun 2027 07:02:26.089   03 Jun 2027 07:03:43.892            77.803               CapeTown          2431.344
       177   03 Jun 2027 07:05:10.525   03 Jun 2027 07:07:13.802           123.277               CapeTown          3852.406
       178   03 Jun 2027 08:05:12.568   03 Jun 2027 08:05:23.816            11.248               Magadan2           351.500
       179   03 Jun 2027 08:05:43.539   03 Jun 2027 08:06:03.813            20.274               Magadan1           633.562
       180   03 Jun 2027 08:06:15.221   03 Jun 2027 08:07:26.619            71.398               Magadan2          2231.188
       181   03 Jun 2027 08:07:26.690   03 Jun 2027 08:07:38.049            11.359                Anadyr1           354.969
       182   03 Jun 2027 08:07:48.213   03 Jun 2027 08:07:48.964             0.751               Magadan2            23.469
       183   03 Jun 2027 08:07:52.997   03 Jun 2027 08:08:51.246            58.249                Anadyr1          1820.281
       184   03 Jun 2027 08:11:07.673   03 Jun 2027 08:11:25.817            18.144               Magadan1           567.000
       185   03 Jun 2027 09:42:23.243   03 Jun 2027 09:42:53.252            30.009                Anadyr2           937.781
       186   03 Jun 2027 09:42:57.630   03 Jun 2027 09:43:14.084            16.454               Magadan1           514.188
       187   03 Jun 2027 09:43:30.307   03 Jun 2027 09:44:15.727            45.420               Magadan1          1419.375
       188   03 Jun 2027 09:44:32.825   03 Jun 2027 09:45:18.958            46.133               Magadan2          1441.656
       189   03 Jun 2027 10:24:37.149   03 Jun 2027 10:24:51.421            14.272            RioGallegos           446.000
       190   03 Jun 2027 10:28:51.525   03 Jun 2027 10:29:52.412            60.887            RioGallegos          1902.719
       191   03 Jun 2027 11:12:49.903   03 Jun 2027 11:13:08.337            18.434               Magadan2           576.062
       192   03 Jun 2027 11:16:40.915   03 Jun 2027 11:18:21.222           100.307               Magadan2          3134.594
       193   03 Jun 2027 11:19:10.126   03 Jun 2027 11:22:46.470           216.344               Magadan2          6760.750
       194   03 Jun 2027 11:23:10.358   03 Jun 2027 11:24:04.304            53.946                Norilsk          1685.812
       195   03 Jun 2027 11:57:48.262   03 Jun 2027 11:59:02.860            74.598            RioGallegos          2331.187
       196   03 Jun 2027 12:33:17.233   03 Jun 2027 12:33:54.067            36.834                Sumatra          1151.062
       197   03 Jun 2027 12:46:18.600   03 Jun 2027 12:49:31.410           192.810                Irkutsk          6025.313
       198   03 Jun 2027 13:35:29.985   03 Jun 2027 13:37:15.338           105.353            RioGallegos          3292.281
       199   03 Jun 2027 13:45:14.371   03 Jun 2027 13:45:33.313            18.942            RioGallegos           591.938
       200   03 Jun 2027 14:09:43.542   03 Jun 2027 14:12:30.683           167.141                Sumatra          5223.156
       201   03 Jun 2027 14:25:14.732   03 Jun 2027 14:29:44.174           269.442                Irkutsk          8420.062
       202   03 Jun 2027 15:54:57.832   03 Jun 2027 15:59:28.794           270.962                  Delhi          8467.563
       203   03 Jun 2027 16:04:15.851   03 Jun 2027 16:07:48.256           212.405                Novosib          6637.656
       204   03 Jun 2027 17:37:37.566   03 Jun 2027 17:37:51.884            14.318                 Moscow           447.437
       205   03 Jun 2027 17:40:27.905   03 Jun 2027 17:42:11.071           103.166                 Moscow          3223.937
       206   03 Jun 2027 17:44:16.034   03 Jun 2027 17:44:39.349            23.315              Murmansk2           728.594
       207   03 Jun 2027 17:56:23.242   03 Jun 2027 17:56:49.301            26.059                Anadyr1           814.344
       208   03 Jun 2027 17:56:55.080   03 Jun 2027 17:56:56.351             1.271                Anadyr1            39.719
       209   03 Jun 2027 17:59:12.177   03 Jun 2027 17:59:25.316            13.139                Anadyr2           410.594
       210   03 Jun 2027 18:50:48.170   03 Jun 2027 18:53:01.671           133.501               CapeTown          4171.906
       211   03 Jun 2027 19:17:46.326   03 Jun 2027 19:21:52.047           245.721                 Moscow          7678.781
       212   03 Jun 2027 19:24:20.064   03 Jun 2027 19:24:29.046             8.982              Murmansk1           280.688
       213   03 Jun 2027 19:31:55.026   03 Jun 2027 19:32:24.239            29.213                Anadyr1           912.906
       214   03 Jun 2027 20:27:45.270   03 Jun 2027 20:32:51.647           306.377               CapeTown          9574.281
       215   03 Jun 2027 21:00:51.512   03 Jun 2027 21:04:22.415           210.903              Murmansk1          6590.719
       216   03 Jun 2027 21:16:00.994   03 Jun 2027 21:16:08.045             7.051               Magadan1           220.344
       217   03 Jun 2027 21:16:16.815   03 Jun 2027 21:16:31.377            14.562               Magadan2           455.062
       218   03 Jun 2027 21:18:32.745   03 Jun 2027 21:18:59.691            26.946               Magadan1           842.063
       219   03 Jun 2027 22:43:12.871   03 Jun 2027 22:48:26.355           313.484                Anadyr2          9796.375
       220   03 Jun 2027 22:48:28.866   03 Jun 2027 22:50:43.115           134.249               Magadan1          4195.281
       221   03 Jun 2027 22:56:27.475   03 Jun 2027 22:57:22.449            54.974               Magadan1          1717.938
       222   03 Jun 2027 23:37:46.642   03 Jun 2027 23:39:54.253           127.611            RioGallegos          3987.844
       223   03 Jun 2027 23:40:34.988   03 Jun 2027 23:41:10.638            35.650            RioGallegos          1114.063
       224   03 Jun 2027 23:42:27.586   03 Jun 2027 23:42:33.276             5.690            RioGallegos           177.812
       225   03 Jun 2027 23:43:16.300   03 Jun 2027 23:43:20.274             3.974            RioGallegos           124.187
       226   04 Jun 2027 00:18:52.587   04 Jun 2027 00:19:53.990            61.403                Anadyr1          1918.844
       227   04 Jun 2027 00:20:11.557   04 Jun 2027 00:21:09.779            58.222                Anadyr2          1819.437
       228   04 Jun 2027 00:21:31.871   04 Jun 2027 00:23:40.472           128.601               Magadan1          4018.781
       229   04 Jun 2027 00:23:40.472   04 Jun 2027 00:24:30.034            49.562               Magadan2          1548.812
       230   04 Jun 2027 00:25:17.381   04 Jun 2027 00:26:06.450            49.069                Irkutsk          1533.406
       231   04 Jun 2027 00:27:45.872   04 Jun 2027 00:28:30.580            44.708                Novosib          1397.125
       232   04 Jun 2027 00:29:12.055   04 Jun 2027 00:29:31.512            19.457                Novosib           608.031
       233   04 Jun 2027 00:36:09.167   04 Jun 2027 00:36:19.632            10.465                Irkutsk           327.031
       234   04 Jun 2027 00:39:08.380   04 Jun 2027 00:39:51.817            43.437                Sumatra          1357.406
       235   04 Jun 2027 00:41:30.592   04 Jun 2027 00:42:35.236            64.644                Sumatra          2020.125
       236   04 Jun 2027 00:49:19.528   04 Jun 2027 00:51:17.535           118.007                Sumatra          3687.719
       237   04 Jun 2027 01:53:42.841   04 Jun 2027 01:54:12.855            30.014                Anadyr1           937.937
       238   04 Jun 2027 01:54:12.855   04 Jun 2027 01:54:24.584            11.729                Anadyr2           366.531
       239   04 Jun 2027 01:54:56.296   04 Jun 2027 01:55:57.287            60.991                Anadyr2          1905.969
       240   04 Jun 2027 01:56:58.305   04 Jun 2027 01:58:18.568            80.263                Norilsk          2508.219
       241   04 Jun 2027 01:59:07.787   04 Jun 2027 01:59:21.674            13.887               Magadan1           433.969
       242   04 Jun 2027 02:00:50.916   04 Jun 2027 02:03:04.212           133.296                Irkutsk          4165.500
       243   04 Jun 2027 02:04:05.039   04 Jun 2027 02:04:17.078            12.039                Irkutsk           376.219
       244   04 Jun 2027 02:04:57.060   04 Jun 2027 02:06:02.334            65.274                Irkutsk          2039.812
       245   04 Jun 2027 02:15:32.028   04 Jun 2027 02:15:48.460            16.432                  Delhi           513.500
       246   04 Jun 2027 02:16:02.786   04 Jun 2027 02:20:50.692           287.906                Sumatra          8997.062
       247   04 Jun 2027 03:40:10.799   04 Jun 2027 03:43:07.551           176.752                Irkutsk          5523.500
       248   04 Jun 2027 03:43:26.218   04 Jun 2027 03:44:36.874            70.656                Novosib          2208.000
       249   04 Jun 2027 03:44:52.491   04 Jun 2027 03:45:37.822            45.331                Norilsk          1416.594
       250   04 Jun 2027 03:45:48.240   04 Jun 2027 03:46:56.116            67.876                Irkutsk          2121.125
       251   04 Jun 2027 03:47:37.171   04 Jun 2027 03:48:21.943            44.772                Novosib          1399.125
       252   04 Jun 2027 03:51:46.660   04 Jun 2027 03:53:59.059           132.399                  Delhi          4137.469
       253   04 Jun 2027 05:18:03.646   04 Jun 2027 05:18:31.112            27.466                 Moscow           858.312
       254   04 Jun 2027 05:18:32.869   04 Jun 2027 05:18:39.129             6.260                Novosib           195.625
       255   04 Jun 2027 05:19:26.790   04 Jun 2027 05:19:50.390            23.600                 Moscow           737.500
       256   04 Jun 2027 05:19:52.450   04 Jun 2027 05:22:32.224           159.774                Novosib          4992.938
       257   04 Jun 2027 05:22:41.195   04 Jun 2027 05:22:55.281            14.086                 Moscow           440.187
       258   04 Jun 2027 05:23:48.663   04 Jun 2027 05:24:02.653            13.990                 Moscow           437.187
       259   04 Jun 2027 05:39:01.157   04 Jun 2027 05:40:15.134            73.977               CapeTown          2311.781
       260   04 Jun 2027 05:41:02.723   04 Jun 2027 05:42:13.581            70.858               CapeTown          2214.312
       261   04 Jun 2027 06:42:40.817   04 Jun 2027 06:43:15.690            34.873                Anadyr2          1089.781
       262   04 Jun 2027 06:43:51.346   04 Jun 2027 06:43:57.943             6.597                Anadyr1           206.156
       263   04 Jun 2027 06:45:03.887   04 Jun 2027 06:45:16.978            13.091                Anadyr2           409.094
       264   04 Jun 2027 06:53:15.509   04 Jun 2027 06:53:24.061             8.552                 Moscow           267.250
       265   04 Jun 2027 06:56:37.055   04 Jun 2027 06:56:38.798             1.743              Murmansk1            54.469
       266   04 Jun 2027 06:56:40.530   04 Jun 2027 06:57:53.482            72.952              Murmansk1          2279.750
       267   04 Jun 2027 07:14:45.299   04 Jun 2027 07:15:40.007            54.708               CapeTown          1709.625
       268   04 Jun 2027 08:17:39.208   04 Jun 2027 08:17:46.104             6.896               Magadan2           215.500
       269   04 Jun 2027 08:18:02.779   04 Jun 2027 08:19:21.540            78.761                Anadyr2          2461.281
       270   04 Jun 2027 08:19:27.516   04 Jun 2027 08:19:29.900             2.384               Magadan1            74.500
       271   04 Jun 2027 08:19:54.681   04 Jun 2027 08:20:16.099            21.418                Anadyr1           669.313
       272   04 Jun 2027 08:20:21.580   04 Jun 2027 08:20:32.284            10.704               Magadan1           334.500
       273   04 Jun 2027 08:21:04.419   04 Jun 2027 08:21:45.824            41.405                Anadyr2          1293.906
       274   04 Jun 2027 09:53:37.190   04 Jun 2027 09:54:38.129            60.939               Magadan1          1904.344
       275   04 Jun 2027 09:54:51.379   04 Jun 2027 09:55:38.277            46.898                Anadyr2          1465.563
       276   04 Jun 2027 09:56:26.130   04 Jun 2027 09:57:16.163            50.033               Magadan1          1563.531
       277   04 Jun 2027 10:35:24.463   04 Jun 2027 10:35:45.015            20.552            RioGallegos           642.250
       278   04 Jun 2027 11:28:24.201   04 Jun 2027 11:30:32.084           127.883               Magadan2          3996.344
       279   04 Jun 2027 11:30:32.084   04 Jun 2027 11:31:18.173            46.089               Magadan1          1440.281
       280   04 Jun 2027 11:31:47.245   04 Jun 2027 11:32:28.046            40.801                Irkutsk          1275.031
       281   04 Jun 2027 11:32:38.016   04 Jun 2027 11:32:48.712            10.696                Irkutsk           334.250
       282   04 Jun 2027 11:33:17.716   04 Jun 2027 11:33:51.391            33.675                Irkutsk          1052.344
       283   04 Jun 2027 11:34:06.574   04 Jun 2027 11:34:27.476            20.902                Norilsk           653.188
       284   04 Jun 2027 11:34:29.070   04 Jun 2027 11:34:50.357            21.287                Norilsk           665.219
       285   04 Jun 2027 11:34:55.059   04 Jun 2027 11:35:24.644            29.585                Norilsk           924.531
       286   04 Jun 2027 12:09:49.898   04 Jun 2027 12:10:59.722            69.824            RioGallegos          2182.000
       287   04 Jun 2027 12:45:01.250   04 Jun 2027 12:45:48.109            46.859                Sumatra          1464.344
       288   04 Jun 2027 12:51:45.034   04 Jun 2027 12:52:40.783            55.749                Sumatra          1742.156
       289   04 Jun 2027 12:58:27.513   04 Jun 2027 13:01:31.123           183.610                Irkutsk          5737.812
       290   04 Jun 2027 13:48:07.542   04 Jun 2027 13:51:10.482           182.940            RioGallegos          5716.875
       291   04 Jun 2027 14:22:25.912   04 Jun 2027 14:27:03.067           277.155                Sumatra          8661.094
       292   04 Jun 2027 14:38:10.444   04 Jun 2027 14:40:36.284           145.840                Irkutsk          4557.500
       293   04 Jun 2027 14:42:21.228   04 Jun 2027 14:42:22.631             1.403                Irkutsk            43.844
       294   04 Jun 2027 16:08:02.178   04 Jun 2027 16:14:54.409           412.231                  Delhi         12882.219
       295   04 Jun 2027 16:16:30.659   04 Jun 2027 16:20:31.429           240.770                Novosib          7524.063
       296   04 Jun 2027 19:02:46.825   04 Jun 2027 19:05:28.537           161.712               CapeTown          5053.500
       297   04 Jun 2027 19:31:07.398   04 Jun 2027 19:34:42.278           214.880                 Moscow          6715.000
       298   04 Jun 2027 19:35:00.113   04 Jun 2027 19:35:27.325            27.212                 Moscow           850.375
       299   04 Jun 2027 19:35:32.433   04 Jun 2027 19:37:06.492            94.059              Murmansk1          2939.344
       300   04 Jun 2027 20:40:16.129   04 Jun 2027 20:45:10.399           294.270               CapeTown          9195.938
       301   04 Jun 2027 20:46:10.002   04 Jun 2027 20:47:22.049            72.047               CapeTown          2251.469
       302   04 Jun 2027 21:22:16.941   04 Jun 2027 21:22:43.530            26.589               Magadan1           830.906
       303   04 Jun 2027 21:24:27.496   04 Jun 2027 21:24:48.713            21.217               Magadan1           663.031
       304   04 Jun 2027 21:25:04.342   04 Jun 2027 21:25:41.330            36.988               Magadan1          1155.875
       305   04 Jun 2027 22:55:13.944   04 Jun 2027 22:59:02.152           228.208                Anadyr2          7131.500
       306   04 Jun 2027 22:59:02.201   04 Jun 2027 23:00:14.203            72.002                Anadyr1          2250.062
       307   04 Jun 2027 23:00:21.619   04 Jun 2027 23:00:36.126            14.507                Norilsk           453.344
       308   04 Jun 2027 23:00:50.068   04 Jun 2027 23:03:08.934           138.866               Magadan1          4339.562
       309   04 Jun 2027 23:07:40.054   04 Jun 2027 23:07:55.838            15.784               Magadan2           493.250
       310   04 Jun 2027 23:08:50.363   04 Jun 2027 23:09:29.568            39.205               Magadan1          1225.156
       311   04 Jun 2027 23:49:35.102   04 Jun 2027 23:52:40.516           185.414            RioGallegos          5794.188
       312   04 Jun 2027 23:55:28.043   04 Jun 2027 23:55:36.397             8.354            RioGallegos           261.063
       313   05 Jun 2027 00:30:49.631   05 Jun 2027 00:31:43.819            54.188                Anadyr2          1693.375
       314   05 Jun 2027 00:32:00.774   05 Jun 2027 00:32:44.139            43.365                Anadyr1          1355.156
       315   05 Jun 2027 00:33:02.121   05 Jun 2027 00:34:53.687           111.566                Norilsk          3486.437
       316   05 Jun 2027 00:35:24.391   05 Jun 2027 00:35:50.560            26.169               Magadan1           817.781
       317   05 Jun 2027 00:35:59.319   05 Jun 2027 00:37:09.084            69.765               Magadan1          2180.156
       318   05 Jun 2027 00:38:14.595   05 Jun 2027 00:39:20.727            66.132                Irkutsk          2066.625
       319   05 Jun 2027 00:40:49.442   05 Jun 2027 00:40:56.650             7.208                Novosib           225.250
       320   05 Jun 2027 00:41:05.018   05 Jun 2027 00:41:19.556            14.538                Novosib           454.312
       321   05 Jun 2027 00:47:32.695   05 Jun 2027 00:47:52.885            20.190                Irkutsk           630.937
       322   05 Jun 2027 00:50:55.729   05 Jun 2027 00:53:39.282           163.553                Sumatra          5111.031
       323   05 Jun 2027 01:24:56.641   05 Jun 2027 01:25:22.737            26.096            RioGallegos           815.500
       324   05 Jun 2027 01:28:44.400   05 Jun 2027 01:28:51.834             7.434            RioGallegos           232.312
       325   05 Jun 2027 01:31:50.550   05 Jun 2027 01:32:48.716            58.166            RioGallegos          1817.687
       326   05 Jun 2027 02:05:30.746   05 Jun 2027 02:06:11.081            40.335                Anadyr1          1260.469
       327   05 Jun 2027 02:07:47.857   05 Jun 2027 02:07:58.087            10.230                Anadyr1           319.688
       328   05 Jun 2027 02:08:32.984   05 Jun 2027 02:08:42.267             9.283                Anadyr1           290.094
       329   05 Jun 2027 02:09:00.764   05 Jun 2027 02:11:04.434           123.670                Norilsk          3864.687
       330   05 Jun 2027 02:12:01.037   05 Jun 2027 02:12:11.292            10.255                Norilsk           320.469
       331   05 Jun 2027 02:12:54.209   05 Jun 2027 02:15:56.253           182.044                Irkutsk          5688.875
       332   05 Jun 2027 02:28:54.261   05 Jun 2027 02:33:17.808           263.547                Sumatra          8235.844
       333   05 Jun 2027 03:04:40.889   05 Jun 2027 03:04:50.539             9.650            RioGallegos           301.562
       334   05 Jun 2027 03:05:36.982   05 Jun 2027 03:05:43.828             6.846            RioGallegos           213.937
       335   05 Jun 2027 03:10:01.386   05 Jun 2027 03:10:12.659            11.273            RioGallegos           352.281
       336   05 Jun 2027 03:51:13.506   05 Jun 2027 03:57:25.127           371.621                Irkutsk         11613.156
       337   05 Jun 2027 05:31:55.059   05 Jun 2027 05:34:25.352           150.293                Novosib          4696.656
       338   05 Jun 2027 05:34:45.348   05 Jun 2027 05:35:53.472            68.124                 Moscow          2128.875
       339   05 Jun 2027 05:50:43.139   05 Jun 2027 05:51:31.810            48.671               CapeTown          1520.969
       340   05 Jun 2027 06:54:10.426   05 Jun 2027 06:54:23.896            13.470               Magadan2           420.937
       341   05 Jun 2027 06:54:26.633   05 Jun 2027 06:55:51.909            85.276                Anadyr2          2664.875
       342   05 Jun 2027 07:05:56.453   05 Jun 2027 07:06:17.008            20.555              Murmansk1           642.344
       343   05 Jun 2027 07:06:24.460   05 Jun 2027 07:06:45.353            20.893              Murmansk1           652.906
       344   05 Jun 2027 07:14:01.604   05 Jun 2027 07:14:14.246            12.642                 Moscow           395.062
       345   05 Jun 2027 07:27:11.581   05 Jun 2027 07:29:34.796           143.215               CapeTown          4475.469
       346   05 Jun 2027 07:31:38.964   05 Jun 2027 07:32:13.201            34.237               CapeTown          1069.906
       347   05 Jun 2027 08:28:04.927   05 Jun 2027 08:28:53.897            48.970                Anadyr2          1530.313
       348   05 Jun 2027 08:29:48.439   05 Jun 2027 08:30:18.193            29.754               Magadan2           929.812
       349   05 Jun 2027 08:31:14.349   05 Jun 2027 08:32:48.831            94.482                Anadyr2          2952.562
       350   05 Jun 2027 10:03:21.655   05 Jun 2027 10:04:18.515            56.860               Magadan1          1776.875
       351   05 Jun 2027 10:04:50.662   05 Jun 2027 10:05:07.244            16.582                Anadyr2           518.187
       352   05 Jun 2027 10:05:35.794   05 Jun 2027 10:07:33.173           117.379               Magadan1          3668.094
       353   05 Jun 2027 10:07:35.797   05 Jun 2027 10:08:41.125            65.328                Anadyr2          2041.500
       354   05 Jun 2027 10:09:03.016   05 Jun 2027 10:11:24.911           141.895               Magadan1          4434.219
       355   05 Jun 2027 11:39:59.635   05 Jun 2027 11:42:41.167           161.532               Magadan1          5047.875
       356   05 Jun 2027 11:42:59.940   05 Jun 2027 11:44:31.974            92.034               Magadan1          2876.062
       357   05 Jun 2027 11:44:54.179   05 Jun 2027 11:45:03.953             9.774                Irkutsk           305.438
       358   05 Jun 2027 11:45:19.274   05 Jun 2027 11:45:46.318            27.044                Irkutsk           845.125
       359   05 Jun 2027 11:46:01.226   05 Jun 2027 11:46:32.447            31.221                Irkutsk           975.656
       360   05 Jun 2027 11:46:54.955   05 Jun 2027 11:47:15.244            20.289                Norilsk           634.031
       361   05 Jun 2027 12:21:54.978   05 Jun 2027 12:22:31.336            36.358            RioGallegos          1136.187
       362   05 Jun 2027 12:22:54.950   05 Jun 2027 12:25:08.182           133.232            RioGallegos          4163.500
       363   05 Jun 2027 13:05:00.964   05 Jun 2027 13:06:22.634            81.670                Sumatra          2552.187
       364   05 Jun 2027 13:10:40.092   05 Jun 2027 13:11:30.256            50.164                Irkutsk          1567.625
       365   05 Jun 2027 13:13:11.974   05 Jun 2027 13:13:40.604            28.630                Novosib           894.688
       366   05 Jun 2027 13:14:12.247   05 Jun 2027 13:15:15.727            63.480                Irkutsk          1983.750
       367   05 Jun 2027 14:00:53.543   05 Jun 2027 14:05:15.584           262.041            RioGallegos          8188.781
       368   05 Jun 2027 14:35:30.389   05 Jun 2027 14:39:35.336           244.947                Sumatra          7654.594
       369   05 Jun 2027 14:51:24.689   05 Jun 2027 14:55:09.558           224.869                Irkutsk          7027.156
       370   05 Jun 2027 16:21:53.426   05 Jun 2027 16:25:18.165           204.739                  Delhi          6398.094
       371   05 Jun 2027 16:29:59.931   05 Jun 2027 16:33:41.620           221.689                Novosib          6927.781
       372   05 Jun 2027 16:37:24.963   05 Jun 2027 16:38:08.943            43.980                Norilsk          1374.375
       373   05 Jun 2027 18:20:12.077   05 Jun 2027 18:20:29.459            17.382                Anadyr1           543.187
       374   05 Jun 2027 19:14:48.328   05 Jun 2027 19:17:38.948           170.620               CapeTown          5331.875
       375   05 Jun 2027 19:27:28.479   05 Jun 2027 19:27:32.672             4.193               CapeTown           131.031
       376   05 Jun 2027 19:44:25.404   05 Jun 2027 19:49:47.664           322.260              Murmansk2         10070.625
       377   05 Jun 2027 19:51:08.934   05 Jun 2027 19:51:58.534            49.600              Murmansk1          1550.000
       378   05 Jun 2027 20:53:00.597   05 Jun 2027 20:59:08.125           367.528               CapeTown         11485.250
       379   05 Jun 2027 21:33:45.147   05 Jun 2027 21:34:27.617            42.470               Magadan2          1327.188
       380   05 Jun 2027 21:36:29.100   05 Jun 2027 21:37:42.849            73.749               Magadan1          2304.656
       381   05 Jun 2027 23:07:14.727   05 Jun 2027 23:11:58.885           284.158                Anadyr1          8879.938
       382   05 Jun 2027 23:12:15.195   05 Jun 2027 23:12:17.736             2.541                Anadyr1            79.406
       383   05 Jun 2027 23:12:24.475   05 Jun 2027 23:12:38.118            13.643                Norilsk           426.344
       384   05 Jun 2027 23:12:43.793   05 Jun 2027 23:13:16.242            32.449               Magadan2          1014.031
       385   05 Jun 2027 23:13:29.341   05 Jun 2027 23:13:42.883            13.542               Magadan2           423.187
       386   05 Jun 2027 23:13:51.691   05 Jun 2027 23:14:35.135            43.444               Magadan2          1357.625
       387   05 Jun 2027 23:15:19.254   05 Jun 2027 23:15:48.217            28.963               Magadan1           905.094
       388   05 Jun 2027 23:16:24.540   05 Jun 2027 23:17:05.184            40.644               Magadan2          1270.125
       389   05 Jun 2027 23:17:22.441   05 Jun 2027 23:18:41.829            79.388                Irkutsk          2480.875
       390   06 Jun 2027 00:01:26.574   06 Jun 2027 00:03:21.900           115.326            RioGallegos          3603.938
       391   06 Jun 2027 00:03:38.449   06 Jun 2027 00:04:46.997            68.548            RioGallegos          2142.125
       392   06 Jun 2027 00:10:30.010   06 Jun 2027 00:10:55.744            25.734            RioGallegos           804.188
       393   06 Jun 2027 00:42:45.797   06 Jun 2027 00:43:06.301            20.504                Anadyr2           640.750
       394   06 Jun 2027 00:43:32.324   06 Jun 2027 00:43:51.426            19.102                Anadyr1           596.937
       395   06 Jun 2027 00:44:14.777   06 Jun 2027 00:45:02.858            48.081                Anadyr1          1502.531
       396   06 Jun 2027 00:45:03.475   06 Jun 2027 00:46:55.974           112.499                Norilsk          3515.594
       397   06 Jun 2027 00:46:58.291   06 Jun 2027 00:47:29.576            31.285               Magadan2           977.656
       398   06 Jun 2027 00:48:37.775   06 Jun 2027 00:48:59.082            21.307               Magadan2           665.844
       399   06 Jun 2027 00:49:07.651   06 Jun 2027 00:50:19.305            71.654                Irkutsk          2239.188
       400   06 Jun 2027 00:50:23.060   06 Jun 2027 00:51:54.387            91.327                Novosib          2853.969
       401   06 Jun 2027 01:00:27.027   06 Jun 2027 01:01:21.999            54.972                Irkutsk          1717.875
       402   06 Jun 2027 01:02:49.211   06 Jun 2027 01:03:27.615            38.404                Sumatra          1200.125
       403   06 Jun 2027 01:12:44.639   06 Jun 2027 01:14:57.746           133.107                Sumatra          4159.594
       404   06 Jun 2027 02:18:09.898   06 Jun 2027 02:18:27.308            17.410                Anadyr1           544.062
       405   06 Jun 2027 02:19:28.714   06 Jun 2027 02:19:59.087            30.373                Anadyr2           949.156
       406   06 Jun 2027 02:21:03.222   06 Jun 2027 02:22:22.125            78.903                Norilsk          2465.719
       407   06 Jun 2027 02:22:29.758   06 Jun 2027 02:22:57.284            27.526                Norilsk           860.188
       408   06 Jun 2027 02:24:57.299   06 Jun 2027 02:26:57.640           120.341                Novosib          3760.656
       409   06 Jun 2027 02:27:52.966   06 Jun 2027 02:28:54.543            61.577                Irkutsk          1924.281
       410   06 Jun 2027 02:34:20.034   06 Jun 2027 02:35:00.158            40.124                  Delhi          1253.875
       411   06 Jun 2027 02:39:56.526   06 Jun 2027 02:41:17.738            81.212                  Delhi          2537.875
       412   06 Jun 2027 02:42:20.671   06 Jun 2027 02:45:56.290           215.619                Sumatra          6738.094
       413   06 Jun 2027 03:17:11.248   06 Jun 2027 03:17:42.528            31.280            RioGallegos           977.500
       414   06 Jun 2027 04:05:21.827   06 Jun 2027 04:06:32.287            70.460              Murmansk2          2201.875
       415   06 Jun 2027 04:06:52.564   06 Jun 2027 04:07:05.915            13.351              Murmansk1           417.219
       416   06 Jun 2027 04:07:06.814   06 Jun 2027 04:08:48.490           101.676                Novosib          3177.375
       417   06 Jun 2027 04:08:49.976   06 Jun 2027 04:10:22.949            92.973                  Delhi          2905.406
       418   06 Jun 2027 04:12:24.306   06 Jun 2027 04:19:22.232           417.926                  Delhi         13060.187
       419   06 Jun 2027 05:42:32.788   06 Jun 2027 05:42:52.721            19.933                Novosib           622.906
       420   06 Jun 2027 05:43:44.109   06 Jun 2027 05:45:52.902           128.793                Novosib          4024.781
       421   06 Jun 2027 05:46:04.229   06 Jun 2027 05:46:16.538            12.309                 Moscow           384.656
       422   06 Jun 2027 05:46:32.720   06 Jun 2027 05:46:46.120            13.400                 Moscow           418.750
       423   06 Jun 2027 05:49:29.381   06 Jun 2027 05:49:53.727            24.346                 Moscow           760.812
       424   06 Jun 2027 05:50:02.519   06 Jun 2027 05:50:27.740            25.221                 Moscow           788.156
       425   06 Jun 2027 05:51:05.174   06 Jun 2027 05:51:10.597             5.423                 Moscow           169.469
       426   06 Jun 2027 06:02:30.582   06 Jun 2027 06:03:29.309            58.727               CapeTown          1835.219
       427   06 Jun 2027 06:05:24.685   06 Jun 2027 06:05:48.611            23.926               CapeTown           747.687
       428   06 Jun 2027 06:06:08.528   06 Jun 2027 06:06:52.176            43.648               CapeTown          1364.000
       429   06 Jun 2027 07:05:07.055   06 Jun 2027 07:05:34.692            27.637                Anadyr2           863.656
       430   06 Jun 2027 07:05:41.297   06 Jun 2027 07:05:50.404             9.107                Anadyr1           284.594
       431   06 Jun 2027 07:05:54.815   06 Jun 2027 07:06:13.246            18.431                Anadyr2           575.969
       432   06 Jun 2027 07:06:34.143   06 Jun 2027 07:07:05.208            31.065               Magadan1           970.781
       433   06 Jun 2027 07:07:09.245   06 Jun 2027 07:07:16.817             7.572               Magadan1           236.625
       434   06 Jun 2027 07:07:36.701   06 Jun 2027 07:08:02.061            25.360               Magadan2           792.500
       435   06 Jun 2027 07:08:36.555   06 Jun 2027 07:09:06.699            30.144                Anadyr1           942.000
       436   06 Jun 2027 07:18:36.686   06 Jun 2027 07:18:59.947            23.261                Norilsk           726.906
       437   06 Jun 2027 07:21:27.714   06 Jun 2027 07:22:24.306            56.592                 Moscow          1768.500
       438   06 Jun 2027 07:39:46.521   06 Jun 2027 07:44:33.979           287.458               CapeTown          8983.063
       439   06 Jun 2027 08:39:51.357   06 Jun 2027 08:40:27.755            36.398                Anadyr2          1137.437
       440   06 Jun 2027 08:40:46.249   06 Jun 2027 08:40:58.805            12.556               Magadan1           392.375
       441   06 Jun 2027 08:40:58.805   06 Jun 2027 08:41:00.193             1.388               Magadan2            43.375
       442   06 Jun 2027 08:41:05.771   06 Jun 2027 08:42:02.316            56.545                Anadyr2          1767.031
       443   06 Jun 2027 08:42:23.489   06 Jun 2027 08:43:26.115            62.626               Magadan1          1957.062
       444   06 Jun 2027 08:43:36.125   06 Jun 2027 08:44:20.712            44.587               Magadan2          1393.344
       445   06 Jun 2027 08:45:19.354   06 Jun 2027 08:45:38.251            18.897                Anadyr1           590.531
       446   06 Jun 2027 09:27:11.534   06 Jun 2027 09:28:10.286            58.752            RioGallegos          1836.000
       447   06 Jun 2027 10:15:01.070   06 Jun 2027 10:15:43.706            42.636               Magadan1          1332.375
       448   06 Jun 2027 10:16:28.994   06 Jun 2027 10:18:05.257            96.263               Magadan1          3008.219
       449   06 Jun 2027 10:18:25.795   06 Jun 2027 10:19:33.959            68.164               Magadan2          2130.125
       450   06 Jun 2027 10:19:34.160   06 Jun 2027 10:20:22.607            48.447                Anadyr1          1513.969
       451   06 Jun 2027 10:20:36.793   06 Jun 2027 10:20:55.876            19.083               Magadan2           596.344
       452   06 Jun 2027 10:21:06.562   06 Jun 2027 10:21:31.486            24.924               Magadan1           778.875
       453   06 Jun 2027 10:21:31.486   06 Jun 2027 10:23:24.105           112.619               Magadan2          3519.344
       454   06 Jun 2027 11:51:02.774   06 Jun 2027 11:53:58.861           176.087               Magadan1          5502.719
       455   06 Jun 2027 11:54:51.868   06 Jun 2027 11:58:02.596           190.728               Magadan2          5960.250
       456   06 Jun 2027 11:58:02.596   06 Jun 2027 11:58:04.889             2.293               Magadan1            71.656
       457   06 Jun 2027 11:58:23.560   06 Jun 2027 11:59:04.944            41.384                Irkutsk          1293.250
       458   06 Jun 2027 11:59:22.336   06 Jun 2027 11:59:29.705             7.369                Novosib           230.281
       459   06 Jun 2027 12:01:02.468   06 Jun 2027 12:01:06.998             4.530                Norilsk           141.563
       460   06 Jun 2027 12:01:59.272   06 Jun 2027 12:02:10.644            11.372                Norilsk           355.375
       461   06 Jun 2027 12:02:46.811   06 Jun 2027 12:04:00.189            73.378                Norilsk          2293.062
       462   06 Jun 2027 12:37:07.834   06 Jun 2027 12:38:03.089            55.255            RioGallegos          1726.719
       463   06 Jun 2027 12:44:15.436   06 Jun 2027 12:46:40.945           145.509            RioGallegos          4547.156
       464   06 Jun 2027 13:18:23.531   06 Jun 2027 13:18:31.029             7.498                Sumatra           234.312
       465   06 Jun 2027 13:20:27.118   06 Jun 2027 13:21:32.043            64.925                Sumatra          2028.906
       466   06 Jun 2027 13:25:27.028   06 Jun 2027 13:27:43.644           136.616                Irkutsk          4269.250
       467   06 Jun 2027 13:39:58.415   06 Jun 2027 13:40:12.075            13.660                Norilsk           426.875
       468   06 Jun 2027 14:13:51.499   06 Jun 2027 14:16:48.424           176.925            RioGallegos          5528.906
       469   06 Jun 2027 14:17:55.125   06 Jun 2027 14:18:00.529             5.404            RioGallegos           168.875
       470   06 Jun 2027 14:50:09.570   06 Jun 2027 14:51:06.057            56.487                Sumatra          1765.219
       471   06 Jun 2027 15:00:47.506   06 Jun 2027 15:00:59.348            11.842                Novosib           370.063
       472   06 Jun 2027 15:02:51.903   06 Jun 2027 15:05:56.944           185.041                Novosib          5782.531
       473   06 Jun 2027 16:37:24.865   06 Jun 2027 16:38:42.841            77.976                 Moscow          2436.750
       474   06 Jun 2027 16:39:35.642   06 Jun 2027 16:39:43.058             7.416                 Moscow           231.750
       475   06 Jun 2027 16:40:41.983   06 Jun 2027 16:41:17.720            35.737                 Moscow          1116.781
       476   06 Jun 2027 16:42:16.604   06 Jun 2027 16:42:18.107             1.503              Murmansk1            46.969
       477   06 Jun 2027 16:44:11.293   06 Jun 2027 16:44:48.940            37.647              Murmansk2          1176.469
       478   06 Jun 2027 16:45:03.474   06 Jun 2027 16:46:20.008            76.534                Norilsk          2391.687
       479   06 Jun 2027 16:47:32.419   06 Jun 2027 16:48:10.010            37.591                Norilsk          1174.719
       480   06 Jun 2027 16:48:58.288   06 Jun 2027 16:50:22.168            83.880                Norilsk          2621.250
       481   06 Jun 2027 17:52:07.227   06 Jun 2027 17:53:11.674            64.447               CapeTown          2013.969
       482   06 Jun 2027 17:55:57.112   06 Jun 2027 17:56:34.523            37.411               CapeTown          1169.094
