uniorb/output/strategy_4/Drop/Drop_KinoSat_111704.txt

KinoSat_111704
-------------------------
    Access    *     Start Time (UTCG)     *     Stop Time (UTCG)  *   Duration (s)        *       Station  *  Data (Mbytes)
         1   01 Jun 2027 03:21:13.979   01 Jun 2027 03:22:12.552            58.573              Murmansk2          1830.406
         2   01 Jun 2027 03:22:30.968   01 Jun 2027 03:22:55.391            24.423                Norilsk           763.219
         3   01 Jun 2027 03:23:03.785   01 Jun 2027 03:24:51.034           107.249                 Moscow          3351.531
         4   01 Jun 2027 03:24:58.820   01 Jun 2027 03:26:57.135           118.315                Norilsk          3697.344
         5   01 Jun 2027 03:26:58.170   01 Jun 2027 03:31:23.312           265.142                  Delhi          8285.688
         6   01 Jun 2027 04:59:10.582   01 Jun 2027 05:01:04.088           113.506              Murmansk1          3547.063
         7   01 Jun 2027 05:01:04.088   01 Jun 2027 05:01:08.715             4.627              Murmansk2           144.594
         8   01 Jun 2027 05:01:30.918   01 Jun 2027 05:01:43.948            13.030                Norilsk           407.187
         9   01 Jun 2027 05:01:52.438   01 Jun 2027 05:04:46.520           174.082              Murmansk2          5440.062
        10   01 Jun 2027 05:05:01.745   01 Jun 2027 05:08:02.084           180.339                 Moscow          5635.594
        11   01 Jun 2027 05:20:24.315   01 Jun 2027 05:20:41.011            16.696               CapeTown           521.750
        12   01 Jun 2027 05:22:01.763   01 Jun 2027 05:23:11.054            69.291               CapeTown          2165.344
        13   01 Jun 2027 06:22:48.587   01 Jun 2027 06:23:45.434            56.847               Magadan2          1776.469
        14   01 Jun 2027 06:24:14.210   01 Jun 2027 06:24:33.069            18.859               Magadan1           589.344
        15   01 Jun 2027 06:24:48.857   01 Jun 2027 06:26:58.713           129.856                Anadyr1          4058.000
        16   01 Jun 2027 06:34:58.947   01 Jun 2027 06:35:14.215            15.268              Murmansk2           477.125
        17   01 Jun 2027 06:36:38.652   01 Jun 2027 06:37:24.252            45.600                 Moscow          1425.000
        18   01 Jun 2027 06:38:00.853   01 Jun 2027 06:38:44.686            43.833                 Moscow          1369.781
        19   01 Jun 2027 06:39:54.042   01 Jun 2027 06:40:11.594            17.552                 Moscow           548.500
        20   01 Jun 2027 06:57:20.905   01 Jun 2027 06:57:28.384             7.479               CapeTown           233.719
        21   01 Jun 2027 06:59:25.339   01 Jun 2027 07:02:08.773           163.434               CapeTown          5107.313
        22   01 Jun 2027 07:59:24.178   01 Jun 2027 08:01:20.342           116.164               Magadan2          3630.125
        23   01 Jun 2027 08:01:20.342   01 Jun 2027 08:02:33.635            73.293               Magadan1          2290.406
        24   01 Jun 2027 08:02:37.042   01 Jun 2027 08:04:55.360           138.318                Anadyr2          4322.437
        25   01 Jun 2027 09:32:25.022   01 Jun 2027 09:33:04.569            39.547                Irkutsk          1235.844
        26   01 Jun 2027 09:33:08.933   01 Jun 2027 09:38:37.476           328.543                Anadyr2         10266.969
        27   01 Jun 2027 09:38:49.340   01 Jun 2027 09:39:59.763            70.423                Anadyr2          2200.719
        28   01 Jun 2027 11:11:54.896   01 Jun 2027 11:14:52.412           177.516               Magadan2          5547.375
        29   01 Jun 2027 11:14:55.497   01 Jun 2027 11:15:57.395            61.898                Irkutsk          1934.313
        30   01 Jun 2027 12:42:29.239   01 Jun 2027 12:44:39.691           130.452                Irkutsk          4076.625
        31   01 Jun 2027 13:31:45.768   01 Jun 2027 13:35:51.911           246.143            RioGallegos          7691.969
        32   01 Jun 2027 14:19:45.050   01 Jun 2027 14:22:06.654           141.604                Novosib          4425.125
        33   01 Jun 2027 14:24:31.327   01 Jun 2027 14:25:50.498            79.171                Novosib          2474.094
        34   01 Jun 2027 15:54:30.128   01 Jun 2027 15:55:35.813            65.685                 Moscow          2052.656
        35   01 Jun 2027 15:56:36.325   01 Jun 2027 15:56:58.303            21.978                 Moscow           686.813
        36   01 Jun 2027 15:57:57.647   01 Jun 2027 15:58:59.710            62.063              Murmansk1          1939.469
        37   01 Jun 2027 16:02:10.712   01 Jun 2027 16:04:13.375           122.663                Norilsk          3833.219
        38   01 Jun 2027 16:05:05.744   01 Jun 2027 16:07:55.178           169.434                Norilsk          5294.812
        39   01 Jun 2027 17:32:00.991   01 Jun 2027 17:32:34.022            33.031                 Moscow          1032.219
        40   01 Jun 2027 17:35:06.282   01 Jun 2027 17:36:10.340            64.058              Murmansk1          2001.812
        41   01 Jun 2027 17:36:40.168   01 Jun 2027 17:37:08.038            27.870                 Moscow           870.938
        42   01 Jun 2027 17:38:50.499   01 Jun 2027 17:39:16.185            25.686              Murmansk1           802.687
        43   01 Jun 2027 17:39:37.702   01 Jun 2027 17:40:29.260            51.558              Murmansk2          1611.188
        44   01 Jun 2027 17:44:44.838   01 Jun 2027 17:44:55.897            11.059              Murmansk1           345.594
        45   01 Jun 2027 17:48:57.600   01 Jun 2027 17:49:00.478             2.878                Anadyr1            89.938
        46   01 Jun 2027 17:50:19.008   01 Jun 2027 17:50:43.614            24.606                Anadyr2           768.937
        47   01 Jun 2027 17:54:41.094   01 Jun 2027 17:54:56.704            15.610                Anadyr2           487.813
        48   01 Jun 2027 18:44:02.304   01 Jun 2027 18:45:25.755            83.451               CapeTown          2607.844
        49   01 Jun 2027 18:45:58.076   01 Jun 2027 18:46:57.519            59.443               CapeTown          1857.594
        50   01 Jun 2027 19:14:32.603   01 Jun 2027 19:20:01.185           328.582              Murmansk2         10268.188
        51   01 Jun 2027 19:28:28.468   01 Jun 2027 19:29:37.036            68.568               Magadan1          2142.750
        52   01 Jun 2027 19:34:05.032   01 Jun 2027 19:34:14.873             9.841               Magadan1           307.531
        53   01 Jun 2027 21:00:29.198   01 Jun 2027 21:04:11.237           222.039                Anadyr2          6938.719
        54   01 Jun 2027 21:04:16.703   01 Jun 2027 21:05:58.340           101.637               Magadan1          3176.156
        55   01 Jun 2027 21:05:58.340   01 Jun 2027 21:08:11.758           133.418               Magadan2          4169.312
        56   01 Jun 2027 21:10:51.962   01 Jun 2027 21:10:56.513             4.551               Magadan2           142.219
        57   01 Jun 2027 21:11:12.960   01 Jun 2027 21:11:25.597            12.637               Magadan2           394.906
        58   01 Jun 2027 21:13:02.312   01 Jun 2027 21:13:35.134            32.822               Magadan2          1025.687
        59   01 Jun 2027 21:57:34.773   01 Jun 2027 21:59:27.843           113.070            RioGallegos          3533.438
        60   01 Jun 2027 22:36:20.396   01 Jun 2027 22:37:37.023            76.627                Anadyr1          2394.594
        61   01 Jun 2027 22:37:47.466   01 Jun 2027 22:38:22.477            35.011                Anadyr2          1094.094
        62   01 Jun 2027 22:38:29.416   01 Jun 2027 22:40:04.707            95.291                Norilsk          2977.844
        63   01 Jun 2027 22:40:10.361   01 Jun 2027 22:41:02.535            52.174               Magadan1          1630.438
        64   01 Jun 2027 22:41:25.805   01 Jun 2027 22:41:46.966            21.161                Norilsk           661.281
        65   01 Jun 2027 22:41:48.451   01 Jun 2027 22:42:00.643            12.192               Magadan1           381.000
        66   01 Jun 2027 22:43:35.237   01 Jun 2027 22:43:46.311            11.074               Magadan2           346.062
        67   01 Jun 2027 22:44:00.649   01 Jun 2027 22:44:34.495            33.846                Irkutsk          1057.687
        68   01 Jun 2027 22:45:04.697   01 Jun 2027 22:45:38.724            34.027                Irkutsk          1063.344
        69   01 Jun 2027 22:46:12.938   01 Jun 2027 22:46:31.380            18.442                Irkutsk           576.312
        70   01 Jun 2027 22:48:42.506   01 Jun 2027 22:49:10.537            28.031                Irkutsk           875.969
        71   01 Jun 2027 22:59:12.358   01 Jun 2027 23:00:58.471           106.113                Sumatra          3316.031
        72   01 Jun 2027 23:04:27.319   01 Jun 2027 23:05:54.170            86.851                Sumatra          2714.094
        73   01 Jun 2027 23:41:27.947   01 Jun 2027 23:41:38.374            10.427            RioGallegos           325.844
        74   02 Jun 2027 00:11:42.252   02 Jun 2027 00:12:09.040            26.788                Anadyr2           837.125
        75   02 Jun 2027 00:12:31.017   02 Jun 2027 00:13:40.449            69.432                Anadyr1          2169.750
        76   02 Jun 2027 00:13:40.449   02 Jun 2027 00:13:43.396             2.947                Anadyr2            92.094
        77   02 Jun 2027 00:14:12.149   02 Jun 2027 00:15:23.228            71.079                Norilsk          2221.219
        78   02 Jun 2027 00:15:30.920   02 Jun 2027 00:16:06.869            35.949               Magadan1          1123.406
        79   02 Jun 2027 00:16:24.133   02 Jun 2027 00:16:34.517            10.384               Magadan2           324.500
        80   02 Jun 2027 00:17:14.378   02 Jun 2027 00:17:44.902            30.524               Magadan1           953.875
        81   02 Jun 2027 00:18:09.755   02 Jun 2027 00:19:17.543            67.788                Irkutsk          2118.375
        82   02 Jun 2027 00:19:27.006   02 Jun 2027 00:21:00.607            93.601                Novosib          2925.031
        83   02 Jun 2027 00:30:52.447   02 Jun 2027 00:32:06.690            74.243                  Delhi          2320.094
        84   02 Jun 2027 00:36:09.074   02 Jun 2027 00:37:02.414            53.340                Sumatra          1666.875
        85   02 Jun 2027 00:40:50.799   02 Jun 2027 00:40:53.875             3.076                Sumatra            96.125
        86   02 Jun 2027 00:42:00.225   02 Jun 2027 00:43:45.587           105.362                Sumatra          3292.563
        87   02 Jun 2027 01:45:57.420   02 Jun 2027 01:46:21.509            24.089                Anadyr2           752.781
        88   02 Jun 2027 01:46:46.005   02 Jun 2027 01:47:00.136            14.131                Anadyr2           441.594
        89   02 Jun 2027 01:47:00.136   02 Jun 2027 01:47:14.492            14.356                Anadyr1           448.625
        90   02 Jun 2027 01:47:42.173   02 Jun 2027 01:48:03.681            21.508                Anadyr2           672.125
        91   02 Jun 2027 01:48:23.631   02 Jun 2027 01:48:32.269             8.638                Anadyr1           269.938
        92   02 Jun 2027 01:48:32.418   02 Jun 2027 01:48:37.531             5.113                Anadyr2           159.781
        93   02 Jun 2027 01:50:12.758   02 Jun 2027 01:51:37.703            84.945                Norilsk          2654.531
        94   02 Jun 2027 01:51:45.327   02 Jun 2027 01:51:48.947             3.620               Magadan2           113.125
        95   02 Jun 2027 01:51:53.358   02 Jun 2027 01:52:05.747            12.389                Norilsk           387.156
        96   02 Jun 2027 01:53:20.951   02 Jun 2027 01:54:11.506            50.555              Murmansk1          1579.844
        97   02 Jun 2027 01:54:11.949   02 Jun 2027 01:55:58.239           106.290                Irkutsk          3321.563
        98   02 Jun 2027 01:57:11.868   02 Jun 2027 01:57:55.335            43.467                Novosib          1358.344
        99   02 Jun 2027 02:01:24.380   02 Jun 2027 02:03:39.753           135.373                  Delhi          4230.406
       100   02 Jun 2027 02:43:04.885   02 Jun 2027 02:43:24.690            19.805            RioGallegos           618.906
       101   02 Jun 2027 02:44:14.884   02 Jun 2027 02:47:13.950           179.066            RioGallegos          5595.812
       102   02 Jun 2027 03:35:06.404   02 Jun 2027 03:37:29.710           143.306                Irkutsk          4478.313
       103   02 Jun 2027 03:37:36.983   02 Jun 2027 03:38:42.152            65.169              Murmansk1          2036.531
       104   02 Jun 2027 03:40:49.072   02 Jun 2027 03:41:52.072            63.000                Novosib          1968.750
       105   02 Jun 2027 03:44:23.334   02 Jun 2027 03:44:58.770            35.436                  Delhi          1107.375
       106   02 Jun 2027 05:13:45.028   02 Jun 2027 05:13:58.216            13.188                Novosib           412.125
       107   02 Jun 2027 05:15:56.548   02 Jun 2027 05:20:26.234           269.686                 Moscow          8427.688
       108   02 Jun 2027 05:31:26.545   02 Jun 2027 05:35:18.911           232.366               CapeTown          7261.438
       109   02 Jun 2027 05:37:25.682   02 Jun 2027 05:37:52.317            26.635               CapeTown           832.344
       110   02 Jun 2027 05:38:20.163   02 Jun 2027 05:39:40.665            80.502               CapeTown          2515.687
       111   02 Jun 2027 05:41:01.123   02 Jun 2027 05:41:10.939             9.816               CapeTown           306.750
       112   02 Jun 2027 05:41:42.825   02 Jun 2027 05:43:36.454           113.629               CapeTown          3550.906
       113   02 Jun 2027 06:32:41.319   02 Jun 2027 06:33:03.509            22.190               Magadan1           693.437
       114   02 Jun 2027 06:33:07.090   02 Jun 2027 06:33:25.578            18.488                Anadyr2           577.750
       115   02 Jun 2027 06:34:32.329   02 Jun 2027 06:38:00.349           208.020                Anadyr2          6500.625
       116   02 Jun 2027 06:38:25.471   02 Jun 2027 06:38:49.129            23.658               Magadan2           739.313
       117   02 Jun 2027 06:38:49.129   02 Jun 2027 06:40:23.772            94.643               Magadan1          2957.594
       118   02 Jun 2027 06:40:44.508   02 Jun 2027 06:40:59.404            14.896                Anadyr2           465.500
       119   02 Jun 2027 08:13:11.137   02 Jun 2027 08:16:18.754           187.617                Anadyr2          5863.031
       120   02 Jun 2027 08:25:07.943   02 Jun 2027 08:25:26.996            19.053                 Moscow           595.406
       121   02 Jun 2027 09:44:58.651   02 Jun 2027 09:45:25.558            26.907               Magadan2           840.844
       122   02 Jun 2027 09:45:51.977   02 Jun 2027 09:46:04.807            12.830               Magadan2           400.937
       123   02 Jun 2027 09:46:06.168   02 Jun 2027 09:48:32.173           146.005                Anadyr1          4562.656
       124   02 Jun 2027 09:48:46.050   02 Jun 2027 09:49:51.318            65.268               Magadan1          2039.625
       125   02 Jun 2027 09:50:15.578   02 Jun 2027 09:51:01.740            46.162                Irkutsk          1442.563
       126   02 Jun 2027 09:51:13.210   02 Jun 2027 09:51:58.413            45.203                Irkutsk          1412.594
       127   02 Jun 2027 09:52:03.883   02 Jun 2027 09:52:05.015             1.132                Norilsk            35.375
       128   02 Jun 2027 09:52:24.907   02 Jun 2027 09:52:39.145            14.238                Norilsk           444.937
       129   02 Jun 2027 10:27:28.847   02 Jun 2027 10:27:58.406            29.559            RioGallegos           923.719
       130   02 Jun 2027 10:30:17.169   02 Jun 2027 10:30:42.789            25.620            RioGallegos           800.625
       131   02 Jun 2027 11:04:38.274   02 Jun 2027 11:06:33.506           115.232                Sumatra          3601.000
       132   02 Jun 2027 11:22:08.247   02 Jun 2027 11:26:11.165           242.918               Magadan1          7591.188
       133   02 Jun 2027 11:27:01.515   02 Jun 2027 11:27:22.847            21.332                Novosib           666.625
       134   02 Jun 2027 11:27:29.027   02 Jun 2027 11:27:50.248            21.221                Novosib           663.156
       135   02 Jun 2027 11:27:53.463   02 Jun 2027 11:28:20.706            27.243                Novosib           851.344
       136   02 Jun 2027 12:03:31.819   02 Jun 2027 12:04:57.267            85.448            RioGallegos          2670.250
       137   02 Jun 2027 12:38:00.034   02 Jun 2027 12:38:57.371            57.337                Sumatra          1791.781
       138   02 Jun 2027 12:50:27.805   02 Jun 2027 12:51:00.963            33.158                  Delhi          1036.188
       139   02 Jun 2027 12:52:38.992   02 Jun 2027 12:53:31.816            52.824                Irkutsk          1650.750
       140   02 Jun 2027 12:54:06.469   02 Jun 2027 12:55:02.865            56.396                Novosib          1762.375
       141   02 Jun 2027 12:56:39.511   02 Jun 2027 12:57:22.473            42.962                Norilsk          1342.563
       142   02 Jun 2027 12:57:44.048   02 Jun 2027 12:57:53.160             9.112                Irkutsk           284.750
       143   02 Jun 2027 13:45:42.882   02 Jun 2027 13:47:45.468           122.586            RioGallegos          3830.813
       144   02 Jun 2027 14:22:31.921   02 Jun 2027 14:22:45.411            13.490                  Delhi           421.563
       145   02 Jun 2027 14:25:03.684   02 Jun 2027 14:27:14.977           131.293                  Delhi          4102.906
       146   02 Jun 2027 14:30:36.741   02 Jun 2027 14:31:16.593            39.852                Novosib          1245.375
       147   02 Jun 2027 14:34:06.075   02 Jun 2027 14:35:44.281            98.206                Novosib          3068.937
       148   02 Jun 2027 14:35:45.310   02 Jun 2027 14:36:06.168            20.858                Norilsk           651.813
       149   02 Jun 2027 14:37:14.280   02 Jun 2027 14:37:40.080            25.800                Norilsk           806.250
       150   02 Jun 2027 14:38:18.546   02 Jun 2027 14:39:26.575            68.029                Norilsk          2125.906
       151   02 Jun 2027 16:06:32.192   02 Jun 2027 16:09:27.609           175.417                 Moscow          5481.781
       152   02 Jun 2027 16:10:02.303   02 Jun 2027 16:10:57.703            55.400              Murmansk1          1731.250
       153   02 Jun 2027 16:14:58.118   02 Jun 2027 16:19:34.025           275.907                Norilsk          8622.094
       154   02 Jun 2027 17:44:32.951   02 Jun 2027 17:45:44.772            71.821                 Moscow          2244.406
       155   02 Jun 2027 17:47:25.856   02 Jun 2027 17:49:13.822           107.966              Murmansk1          3373.938
       156   02 Jun 2027 17:50:49.016   02 Jun 2027 17:51:51.697            62.681              Murmansk2          1958.781
       157   02 Jun 2027 18:00:53.911   02 Jun 2027 18:01:15.563            21.652                Anadyr1           676.625
       158   02 Jun 2027 18:04:00.320   02 Jun 2027 18:04:06.142             5.822                Anadyr1           181.937
       159   02 Jun 2027 18:06:03.882   02 Jun 2027 18:06:24.195            20.313                Anadyr2           634.781
       160   02 Jun 2027 18:56:11.282   02 Jun 2027 18:57:55.494           104.212               CapeTown          3256.625
       161   02 Jun 2027 19:04:52.505   02 Jun 2027 19:05:15.891            23.386               CapeTown           730.812
       162   02 Jun 2027 19:27:14.529   02 Jun 2027 19:31:00.099           225.570              Murmansk2          7049.063
       163   02 Jun 2027 19:31:00.099   02 Jun 2027 19:31:58.982            58.883              Murmansk1          1840.094
       164   02 Jun 2027 19:32:50.667   02 Jun 2027 19:34:28.976            98.309              Murmansk2          3072.156
       165   02 Jun 2027 21:12:30.901   02 Jun 2027 21:14:06.406            95.505                Anadyr1          2984.531
       166   02 Jun 2027 21:14:09.912   02 Jun 2027 21:16:40.216           150.304                Anadyr2          4697.000
       167   02 Jun 2027 21:16:45.678   02 Jun 2027 21:18:21.725            96.047               Magadan1          3001.469
       168   02 Jun 2027 21:18:36.142   02 Jun 2027 21:19:22.532            46.390               Magadan2          1449.688
       169   02 Jun 2027 21:19:38.059   02 Jun 2027 21:20:05.050            26.991               Magadan2           843.469
       170   02 Jun 2027 21:23:03.859   02 Jun 2027 21:23:07.239             3.380               Magadan2           105.625
       171   02 Jun 2027 21:23:07.239   02 Jun 2027 21:23:14.852             7.613               Magadan1           237.906
       172   02 Jun 2027 21:23:33.262   02 Jun 2027 21:24:33.109            59.847               Magadan1          1870.219
       173   02 Jun 2027 22:08:29.998   02 Jun 2027 22:11:06.631           156.633            RioGallegos          4894.781
       174   02 Jun 2027 22:48:20.050   02 Jun 2027 22:50:57.224           157.174                Anadyr1          4911.688
       175   02 Jun 2027 22:51:16.573   02 Jun 2027 22:52:09.629            53.056                Norilsk          1658.000
       176   02 Jun 2027 22:53:11.295   02 Jun 2027 22:53:33.008            21.713                Norilsk           678.531
       177   02 Jun 2027 22:53:40.793   02 Jun 2027 22:54:05.033            24.240               Magadan1           757.500
       178   02 Jun 2027 22:55:03.418   02 Jun 2027 22:55:26.005            22.587               Magadan2           705.844
       179   02 Jun 2027 22:55:34.786   02 Jun 2027 22:55:57.733            22.947                Irkutsk           717.094
       180   02 Jun 2027 22:57:06.645   02 Jun 2027 22:57:41.841            35.196                Irkutsk          1099.875
       181   02 Jun 2027 22:59:32.888   02 Jun 2027 22:59:37.523             4.635                Irkutsk           144.844
       182   02 Jun 2027 23:10:10.591   02 Jun 2027 23:12:31.231           140.640                Sumatra          4395.000
       183   02 Jun 2027 23:14:14.949   02 Jun 2027 23:15:38.214            83.265                Sumatra          2602.031
       184   03 Jun 2027 00:23:35.577   03 Jun 2027 00:23:54.400            18.823                Anadyr2           588.219
       185   03 Jun 2027 00:25:32.191   03 Jun 2027 00:25:59.434            27.243                Anadyr1           851.344
       186   03 Jun 2027 00:26:09.396   03 Jun 2027 00:26:40.438            31.042                Anadyr2           970.062
       187   03 Jun 2027 00:26:52.291   03 Jun 2027 00:28:47.262           114.971               Magadan1          3592.844
       188   03 Jun 2027 00:29:15.315   03 Jun 2027 00:29:41.175            25.860               Magadan1           808.125
       189   03 Jun 2027 00:30:09.132   03 Jun 2027 00:30:52.828            43.696                Irkutsk          1365.500
       190   03 Jun 2027 00:30:58.728   03 Jun 2027 00:32:18.191            79.463                Novosib          2483.219
       191   03 Jun 2027 00:34:51.128   03 Jun 2027 00:35:37.119            45.991                Novosib          1437.219
       192   03 Jun 2027 00:40:31.150   03 Jun 2027 00:42:07.052            95.902                  Delhi          2996.938
       193   03 Jun 2027 00:52:06.501   03 Jun 2027 00:52:24.150            17.649                Sumatra           551.531
       194   03 Jun 2027 00:54:06.942   03 Jun 2027 00:55:35.295            88.353                Sumatra          2761.031
       195   03 Jun 2027 01:30:06.852   03 Jun 2027 01:30:20.498            13.646            RioGallegos           426.437
       196   03 Jun 2027 01:57:44.237   03 Jun 2027 01:57:55.781            11.544                Anadyr1           360.750
       197   03 Jun 2027 01:58:50.538   03 Jun 2027 01:59:14.447            23.909                Anadyr1           747.156
       198   03 Jun 2027 01:59:41.424   03 Jun 2027 02:00:14.427            33.003                Anadyr1          1031.344
       199   03 Jun 2027 02:02:15.013   03 Jun 2027 02:03:55.259           100.246                Norilsk          3132.687
       200   03 Jun 2027 02:05:05.229   03 Jun 2027 02:06:15.471            70.242              Murmansk1          2195.062
       201   03 Jun 2027 02:06:16.780   03 Jun 2027 02:06:41.450            24.670                Novosib           770.937
       202   03 Jun 2027 02:06:59.091   03 Jun 2027 02:07:21.918            22.827                Irkutsk           713.344
       203   03 Jun 2027 02:08:51.377   03 Jun 2027 02:09:18.778            27.401                Novosib           856.281
       204   03 Jun 2027 02:12:18.426   03 Jun 2027 02:13:22.218            63.792                Irkutsk          1993.500
       205   03 Jun 2027 02:21:24.936   03 Jun 2027 02:22:05.173            40.237                  Delhi          1257.406
       206   03 Jun 2027 02:55:23.114   03 Jun 2027 02:59:07.573           224.459            RioGallegos          7014.344
       207   03 Jun 2027 02:59:49.275   03 Jun 2027 03:00:04.393            15.118            RioGallegos           472.438
       208   03 Jun 2027 03:44:24.473   03 Jun 2027 03:44:37.290            12.817                Irkutsk           400.531
       209   03 Jun 2027 03:44:38.940   03 Jun 2027 03:46:19.139           100.199                Irkutsk          3131.219
       210   03 Jun 2027 03:49:05.157   03 Jun 2027 03:49:38.772            33.615              Murmansk2          1050.469
       211   03 Jun 2027 03:49:43.896   03 Jun 2027 03:50:00.506            16.610                Norilsk           519.062
       212   03 Jun 2027 03:50:23.563   03 Jun 2027 03:50:38.742            15.179              Murmansk1           474.344
       213   03 Jun 2027 03:50:42.317   03 Jun 2027 03:51:48.610            66.293                Novosib          2071.656
       214   03 Jun 2027 05:24:29.323   03 Jun 2027 05:25:16.523            47.200                Novosib          1475.000
       215   03 Jun 2027 05:28:29.697   03 Jun 2027 05:28:34.070             4.373                 Moscow           136.656
       216   03 Jun 2027 05:29:09.580   03 Jun 2027 05:29:14.557             4.977                 Moscow           155.531
       217   03 Jun 2027 05:29:25.421   03 Jun 2027 05:29:34.508             9.087                 Moscow           283.969
       218   03 Jun 2027 05:43:27.449   03 Jun 2027 05:45:58.437           150.988               CapeTown          4718.375
       219   03 Jun 2027 06:46:25.736   03 Jun 2027 06:47:17.383            51.647                Anadyr1          1613.969
       220   03 Jun 2027 06:47:30.857   03 Jun 2027 06:47:39.077             8.220               Magadan2           256.875
       221   03 Jun 2027 06:47:51.470   03 Jun 2027 06:48:25.190            33.720                Anadyr1          1053.750
       222   03 Jun 2027 06:48:38.306   03 Jun 2027 06:48:49.977            11.671               Magadan2           364.719
       223   03 Jun 2027 06:49:14.197   03 Jun 2027 06:49:15.560             1.363               Magadan2            42.594
       224   03 Jun 2027 06:49:19.212   03 Jun 2027 06:49:44.297            25.085                Anadyr1           783.906
       225   03 Jun 2027 06:51:00.407   03 Jun 2027 06:51:07.375             6.968                Anadyr1           217.750
       226   03 Jun 2027 06:51:44.776   03 Jun 2027 06:52:23.466            38.690                Anadyr1          1209.063
       227   03 Jun 2027 07:23:44.242   03 Jun 2027 07:27:00.739           196.497               CapeTown          6140.531
       228   03 Jun 2027 08:22:50.736   03 Jun 2027 08:22:54.504             3.768               Magadan2           117.750
       229   03 Jun 2027 08:22:57.419   03 Jun 2027 08:23:04.785             7.366                Anadyr1           230.187
       230   03 Jun 2027 08:23:07.251   03 Jun 2027 08:23:58.025            50.774                Anadyr2          1586.687
       231   03 Jun 2027 08:24:16.317   03 Jun 2027 08:24:27.013            10.696               Magadan2           334.250
       232   03 Jun 2027 08:24:56.006   03 Jun 2027 08:25:25.320            29.314               Magadan1           916.062
       233   03 Jun 2027 08:25:25.320   03 Jun 2027 08:26:36.069            70.749               Magadan2          2210.906
       234   03 Jun 2027 09:58:21.723   03 Jun 2027 09:58:55.376            33.653               Magadan1          1051.656
       235   03 Jun 2027 09:59:25.656   03 Jun 2027 10:00:44.991            79.335               Magadan1          2479.219
       236   03 Jun 2027 10:00:59.286   03 Jun 2027 10:01:52.281            52.995                Irkutsk          1656.094
       237   03 Jun 2027 10:02:20.556   03 Jun 2027 10:02:48.556            28.000                Irkutsk           875.000
       238   03 Jun 2027 10:02:56.661   03 Jun 2027 10:04:05.324            68.663                Irkutsk          2145.719
       239   03 Jun 2027 10:04:13.769   03 Jun 2027 10:04:19.400             5.631                Norilsk           175.969
       240   03 Jun 2027 10:04:32.475   03 Jun 2027 10:04:39.607             7.132                Norilsk           222.875
       241   03 Jun 2027 10:39:19.760   03 Jun 2027 10:40:19.272            59.512            RioGallegos          1859.750
       242   03 Jun 2027 10:44:35.180   03 Jun 2027 10:45:26.052            50.872            RioGallegos          1589.750
       243   03 Jun 2027 11:18:49.460   03 Jun 2027 11:19:03.985            14.525                Sumatra           453.906
       244   03 Jun 2027 11:21:35.290   03 Jun 2027 11:22:09.580            34.290                Sumatra          1071.563
       245   03 Jun 2027 11:34:56.709   03 Jun 2027 11:35:31.852            35.143                Irkutsk          1098.219
       246   03 Jun 2027 11:36:37.156   03 Jun 2027 11:36:55.324            18.168                Irkutsk           567.750
       247   03 Jun 2027 11:37:09.054   03 Jun 2027 11:38:10.981            61.927                Irkutsk          1935.219
       248   03 Jun 2027 11:38:24.979   03 Jun 2027 11:39:04.475            39.496                Norilsk          1234.250
       249   03 Jun 2027 11:39:12.893   03 Jun 2027 11:39:15.933             3.040                Novosib            95.000
       250   03 Jun 2027 11:39:20.925   03 Jun 2027 11:39:34.523            13.598                Norilsk           424.938
       251   03 Jun 2027 11:39:36.396   03 Jun 2027 11:39:53.392            16.996                Novosib           531.125
       252   03 Jun 2027 11:40:01.429   03 Jun 2027 11:40:27.300            25.871                Irkutsk           808.469
       253   03 Jun 2027 12:15:51.050   03 Jun 2027 12:16:20.599            29.549            RioGallegos           923.406
       254   03 Jun 2027 12:17:57.851   03 Jun 2027 12:20:16.466           138.615            RioGallegos          4331.719
       255   03 Jun 2027 13:00:07.375   03 Jun 2027 13:00:52.824            45.449                Sumatra          1420.281
       256   03 Jun 2027 13:05:07.882   03 Jun 2027 13:05:42.837            34.955                Irkutsk          1092.344
       257   03 Jun 2027 13:07:12.384   03 Jun 2027 13:08:02.447            50.063                Novosib          1564.469
       258   03 Jun 2027 13:09:28.744   03 Jun 2027 13:10:14.132            45.388                Irkutsk          1418.375
       259   03 Jun 2027 14:34:54.523   03 Jun 2027 14:36:10.263            75.740                  Delhi          2366.875
       260   03 Jun 2027 14:39:18.309   03 Jun 2027 14:40:07.042            48.733                  Delhi          1522.906
       261   03 Jun 2027 14:41:55.803   03 Jun 2027 14:42:58.951            63.148                  Delhi          1973.375
       262   03 Jun 2027 14:43:09.891   03 Jun 2027 14:46:04.535           174.644                Novosib          5457.625
       263   03 Jun 2027 14:47:00.146   03 Jun 2027 14:47:37.550            37.404                Norilsk          1168.875
       264   03 Jun 2027 14:51:30.484   03 Jun 2027 14:51:52.477            21.993                Norilsk           687.281
       265   03 Jun 2027 16:18:37.250   03 Jun 2027 16:21:51.376           194.126                 Moscow          6066.438
       266   03 Jun 2027 16:23:55.904   03 Jun 2027 16:24:57.954            62.050              Murmansk1          1939.063
       267   03 Jun 2027 16:27:51.684   03 Jun 2027 16:32:18.574           266.890                Norilsk          8340.313
       268   03 Jun 2027 17:43:32.289   03 Jun 2027 17:44:07.330            35.041               CapeTown          1095.031
       269   03 Jun 2027 17:57:10.944   03 Jun 2027 18:01:33.659           262.715                 Moscow          8209.844
       270   03 Jun 2027 18:15:53.008   03 Jun 2027 18:16:07.627            14.619                Anadyr1           456.844
       271   03 Jun 2027 19:08:23.577   03 Jun 2027 19:09:55.819            92.242               CapeTown          2882.562
       272   03 Jun 2027 19:16:43.374   03 Jun 2027 19:18:08.490            85.116               CapeTown          2659.875
       273   03 Jun 2027 19:40:01.116   03 Jun 2027 19:44:38.534           277.418              Murmansk1          8669.313
       274   03 Jun 2027 19:44:51.571   03 Jun 2027 19:46:21.636            90.065              Murmansk2          2814.531
       275   03 Jun 2027 21:24:32.499   03 Jun 2027 21:28:17.506           225.007                Anadyr2          7031.469
       276   03 Jun 2027 21:28:21.047   03 Jun 2027 21:30:52.491           151.444               Magadan2          4732.625
       277   03 Jun 2027 21:31:33.390   03 Jun 2027 21:31:46.207            12.817               Magadan2           400.531
       278   03 Jun 2027 21:31:54.336   03 Jun 2027 21:32:16.927            22.591               Magadan2           705.969
       279   03 Jun 2027 21:33:53.396   03 Jun 2027 21:34:22.425            29.029               Magadan2           907.156
       280   03 Jun 2027 21:35:58.654   03 Jun 2027 21:36:03.065             4.411               Magadan1           137.844
       281   03 Jun 2027 22:19:54.611   03 Jun 2027 22:22:51.175           176.564            RioGallegos          5517.625
       282   03 Jun 2027 22:24:56.995   03 Jun 2027 22:25:08.530            11.535            RioGallegos           360.469
       283   03 Jun 2027 22:25:22.329   03 Jun 2027 22:25:47.788            25.459            RioGallegos           795.594
       284   03 Jun 2027 23:00:19.203   03 Jun 2027 23:02:22.903           123.700                Anadyr2          3865.625
       285   03 Jun 2027 23:02:24.902   03 Jun 2027 23:03:19.065            54.163                Norilsk          1692.594
       286   03 Jun 2027 23:04:01.635   03 Jun 2027 23:04:05.677             4.042               Magadan2           126.312
       287   03 Jun 2027 23:04:15.558   03 Jun 2027 23:04:35.584            20.026               Magadan1           625.813
       288   03 Jun 2027 23:05:19.098   03 Jun 2027 23:05:32.296            13.198               Magadan2           412.438
       289   03 Jun 2027 23:07:02.974   03 Jun 2027 23:07:56.093            53.119                Irkutsk          1659.969
       290   03 Jun 2027 23:09:05.395   03 Jun 2027 23:09:30.517            25.122                Irkutsk           785.062
       291   03 Jun 2027 23:14:56.350   03 Jun 2027 23:15:49.721            53.371                Irkutsk          1667.844
       292   03 Jun 2027 23:21:28.050   03 Jun 2027 23:22:54.443            86.393                Sumatra          2699.781
       293   03 Jun 2027 23:26:36.982   03 Jun 2027 23:27:33.796            56.814                Sumatra          1775.437
       294   04 Jun 2027 00:04:54.190   04 Jun 2027 00:05:36.556            42.366            RioGallegos          1323.937
       295   04 Jun 2027 00:35:27.703   04 Jun 2027 00:35:38.638            10.935                Anadyr1           341.719
       296   04 Jun 2027 00:35:41.090   04 Jun 2027 00:37:37.226           116.136                Anadyr2          3629.250
       297   04 Jun 2027 00:38:16.205   04 Jun 2027 00:38:43.566            27.361                Norilsk           855.031
       298   04 Jun 2027 00:38:55.421   04 Jun 2027 00:39:02.638             7.217               Magadan1           225.531
       299   04 Jun 2027 00:39:09.918   04 Jun 2027 00:39:41.063            31.145                Norilsk           973.281
       300   04 Jun 2027 00:40:11.712   04 Jun 2027 00:40:29.357            17.645               Magadan2           551.406
       301   04 Jun 2027 00:41:28.386   04 Jun 2027 00:41:29.072             0.686               Magadan1            21.438
       302   04 Jun 2027 00:42:09.524   04 Jun 2027 00:45:14.912           185.388                Irkutsk          5793.375
       303   04 Jun 2027 00:51:32.890   04 Jun 2027 00:51:54.931            22.041                  Delhi           688.781
       304   04 Jun 2027 00:53:43.563   04 Jun 2027 00:54:02.860            19.297                  Delhi           603.031
       305   04 Jun 2027 00:54:54.786   04 Jun 2027 00:55:13.157            18.371                  Delhi           574.094
       306   04 Jun 2027 00:56:20.181   04 Jun 2027 00:57:59.680            99.499                Sumatra          3109.344
       307   04 Jun 2027 01:31:25.267   04 Jun 2027 01:31:29.701             4.434            RioGallegos           138.563
       308   04 Jun 2027 01:32:24.737   04 Jun 2027 01:32:43.098            18.361            RioGallegos           573.781
       309   04 Jun 2027 01:35:16.889   04 Jun 2027 01:35:21.772             4.883            RioGallegos           152.594
       310   04 Jun 2027 01:35:39.946   04 Jun 2027 01:36:03.035            23.089            RioGallegos           721.531
       311   04 Jun 2027 01:40:01.242   04 Jun 2027 01:40:31.373            30.131            RioGallegos           941.594
       312   04 Jun 2027 02:09:41.282   04 Jun 2027 02:10:16.258            34.976                Anadyr1          1093.000
       313   04 Jun 2027 02:11:14.742   04 Jun 2027 02:11:33.194            18.452                Anadyr2           576.625
       314   04 Jun 2027 02:14:15.627   04 Jun 2027 02:14:30.442            14.815                Anadyr2           462.969
       315   04 Jun 2027 02:14:40.977   04 Jun 2027 02:16:10.655            89.678                Norilsk          2802.438
       316   04 Jun 2027 02:16:55.555   04 Jun 2027 02:18:17.175            81.620              Murmansk1          2550.625
       317   04 Jun 2027 02:18:25.006   04 Jun 2027 02:19:23.802            58.796                Irkutsk          1837.375
       318   04 Jun 2027 02:20:04.196   04 Jun 2027 02:20:04.948             0.752                Irkutsk            23.500
       319   04 Jun 2027 02:22:48.680   04 Jun 2027 02:24:04.505            75.825                Irkutsk          2369.531
       320   04 Jun 2027 02:34:46.571   04 Jun 2027 02:35:02.306            15.735                  Delhi           491.719
       321   04 Jun 2027 02:36:50.908   04 Jun 2027 02:37:08.878            17.970                  Delhi           561.563
       322   04 Jun 2027 03:07:47.113   04 Jun 2027 03:12:12.682           265.569            RioGallegos          8299.031
       323   04 Jun 2027 03:12:50.131   04 Jun 2027 03:13:02.121            11.990            RioGallegos           374.687
       324   04 Jun 2027 03:59:10.838   04 Jun 2027 03:59:16.354             5.516                Norilsk           172.375
       325   04 Jun 2027 03:59:45.611   04 Jun 2027 04:00:24.515            38.904                Norilsk          1215.750
       326   04 Jun 2027 04:00:49.868   04 Jun 2027 04:01:37.101            47.233                Novosib          1476.031
       327   04 Jun 2027 04:01:45.417   04 Jun 2027 04:01:59.163            13.746                Norilsk           429.563
       328   04 Jun 2027 04:02:37.757   04 Jun 2027 04:05:14.177           156.420                Novosib          4888.125
       329   04 Jun 2027 04:05:31.542   04 Jun 2027 04:08:45.319           193.777                  Delhi          6055.531
       330   04 Jun 2027 05:26:40.644   04 Jun 2027 05:27:29.513            48.869               Magadan1          1527.156
       331   04 Jun 2027 05:36:12.229   04 Jun 2027 05:36:29.967            17.738                Novosib           554.312
       332   04 Jun 2027 05:36:34.523   04 Jun 2027 05:37:21.579            47.056                 Moscow          1470.500
       333   04 Jun 2027 05:38:44.969   04 Jun 2027 05:39:13.363            28.394                 Moscow           887.312
       334   04 Jun 2027 05:55:33.502   04 Jun 2027 05:57:43.648           130.146               CapeTown          4067.062
       335   04 Jun 2027 06:58:01.336   04 Jun 2027 06:59:18.514            77.178                Anadyr1          2411.812
       336   04 Jun 2027 06:59:33.436   04 Jun 2027 07:00:01.590            28.154               Magadan1           879.813
       337   04 Jun 2027 07:00:03.288   04 Jun 2027 07:00:42.204            38.916                Anadyr1          1216.125
       338   04 Jun 2027 07:00:45.502   04 Jun 2027 07:00:53.276             7.774               Magadan1           242.938
       339   04 Jun 2027 07:04:18.238   04 Jun 2027 07:05:08.960            50.722                Anadyr2          1585.062
       340   04 Jun 2027 08:34:53.485   04 Jun 2027 08:35:15.193            21.708                Anadyr2           678.375
       341   04 Jun 2027 08:35:17.738   04 Jun 2027 08:35:19.670             1.932               Magadan2            60.375
       342   04 Jun 2027 08:35:26.402   04 Jun 2027 08:36:08.930            42.528                Anadyr1          1329.000
       343   04 Jun 2027 08:36:08.930   04 Jun 2027 08:37:11.115            62.185                Anadyr2          1943.281
       344   04 Jun 2027 08:37:29.538   04 Jun 2027 08:38:43.281            73.743               Magadan1          2304.469
       345   04 Jun 2027 08:39:05.398   04 Jun 2027 08:40:14.813            69.415                Anadyr1          2169.219
       346   04 Jun 2027 10:10:13.761   04 Jun 2027 10:10:35.719            21.958               Magadan1           686.187
       347   04 Jun 2027 10:10:42.593   04 Jun 2027 10:11:33.367            50.774               Magadan1          1586.687
       348   04 Jun 2027 10:12:25.241   04 Jun 2027 10:12:43.077            17.836               Magadan2           557.375
       349   04 Jun 2027 10:12:43.077   04 Jun 2027 10:13:22.736            39.659               Magadan1          1239.344
       350   04 Jun 2027 10:13:33.994   04 Jun 2027 10:13:43.236             9.242                Norilsk           288.813
       351   04 Jun 2027 10:14:24.750   04 Jun 2027 10:14:27.245             2.495                Irkutsk            77.969
       352   04 Jun 2027 10:14:42.110   04 Jun 2027 10:15:31.568            49.458               Magadan1          1545.562
       353   04 Jun 2027 10:15:36.685   04 Jun 2027 10:15:57.097            20.412               Magadan1           637.875
       354   04 Jun 2027 10:15:59.868   04 Jun 2027 10:16:14.972            15.104                Norilsk           472.000
       355   04 Jun 2027 10:16:39.575   04 Jun 2027 10:17:03.607            24.032                Norilsk           751.000
       356   04 Jun 2027 10:51:13.889   04 Jun 2027 10:51:54.672            40.783            RioGallegos          1274.469
       357   04 Jun 2027 10:52:19.133   04 Jun 2027 10:53:05.479            46.346            RioGallegos          1448.312
       358   04 Jun 2027 11:30:44.261   04 Jun 2027 11:32:13.015            88.754                Sumatra          2773.563
       359   04 Jun 2027 11:47:35.744   04 Jun 2027 11:47:49.840            14.096                Irkutsk           440.500
       360   04 Jun 2027 11:47:57.086   04 Jun 2027 11:48:15.677            18.591                Norilsk           580.969
       361   04 Jun 2027 11:48:40.251   04 Jun 2027 11:49:12.830            32.579                Irkutsk          1018.094
       362   04 Jun 2027 11:49:31.920   04 Jun 2027 11:49:37.943             6.023                Norilsk           188.219
       363   04 Jun 2027 11:49:46.201   04 Jun 2027 11:49:48.053             1.852                Norilsk            57.875
       364   04 Jun 2027 11:49:57.497   04 Jun 2027 11:50:20.550            23.053                Norilsk           720.406
       365   04 Jun 2027 11:50:37.834   04 Jun 2027 11:51:07.034            29.200                Norilsk           912.500
       366   04 Jun 2027 11:51:20.611   04 Jun 2027 11:52:28.338            67.727                Irkutsk          2116.469
       367   04 Jun 2027 12:28:14.981   04 Jun 2027 12:28:38.571            23.590            RioGallegos           737.187
       368   04 Jun 2027 12:35:58.607   04 Jun 2027 12:37:58.923           120.316            RioGallegos          3759.875
       369   04 Jun 2027 13:10:46.996   04 Jun 2027 13:12:25.249            98.253                Sumatra          3070.406
       370   04 Jun 2027 13:17:42.811   04 Jun 2027 13:18:06.526            23.715                Irkutsk           741.094
       371   04 Jun 2027 13:18:16.200   04 Jun 2027 13:18:24.651             8.451                Novosib           264.094
       372   04 Jun 2027 13:20:20.911   04 Jun 2027 13:20:31.508            10.597                Novosib           331.156
       373   04 Jun 2027 13:20:36.786   04 Jun 2027 13:22:39.878           123.092                Irkutsk          3846.625
       374   04 Jun 2027 14:47:25.449   04 Jun 2027 14:51:18.297           232.848                  Delhi          7276.500
       375   04 Jun 2027 14:55:49.329   04 Jun 2027 14:58:01.869           132.540                Novosib          4141.875
       376   04 Jun 2027 14:58:27.358   04 Jun 2027 15:00:59.074           151.716                Novosib          4741.125
       377   04 Jun 2027 15:01:35.754   04 Jun 2027 15:01:42.146             6.392                Novosib           199.750
       378   04 Jun 2027 16:31:49.984   04 Jun 2027 16:32:34.094            44.110                 Moscow          1378.438
       379   04 Jun 2027 16:33:51.569   04 Jun 2027 16:34:28.943            37.374                 Moscow          1167.937
       380   04 Jun 2027 16:37:24.283   04 Jun 2027 16:38:15.228            50.945              Murmansk1          1592.031
       381   04 Jun 2027 16:40:55.701   04 Jun 2027 16:43:18.526           142.825                Norilsk          4463.281
       382   04 Jun 2027 17:44:17.361   04 Jun 2027 17:45:10.579            53.218               CapeTown          1663.062
       383   04 Jun 2027 17:47:27.492   04 Jun 2027 17:47:51.648            24.156               CapeTown           754.875
       384   04 Jun 2027 17:51:04.796   04 Jun 2027 17:51:14.855            10.059               CapeTown           314.344
       385   04 Jun 2027 17:54:27.910   04 Jun 2027 17:55:17.394            49.484               CapeTown          1546.375
       386   04 Jun 2027 18:09:56.498   04 Jun 2027 18:11:29.359            92.861                 Moscow          2901.906
       387   04 Jun 2027 18:12:11.774   04 Jun 2027 18:13:21.320            69.546              Murmansk2          2173.312
       388   04 Jun 2027 18:16:06.034   04 Jun 2027 18:17:04.061            58.027              Murmansk2          1813.344
       389   04 Jun 2027 18:19:09.663   04 Jun 2027 18:20:41.786            92.123              Murmansk1          2878.844
       390   04 Jun 2027 19:20:39.791   04 Jun 2027 19:21:58.948            79.157               CapeTown          2473.656
       391   04 Jun 2027 19:25:07.888   04 Jun 2027 19:25:22.768            14.880               CapeTown           465.000
       392   04 Jun 2027 19:25:26.537   04 Jun 2027 19:26:05.997            39.460               CapeTown          1233.125
       393   04 Jun 2027 19:52:53.919   04 Jun 2027 19:57:22.189           268.270              Murmansk2          8383.437
       394   04 Jun 2027 20:03:53.035   04 Jun 2027 20:04:16.357            23.322               Magadan2           728.812
       395   04 Jun 2027 20:07:36.576   04 Jun 2027 20:07:52.155            15.579               Magadan1           486.844
       396   04 Jun 2027 20:08:53.111   04 Jun 2027 20:09:19.986            26.875               Magadan2           839.844
       397   04 Jun 2027 20:11:36.432   04 Jun 2027 20:12:02.503            26.071               Magadan2           814.719
       398   04 Jun 2027 21:36:33.956   04 Jun 2027 21:41:43.521           309.565                Anadyr2          9673.906
       399   04 Jun 2027 21:42:05.379   04 Jun 2027 21:44:52.992           167.613               Magadan1          5237.906
       400   04 Jun 2027 22:31:30.820   04 Jun 2027 22:33:49.999           139.179            RioGallegos          4349.344
       401   04 Jun 2027 22:36:37.433   04 Jun 2027 22:36:50.462            13.029            RioGallegos           407.156
       402   04 Jun 2027 22:40:23.291   04 Jun 2027 22:40:33.443            10.152            RioGallegos           317.250
       403   04 Jun 2027 23:12:17.771   04 Jun 2027 23:13:18.996            61.225                Anadyr2          1913.281
       404   04 Jun 2027 23:13:49.390   04 Jun 2027 23:14:08.516            19.126                Anadyr2           597.687
       405   04 Jun 2027 23:14:08.516   04 Jun 2027 23:14:23.493            14.977                Anadyr1           468.031
       406   04 Jun 2027 23:14:24.292   04 Jun 2027 23:16:01.436            97.144                Norilsk          3035.750
       407   04 Jun 2027 23:16:05.884   04 Jun 2027 23:17:20.940            75.056               Magadan1          2345.500
       408   04 Jun 2027 23:18:46.434   04 Jun 2027 23:19:36.357            49.923               Magadan1          1560.094
       409   04 Jun 2027 23:19:39.349   04 Jun 2027 23:19:55.559            16.210                Irkutsk           506.562
       410   04 Jun 2027 23:25:41.647   04 Jun 2027 23:25:54.315            12.668               Magadan2           395.875
       411   04 Jun 2027 23:26:10.181   04 Jun 2027 23:26:44.711            34.530               Magadan2          1079.062
       412   04 Jun 2027 23:28:33.854   04 Jun 2027 23:28:47.268            13.414                Irkutsk           419.188
       413   04 Jun 2027 23:32:57.520   04 Jun 2027 23:33:48.397            50.877                Sumatra          1589.906
       414   04 Jun 2027 23:33:54.550   04 Jun 2027 23:34:23.183            28.633                Sumatra           894.781
       415   04 Jun 2027 23:38:51.642   04 Jun 2027 23:39:19.283            27.641                Sumatra           863.781
       416   05 Jun 2027 00:08:31.176   05 Jun 2027 00:09:28.670            57.494            RioGallegos          1796.688
       417   05 Jun 2027 00:16:05.716   05 Jun 2027 00:16:26.785            21.069            RioGallegos           658.406
       418   05 Jun 2027 00:47:18.556   05 Jun 2027 00:49:37.723           139.167                Anadyr1          4348.969
       419   05 Jun 2027 00:50:26.104   05 Jun 2027 00:50:32.029             5.925                Norilsk           185.156
       420   05 Jun 2027 00:50:58.436   05 Jun 2027 00:51:43.587            45.151               Magadan2          1410.969
       421   05 Jun 2027 00:51:43.587   05 Jun 2027 00:52:13.814            30.227               Magadan1           944.594
       422   05 Jun 2027 00:54:10.840   05 Jun 2027 00:56:14.482           123.642                Irkutsk          3863.812
       423   05 Jun 2027 00:56:52.682   05 Jun 2027 00:57:00.366             7.684                Novosib           240.125
       424   05 Jun 2027 00:57:29.079   05 Jun 2027 00:57:59.072            29.993                Irkutsk           937.281
       425   05 Jun 2027 01:00:37.803   05 Jun 2027 01:00:40.984             3.181                Novosib            99.406
       426   05 Jun 2027 01:01:03.871   05 Jun 2027 01:01:53.321            49.450                Novosib          1545.312
       427   05 Jun 2027 01:02:54.887   05 Jun 2027 01:03:09.088            14.201                  Delhi           443.781
       428   05 Jun 2027 01:07:01.551   05 Jun 2027 01:07:36.755            35.204                  Delhi          1100.125
       429   05 Jun 2027 01:12:43.066   05 Jun 2027 01:14:00.502            77.436                Sumatra          2419.875
       430   05 Jun 2027 01:18:35.288   05 Jun 2027 01:19:32.322            57.034                Sumatra          1782.312
       431   05 Jun 2027 01:49:42.800   05 Jun 2027 01:50:22.728            39.928            RioGallegos          1247.750
       432   05 Jun 2027 02:21:05.529   05 Jun 2027 02:21:32.227            26.698                Anadyr1           834.313
       433   05 Jun 2027 02:23:15.338   05 Jun 2027 02:23:37.944            22.606                Anadyr2           706.438
       434   05 Jun 2027 02:26:19.227   05 Jun 2027 02:27:25.810            66.583                Norilsk          2080.719
       435   05 Jun 2027 02:27:30.768   05 Jun 2027 02:28:13.107            42.339                Norilsk          1323.094
       436   05 Jun 2027 02:28:49.288   05 Jun 2027 02:29:25.929            36.641              Murmansk2          1145.031
       437   05 Jun 2027 02:30:05.563   05 Jun 2027 02:30:49.021            43.458                Novosib          1358.062
       438   05 Jun 2027 02:31:04.951   05 Jun 2027 02:31:22.454            17.503                Irkutsk           546.969
       439   05 Jun 2027 02:32:23.156   05 Jun 2027 02:33:37.371            74.215                Irkutsk          2319.219
       440   05 Jun 2027 02:41:21.308   05 Jun 2027 02:41:37.206            15.898                  Delhi           496.812
       441   05 Jun 2027 02:45:36.140   05 Jun 2027 02:46:10.664            34.524                  Delhi          1078.875
       442   05 Jun 2027 03:20:23.086   05 Jun 2027 03:21:54.633            91.547            RioGallegos          2860.844
       443   05 Jun 2027 03:22:30.899   05 Jun 2027 03:24:07.470            96.571            RioGallegos          3017.844
       444   05 Jun 2027 04:11:21.883   05 Jun 2027 04:11:58.133            36.250              Murmansk1          1132.813
       445   05 Jun 2027 04:12:12.969   05 Jun 2027 04:12:59.984            47.015                Norilsk          1469.219
       446   05 Jun 2027 04:13:12.222   05 Jun 2027 04:13:42.087            29.865              Murmansk2           933.281
       447   05 Jun 2027 04:14:02.050   05 Jun 2027 04:14:51.319            49.269              Murmansk1          1539.656
       448   05 Jun 2027 04:14:51.319   05 Jun 2027 04:15:43.680            52.361              Murmansk2          1636.281
       449   05 Jun 2027 04:16:00.914   05 Jun 2027 04:16:51.155            50.241                Novosib          1570.031
       450   05 Jun 2027 04:16:58.689   05 Jun 2027 04:17:28.818            30.129                 Moscow           941.531
       451   05 Jun 2027 04:39:13.230   05 Jun 2027 04:39:42.153            28.923               CapeTown           903.844
       452   05 Jun 2027 04:39:58.296   05 Jun 2027 04:42:08.828           130.532               CapeTown          4079.125
       453   05 Jun 2027 05:38:41.817   05 Jun 2027 05:39:39.292            57.475               Magadan2          1796.094
       454   05 Jun 2027 05:48:42.924   05 Jun 2027 05:49:24.763            41.839                 Moscow          1307.469
       455   05 Jun 2027 05:52:31.388   05 Jun 2027 05:52:43.752            12.364                 Moscow           386.375
       456   05 Jun 2027 06:07:44.983   05 Jun 2027 06:09:34.130           109.147               CapeTown          3410.844
       457   05 Jun 2027 06:14:04.782   05 Jun 2027 06:15:37.824            93.042               CapeTown          2907.562
       458   05 Jun 2027 07:10:33.873   05 Jun 2027 07:10:55.112            21.239               Magadan2           663.719
       459   05 Jun 2027 07:11:00.212   05 Jun 2027 07:11:30.103            29.891               Magadan1           934.094
       460   05 Jun 2027 07:11:42.500   05 Jun 2027 07:12:40.329            57.829               Magadan2          1807.156
       461   05 Jun 2027 07:12:41.477   05 Jun 2027 07:13:01.864            20.387                Anadyr2           637.094
       462   05 Jun 2027 07:13:12.978   05 Jun 2027 07:13:38.390            25.412               Magadan2           794.125
       463   05 Jun 2027 07:14:11.147   05 Jun 2027 07:15:00.655            49.508                Anadyr2          1547.125
       464   05 Jun 2027 08:46:47.934   05 Jun 2027 08:47:43.298            55.364                Anadyr2          1730.125
       465   05 Jun 2027 08:47:43.298   05 Jun 2027 08:47:50.978             7.680                Anadyr1           240.000
       466   05 Jun 2027 08:47:54.528   05 Jun 2027 08:49:10.232            75.704                Anadyr2          2365.750
       467   05 Jun 2027 08:49:27.806   05 Jun 2027 08:49:36.393             8.587               Magadan1           268.344
       468   05 Jun 2027 08:50:05.127   05 Jun 2027 08:52:39.298           154.171                Anadyr1          4817.844
       469   05 Jun 2027 10:22:02.987   05 Jun 2027 10:23:06.815            63.828               Magadan2          1994.625
       470   05 Jun 2027 10:23:19.835   05 Jun 2027 10:23:43.857            24.022               Magadan2           750.687
       471   05 Jun 2027 10:24:21.764   05 Jun 2027 10:25:22.329            60.565                Irkutsk          1892.656
       472   05 Jun 2027 10:25:45.116   05 Jun 2027 10:25:59.160            14.044                Norilsk           438.875
       473   05 Jun 2027 10:26:01.208   05 Jun 2027 10:26:09.582             8.374                Norilsk           261.688
       474   05 Jun 2027 10:26:28.173   05 Jun 2027 10:26:55.955            27.782                Irkutsk           868.188
       475   05 Jun 2027 10:28:01.124   05 Jun 2027 10:28:21.579            20.455                Irkutsk           639.219
       476   05 Jun 2027 11:03:11.278   05 Jun 2027 11:04:17.860            66.582            RioGallegos          2080.688
       477   05 Jun 2027 11:04:58.063   05 Jun 2027 11:05:43.156            45.093            RioGallegos          1409.156
       478   05 Jun 2027 11:38:45.697   05 Jun 2027 11:39:09.044            23.347                Sumatra           729.594
       479   05 Jun 2027 11:53:32.949   05 Jun 2027 11:54:22.033            49.084                  Delhi          1533.875
       480   05 Jun 2027 11:59:08.834   05 Jun 2027 11:59:45.316            36.482                Irkutsk          1140.063
       481   05 Jun 2027 11:59:51.871   05 Jun 2027 12:00:20.032            28.161                Norilsk           880.031
       482   05 Jun 2027 12:01:20.008   05 Jun 2027 12:01:35.182            15.174                Irkutsk           474.187
