uniorb/output/strategy_4/Drop/Drop_KinoSat_110606.txt

KinoSat_110606
-------------------------
    Access    *     Start Time (UTCG)     *     Stop Time (UTCG)  *   Duration (s)        *       Station  *  Data (Mbytes)
         1   01 Jun 2027 03:35:32.054   01 Jun 2027 03:35:49.668            17.614                Anadyr2           550.437
         2   01 Jun 2027 03:36:00.449   01 Jun 2027 03:36:31.453            31.004                Anadyr1           968.875
         3   01 Jun 2027 03:36:34.744   01 Jun 2027 03:36:44.515             9.771                Anadyr1           305.344
         4   01 Jun 2027 03:36:44.515   01 Jun 2027 03:38:03.974            79.459                Anadyr2          2483.094
         5   01 Jun 2027 03:38:30.580   01 Jun 2027 03:38:49.485            18.905               Magadan1           590.781
         6   01 Jun 2027 05:11:41.962   01 Jun 2027 05:11:52.678            10.716               Magadan1           334.875
         7   01 Jun 2027 05:12:04.905   01 Jun 2027 05:14:52.724           167.819               Magadan1          5244.344
         8   01 Jun 2027 05:14:52.724   01 Jun 2027 05:15:31.004            38.280               Magadan2          1196.250
         9   01 Jun 2027 05:15:45.480   01 Jun 2027 05:16:03.803            18.323               Magadan2           572.594
        10   01 Jun 2027 05:16:24.873   01 Jun 2027 05:16:48.634            23.761                Norilsk           742.531
        11   01 Jun 2027 05:17:41.177   01 Jun 2027 05:18:52.484            71.307                Norilsk          2228.344
        12   01 Jun 2027 05:22:45.824   01 Jun 2027 05:22:58.435            12.611              Murmansk2           394.094
        13   01 Jun 2027 05:23:42.592   01 Jun 2027 05:23:53.558            10.966              Murmansk2           342.687
        14   01 Jun 2027 05:24:37.148   01 Jun 2027 05:24:51.436            14.288              Murmansk1           446.500
        15   01 Jun 2027 05:51:17.239   01 Jun 2027 05:54:31.102           193.863            RioGallegos          6058.219
        16   01 Jun 2027 05:55:15.002   01 Jun 2027 05:56:57.853           102.851            RioGallegos          3214.094
        17   01 Jun 2027 06:27:18.657   01 Jun 2027 06:30:37.909           199.252                Sumatra          6226.625
        18   01 Jun 2027 06:31:04.239   01 Jun 2027 06:31:14.608            10.369                Sumatra           324.031
        19   01 Jun 2027 06:47:46.887   01 Jun 2027 06:48:42.291            55.404                Norilsk          1731.375
        20   01 Jun 2027 06:48:51.539   01 Jun 2027 06:50:06.559            75.020                Novosib          2344.375
        21   01 Jun 2027 06:50:17.831   01 Jun 2027 06:52:51.605           153.774                Novosib          4805.437
        22   01 Jun 2027 06:53:13.866   01 Jun 2027 06:53:38.357            24.491              Murmansk2           765.344
        23   01 Jun 2027 07:30:02.259   01 Jun 2027 07:30:09.985             7.726            RioGallegos           241.437
        24   01 Jun 2027 08:02:30.422   01 Jun 2027 08:03:22.131            51.709                Sumatra          1615.906
        25   01 Jun 2027 08:04:39.339   01 Jun 2027 08:06:07.677            88.338                Sumatra          2760.562
        26   01 Jun 2027 08:07:06.725   01 Jun 2027 08:07:21.470            14.745                Sumatra           460.781
        27   01 Jun 2027 08:10:44.356   01 Jun 2027 08:14:42.612           238.256                  Delhi          7445.500
        28   01 Jun 2027 08:25:29.690   01 Jun 2027 08:26:00.415            30.725                 Moscow           960.156
        29   01 Jun 2027 08:26:28.139   01 Jun 2027 08:27:42.410            74.271                 Moscow          2320.969
        30   01 Jun 2027 08:28:47.015   01 Jun 2027 08:29:46.039            59.024                Novosib          1844.500
        31   01 Jun 2027 09:47:58.296   01 Jun 2027 09:48:38.445            40.149                  Delhi          1254.656
        32   01 Jun 2027 09:51:21.082   01 Jun 2027 09:51:49.255            28.173                  Delhi           880.406
        33   01 Jun 2027 10:02:07.723   01 Jun 2027 10:02:24.679            16.956                Norilsk           529.875
        34   01 Jun 2027 10:02:32.096   01 Jun 2027 10:04:31.228           119.132              Murmansk2          3722.875
        35   01 Jun 2027 10:04:31.228   01 Jun 2027 10:05:26.878            55.650              Murmansk1          1739.062
        36   01 Jun 2027 10:06:56.211   01 Jun 2027 10:07:31.206            34.995                 Moscow          1093.594
        37   01 Jun 2027 11:50:28.335   01 Jun 2027 11:54:57.121           268.786                Anadyr1          8399.562
        38   01 Jun 2027 15:03:53.549   01 Jun 2027 15:06:55.619           182.070               Magadan2          5689.688
        39   01 Jun 2027 15:07:39.950   01 Jun 2027 15:09:41.233           121.283               Magadan2          3790.094
        40   01 Jun 2027 15:10:50.430   01 Jun 2027 15:12:55.700           125.270               Magadan2          3914.687
        41   01 Jun 2027 17:32:05.226   01 Jun 2027 17:38:21.508           376.282            RioGallegos         11758.812
        42   01 Jun 2027 18:17:26.560   01 Jun 2027 18:18:50.569            84.009                Norilsk          2625.281
        43   01 Jun 2027 18:23:13.558   01 Jun 2027 18:23:18.543             4.985                Irkutsk           155.781
        44   01 Jun 2027 18:36:34.760   01 Jun 2027 18:39:58.747           203.987                Sumatra          6374.594
        45   01 Jun 2027 19:56:02.587   01 Jun 2027 19:58:12.339           129.752                Novosib          4054.750
        46   01 Jun 2027 20:03:03.340   01 Jun 2027 20:10:36.874           453.534                  Delhi         14172.938
        47   01 Jun 2027 21:28:56.873   01 Jun 2027 21:34:41.856           344.983              Murmansk2         10780.719
        48   01 Jun 2027 21:34:41.921   01 Jun 2027 21:36:15.623            93.702              Murmansk1          2928.188
        49   01 Jun 2027 23:10:22.953   01 Jun 2027 23:11:45.162            82.209                 Moscow          2569.031
        50   01 Jun 2027 23:33:01.269   01 Jun 2027 23:34:05.924            64.655               CapeTown          2020.469
        51   01 Jun 2027 23:36:15.134   01 Jun 2027 23:39:53.581           218.447               CapeTown          6826.469
        52   02 Jun 2027 00:52:41.488   02 Jun 2027 00:52:52.086            10.598                 Moscow           331.187
        53   02 Jun 2027 01:07:46.161   02 Jun 2027 01:09:02.535            76.374               CapeTown          2386.688
        54   02 Jun 2027 01:11:42.914   02 Jun 2027 01:12:15.721            32.807               CapeTown          1025.219
        55   02 Jun 2027 01:16:50.530   02 Jun 2027 01:17:33.181            42.651               CapeTown          1332.844
        56   02 Jun 2027 02:04:30.583   02 Jun 2027 02:05:18.662            48.079                Anadyr1          1502.469
        57   02 Jun 2027 02:05:46.511   02 Jun 2027 02:06:20.513            34.002               Magadan2          1062.563
        58   02 Jun 2027 02:06:39.824   02 Jun 2027 02:07:58.676            78.852               Magadan2          2464.125
        59   02 Jun 2027 02:10:07.238   02 Jun 2027 02:10:25.693            18.455               Magadan2           576.719
        60   02 Jun 2027 02:12:37.034   02 Jun 2027 02:12:55.766            18.732               Magadan1           585.375
        61   02 Jun 2027 02:16:21.429   02 Jun 2027 02:16:26.500             5.071                Norilsk           158.469
        62   02 Jun 2027 02:16:40.051   02 Jun 2027 02:17:03.068            23.017              Murmansk2           719.281
        63   02 Jun 2027 02:17:41.984   02 Jun 2027 02:18:19.109            37.125              Murmansk1          1160.156
        64   02 Jun 2027 02:18:28.968   02 Jun 2027 02:18:51.124            22.156              Murmansk2           692.375
        65   02 Jun 2027 02:19:04.236   02 Jun 2027 02:19:13.225             8.989              Murmansk1           280.906
        66   02 Jun 2027 02:19:57.223   02 Jun 2027 02:20:39.160            41.937                 Moscow          1310.531
        67   02 Jun 2027 02:22:13.993   02 Jun 2027 02:23:33.027            79.034                 Moscow          2469.812
        68   02 Jun 2027 03:41:42.291   02 Jun 2027 03:41:47.655             5.364               Magadan2           167.625
        69   02 Jun 2027 03:42:47.501   02 Jun 2027 03:42:53.514             6.013                Anadyr1           187.906
        70   02 Jun 2027 03:43:17.625   02 Jun 2027 03:44:06.969            49.344                Anadyr1          1542.000
        71   02 Jun 2027 03:47:05.960   02 Jun 2027 03:49:12.120           126.160                Anadyr2          3942.500
        72   02 Jun 2027 03:49:12.120   02 Jun 2027 03:50:33.699            81.579                Anadyr1          2549.344
        73   02 Jun 2027 03:50:39.033   02 Jun 2027 03:51:49.571            70.538                Anadyr1          2204.313
        74   02 Jun 2027 03:51:52.441   02 Jun 2027 03:52:49.389            56.948               Magadan2          1779.625
        75   02 Jun 2027 05:24:43.317   02 Jun 2027 05:25:34.052            50.735               Magadan1          1585.469
        76   02 Jun 2027 05:25:34.052   02 Jun 2027 05:25:38.024             3.972               Magadan2           124.125
        77   02 Jun 2027 05:25:47.291   02 Jun 2027 05:27:20.187            92.896               Magadan1          2903.000
        78   02 Jun 2027 05:27:21.127   02 Jun 2027 05:27:39.736            18.609                Irkutsk           581.531
        79   02 Jun 2027 05:27:57.824   02 Jun 2027 05:28:24.671            26.847                Irkutsk           838.969
        80   02 Jun 2027 07:01:21.704   02 Jun 2027 07:04:30.717           189.013                Irkutsk          5906.656
        81   02 Jun 2027 08:40:36.751   02 Jun 2027 08:40:40.230             3.479                Novosib           108.719
        82   02 Jun 2027 08:44:15.880   02 Jun 2027 08:44:24.244             8.364                Norilsk           261.375
        83   02 Jun 2027 08:46:45.974   02 Jun 2027 08:46:49.848             3.874              Murmansk2           121.063
        84   02 Jun 2027 08:46:58.585   02 Jun 2027 08:47:06.047             7.462              Murmansk2           233.187
        85   02 Jun 2027 10:01:09.282   02 Jun 2027 10:04:08.367           179.085                  Delhi          5596.406
        86   02 Jun 2027 10:08:02.906   02 Jun 2027 10:09:23.997            81.091                  Delhi          2534.094
        87   02 Jun 2027 10:15:59.240   02 Jun 2027 10:16:04.511             5.271                Norilsk           164.719
        88   02 Jun 2027 10:16:15.162   02 Jun 2027 10:16:44.994            29.832                Norilsk           932.250
        89   02 Jun 2027 12:02:01.831   02 Jun 2027 12:05:43.586           221.755                Anadyr2          6929.844
        90   02 Jun 2027 12:07:08.827   02 Jun 2027 12:08:02.704            53.877                Anadyr1          1683.656
        91   02 Jun 2027 13:24:39.080   02 Jun 2027 13:24:47.906             8.826              Murmansk1           275.813
        92   02 Jun 2027 13:25:22.596   02 Jun 2027 13:26:04.292            41.696              Murmansk2          1303.000
        93   02 Jun 2027 13:26:48.183   02 Jun 2027 13:27:27.705            39.522              Murmansk1          1235.063
        94   02 Jun 2027 13:28:01.500   02 Jun 2027 13:28:10.710             9.210              Murmansk2           287.812
        95   02 Jun 2027 13:28:49.055   02 Jun 2027 13:29:03.435            14.380              Murmansk1           449.375
        96   02 Jun 2027 13:30:42.358   02 Jun 2027 13:31:02.306            19.948              Murmansk2           623.375
        97   02 Jun 2027 13:32:01.769   02 Jun 2027 13:32:40.784            39.015              Murmansk2          1219.219
        98   02 Jun 2027 13:36:53.193   02 Jun 2027 13:40:44.966           231.773                Anadyr2          7242.906
        99   02 Jun 2027 13:43:55.550   02 Jun 2027 13:44:05.877            10.327                Anadyr1           322.719
       100   02 Jun 2027 13:45:30.292   02 Jun 2027 13:47:09.507            99.215                Anadyr2          3100.469
       101   02 Jun 2027 15:08:10.086   02 Jun 2027 15:08:52.112            42.026              Murmansk2          1313.313
       102   02 Jun 2027 15:12:41.901   02 Jun 2027 15:13:51.132            69.231                Anadyr2          2163.469
       103   02 Jun 2027 15:14:49.028   02 Jun 2027 15:15:03.050            14.022                Anadyr1           438.188
       104   02 Jun 2027 15:15:20.074   02 Jun 2027 15:21:14.059           353.985               Magadan1         11062.031
       105   02 Jun 2027 15:23:44.261   02 Jun 2027 15:26:21.421           157.160               Magadan1          4911.250
       106   02 Jun 2027 16:50:53.820   02 Jun 2027 16:50:55.259             1.439               Magadan2            44.969
       107   02 Jun 2027 16:51:09.929   02 Jun 2027 16:53:05.232           115.303               Magadan1          3603.219
       108   02 Jun 2027 17:43:20.457   02 Jun 2027 17:49:35.956           375.499            RioGallegos         11734.344
       109   02 Jun 2027 18:26:59.332   02 Jun 2027 18:27:50.339            51.007                Norilsk          1593.969
       110   02 Jun 2027 18:28:52.052   02 Jun 2027 18:30:07.620            75.568                Norilsk          2361.500
       111   02 Jun 2027 18:30:47.561   02 Jun 2027 18:31:58.682            71.121                Irkutsk          2222.531
       112   02 Jun 2027 18:32:56.077   02 Jun 2027 18:33:52.537            56.460                Irkutsk          1764.375
       113   02 Jun 2027 18:34:15.030   02 Jun 2027 18:35:39.599            84.569                Novosib          2642.781
       114   02 Jun 2027 18:44:41.104   02 Jun 2027 18:46:16.308            95.204                Sumatra          2975.125
       115   02 Jun 2027 18:48:32.680   02 Jun 2027 18:50:27.712           115.032                Sumatra          3594.750
       116   02 Jun 2027 18:50:52.984   02 Jun 2027 18:51:09.384            16.400                Sumatra           512.500
       117   02 Jun 2027 20:06:15.049   02 Jun 2027 20:06:50.434            35.385                Irkutsk          1105.781
       118   02 Jun 2027 20:07:49.540   02 Jun 2027 20:08:44.027            54.487                Novosib          1702.719
       119   02 Jun 2027 20:13:17.603   02 Jun 2027 20:13:42.693            25.090                Novosib           784.062
       120   02 Jun 2027 20:14:34.928   02 Jun 2027 20:17:58.633           203.705                  Delhi          6365.781
       121   02 Jun 2027 20:18:10.381   02 Jun 2027 20:21:21.138           190.757                  Delhi          5961.156
       122   02 Jun 2027 21:40:51.715   02 Jun 2027 21:48:56.489           484.774              Murmansk2         15149.188
       123   02 Jun 2027 21:50:42.745   02 Jun 2027 21:51:00.451            17.706                 Moscow           553.312
       124   02 Jun 2027 23:22:15.546   02 Jun 2027 23:23:47.562            92.016                 Moscow          2875.500
       125   02 Jun 2027 23:44:34.807   02 Jun 2027 23:48:08.255           213.448               CapeTown          6670.250
       126   03 Jun 2027 00:52:29.469   03 Jun 2027 00:53:26.942            57.473              Murmansk1          1796.031
       127   03 Jun 2027 00:55:01.293   03 Jun 2027 00:55:31.162            29.869              Murmansk2           933.406
       128   03 Jun 2027 00:55:42.473   03 Jun 2027 00:56:45.925            63.452                 Moscow          1982.875
       129   03 Jun 2027 01:00:13.564   03 Jun 2027 01:00:59.041            45.477                 Moscow          1421.156
       130   03 Jun 2027 01:20:02.416   03 Jun 2027 01:20:51.289            48.873               CapeTown          1527.281
       131   03 Jun 2027 01:22:30.145   03 Jun 2027 01:22:36.719             6.574               CapeTown           205.437
       132   03 Jun 2027 01:23:50.616   03 Jun 2027 01:24:11.971            21.355               CapeTown           667.344
       133   03 Jun 2027 01:28:56.966   03 Jun 2027 01:29:54.584            57.618               CapeTown          1800.562
       134   03 Jun 2027 02:16:33.817   03 Jun 2027 02:18:41.045           127.228               Magadan2          3975.875
       135   03 Jun 2027 02:21:42.708   03 Jun 2027 02:21:58.674            15.966               Magadan1           498.938
       136   03 Jun 2027 02:24:24.775   03 Jun 2027 02:24:39.582            14.807                Norilsk           462.719
       137   03 Jun 2027 02:25:45.028   03 Jun 2027 02:25:54.377             9.349               Magadan2           292.156
       138   03 Jun 2027 02:27:04.525   03 Jun 2027 02:27:56.440            51.915                Norilsk          1622.344
       139   03 Jun 2027 02:28:22.734   03 Jun 2027 02:29:32.479            69.745              Murmansk2          2179.531
       140   03 Jun 2027 02:32:03.600   03 Jun 2027 02:32:20.008            16.408                 Moscow           512.750
       141   03 Jun 2027 02:34:40.305   03 Jun 2027 02:35:06.738            26.433                 Moscow           826.031
       142   03 Jun 2027 02:39:32.544   03 Jun 2027 02:39:47.103            14.559                 Moscow           454.969
       143   03 Jun 2027 03:11:30.067   03 Jun 2027 03:13:11.264           101.197            RioGallegos          3162.406
       144   03 Jun 2027 03:57:07.827   03 Jun 2027 03:57:14.548             6.721               Magadan2           210.031
       145   03 Jun 2027 03:58:54.466   03 Jun 2027 03:59:11.612            17.146               Magadan2           535.812
       146   03 Jun 2027 03:59:12.478   03 Jun 2027 04:04:08.163           295.685                Anadyr1          9240.156
       147   03 Jun 2027 04:43:28.849   03 Jun 2027 04:44:53.403            84.554            RioGallegos          2642.313
       148   03 Jun 2027 04:48:55.435   03 Jun 2027 04:50:14.157            78.722            RioGallegos          2460.062
       149   03 Jun 2027 05:35:56.778   03 Jun 2027 05:39:12.575           195.797                Irkutsk          6118.656
       150   03 Jun 2027 05:39:58.502   03 Jun 2027 05:40:30.002            31.500                Irkutsk           984.375
       151   03 Jun 2027 05:41:19.463   03 Jun 2027 05:41:38.884            19.421                Novosib           606.906
       152   03 Jun 2027 07:15:59.451   03 Jun 2027 07:16:11.049            11.598                Norilsk           362.438
       153   03 Jun 2027 07:16:21.634   03 Jun 2027 07:16:48.178            26.544                Norilsk           829.500
       154   03 Jun 2027 07:56:49.845   03 Jun 2027 07:57:04.886            15.041            RioGallegos           470.031
       155   03 Jun 2027 07:58:41.086   03 Jun 2027 07:59:25.421            44.335            RioGallegos          1385.469
       156   03 Jun 2027 08:28:16.711   03 Jun 2027 08:29:55.566            98.855                Sumatra          3089.219
       157   03 Jun 2027 08:49:21.626   03 Jun 2027 08:49:45.939            24.313              Murmansk1           759.781
       158   03 Jun 2027 08:49:48.436   03 Jun 2027 08:50:13.867            25.431              Murmansk1           794.719
       159   03 Jun 2027 08:52:21.000   03 Jun 2027 08:52:22.705             1.705                Norilsk            53.281
       160   03 Jun 2027 10:12:59.400   03 Jun 2027 10:16:07.822           188.422                  Delhi          5888.188
       161   03 Jun 2027 10:31:45.705   03 Jun 2027 10:31:56.245            10.540                Norilsk           329.375
       162   03 Jun 2027 12:08:15.420   03 Jun 2027 12:08:24.100             8.680              Murmansk2           271.250
       163   03 Jun 2027 12:09:04.679   03 Jun 2027 12:09:43.208            38.529              Murmansk2          1204.031
       164   03 Jun 2027 12:13:45.086   03 Jun 2027 12:16:53.322           188.236                Anadyr1          5882.375
       165   03 Jun 2027 12:17:24.999   03 Jun 2027 12:17:38.013            13.014                Anadyr2           406.687
       166   03 Jun 2027 12:19:25.836   03 Jun 2027 12:20:01.609            35.773                Anadyr1          1117.906
       167   03 Jun 2027 13:16:16.325   03 Jun 2027 13:17:10.667            54.342               CapeTown          1698.187
       168   03 Jun 2027 13:37:07.598   03 Jun 2027 13:38:45.622            98.024              Murmansk2          3063.250
       169   03 Jun 2027 13:40:00.184   03 Jun 2027 13:40:44.582            44.398              Murmansk2          1387.438
       170   03 Jun 2027 13:42:25.929   03 Jun 2027 13:42:26.770             0.841              Murmansk1            26.281
       171   03 Jun 2027 13:42:43.131   03 Jun 2027 13:42:49.817             6.686              Murmansk2           208.937
       172   03 Jun 2027 13:43:20.583   03 Jun 2027 13:43:22.339             1.756              Murmansk2            54.875
       173   03 Jun 2027 13:43:56.164   03 Jun 2027 13:44:37.209            41.045              Murmansk1          1282.656
       174   03 Jun 2027 13:45:36.842   03 Jun 2027 13:46:06.730            29.888              Murmansk1           934.000
       175   03 Jun 2027 13:48:52.379   03 Jun 2027 13:50:19.632            87.253                Anadyr2          2726.656
       176   03 Jun 2027 13:50:57.237   03 Jun 2027 13:52:45.538           108.301                Anadyr1          3384.406
       177   03 Jun 2027 13:54:09.611   03 Jun 2027 13:56:33.769           144.158               Magadan1          4504.938
       178   03 Jun 2027 15:24:43.197   03 Jun 2027 15:25:51.521            68.324                Anadyr1          2135.125
       179   03 Jun 2027 15:26:12.589   03 Jun 2027 15:26:55.265            42.676                Anadyr2          1333.625
       180   03 Jun 2027 15:27:15.526   03 Jun 2027 15:27:21.090             5.564               Magadan1           173.875
       181   03 Jun 2027 15:28:51.996   03 Jun 2027 15:32:49.416           237.420               Magadan2          7419.375
       182   03 Jun 2027 15:34:15.004   03 Jun 2027 15:35:46.634            91.630               Magadan1          2863.437
       183   03 Jun 2027 17:00:37.383   03 Jun 2027 17:00:51.389            14.006                Anadyr2           437.687
       184   03 Jun 2027 17:02:54.919   03 Jun 2027 17:04:07.834            72.915               Magadan2          2278.594
       185   03 Jun 2027 17:04:54.135   03 Jun 2027 17:05:30.722            36.587               Magadan2          1143.344
       186   03 Jun 2027 17:06:30.276   03 Jun 2027 17:06:45.571            15.295               Magadan1           477.969
       187   03 Jun 2027 17:07:00.309   03 Jun 2027 17:07:21.945            21.636                Norilsk           676.125
       188   03 Jun 2027 17:11:04.927   03 Jun 2027 17:11:26.121            21.194               Magadan2           662.313
       189   03 Jun 2027 17:11:52.902   03 Jun 2027 17:12:01.872             8.970               Magadan2           280.313
       190   03 Jun 2027 17:55:06.702   03 Jun 2027 18:01:07.069           360.367            RioGallegos         11261.469
       191   03 Jun 2027 18:40:07.954   03 Jun 2027 18:42:45.178           157.224                Norilsk          4913.250
       192   03 Jun 2027 18:43:41.470   03 Jun 2027 18:45:12.703            91.233                Irkutsk          2851.031
       193   03 Jun 2027 18:46:21.261   03 Jun 2027 18:49:48.079           206.818                Novosib          6463.062
       194   03 Jun 2027 18:57:57.903   03 Jun 2027 18:59:05.968            68.065                Sumatra          2127.031
       195   03 Jun 2027 18:59:56.379   03 Jun 2027 19:00:36.183            39.804                Sumatra          1243.875
       196   03 Jun 2027 19:07:04.953   03 Jun 2027 19:07:12.214             7.261                Sumatra           226.906
       197   03 Jun 2027 19:08:06.065   03 Jun 2027 19:08:49.627            43.562                Sumatra          1361.312
       198   03 Jun 2027 20:22:36.365   03 Jun 2027 20:23:59.083            82.718                Novosib          2584.938
       199   03 Jun 2027 20:26:14.358   03 Jun 2027 20:30:02.700           228.342                  Delhi          7135.688
       200   03 Jun 2027 20:31:29.900   03 Jun 2027 20:32:35.552            65.652                  Delhi          2051.625
       201   03 Jun 2027 21:52:48.271   03 Jun 2027 21:58:19.827           331.556              Murmansk1         10361.125
       202   03 Jun 2027 21:58:31.906   03 Jun 2027 22:01:33.582           181.676              Murmansk2          5677.375
       203   03 Jun 2027 22:02:49.314   03 Jun 2027 22:04:17.194            87.880                 Moscow          2746.250
       204   03 Jun 2027 23:31:54.822   03 Jun 2027 23:33:43.757           108.935                 Moscow          3404.219
       205   03 Jun 2027 23:39:06.827   03 Jun 2027 23:39:27.702            20.875                 Moscow           652.344
       206   03 Jun 2027 23:43:27.495   03 Jun 2027 23:43:55.296            27.801                 Moscow           868.781
       207   03 Jun 2027 23:56:14.425   03 Jun 2027 23:58:05.720           111.295               CapeTown          3477.969
       208   04 Jun 2027 00:00:04.872   04 Jun 2027 00:00:42.998            38.126               CapeTown          1191.438
       209   04 Jun 2027 00:04:59.549   04 Jun 2027 00:05:36.641            37.092               CapeTown          1159.125
       210   04 Jun 2027 01:04:31.003   04 Jun 2027 01:05:39.885            68.882              Murmansk2          2152.562
       211   04 Jun 2027 01:07:45.213   04 Jun 2027 01:10:38.746           173.533                 Moscow          5422.906
       212   04 Jun 2027 01:34:18.631   04 Jun 2027 01:35:38.390            79.759               CapeTown          2492.469
       213   04 Jun 2027 02:28:24.070   04 Jun 2027 02:30:16.953           112.883               Magadan1          3527.594
       214   04 Jun 2027 02:30:32.876   04 Jun 2027 02:30:52.772            19.896               Magadan2           621.750
       215   04 Jun 2027 02:33:04.572   04 Jun 2027 02:33:44.986            40.414               Magadan2          1262.937
       216   04 Jun 2027 02:40:19.581   04 Jun 2027 02:40:29.085             9.504                Norilsk           297.000
       217   04 Jun 2027 02:40:49.485   04 Jun 2027 02:41:33.710            44.225              Murmansk2          1382.031
       218   04 Jun 2027 02:42:45.261   04 Jun 2027 02:43:11.107            25.846              Murmansk2           807.687
       219   04 Jun 2027 02:44:10.720   04 Jun 2027 02:45:39.123            88.403                 Moscow          2762.594
       220   04 Jun 2027 02:52:08.742   04 Jun 2027 02:52:14.677             5.935                 Moscow           185.469
       221   04 Jun 2027 03:21:55.822   04 Jun 2027 03:23:28.630            92.808            RioGallegos          2900.250
       222   04 Jun 2027 03:23:47.786   04 Jun 2027 03:24:12.042            24.256            RioGallegos           758.000
       223   04 Jun 2027 03:24:47.809   04 Jun 2027 03:26:06.372            78.563            RioGallegos          2455.094
       224   04 Jun 2027 04:09:17.937   04 Jun 2027 04:09:27.339             9.402               Magadan1           293.812
       225   04 Jun 2027 04:09:46.109   04 Jun 2027 04:11:45.624           119.515               Magadan2          3734.844
       226   04 Jun 2027 04:11:45.624   04 Jun 2027 04:13:32.484           106.860               Magadan1          3339.375
       227   04 Jun 2027 04:13:33.650   04 Jun 2027 04:13:53.596            19.946               Magadan2           623.312
       228   04 Jun 2027 04:13:54.501   04 Jun 2027 04:14:36.716            42.215                Anadyr2          1319.219
       229   04 Jun 2027 04:14:39.380   04 Jun 2027 04:15:02.513            23.133                Anadyr1           722.906
       230   04 Jun 2027 04:52:35.371   04 Jun 2027 04:55:03.220           147.849            RioGallegos          4620.281
       231   04 Jun 2027 05:47:28.293   04 Jun 2027 05:48:21.382            53.089                Irkutsk          1659.031
       232   04 Jun 2027 05:48:35.569   04 Jun 2027 05:49:06.801            31.232                Novosib           976.000
       233   04 Jun 2027 05:49:39.966   04 Jun 2027 05:51:50.491           130.525               Magadan1          4078.906
       234   04 Jun 2027 05:51:58.252   04 Jun 2027 05:52:34.543            36.291                Irkutsk          1134.094
       235   04 Jun 2027 07:28:45.318   04 Jun 2027 07:29:14.830            29.512                Norilsk           922.250
       236   04 Jun 2027 08:09:07.337   04 Jun 2027 08:09:35.315            27.978            RioGallegos           874.312
       237   04 Jun 2027 08:13:32.735   04 Jun 2027 08:14:31.400            58.665            RioGallegos          1833.281
       238   04 Jun 2027 08:42:19.274   04 Jun 2027 08:43:13.383            54.109                Sumatra          1690.906
       239   04 Jun 2027 09:02:33.420   04 Jun 2027 09:02:53.042            19.622                Norilsk           613.187
       240   04 Jun 2027 09:03:17.106   04 Jun 2027 09:03:44.769            27.663                Norilsk           864.469
       241   04 Jun 2027 09:03:48.088   04 Jun 2027 09:03:52.296             4.208                Novosib           131.500
       242   04 Jun 2027 09:04:04.569   04 Jun 2027 09:04:35.960            31.391                Novosib           980.969
       243   04 Jun 2027 10:26:23.960   04 Jun 2027 10:28:43.889           139.929                  Delhi          4372.781
       244   04 Jun 2027 10:42:31.074   04 Jun 2027 10:42:36.903             5.829                Norilsk           182.156
       245   04 Jun 2027 12:10:52.333   04 Jun 2027 12:11:17.932            25.599              Murmansk2           799.969
       246   04 Jun 2027 12:11:45.495   04 Jun 2027 12:12:07.092            21.597              Murmansk2           674.906
       247   04 Jun 2027 12:22:24.533   04 Jun 2027 12:23:07.075            42.542              Murmansk1          1329.437
       248   04 Jun 2027 12:25:33.501   04 Jun 2027 12:31:29.681           356.180                Anadyr2         11130.625
       249   04 Jun 2027 12:31:40.346   04 Jun 2027 12:33:41.695           121.349                Anadyr1          3792.156
       250   04 Jun 2027 13:49:38.880   04 Jun 2027 13:50:06.752            27.872              Murmansk1           871.000
       251   04 Jun 2027 13:50:43.628   04 Jun 2027 13:51:18.533            34.905              Murmansk1          1090.781
       252   04 Jun 2027 13:57:56.679   04 Jun 2027 13:58:06.785            10.106              Murmansk2           315.812
       253   04 Jun 2027 14:00:52.077   04 Jun 2027 14:02:14.805            82.728                Anadyr2          2585.250
       254   04 Jun 2027 14:02:18.553   04 Jun 2027 14:02:52.830            34.277                Anadyr1          1071.156
       255   04 Jun 2027 14:03:15.653   04 Jun 2027 14:04:45.828            90.175                Anadyr1          2817.969
       256   04 Jun 2027 14:05:06.059   04 Jun 2027 14:10:15.366           309.307               Magadan2          9665.844
       257   04 Jun 2027 15:39:12.211   04 Jun 2027 15:43:00.326           228.115               Magadan2          7128.594
       258   04 Jun 2027 15:44:39.770   04 Jun 2027 15:45:36.383            56.613               Magadan2          1769.156
       259   04 Jun 2027 17:12:37.732   04 Jun 2027 17:13:02.716            24.984                Anadyr1           780.750
       260   04 Jun 2027 17:14:31.020   04 Jun 2027 17:14:46.607            15.587                Anadyr2           487.094
       261   04 Jun 2027 17:14:54.845   04 Jun 2027 17:15:12.970            18.125                Anadyr2           566.406
       262   04 Jun 2027 17:15:35.294   04 Jun 2027 17:15:54.977            19.683                Norilsk           615.094
       263   04 Jun 2027 17:16:40.953   04 Jun 2027 17:18:02.785            81.832               Magadan2          2557.250
       264   04 Jun 2027 17:19:08.077   04 Jun 2027 17:19:48.639            40.562                Norilsk          1267.563
       265   04 Jun 2027 17:21:42.166   04 Jun 2027 17:25:10.613           208.447                Irkutsk          6513.969
       266   04 Jun 2027 18:09:03.567   04 Jun 2027 18:10:11.978            68.411            RioGallegos          2137.844
       267   04 Jun 2027 18:17:21.965   04 Jun 2027 18:18:12.854            50.889            RioGallegos          1590.281
       268   04 Jun 2027 18:54:31.894   04 Jun 2027 18:55:19.659            47.765                Norilsk          1492.656
       269   04 Jun 2027 18:55:21.119   04 Jun 2027 18:56:57.136            96.017                Irkutsk          3000.531
       270   04 Jun 2027 18:58:22.476   04 Jun 2027 19:02:59.404           276.928                Novosib          8654.000
       271   04 Jun 2027 19:09:31.688   04 Jun 2027 19:11:16.774           105.086                Sumatra          3283.938
       272   04 Jun 2027 19:18:38.241   04 Jun 2027 19:20:11.986            93.745                Sumatra          2929.531
       273   04 Jun 2027 20:34:18.898   04 Jun 2027 20:34:21.699             2.801                Novosib            87.531
       274   04 Jun 2027 20:34:41.255   04 Jun 2027 20:35:52.957            71.702                Novosib          2240.687
       275   04 Jun 2027 20:37:59.619   04 Jun 2027 20:42:01.108           241.489                  Delhi          7546.531
       276   04 Jun 2027 22:04:46.053   04 Jun 2027 22:11:27.430           401.377              Murmansk2         12543.031
       277   04 Jun 2027 22:11:36.809   04 Jun 2027 22:14:07.387           150.578              Murmansk2          4705.562
       278   04 Jun 2027 22:14:38.755   04 Jun 2027 22:16:06.984            88.229                 Moscow          2757.156
       279   04 Jun 2027 22:39:13.680   04 Jun 2027 22:39:54.982            41.302               CapeTown          1290.688
       280   04 Jun 2027 23:44:27.304   04 Jun 2027 23:45:32.443            65.139                 Moscow          2035.594
       281   05 Jun 2027 00:07:59.531   05 Jun 2027 00:11:44.666           225.135               CapeTown          7035.469
       282   05 Jun 2027 01:16:32.437   05 Jun 2027 01:17:00.597            28.160              Murmansk2           880.000
       283   05 Jun 2027 01:18:50.830   05 Jun 2027 01:19:53.641            62.811              Murmansk2          1962.844
       284   05 Jun 2027 01:19:56.238   05 Jun 2027 01:20:50.999            54.761                 Moscow          1711.281
       285   05 Jun 2027 01:22:34.495   05 Jun 2027 01:22:35.730             1.235                 Moscow            38.594
       286   05 Jun 2027 01:22:38.002   05 Jun 2027 01:24:08.480            90.478                 Moscow          2827.438
       287   05 Jun 2027 01:46:02.492   05 Jun 2027 01:47:11.876            69.384               CapeTown          2168.250
       288   05 Jun 2027 02:40:16.497   05 Jun 2027 02:42:27.114           130.617               Magadan1          4081.781
       289   05 Jun 2027 02:43:06.986   05 Jun 2027 02:43:15.236             8.250               Magadan1           257.813
       290   05 Jun 2027 02:43:49.185   05 Jun 2027 02:44:22.605            33.420               Magadan1          1044.375
       291   05 Jun 2027 02:44:53.568   05 Jun 2027 02:45:00.375             6.807               Magadan1           212.719
       292   05 Jun 2027 02:45:47.479   05 Jun 2027 02:45:54.865             7.386               Magadan2           230.813
       293   05 Jun 2027 02:46:14.298   05 Jun 2027 02:46:15.392             1.094               Magadan1            34.187
       294   05 Jun 2027 02:46:59.881   05 Jun 2027 02:47:13.305            13.424               Magadan1           419.500
       295   05 Jun 2027 02:47:47.744   05 Jun 2027 02:48:37.474            49.730               Magadan1          1554.062
       296   05 Jun 2027 02:52:22.274   05 Jun 2027 02:53:34.770            72.496              Murmansk1          2265.500
       297   05 Jun 2027 02:56:18.742   05 Jun 2027 02:56:58.805            40.063                 Moscow          1251.969
       298   05 Jun 2027 02:57:42.493   05 Jun 2027 02:57:47.104             4.611                 Moscow           144.094
       299   05 Jun 2027 02:59:12.814   05 Jun 2027 02:59:56.395            43.581                 Moscow          1361.906
       300   05 Jun 2027 03:32:53.814   05 Jun 2027 03:35:17.760           143.946            RioGallegos          4498.313
       301   05 Jun 2027 03:38:43.400   05 Jun 2027 03:38:46.285             2.885            RioGallegos            90.156
       302   05 Jun 2027 04:21:23.900   05 Jun 2027 04:25:02.811           218.911               Magadan2          6840.969
       303   05 Jun 2027 04:25:02.811   05 Jun 2027 04:25:35.552            32.741               Magadan1          1023.156
       304   05 Jun 2027 04:25:43.000   05 Jun 2027 04:26:35.100            52.100                Anadyr1          1628.125
       305   05 Jun 2027 04:26:37.444   05 Jun 2027 04:27:56.712            79.268                Anadyr2          2477.125
       306   05 Jun 2027 04:27:57.175   05 Jun 2027 04:27:57.229             0.054                Irkutsk             1.688
       307   05 Jun 2027 04:28:34.855   05 Jun 2027 04:28:41.383             6.528              Murmansk1           204.000
       308   05 Jun 2027 04:28:42.265   05 Jun 2027 04:29:02.963            20.698                Norilsk           646.812
       309   05 Jun 2027 05:04:16.244   05 Jun 2027 05:07:43.266           207.022            RioGallegos          6469.437
       310   05 Jun 2027 05:59:43.597   05 Jun 2027 06:00:43.157            59.560               Magadan1          1861.250
       311   05 Jun 2027 06:00:44.367   05 Jun 2027 06:03:34.602           170.235                Irkutsk          5319.844
       312   05 Jun 2027 06:04:13.985   05 Jun 2027 06:04:38.326            24.341                Irkutsk           760.656
       313   05 Jun 2027 06:05:31.677   05 Jun 2027 06:05:52.381            20.704                Novosib           647.000
       314   05 Jun 2027 07:37:29.197   05 Jun 2027 07:37:58.702            29.505              Murmansk1           922.031
       315   05 Jun 2027 07:38:14.268   05 Jun 2027 07:39:13.945            59.677                 Moscow          1864.906
       316   05 Jun 2027 07:39:31.610   05 Jun 2027 07:40:21.173            49.563                Irkutsk          1548.844
       317   05 Jun 2027 07:42:05.848   05 Jun 2027 07:42:26.018            20.170              Murmansk1           630.313
       318   05 Jun 2027 08:18:52.661   05 Jun 2027 08:19:23.739            31.078            RioGallegos           971.188
       319   05 Jun 2027 08:20:58.784   05 Jun 2027 08:21:08.896            10.112            RioGallegos           316.000
       320   05 Jun 2027 08:24:33.805   05 Jun 2027 08:25:03.677            29.872            RioGallegos           933.500
       321   05 Jun 2027 08:53:53.897   05 Jun 2027 08:55:34.803           100.906                Sumatra          3153.313
       322   05 Jun 2027 09:15:55.965   05 Jun 2027 09:16:40.601            44.636                Novosib          1394.875
       323   05 Jun 2027 10:55:40.850   05 Jun 2027 10:56:12.840            31.990                Norilsk           999.687
       324   05 Jun 2027 12:22:17.643   05 Jun 2027 12:22:41.101            23.458                 Moscow           733.063
       325   05 Jun 2027 12:23:07.267   05 Jun 2027 12:24:15.681            68.414              Murmansk1          2137.937
       326   05 Jun 2027 12:24:49.351   05 Jun 2027 12:25:32.830            43.479              Murmansk2          1358.719
       327   05 Jun 2027 12:26:13.783   05 Jun 2027 12:27:02.040            48.257              Murmansk1          1508.031
       328   05 Jun 2027 12:27:27.880   05 Jun 2027 12:28:31.196            63.316              Murmansk1          1978.625
       329   05 Jun 2027 12:33:21.465   05 Jun 2027 12:33:50.788            29.323              Murmansk1           916.344
       330   05 Jun 2027 12:37:25.171   05 Jun 2027 12:46:21.688           536.517                Anadyr2         16766.156
       331   05 Jun 2027 14:12:52.179   05 Jun 2027 14:13:36.557            44.378                Anadyr2          1386.812
       332   05 Jun 2027 14:16:34.703   05 Jun 2027 14:23:21.821           407.118               Magadan2         12722.438
       333   05 Jun 2027 15:51:09.901   05 Jun 2027 15:53:34.663           144.762               Magadan2          4523.813
       334   05 Jun 2027 15:55:02.381   05 Jun 2027 15:55:11.929             9.548               Magadan2           298.375
       335   05 Jun 2027 15:55:27.769   05 Jun 2027 15:56:13.420            45.651               Magadan2          1426.594
       336   05 Jun 2027 17:24:37.768   05 Jun 2027 17:25:41.138            63.370                Anadyr2          1980.312
       337   05 Jun 2027 17:26:58.026   05 Jun 2027 17:28:06.569            68.543               Magadan1          2141.969
       338   05 Jun 2027 17:30:12.363   05 Jun 2027 17:30:56.254            43.891               Magadan2          1371.594
       339   05 Jun 2027 17:31:05.942   05 Jun 2027 17:32:11.157            65.215                Norilsk          2037.969
       340   05 Jun 2027 17:32:39.688   05 Jun 2027 17:38:45.403           365.715                Irkutsk         11428.594
       341   05 Jun 2027 17:49:36.074   05 Jun 2027 17:52:38.662           182.588                Sumatra          5705.875
       342   05 Jun 2027 19:07:38.667   05 Jun 2027 19:15:06.761           448.094                Novosib         14002.938
       343   05 Jun 2027 20:43:56.245   05 Jun 2027 20:44:28.967            32.722              Murmansk1          1022.562
       344   05 Jun 2027 20:49:49.553   05 Jun 2027 20:51:37.832           108.279                  Delhi          3383.719
       345   05 Jun 2027 20:55:14.348   05 Jun 2027 20:57:01.251           106.903                  Delhi          3340.719
       346   05 Jun 2027 21:00:46.644   05 Jun 2027 21:00:56.138             9.494                  Delhi           296.688
       347   05 Jun 2027 22:16:44.771   05 Jun 2027 22:18:20.773            96.002              Murmansk1          3000.063
       348   05 Jun 2027 22:19:07.492   05 Jun 2027 22:22:29.095           201.603              Murmansk2          6300.094
       349   05 Jun 2027 22:22:35.474   05 Jun 2027 22:27:13.098           277.624                 Moscow          8675.750
       350   05 Jun 2027 22:48:37.808   05 Jun 2027 22:54:04.156           326.348               CapeTown         10198.375
       351   06 Jun 2027 00:27:16.256   06 Jun 2027 00:27:53.764            37.508               CapeTown          1172.125
       352   06 Jun 2027 00:29:48.909   06 Jun 2027 00:30:17.879            28.970               CapeTown           905.313
       353   06 Jun 2027 01:28:33.744   06 Jun 2027 01:30:43.897           130.153              Murmansk2          4067.281
       354   06 Jun 2027 01:31:52.147   06 Jun 2027 01:32:25.350            33.203                 Moscow          1037.594
       355   06 Jun 2027 01:36:28.018   06 Jun 2027 01:36:46.850            18.832                 Moscow           588.500
       356   06 Jun 2027 01:40:08.588   06 Jun 2027 01:40:21.199            12.611                 Moscow           394.094
       357   06 Jun 2027 01:41:29.988   06 Jun 2027 01:41:36.405             6.417                 Moscow           200.531
       358   06 Jun 2027 01:42:19.580   06 Jun 2027 01:42:59.793            40.213                 Moscow          1256.656
       359   06 Jun 2027 02:02:18.606   06 Jun 2027 02:02:31.861            13.255               CapeTown           414.219
       360   06 Jun 2027 02:05:28.833   06 Jun 2027 02:05:36.079             7.246               CapeTown           226.437
       361   06 Jun 2027 02:06:28.744   06 Jun 2027 02:06:51.290            22.546               CapeTown           704.563
       362   06 Jun 2027 02:52:11.153   06 Jun 2027 02:54:17.827           126.674               Magadan1          3958.562
       363   06 Jun 2027 02:54:42.367   06 Jun 2027 02:55:23.823            41.456               Magadan2          1295.500
       364   06 Jun 2027 02:55:49.129   06 Jun 2027 02:55:59.540            10.411               Magadan1           325.344
       365   06 Jun 2027 02:56:25.296   06 Jun 2027 02:56:28.794             3.498               Magadan2           109.312
       366   06 Jun 2027 02:57:13.991   06 Jun 2027 02:57:29.877            15.886               Magadan1           496.438
       367   06 Jun 2027 02:57:52.912   06 Jun 2027 02:58:07.722            14.810               Magadan2           462.813
       368   06 Jun 2027 02:59:36.340   06 Jun 2027 02:59:48.841            12.501               Magadan2           390.656
       369   06 Jun 2027 03:00:00.606   06 Jun 2027 03:00:31.087            30.481                Norilsk           952.531
       370   06 Jun 2027 03:00:44.829   06 Jun 2027 03:02:19.039            94.210                Anadyr2          2944.062
       371   06 Jun 2027 03:03:01.583   06 Jun 2027 03:03:14.836            13.253                Anadyr1           414.156
       372   06 Jun 2027 03:44:44.084   06 Jun 2027 03:46:19.321            95.237            RioGallegos          2976.156
       373   06 Jun 2027 03:47:49.626   06 Jun 2027 03:47:58.354             8.728            RioGallegos           272.750
       374   06 Jun 2027 04:32:49.751   06 Jun 2027 04:33:42.655            52.904                Irkutsk          1653.250
       375   06 Jun 2027 04:34:31.348   06 Jun 2027 04:35:16.715            45.367                Norilsk          1417.719
       376   06 Jun 2027 04:35:53.633   06 Jun 2027 04:36:30.768            37.135               Magadan2          1160.469
       377   06 Jun 2027 04:36:30.768   06 Jun 2027 04:38:44.628           133.860               Magadan1          4183.125
       378   06 Jun 2027 04:38:56.617   06 Jun 2027 04:39:18.888            22.271               Magadan1           695.969
       379   06 Jun 2027 04:39:24.679   06 Jun 2027 04:40:02.112            37.433                Novosib          1169.781
       380   06 Jun 2027 04:40:07.435   06 Jun 2027 04:40:31.158            23.723                Norilsk           741.344
       381   06 Jun 2027 04:40:31.257   06 Jun 2027 04:40:45.959            14.702               Magadan2           459.437
       382   06 Jun 2027 04:41:58.841   06 Jun 2027 04:42:31.343            32.502                Norilsk          1015.688
       383   06 Jun 2027 06:07:49.890   06 Jun 2027 06:08:13.722            23.832                Irkutsk           744.750
       384   06 Jun 2027 06:11:27.483   06 Jun 2027 06:11:45.378            17.895               Magadan1           559.219
       385   06 Jun 2027 06:11:50.767   06 Jun 2027 06:12:11.422            20.655               Magadan1           645.469
       386   06 Jun 2027 06:12:20.303   06 Jun 2027 06:12:26.875             6.572               Magadan2           205.375
       387   06 Jun 2027 06:12:26.875   06 Jun 2027 06:13:44.445            77.570               Magadan1          2424.063
       388   06 Jun 2027 06:13:46.867   06 Jun 2027 06:13:56.628             9.761               Magadan1           305.031
       389   06 Jun 2027 06:14:19.811   06 Jun 2027 06:15:08.213            48.402               Magadan1          1512.563
       390   06 Jun 2027 06:16:46.289   06 Jun 2027 06:17:25.556            39.267                Norilsk          1227.094
       391   06 Jun 2027 07:50:15.802   06 Jun 2027 07:51:24.297            68.495                 Moscow          2140.469
       392   06 Jun 2027 07:52:59.991   06 Jun 2027 07:53:17.800            17.809                Norilsk           556.531
       393   06 Jun 2027 08:32:01.463   06 Jun 2027 08:32:26.675            25.212            RioGallegos           787.875
       394   06 Jun 2027 08:33:09.519   06 Jun 2027 08:33:40.712            31.193            RioGallegos           974.781
       395   06 Jun 2027 08:37:10.790   06 Jun 2027 08:37:41.200            30.410            RioGallegos           950.313
       396   06 Jun 2027 09:28:44.750   06 Jun 2027 09:29:22.590            37.840                Novosib          1182.500
       397   06 Jun 2027 11:06:34.062   06 Jun 2027 11:06:47.907            13.845                Norilsk           432.656
       398   06 Jun 2027 12:32:18.144   06 Jun 2027 12:34:24.157           126.013                 Moscow          3937.906
       399   06 Jun 2027 12:35:24.221   06 Jun 2027 12:36:57.441            93.220              Murmansk1          2913.125
       400   06 Jun 2027 12:37:34.193   06 Jun 2027 12:38:18.304            44.111              Murmansk1          1378.469
       401   06 Jun 2027 12:38:39.835   06 Jun 2027 12:38:56.320            16.485              Murmansk1           515.156
       402   06 Jun 2027 12:40:10.341   06 Jun 2027 12:40:33.143            22.802              Murmansk1           712.562
       403   06 Jun 2027 12:41:14.517   06 Jun 2027 12:41:33.921            19.404              Murmansk1           606.375
       404   06 Jun 2027 12:49:19.087   06 Jun 2027 12:54:57.661           338.574                Anadyr1         10580.438
       405   06 Jun 2027 12:55:48.945   06 Jun 2027 12:58:57.050           188.105                Anadyr2          5878.281
       406   06 Jun 2027 14:24:52.624   06 Jun 2027 14:24:59.454             6.830                Anadyr2           213.437
       407   06 Jun 2027 14:26:08.581   06 Jun 2027 14:26:08.893             0.312                Anadyr1             9.750
       408   06 Jun 2027 14:27:18.534   06 Jun 2027 14:28:09.745            51.211                Anadyr2          1600.344
       409   06 Jun 2027 14:28:14.197   06 Jun 2027 14:36:14.575           480.378               Magadan2         15011.813
       410   06 Jun 2027 16:04:26.494   06 Jun 2027 16:04:57.680            31.186               Magadan2           974.563
       411   06 Jun 2027 16:04:57.680   06 Jun 2027 16:05:42.290            44.610               Magadan1          1394.062
       412   06 Jun 2027 16:07:04.611   06 Jun 2027 16:07:14.672            10.061               Magadan1           314.406
       413   06 Jun 2027 16:07:28.191   06 Jun 2027 16:07:41.886            13.695               Magadan1           427.969
       414   06 Jun 2027 16:58:12.501   06 Jun 2027 17:00:58.363           165.862            RioGallegos          5183.188
       415   06 Jun 2027 17:38:52.533   06 Jun 2027 17:39:53.459            60.926                Norilsk          1903.937
       416   06 Jun 2027 17:43:04.797   06 Jun 2027 17:44:31.563            86.766                Norilsk          2711.437
       417   06 Jun 2027 17:44:51.703   06 Jun 2027 17:51:45.031           413.328                Irkutsk         12916.500
       418   06 Jun 2027 17:59:37.924   06 Jun 2027 18:06:29.714           411.790                Sumatra         12868.438
       419   06 Jun 2027 19:21:24.267   06 Jun 2027 19:25:34.785           250.518                Novosib          7828.688
       420   06 Jun 2027 20:53:49.457   06 Jun 2027 20:57:53.321           243.864              Murmansk1          7620.750
       421   06 Jun 2027 22:28:44.196   06 Jun 2027 22:30:12.290            88.094              Murmansk2          2752.938
       422   06 Jun 2027 22:30:44.531   06 Jun 2027 22:34:07.544           203.013              Murmansk1          6344.156
       423   06 Jun 2027 22:34:10.427   06 Jun 2027 22:35:53.903           103.476                 Moscow          3233.625
       424   06 Jun 2027 22:35:55.895   06 Jun 2027 22:40:42.444           286.549                 Moscow          8954.656
       425   06 Jun 2027 22:59:24.565   06 Jun 2027 23:06:53.851           449.286               CapeTown         14040.187
       426   07 Jun 2027 02:10:31.660   07 Jun 2027 02:10:36.575             4.915               CapeTown           153.594
       427   07 Jun 2027 02:11:53.326   07 Jun 2027 02:12:46.559            53.233               CapeTown          1663.531
       428   07 Jun 2027 03:04:08.097   07 Jun 2027 03:04:19.252            11.155               Magadan2           348.594
       429   07 Jun 2027 03:04:59.097   07 Jun 2027 03:05:30.167            31.070               Magadan2           970.938
       430   07 Jun 2027 03:07:49.963   07 Jun 2027 03:08:13.710            23.747               Magadan1           742.094
       431   07 Jun 2027 03:08:35.268   07 Jun 2027 03:09:06.544            31.276               Magadan1           977.375
       432   07 Jun 2027 03:10:38.547   07 Jun 2027 03:11:31.631            53.084                Anadyr1          1658.875
       433   07 Jun 2027 03:11:31.631   07 Jun 2027 03:14:19.132           167.501                Anadyr2          5234.406
       434   07 Jun 2027 03:15:18.915   07 Jun 2027 03:15:27.737             8.822               Magadan1           275.688
       435   07 Jun 2027 03:16:30.038   07 Jun 2027 03:16:36.166             6.128               Magadan1           191.500
       436   07 Jun 2027 04:47:22.052   07 Jun 2027 04:51:32.554           250.502                Irkutsk          7828.188
       437   07 Jun 2027 06:22:24.984   07 Jun 2027 06:22:39.530            14.546               Magadan1           454.563
       438   07 Jun 2027 06:22:45.264   07 Jun 2027 06:23:38.697            53.433               Magadan2          1669.781
       439   07 Jun 2027 06:23:46.866   07 Jun 2027 06:23:48.440             1.574               Magadan1            49.188
       440   07 Jun 2027 06:24:00.277   07 Jun 2027 06:24:27.782            27.505               Magadan1           859.531
       441   07 Jun 2027 06:25:41.829   07 Jun 2027 06:25:48.028             6.199               Magadan1           193.719
       442   07 Jun 2027 06:25:49.906   07 Jun 2027 06:26:17.154            27.248               Magadan1           851.500
       443   07 Jun 2027 06:33:02.372   07 Jun 2027 06:33:24.257            21.885                Norilsk           683.906
       444   07 Jun 2027 08:02:07.711   07 Jun 2027 08:02:28.275            20.564              Murmansk1           642.625
       445   07 Jun 2027 08:06:21.877   07 Jun 2027 08:06:44.611            22.734              Murmansk1           710.438
       446   07 Jun 2027 08:45:55.244   07 Jun 2027 08:46:33.807            38.563            RioGallegos          1205.094
       447   07 Jun 2027 09:28:41.194   07 Jun 2027 09:28:53.487            12.293                  Delhi           384.156
       448   07 Jun 2027 09:35:51.719   07 Jun 2027 09:36:51.524            59.805                Novosib          1868.906
       449   07 Jun 2027 09:40:53.270   07 Jun 2027 09:41:00.815             7.545                Novosib           235.781
       450   07 Jun 2027 11:20:55.474   07 Jun 2027 11:21:04.336             8.862                Norilsk           276.937
       451   07 Jun 2027 12:44:49.332   07 Jun 2027 12:45:26.898            37.566                 Moscow          1173.938
       452   07 Jun 2027 12:46:29.293   07 Jun 2027 12:47:07.274            37.981                 Moscow          1186.906
       453   07 Jun 2027 12:47:43.277   07 Jun 2027 12:48:17.583            34.306              Murmansk2          1072.063
       454   07 Jun 2027 12:48:17.583   07 Jun 2027 12:49:35.371            77.788              Murmansk1          2430.875
       455   07 Jun 2027 12:50:06.066   07 Jun 2027 12:50:41.541            35.475              Murmansk2          1108.594
       456   07 Jun 2027 12:51:16.770   07 Jun 2027 12:52:11.795            55.025              Murmansk1          1719.531
       457   07 Jun 2027 12:52:11.795   07 Jun 2027 12:52:23.225            11.430              Murmansk2           357.187
       458   07 Jun 2027 12:53:02.036   07 Jun 2027 12:53:04.594             2.558              Murmansk1            79.938
       459   07 Jun 2027 12:53:22.094   07 Jun 2027 12:53:39.819            17.725              Murmansk1           553.906
       460   07 Jun 2027 12:57:12.906   07 Jun 2027 12:57:53.025            40.119              Murmansk1          1253.719
       461   07 Jun 2027 13:01:14.653   07 Jun 2027 13:07:17.485           362.832                Anadyr1         11338.500
       462   07 Jun 2027 13:08:59.880   07 Jun 2027 13:11:28.438           148.558                Anadyr1          4642.438
       463   07 Jun 2027 14:36:53.332   07 Jun 2027 14:38:22.502            89.170                Anadyr2          2786.562
       464   07 Jun 2027 14:39:59.603   07 Jun 2027 14:48:58.660           539.057               Magadan2         16845.531
       465   07 Jun 2027 16:15:33.539   07 Jun 2027 16:16:10.129            36.590               Magadan2          1143.438
       466   07 Jun 2027 16:19:06.997   07 Jun 2027 16:19:17.357            10.360               Magadan2           323.750
       467   07 Jun 2027 17:08:57.257   07 Jun 2027 17:14:45.731           348.474            RioGallegos         10889.813
       468   07 Jun 2027 17:52:05.917   07 Jun 2027 17:52:51.370            45.453                Norilsk          1420.406
       469   07 Jun 2027 17:55:41.508   07 Jun 2027 18:03:17.889           456.381                Irkutsk         14261.906
       470   07 Jun 2027 18:10:34.016   07 Jun 2027 18:19:27.566           533.550                Sumatra         16673.437
       471   07 Jun 2027 19:34:38.545   07 Jun 2027 19:37:06.554           148.009                Novosib          4625.281
       472   07 Jun 2027 19:40:59.628   07 Jun 2027 19:46:51.720           352.092                  Delhi         11002.875
       473   07 Jun 2027 21:05:30.584   07 Jun 2027 21:10:54.078           323.494              Murmansk1         10109.188
       474   07 Jun 2027 22:43:46.591   07 Jun 2027 22:46:06.010           139.419              Murmansk2          4356.844
       475   07 Jun 2027 23:10:30.881   07 Jun 2027 23:18:30.133           479.252               CapeTown         14976.625
       476   08 Jun 2027 03:16:07.390   08 Jun 2027 03:16:09.075             1.685               Magadan1            52.656
       477   08 Jun 2027 03:16:22.008   08 Jun 2027 03:16:58.844            36.836               Magadan1          1151.125
       478   08 Jun 2027 03:19:51.440   08 Jun 2027 03:20:04.983            13.543               Magadan2           423.219
       479   08 Jun 2027 03:21:01.415   08 Jun 2027 03:21:33.600            32.185               Magadan2          1005.781
       480   08 Jun 2027 03:23:02.297   08 Jun 2027 03:25:34.850           152.553               Magadan2          4767.281
       481   08 Jun 2027 03:25:34.850   08 Jun 2027 03:27:04.274            89.424               Magadan1          2794.500
       482   08 Jun 2027 03:27:08.448   08 Jun 2027 03:28:38.996            90.548                Anadyr2          2829.625
