uniorb/output/strategy_4/Drop/Drop_KinoSat_111805.txt

KinoSat_111805
-------------------------
    Access    *     Start Time (UTCG)     *     Stop Time (UTCG)  *   Duration (s)        *       Station  *  Data (Mbytes)
         1   01 Jun 2027 03:05:49.161   01 Jun 2027 03:08:17.626           148.465                Irkutsk          4639.531
         2   01 Jun 2027 03:08:24.522   01 Jun 2027 03:09:22.474            57.952              Murmansk1          1811.000
         3   01 Jun 2027 03:09:35.336   01 Jun 2027 03:10:14.907            39.571              Murmansk1          1236.594
         4   01 Jun 2027 03:10:15.053   01 Jun 2027 03:10:42.698            27.645                Novosib           863.906
         5   01 Jun 2027 03:10:50.603   01 Jun 2027 03:10:55.043             4.440                 Moscow           138.750
         6   01 Jun 2027 03:11:04.398   01 Jun 2027 03:11:48.417            44.019                 Moscow          1375.594
         7   01 Jun 2027 03:11:59.575   01 Jun 2027 03:14:47.886           168.311                  Delhi          5259.719
         8   01 Jun 2027 04:45:16.659   01 Jun 2027 04:45:38.035            21.376              Murmansk1           668.000
         9   01 Jun 2027 04:45:58.626   01 Jun 2027 04:47:08.617            69.991                 Moscow          2187.219
        10   01 Jun 2027 04:47:09.719   01 Jun 2027 04:48:04.355            54.636                Norilsk          1707.375
        11   01 Jun 2027 04:48:04.631   01 Jun 2027 04:48:27.453            22.822              Murmansk2           713.187
        12   01 Jun 2027 04:48:32.847   01 Jun 2027 04:50:41.264           128.417                 Moscow          4013.031
        13   01 Jun 2027 04:51:27.631   01 Jun 2027 04:54:24.632           177.001                 Moscow          5531.281
        14   01 Jun 2027 05:07:00.265   01 Jun 2027 05:10:03.241           182.976               CapeTown          5718.000
        15   01 Jun 2027 05:10:35.853   01 Jun 2027 05:10:53.422            17.569               CapeTown           549.031
        16   01 Jun 2027 05:11:57.106   01 Jun 2027 05:12:52.932            55.826               CapeTown          1744.563
        17   01 Jun 2027 06:23:02.882   01 Jun 2027 06:25:09.069           126.187              Murmansk2          3943.344
        18   01 Jun 2027 06:25:09.069   01 Jun 2027 06:25:28.257            19.188              Murmansk1           599.625
        19   01 Jun 2027 06:25:39.225   01 Jun 2027 06:25:50.110            10.885                 Moscow           340.156
        20   01 Jun 2027 06:26:34.297   01 Jun 2027 06:28:04.092            89.795                 Moscow          2806.094
        21   01 Jun 2027 06:28:43.851   01 Jun 2027 06:29:27.384            43.533                 Moscow          1360.406
        22   01 Jun 2027 06:42:21.451   01 Jun 2027 06:43:48.046            86.595               CapeTown          2706.094
        23   01 Jun 2027 07:45:46.584   01 Jun 2027 07:47:05.865            79.281                Anadyr2          2477.531
        24   01 Jun 2027 07:47:31.040   01 Jun 2027 07:47:44.931            13.891                Anadyr2           434.094
        25   01 Jun 2027 07:47:44.931   01 Jun 2027 07:48:44.326            59.395                Anadyr1          1856.094
        26   01 Jun 2027 09:22:55.620   01 Jun 2027 09:23:30.517            34.897                Anadyr2          1090.531
        27   01 Jun 2027 09:24:07.433   01 Jun 2027 09:25:00.055            52.622               Magadan1          1644.438
        28   01 Jun 2027 09:25:26.894   01 Jun 2027 09:27:09.830           102.936                Anadyr1          3216.750
        29   01 Jun 2027 10:57:45.829   01 Jun 2027 10:58:26.824            40.995               Magadan1          1281.094
        30   01 Jun 2027 10:58:56.372   01 Jun 2027 11:02:29.235           212.863               Magadan1          6651.969
        31   01 Jun 2027 13:15:33.909   01 Jun 2027 13:17:38.719           124.810            RioGallegos          3900.312
        32   01 Jun 2027 13:49:48.516   01 Jun 2027 13:54:43.058           294.542                Sumatra          9204.438
        33   01 Jun 2027 14:05:26.495   01 Jun 2027 14:09:36.224           249.729                Irkutsk          7804.031
        34   01 Jun 2027 15:35:12.055   01 Jun 2027 15:43:11.520           479.465                  Delhi         14983.281
        35   01 Jun 2027 15:47:39.602   01 Jun 2027 15:50:39.671           180.069                Novosib          5627.156
        36   01 Jun 2027 18:58:07.880   01 Jun 2027 19:00:59.968           172.088                 Moscow          5377.750
        37   01 Jun 2027 19:01:56.495   01 Jun 2027 19:03:27.047            90.552                 Moscow          2829.750
        38   01 Jun 2027 19:04:24.184   01 Jun 2027 19:04:27.857             3.673              Murmansk2           114.781
        39   01 Jun 2027 20:07:45.434   01 Jun 2027 20:09:00.075            74.641               CapeTown          2332.531
        40   01 Jun 2027 20:11:12.175   01 Jun 2027 20:12:52.431           100.256               CapeTown          3133.000
        41   01 Jun 2027 20:41:19.671   01 Jun 2027 20:43:49.835           150.164              Murmansk2          4692.625
        42   01 Jun 2027 22:23:00.452   01 Jun 2027 22:26:46.070           225.618                Anadyr2          7050.562
        43   01 Jun 2027 22:26:47.460   01 Jun 2027 22:29:50.067           182.607                Norilsk          5706.469
        44   01 Jun 2027 22:30:01.249   01 Jun 2027 22:30:19.513            18.264               Magadan2           570.750
        45   01 Jun 2027 22:30:33.696   01 Jun 2027 22:30:57.404            23.708               Magadan2           740.875
        46   01 Jun 2027 23:17:28.148   01 Jun 2027 23:20:52.587           204.439            RioGallegos          6388.719
        47   01 Jun 2027 23:58:38.247   02 Jun 2027 00:00:13.152            94.905                Anadyr2          2965.781
        48   02 Jun 2027 00:00:48.925   02 Jun 2027 00:02:33.288           104.363                Norilsk          3261.344
        49   02 Jun 2027 00:02:36.580   02 Jun 2027 00:03:28.667            52.087               Magadan1          1627.719
        50   02 Jun 2027 00:03:37.931   02 Jun 2027 00:04:09.229            31.298               Magadan1           978.062
        51   02 Jun 2027 00:05:01.718   02 Jun 2027 00:06:25.394            83.676                Irkutsk          2614.875
        52   02 Jun 2027 00:07:04.220   02 Jun 2027 00:08:02.431            58.211                Novosib          1819.094
        53   02 Jun 2027 00:18:48.837   02 Jun 2027 00:19:31.459            42.622                Sumatra          1331.938
        54   02 Jun 2027 00:20:38.073   02 Jun 2027 00:21:25.794            47.721                Sumatra          1491.281
        55   02 Jun 2027 00:22:36.335   02 Jun 2027 00:22:58.790            22.455                Sumatra           701.719
        56   02 Jun 2027 00:26:19.976   02 Jun 2027 00:26:36.020            16.044                Sumatra           501.375
        57   02 Jun 2027 00:28:57.500   02 Jun 2027 00:30:58.575           121.075                Sumatra          3783.594
        58   02 Jun 2027 01:33:24.221   02 Jun 2027 01:35:31.663           127.442                Anadyr2          3982.563
        59   02 Jun 2027 01:36:46.677   02 Jun 2027 01:38:15.191            88.514                Norilsk          2766.063
        60   02 Jun 2027 01:38:24.996   02 Jun 2027 01:39:00.727            35.731               Magadan1          1116.594
        61   02 Jun 2027 01:40:39.464   02 Jun 2027 01:43:50.495           191.031                Irkutsk          5969.719
        62   02 Jun 2027 01:53:37.028   02 Jun 2027 01:53:46.929             9.901                  Delhi           309.406
        63   02 Jun 2027 01:56:11.312   02 Jun 2027 01:56:45.725            34.413                Sumatra          1075.406
        64   02 Jun 2027 01:59:20.056   02 Jun 2027 02:00:55.672            95.616                Sumatra          2988.000
        65   02 Jun 2027 02:29:07.357   02 Jun 2027 02:29:09.632             2.275            RioGallegos            71.094
        66   02 Jun 2027 02:29:49.270   02 Jun 2027 02:30:12.624            23.354            RioGallegos           729.813
        67   02 Jun 2027 02:30:33.573   02 Jun 2027 02:32:15.822           102.249            RioGallegos          3195.281
        68   02 Jun 2027 03:19:39.142   02 Jun 2027 03:23:05.895           206.753                Novosib          6461.031
        69   02 Jun 2027 03:23:16.097   02 Jun 2027 03:24:09.904            53.807                Norilsk          1681.469
        70   02 Jun 2027 03:24:10.910   02 Jun 2027 03:28:52.481           281.571                  Delhi          8799.094
        71   02 Jun 2027 04:40:20.853   02 Jun 2027 04:40:48.081            27.228                Anadyr1           850.875
        72   02 Jun 2027 04:59:45.132   02 Jun 2027 05:00:22.473            37.341                Novosib          1166.906
        73   02 Jun 2027 05:00:24.723   02 Jun 2027 05:02:28.704           123.981                Novosib          3874.406
        74   02 Jun 2027 05:03:32.060   02 Jun 2027 05:05:28.995           116.935                 Moscow          3654.219
        75   02 Jun 2027 05:18:39.145   02 Jun 2027 05:21:55.115           195.970               CapeTown          6124.062
        76   02 Jun 2027 06:14:51.001   02 Jun 2027 06:18:33.625           222.624                Anadyr1          6957.000
        77   02 Jun 2027 06:19:15.982   02 Jun 2027 06:21:25.164           129.182               Magadan2          4036.938
        78   02 Jun 2027 06:22:24.976   02 Jun 2027 06:25:01.793           156.817                Anadyr2          4900.531
        79   02 Jun 2027 06:25:01.793   02 Jun 2027 06:25:17.836            16.043                Anadyr1           501.344
        80   02 Jun 2027 06:27:00.903   02 Jun 2027 06:27:09.802             8.899               Magadan2           278.094
        81   02 Jun 2027 06:37:06.675   02 Jun 2027 06:38:05.390            58.715              Murmansk2          1834.844
        82   02 Jun 2027 06:38:05.390   02 Jun 2027 06:39:50.164           104.774              Murmansk1          3274.188
        83   02 Jun 2027 06:54:43.778   02 Jun 2027 07:06:06.511           682.733               CapeTown         21335.406
        84   02 Jun 2027 07:50:55.622   02 Jun 2027 07:51:42.278            46.656               Magadan2          1458.000
        85   02 Jun 2027 07:56:40.415   02 Jun 2027 07:57:46.854            66.439                Anadyr2          2076.219
        86   02 Jun 2027 07:59:00.046   02 Jun 2027 08:03:36.399           276.353                Anadyr2          8636.031
        87   02 Jun 2027 09:32:59.008   02 Jun 2027 09:33:25.364            26.356                Anadyr2           823.625
        88   02 Jun 2027 09:34:14.762   02 Jun 2027 09:35:23.629            68.867               Magadan1          2152.094
        89   02 Jun 2027 09:35:28.312   02 Jun 2027 09:35:51.775            23.463                Anadyr2           733.219
        90   02 Jun 2027 09:36:19.152   02 Jun 2027 09:36:56.802            37.650               Magadan2          1176.563
        91   02 Jun 2027 09:37:08.898   02 Jun 2027 09:37:44.255            35.357               Magadan1          1104.906
        92   02 Jun 2027 10:15:01.200   02 Jun 2027 10:15:25.575            24.375            RioGallegos           761.719
        93   02 Jun 2027 10:16:31.584   02 Jun 2027 10:16:37.931             6.347            RioGallegos           198.344
        94   02 Jun 2027 10:17:43.964   02 Jun 2027 10:18:03.844            19.880            RioGallegos           621.250
        95   02 Jun 2027 11:07:13.085   02 Jun 2027 11:10:17.014           183.929               Magadan2          5747.781
        96   02 Jun 2027 11:10:46.625   02 Jun 2027 11:10:53.573             6.948               Magadan1           217.125
        97   02 Jun 2027 11:10:53.573   02 Jun 2027 11:14:17.996           204.423               Magadan2          6388.219
        98   02 Jun 2027 11:14:34.555   02 Jun 2027 11:14:36.915             2.360                Norilsk            73.750
        99   02 Jun 2027 11:15:02.878   02 Jun 2027 11:15:19.054            16.176                Norilsk           505.500
       100   02 Jun 2027 11:49:38.973   02 Jun 2027 11:50:39.413            60.440            RioGallegos          1888.750
       101   02 Jun 2027 11:56:37.610   02 Jun 2027 11:57:12.935            35.325            RioGallegos          1103.906
       102   02 Jun 2027 12:24:43.196   02 Jun 2027 12:25:26.693            43.497                Sumatra          1359.281
       103   02 Jun 2027 12:38:20.067   02 Jun 2027 12:39:54.916            94.849                Irkutsk          2964.031
       104   02 Jun 2027 12:41:17.678   02 Jun 2027 12:42:05.318            47.640                Irkutsk          1488.750
       105   02 Jun 2027 12:42:59.544   02 Jun 2027 12:44:02.255            62.711                Norilsk          1959.719
       106   02 Jun 2027 12:48:06.579   02 Jun 2027 12:48:07.896             1.317                Norilsk            41.156
       107   02 Jun 2027 12:48:41.558   02 Jun 2027 12:49:15.609            34.051                Norilsk          1064.094
       108   02 Jun 2027 13:28:15.091   02 Jun 2027 13:30:28.417           133.326            RioGallegos          4166.437
       109   02 Jun 2027 14:02:39.205   02 Jun 2027 14:05:16.184           156.979                Sumatra          4905.594
       110   02 Jun 2027 14:18:29.372   02 Jun 2027 14:22:03.765           214.393                Irkutsk          6699.781
       111   02 Jun 2027 15:48:31.111   02 Jun 2027 15:52:20.276           229.165                  Delhi          7161.406
       112   02 Jun 2027 15:56:54.787   02 Jun 2027 16:00:36.498           221.711                Novosib          6928.469
       113   02 Jun 2027 17:29:49.437   02 Jun 2027 17:30:54.403            64.966                 Moscow          2030.187
       114   02 Jun 2027 17:32:11.960   02 Jun 2027 17:32:41.895            29.935                 Moscow           935.469
       115   02 Jun 2027 17:33:12.206   02 Jun 2027 17:33:53.160            40.954              Murmansk1          1279.812
       116   02 Jun 2027 17:34:25.260   02 Jun 2027 17:35:19.934            54.674              Murmansk1          1708.562
       117   02 Jun 2027 17:41:38.038   02 Jun 2027 17:41:48.840            10.802              Murmansk2           337.563
       118   02 Jun 2027 17:47:53.064   02 Jun 2027 17:49:03.681            70.617                Anadyr1          2206.781
       119   02 Jun 2027 17:50:53.245   02 Jun 2027 17:51:05.395            12.150                Anadyr2           379.688
       120   02 Jun 2027 17:51:14.339   02 Jun 2027 17:51:25.967            11.628                Anadyr2           363.375
       121   02 Jun 2027 17:54:27.649   02 Jun 2027 17:54:30.508             2.859                Anadyr2            89.344
       122   02 Jun 2027 18:42:34.296   02 Jun 2027 18:44:52.114           137.818               CapeTown          4306.812
       123   02 Jun 2027 18:55:13.144   02 Jun 2027 18:55:21.881             8.737               CapeTown           273.031
       124   02 Jun 2027 19:11:52.347   02 Jun 2027 19:14:33.941           161.594                 Moscow          5049.813
       125   02 Jun 2027 19:15:27.123   02 Jun 2027 19:17:06.691            99.568              Murmansk2          3111.500
       126   02 Jun 2027 19:17:33.925   02 Jun 2027 19:18:18.687            44.762              Murmansk1          1398.813
       127   02 Jun 2027 19:27:26.441   02 Jun 2027 19:27:29.528             3.087               Magadan2            96.469
       128   02 Jun 2027 19:28:00.318   02 Jun 2027 19:28:04.297             3.979               Magadan1           124.344
       129   02 Jun 2027 19:28:24.691   02 Jun 2027 19:28:43.583            18.892               Magadan1           590.375
       130   02 Jun 2027 19:30:47.589   02 Jun 2027 19:30:54.053             6.464               Magadan1           202.000
       131   02 Jun 2027 19:31:19.218   02 Jun 2027 19:32:04.227            45.009               Magadan1          1406.531
       132   02 Jun 2027 20:20:21.406   02 Jun 2027 20:20:37.296            15.890               CapeTown           496.563
       133   02 Jun 2027 20:21:55.395   02 Jun 2027 20:22:57.324            61.929               CapeTown          1935.281
       134   02 Jun 2027 20:59:06.802   02 Jun 2027 21:00:49.448           102.646                Anadyr1          3207.688
       135   02 Jun 2027 21:00:55.320   02 Jun 2027 21:01:25.861            30.541                Anadyr2           954.406
       136   02 Jun 2027 21:01:33.452   02 Jun 2027 21:02:06.280            32.828               Magadan2          1025.875
       137   02 Jun 2027 21:02:06.280   02 Jun 2027 21:02:29.023            22.743               Magadan1           710.719
       138   02 Jun 2027 21:02:46.270   02 Jun 2027 21:03:20.080            33.810               Magadan2          1056.563
       139   02 Jun 2027 21:03:20.080   02 Jun 2027 21:03:35.718            15.638               Magadan1           488.687
       140   02 Jun 2027 21:03:51.651   02 Jun 2027 21:04:08.068            16.417               Magadan1           513.031
       141   02 Jun 2027 21:04:28.709   02 Jun 2027 21:04:48.482            19.773               Magadan1           617.906
       142   02 Jun 2027 21:06:14.339   02 Jun 2027 21:06:24.912            10.573               Magadan1           330.406
       143   02 Jun 2027 21:07:09.120   02 Jun 2027 21:07:24.944            15.824               Magadan1           494.500
       144   02 Jun 2027 21:08:02.911   02 Jun 2027 21:08:19.641            16.730               Magadan1           522.812
       145   02 Jun 2027 21:13:19.135   02 Jun 2027 21:13:26.352             7.217               Magadan1           225.531
       146   02 Jun 2027 22:35:01.351   02 Jun 2027 22:40:01.714           300.363                Anadyr1          9386.344
       147   02 Jun 2027 22:40:04.167   02 Jun 2027 22:40:25.117            20.950                Norilsk           654.688
       148   02 Jun 2027 22:40:28.554   02 Jun 2027 22:40:45.517            16.963                Anadyr2           530.094
       149   02 Jun 2027 22:40:58.246   02 Jun 2027 22:42:13.155            74.909               Magadan1          2340.906
       150   02 Jun 2027 22:42:26.733   02 Jun 2027 22:42:36.399             9.666               Magadan1           302.063
       151   02 Jun 2027 22:42:54.938   02 Jun 2027 22:42:55.759             0.821               Magadan2            25.656
       152   02 Jun 2027 22:42:57.711   02 Jun 2027 22:43:22.120            24.409               Magadan1           762.781
       153   02 Jun 2027 22:44:06.735   02 Jun 2027 22:45:18.057            71.322                Irkutsk          2228.812
       154   02 Jun 2027 23:29:18.061   02 Jun 2027 23:31:26.931           128.870            RioGallegos          4027.188
       155   02 Jun 2027 23:34:40.014   02 Jun 2027 23:35:18.470            38.456            RioGallegos          1201.750
       156   02 Jun 2027 23:40:07.263   02 Jun 2027 23:40:32.940            25.677            RioGallegos           802.406
       157   03 Jun 2027 00:10:34.851   03 Jun 2027 00:11:20.903            46.052                Anadyr1          1439.125
       158   03 Jun 2027 00:11:32.711   03 Jun 2027 00:12:03.977            31.266                Anadyr2           977.062
       159   03 Jun 2027 00:12:50.019   03 Jun 2027 00:14:35.483           105.464                Norilsk          3295.750
       160   03 Jun 2027 00:15:00.004   03 Jun 2027 00:15:18.696            18.692               Magadan1           584.125
       161   03 Jun 2027 00:16:01.500   03 Jun 2027 00:16:40.408            38.908               Magadan1          1215.875
       162   03 Jun 2027 00:16:56.784   03 Jun 2027 00:18:27.493            90.709                Irkutsk          2834.656
       163   03 Jun 2027 00:20:44.920   03 Jun 2027 00:21:08.875            23.955                Novosib           748.594
       164   03 Jun 2027 00:21:59.752   03 Jun 2027 00:22:15.344            15.592                Novosib           487.250
       165   03 Jun 2027 00:24:26.164   03 Jun 2027 00:24:46.597            20.433                Novosib           638.531
       166   03 Jun 2027 00:25:07.112   03 Jun 2027 00:25:17.598            10.486                Novosib           327.688
       167   03 Jun 2027 00:27:36.008   03 Jun 2027 00:28:04.074            28.066                Irkutsk           877.063
       168   03 Jun 2027 00:30:39.084   03 Jun 2027 00:31:20.379            41.295                Sumatra          1290.469
       169   03 Jun 2027 00:33:43.800   03 Jun 2027 00:34:07.844            24.044                Sumatra           751.375
       170   03 Jun 2027 00:38:39.297   03 Jun 2027 00:39:54.186            74.889                Sumatra          2340.281
       171   03 Jun 2027 01:10:28.862   03 Jun 2027 01:10:54.776            25.914            RioGallegos           809.813
       172   03 Jun 2027 01:14:21.470   03 Jun 2027 01:14:27.698             6.228            RioGallegos           194.625
       173   03 Jun 2027 01:14:57.418   03 Jun 2027 01:15:11.361            13.943            RioGallegos           435.719
       174   03 Jun 2027 01:16:32.297   03 Jun 2027 01:17:32.461            60.164            RioGallegos          1880.125
       175   03 Jun 2027 01:45:40.019   03 Jun 2027 01:45:54.615            14.596                Anadyr2           456.125
       176   03 Jun 2027 01:46:34.366   03 Jun 2027 01:47:19.040            44.674                Anadyr2          1396.063
       177   03 Jun 2027 01:48:49.090   03 Jun 2027 01:50:26.077            96.987                Norilsk          3030.844
       178   03 Jun 2027 01:52:12.542   03 Jun 2027 01:52:13.960             1.418                Norilsk            44.312
       179   03 Jun 2027 01:52:43.068   03 Jun 2027 01:55:28.662           165.594                Irkutsk          5174.812
       180   03 Jun 2027 01:59:39.277   03 Jun 2027 02:00:22.304            43.027                Novosib          1344.594
       181   03 Jun 2027 02:04:33.664   03 Jun 2027 02:06:09.642            95.978                  Delhi          2999.312
       182   03 Jun 2027 02:11:10.782   03 Jun 2027 02:13:28.566           137.784                Sumatra          4305.750
       183   03 Jun 2027 02:48:13.126   03 Jun 2027 02:49:48.175            95.049            RioGallegos          2970.281
       184   03 Jun 2027 03:31:47.626   03 Jun 2027 03:31:58.810            11.184                Irkutsk           349.500
       185   03 Jun 2027 03:32:32.902   03 Jun 2027 03:33:54.363            81.461                Norilsk          2545.656
       186   03 Jun 2027 03:33:59.579   03 Jun 2027 03:34:41.050            41.471                Novosib          1295.969
       187   03 Jun 2027 03:34:52.557   03 Jun 2027 03:35:15.973            23.416                Novosib           731.750
       188   03 Jun 2027 03:35:17.732   03 Jun 2027 03:36:50.951            93.219                Norilsk          2913.094
       189   03 Jun 2027 05:10:36.960   03 Jun 2027 05:13:57.905           200.945                Novosib          6279.531
       190   03 Jun 2027 05:14:22.536   03 Jun 2027 05:14:28.862             6.326                 Moscow           197.687
       191   03 Jun 2027 05:15:36.979   03 Jun 2027 05:15:48.444            11.465                 Moscow           358.281
       192   03 Jun 2027 05:16:13.228   03 Jun 2027 05:17:01.484            48.256                 Moscow          1508.000
       193   03 Jun 2027 05:30:23.714   03 Jun 2027 05:31:08.288            44.574               CapeTown          1392.938
       194   03 Jun 2027 05:31:13.280   03 Jun 2027 05:31:25.670            12.390               CapeTown           387.188
       195   03 Jun 2027 05:33:07.272   03 Jun 2027 05:33:45.791            38.519               CapeTown          1203.719
       196   03 Jun 2027 06:33:28.406   03 Jun 2027 06:34:02.255            33.849               Magadan1          1057.781
       197   03 Jun 2027 06:34:32.368   03 Jun 2027 06:35:32.764            60.396                Anadyr2          1887.375
       198   03 Jun 2027 06:37:02.435   03 Jun 2027 06:37:17.973            15.538               Magadan1           485.562
       199   03 Jun 2027 06:45:17.851   03 Jun 2027 06:45:28.749            10.898                 Moscow           340.562
       200   03 Jun 2027 06:49:17.201   03 Jun 2027 06:49:51.572            34.371                 Moscow          1074.094
       201   03 Jun 2027 07:07:13.802   03 Jun 2027 07:07:49.951            36.149               CapeTown          1129.656
       202   03 Jun 2027 07:11:00.559   03 Jun 2027 07:12:14.977            74.418               CapeTown          2325.562
       203   03 Jun 2027 08:07:26.690   03 Jun 2027 08:07:38.049            11.359                Anadyr2           354.969
       204   03 Jun 2027 08:07:48.964   03 Jun 2027 08:08:28.331            39.367               Magadan1          1230.219
       205   03 Jun 2027 08:08:51.246   03 Jun 2027 08:09:46.638            55.392                Anadyr2          1731.000
       206   03 Jun 2027 08:10:01.762   03 Jun 2027 08:11:07.673            65.911               Magadan1          2059.719
       207   03 Jun 2027 08:11:25.817   03 Jun 2027 08:12:09.971            44.154               Magadan2          1379.813
       208   03 Jun 2027 08:12:14.420   03 Jun 2027 08:12:56.271            41.851               Magadan1          1307.844
       209   03 Jun 2027 08:14:16.792   03 Jun 2027 08:15:36.969            80.177                Anadyr2          2505.531
       210   03 Jun 2027 09:44:32.825   03 Jun 2027 09:45:18.958            46.133               Magadan1          1441.656
       211   03 Jun 2027 09:45:59.496   03 Jun 2027 09:47:24.580            85.084               Magadan2          2658.875
       212   03 Jun 2027 09:47:24.965   03 Jun 2027 09:47:33.577             8.612                Anadyr2           269.125
       213   03 Jun 2027 09:47:57.565   03 Jun 2027 09:48:25.653            28.088               Magadan2           877.750
       214   03 Jun 2027 09:48:29.413   03 Jun 2027 09:48:33.866             4.453               Magadan2           139.156
       215   03 Jun 2027 09:48:45.302   03 Jun 2027 09:48:52.663             7.361                Anadyr2           230.031
       216   03 Jun 2027 09:49:47.254   03 Jun 2027 09:51:11.631            84.377               Magadan2          2636.781
       217   03 Jun 2027 11:19:10.126   03 Jun 2027 11:22:30.208           200.082               Magadan2          6252.562
       218   03 Jun 2027 11:22:46.470   03 Jun 2027 11:24:55.529           129.059               Magadan1          4033.094
       219   03 Jun 2027 11:25:17.383   03 Jun 2027 11:25:25.929             8.546                Norilsk           267.062
       220   03 Jun 2027 11:25:46.115   03 Jun 2027 11:26:06.963            20.848                Irkutsk           651.500
       221   03 Jun 2027 11:26:11.328   03 Jun 2027 11:26:58.125            46.797                Irkutsk          1462.406
       222   03 Jun 2027 12:01:45.671   03 Jun 2027 12:03:36.742           111.071            RioGallegos          3470.969
       223   03 Jun 2027 12:36:36.442   03 Jun 2027 12:37:12.413            35.971                Sumatra          1124.094
       224   03 Jun 2027 12:39:41.797   03 Jun 2027 12:39:48.336             6.539                Sumatra           204.344
       225   03 Jun 2027 12:50:34.415   03 Jun 2027 12:51:54.504            80.089                Irkutsk          2502.781
       226   03 Jun 2027 12:52:54.202   03 Jun 2027 12:52:57.231             3.029                Novosib            94.656
       227   03 Jun 2027 12:53:15.650   03 Jun 2027 12:55:10.256           114.606                Irkutsk          3581.437
       228   03 Jun 2027 13:41:06.036   03 Jun 2027 13:42:23.667            77.631            RioGallegos          2425.969
       229   03 Jun 2027 13:43:32.920   03 Jun 2027 13:45:14.371           101.451            RioGallegos          3170.344
       230   03 Jun 2027 14:16:03.464   03 Jun 2027 14:19:47.811           224.347                Sumatra          7010.844
       231   03 Jun 2027 14:32:00.100   03 Jun 2027 14:33:44.858           104.758                Irkutsk          3273.687
       232   03 Jun 2027 14:35:31.884   03 Jun 2027 14:35:50.275            18.391                Irkutsk           574.719
       233   03 Jun 2027 16:05:13.007   03 Jun 2027 16:06:24.985            71.978                 Moscow          2249.312
       234   03 Jun 2027 16:06:53.582   03 Jun 2027 16:07:27.514            33.932                 Moscow          1060.375
       235   03 Jun 2027 16:08:35.736   03 Jun 2027 16:09:26.172            50.436              Murmansk1          1576.125
       236   03 Jun 2027 16:11:04.684   03 Jun 2027 16:12:28.675            83.991                Novosib          2624.719
       237   03 Jun 2027 16:16:00.803   03 Jun 2027 16:17:34.370            93.567                Norilsk          2923.969
       238   03 Jun 2027 17:20:09.920   03 Jun 2027 17:21:04.550            54.630               CapeTown          1707.188
       239   03 Jun 2027 17:22:43.258   03 Jun 2027 17:23:01.899            18.641               CapeTown           582.531
       240   03 Jun 2027 17:23:36.023   03 Jun 2027 17:24:10.767            34.744               CapeTown          1085.750
       241   03 Jun 2027 17:29:16.012   03 Jun 2027 17:29:22.208             6.196               CapeTown           193.625
       242   03 Jun 2027 17:42:11.071   03 Jun 2027 17:43:01.066            49.995                 Moscow          1562.344
       243   03 Jun 2027 17:44:08.359   03 Jun 2027 17:46:11.931           123.572                 Moscow          3861.625
       244   03 Jun 2027 17:47:16.177   03 Jun 2027 17:47:56.539            40.362              Murmansk2          1261.313
       245   03 Jun 2027 17:49:36.129   03 Jun 2027 17:49:43.585             7.456              Murmansk1           233.000
       246   03 Jun 2027 17:51:44.781   03 Jun 2027 17:52:22.583            37.802              Murmansk1          1181.313
       247   03 Jun 2027 17:53:40.243   03 Jun 2027 17:54:34.024            53.781              Murmansk1          1680.656
       248   03 Jun 2027 18:54:37.046   03 Jun 2027 18:56:41.377           124.331               CapeTown          3885.344
       249   03 Jun 2027 19:06:09.835   03 Jun 2027 19:06:20.761            10.926               CapeTown           341.438
       250   03 Jun 2027 19:24:29.046   03 Jun 2027 19:25:14.556            45.510              Murmansk1          1422.187
       251   03 Jun 2027 19:25:41.544   03 Jun 2027 19:29:52.160           250.616              Murmansk2          7831.750
       252   03 Jun 2027 19:30:46.193   03 Jun 2027 19:32:00.200            74.007              Murmansk2          2312.719
       253   03 Jun 2027 20:33:17.005   03 Jun 2027 20:34:47.732            90.727               CapeTown          2835.219
       254   03 Jun 2027 20:36:17.837   03 Jun 2027 20:37:43.074            85.237               CapeTown          2663.656
       255   03 Jun 2027 21:11:08.665   03 Jun 2027 21:11:51.073            42.408                Anadyr2          1325.250
       256   03 Jun 2027 21:11:57.097   03 Jun 2027 21:12:04.522             7.425                Anadyr2           232.031
       257   03 Jun 2027 21:12:10.125   03 Jun 2027 21:12:21.079            10.954                Anadyr2           342.312
       258   03 Jun 2027 21:13:31.611   03 Jun 2027 21:15:08.219            96.608               Magadan1          3019.000
       259   03 Jun 2027 21:15:08.219   03 Jun 2027 21:16:08.045            59.826               Magadan2          1869.563
       260   03 Jun 2027 21:16:16.815   03 Jun 2027 21:16:31.377            14.562               Magadan2           455.062
       261   03 Jun 2027 21:17:42.629   03 Jun 2027 21:17:53.480            10.851               Magadan1           339.094
       262   03 Jun 2027 21:18:32.745   03 Jun 2027 21:18:59.691            26.946               Magadan2           842.063
       263   03 Jun 2027 21:25:12.683   03 Jun 2027 21:25:24.762            12.079               Magadan2           377.469
       264   03 Jun 2027 22:47:01.932   03 Jun 2027 22:52:12.687           310.755                Anadyr1          9711.094
       265   03 Jun 2027 22:52:12.687   03 Jun 2027 22:52:32.448            19.761                Anadyr2           617.531
       266   03 Jun 2027 22:52:35.289   03 Jun 2027 22:53:05.127            29.838               Magadan1           932.438
       267   03 Jun 2027 22:53:15.426   03 Jun 2027 22:53:19.407             3.981                Norilsk           124.406
       268   03 Jun 2027 22:53:21.815   03 Jun 2027 22:54:22.202            60.387               Magadan1          1887.094
       269   03 Jun 2027 22:55:02.031   03 Jun 2027 22:56:14.491            72.460                Irkutsk          2264.375
       270   03 Jun 2027 22:57:06.130   03 Jun 2027 22:57:40.868            34.738                Irkutsk          1085.562
       271   03 Jun 2027 22:59:32.216   03 Jun 2027 23:00:08.108            35.892                Irkutsk          1121.625
       272   03 Jun 2027 23:12:26.818   03 Jun 2027 23:14:20.507           113.689                Sumatra          3552.781
       273   03 Jun 2027 23:50:13.713   03 Jun 2027 23:50:40.538            26.825            RioGallegos           838.281
       274   03 Jun 2027 23:52:30.170   03 Jun 2027 23:52:56.670            26.500            RioGallegos           828.125
       275   04 Jun 2027 00:22:30.540   04 Jun 2027 00:23:08.956            38.416                Anadyr1          1200.500
       276   04 Jun 2027 00:23:50.264   04 Jun 2027 00:25:23.820            93.556                Anadyr1          2923.625
       277   04 Jun 2027 00:25:26.965   04 Jun 2027 00:25:50.548            23.583               Magadan1           736.969
       278   04 Jun 2027 00:25:52.311   04 Jun 2027 00:27:22.983            90.672               Magadan2          2833.500
       279   04 Jun 2027 00:28:53.475   04 Jun 2027 00:30:30.396            96.921                Irkutsk          3028.781
       280   04 Jun 2027 00:33:32.306   04 Jun 2027 00:33:42.283             9.977                Novosib           311.781
       281   04 Jun 2027 00:34:33.605   04 Jun 2027 00:35:26.028            52.423                Novosib          1638.219
       282   04 Jun 2027 00:38:29.958   04 Jun 2027 00:39:19.001            49.043                Irkutsk          1532.594
       283   04 Jun 2027 00:42:35.236   04 Jun 2027 00:42:55.195            19.959                Sumatra           623.719
       284   04 Jun 2027 00:45:28.316   04 Jun 2027 00:45:31.802             3.486                Sumatra           108.938
       285   04 Jun 2027 00:46:26.796   04 Jun 2027 00:46:33.417             6.621                Sumatra           206.906
       286   04 Jun 2027 00:51:06.651   04 Jun 2027 00:52:10.480            63.829                Sumatra          1994.656
       287   04 Jun 2027 01:21:32.546   04 Jun 2027 01:21:44.716            12.170            RioGallegos           380.312
       288   04 Jun 2027 01:22:28.800   04 Jun 2027 01:22:30.426             1.626            RioGallegos            50.813
       289   04 Jun 2027 01:25:48.209   04 Jun 2027 01:26:01.079            12.870            RioGallegos           402.187
       290   04 Jun 2027 01:26:23.037   04 Jun 2027 01:27:07.412            44.375            RioGallegos          1386.719
       291   04 Jun 2027 01:56:57.474   04 Jun 2027 01:57:40.560            43.086                Anadyr1          1346.438
       292   04 Jun 2027 01:57:40.560   04 Jun 2027 01:57:53.598            13.038                Anadyr2           407.438
       293   04 Jun 2027 01:58:35.718   04 Jun 2027 01:59:01.171            25.453                Anadyr1           795.406
       294   04 Jun 2027 01:59:01.171   04 Jun 2027 01:59:17.303            16.132                Anadyr2           504.125
       295   04 Jun 2027 02:00:51.503   04 Jun 2027 02:02:11.641            80.138                Norilsk          2504.313
       296   04 Jun 2027 02:02:22.932   04 Jun 2027 02:02:37.195            14.263                Norilsk           445.719
       297   04 Jun 2027 02:04:41.347   04 Jun 2027 02:04:57.520            16.173              Murmansk1           505.406
       298   04 Jun 2027 02:05:16.188   04 Jun 2027 02:05:41.353            25.165              Murmansk2           786.406
       299   04 Jun 2027 02:05:57.006   04 Jun 2027 02:06:53.790            56.784                Novosib          1774.500
       300   04 Jun 2027 02:06:59.158   04 Jun 2027 02:07:07.353             8.195                Irkutsk           256.094
       301   04 Jun 2027 02:07:35.480   04 Jun 2027 02:08:01.778            26.298                Irkutsk           821.813
       302   04 Jun 2027 02:10:21.097   04 Jun 2027 02:10:27.685             6.588                Irkutsk           205.875
       303   04 Jun 2027 02:11:20.836   04 Jun 2027 02:11:32.355            11.519                Novosib           359.969
       304   04 Jun 2027 02:11:45.544   04 Jun 2027 02:12:10.890            25.346                Novosib           792.063
       305   04 Jun 2027 02:12:12.580   04 Jun 2027 02:13:05.668            53.088                  Delhi          1659.000
       306   04 Jun 2027 02:23:38.775   04 Jun 2027 02:25:11.031            92.256                Sumatra          2883.000
       307   04 Jun 2027 02:54:45.514   04 Jun 2027 02:55:46.675            61.161            RioGallegos          1911.281
       308   04 Jun 2027 02:56:36.949   04 Jun 2027 02:57:53.217            76.268            RioGallegos          2383.375
       309   04 Jun 2027 03:02:20.091   04 Jun 2027 03:02:22.744             2.653            RioGallegos            82.906
       310   04 Jun 2027 03:44:13.554   04 Jun 2027 03:45:48.240            94.686                Irkutsk          2958.938
       311   04 Jun 2027 03:46:11.326   04 Jun 2027 03:46:17.523             6.197                Irkutsk           193.656
       312   04 Jun 2027 03:46:25.145   04 Jun 2027 03:47:11.080            45.935                Norilsk          1435.469
       313   04 Jun 2027 03:48:46.250   04 Jun 2027 03:49:12.970            26.720                Irkutsk           835.000
       314   04 Jun 2027 03:49:30.528   04 Jun 2027 03:50:32.113            61.585                Novosib          1924.531
       315   04 Jun 2027 05:22:00.018   04 Jun 2027 05:22:01.614             1.596                 Moscow            49.875
       316   04 Jun 2027 05:22:02.615   04 Jun 2027 05:22:41.195            38.580                 Moscow          1205.625
       317   04 Jun 2027 05:22:47.775   04 Jun 2027 05:25:24.038           156.263                Novosib          4883.219
       318   04 Jun 2027 05:25:47.134   04 Jun 2027 05:26:07.174            20.040                 Moscow           626.250
       319   04 Jun 2027 05:26:09.040   04 Jun 2027 05:26:46.339            37.299                 Moscow          1165.594
       320   04 Jun 2027 05:27:09.749   04 Jun 2027 05:27:25.877            16.128              Murmansk1           504.000
       321   04 Jun 2027 05:30:32.178   04 Jun 2027 05:30:49.086            16.908                 Moscow           528.375
       322   04 Jun 2027 05:42:13.581   04 Jun 2027 05:44:43.036           149.455               CapeTown          4670.469
       323   04 Jun 2027 06:45:02.736   04 Jun 2027 06:45:28.603            25.867                Anadyr1           808.344
       324   04 Jun 2027 06:45:28.603   04 Jun 2027 06:45:57.955            29.352                Anadyr2           917.250
       325   04 Jun 2027 06:46:02.331   04 Jun 2027 06:46:14.727            12.396               Magadan1           387.375
       326   04 Jun 2027 06:46:41.961   04 Jun 2027 06:47:32.735            50.774                Anadyr1          1586.687
       327   04 Jun 2027 06:48:49.660   04 Jun 2027 06:49:43.323            53.663                Anadyr2          1676.969
       328   04 Jun 2027 06:57:21.621   04 Jun 2027 06:58:11.752            50.131                 Moscow          1566.594
       329   04 Jun 2027 06:59:14.063   04 Jun 2027 06:59:45.074            31.011                 Moscow           969.094
       330   04 Jun 2027 07:19:53.598   04 Jun 2027 07:19:58.740             5.142               CapeTown           160.688
       331   04 Jun 2027 07:22:18.476   04 Jun 2027 07:24:39.675           141.199               CapeTown          4412.469
       332   04 Jun 2027 08:19:27.516   04 Jun 2027 08:19:29.900             2.384               Magadan1            74.500
       333   04 Jun 2027 08:19:54.681   04 Jun 2027 08:20:16.099            21.418                Anadyr2           669.313
       334   04 Jun 2027 08:20:21.580   04 Jun 2027 08:20:32.284            10.704               Magadan1           334.500
       335   04 Jun 2027 08:21:04.419   04 Jun 2027 08:21:43.306            38.887                Anadyr1          1215.219
       336   04 Jun 2027 08:21:45.824   04 Jun 2027 08:22:40.560            54.736                Anadyr2          1710.500
       337   04 Jun 2027 08:23:06.324   04 Jun 2027 08:23:28.743            22.419               Magadan2           700.594
       338   04 Jun 2027 08:23:48.945   04 Jun 2027 08:25:12.889            83.944                Anadyr2          2623.250
       339   04 Jun 2027 09:55:31.937   04 Jun 2027 09:55:37.554             5.617               Magadan2           175.531
       340   04 Jun 2027 09:55:39.866   04 Jun 2027 09:56:26.130            46.264               Magadan1          1445.750
       341   04 Jun 2027 09:57:16.163   04 Jun 2027 09:57:37.636            21.473               Magadan2           671.031
       342   04 Jun 2027 09:59:25.035   04 Jun 2027 10:00:31.041            66.006               Magadan1          2062.688
       343   04 Jun 2027 10:00:45.948   04 Jun 2027 10:00:51.765             5.817               Magadan2           181.781
       344   04 Jun 2027 10:01:36.356   04 Jun 2027 10:01:52.836            16.480               Magadan1           515.000
       345   04 Jun 2027 10:02:30.326   04 Jun 2027 10:02:38.332             8.006                Norilsk           250.187
       346   04 Jun 2027 10:02:49.163   04 Jun 2027 10:03:13.560            24.397                Norilsk           762.406
       347   04 Jun 2027 10:38:25.468   04 Jun 2027 10:39:00.910            35.442            RioGallegos          1107.562
       348   04 Jun 2027 10:43:01.172   04 Jun 2027 10:43:35.521            34.349            RioGallegos          1073.406
       349   04 Jun 2027 11:16:58.982   04 Jun 2027 11:17:13.487            14.505                Sumatra           453.281
       350   04 Jun 2027 11:18:00.255   04 Jun 2027 11:18:08.285             8.030                Sumatra           250.938
       351   04 Jun 2027 11:31:18.173   04 Jun 2027 11:34:18.233           180.060               Magadan1          5626.875
       352   04 Jun 2027 11:35:05.810   04 Jun 2027 11:35:53.715            47.905                Irkutsk          1497.031
       353   04 Jun 2027 11:36:13.855   04 Jun 2027 11:36:24.477            10.622                Novosib           331.937
       354   04 Jun 2027 11:37:00.499   04 Jun 2027 11:38:04.231            63.732                Novosib          1991.625
       355   04 Jun 2027 11:38:14.591   04 Jun 2027 11:38:27.584            12.993                Norilsk           406.031
       356   04 Jun 2027 11:38:31.118   04 Jun 2027 11:38:58.931            27.813                Novosib           869.156
       357   04 Jun 2027 11:39:55.126   04 Jun 2027 11:39:55.830             0.704                Norilsk            22.000
       358   04 Jun 2027 12:13:56.034   04 Jun 2027 12:14:27.155            31.121            RioGallegos           972.531
       359   04 Jun 2027 12:16:54.272   04 Jun 2027 12:17:38.334            44.062            RioGallegos          1376.938
       360   04 Jun 2027 12:48:35.444   04 Jun 2027 12:51:02.815           147.371                Sumatra          4605.344
       361   04 Jun 2027 13:02:52.836   04 Jun 2027 13:03:57.366            64.530                Irkutsk          2016.562
       362   04 Jun 2027 13:07:11.151   04 Jun 2027 13:08:00.790            49.639                Norilsk          1551.219
       363   04 Jun 2027 13:11:50.625   04 Jun 2027 13:12:44.824            54.199                Irkutsk          1693.719
       364   04 Jun 2027 13:54:12.003   04 Jun 2027 13:57:36.972           204.969            RioGallegos          6405.281
       365   04 Jun 2027 14:40:45.662   04 Jun 2027 14:40:58.104            12.442                Novosib           388.812
       366   04 Jun 2027 14:41:32.386   04 Jun 2027 14:42:35.074            62.688                Novosib          1959.000
       367   04 Jun 2027 14:44:41.480   04 Jun 2027 14:45:43.232            61.752                Novosib          1929.750
       368   04 Jun 2027 14:45:50.220   04 Jun 2027 14:46:24.946            34.726                Norilsk          1085.188
       369   04 Jun 2027 14:48:11.667   04 Jun 2027 14:49:31.519            79.852                Norilsk          2495.375
       370   04 Jun 2027 16:17:11.653   04 Jun 2027 16:18:24.502            72.849                 Moscow          2276.531
       371   04 Jun 2027 16:19:20.663   04 Jun 2027 16:21:04.408           103.745                 Moscow          3242.031
       372   04 Jun 2027 16:21:35.107   04 Jun 2027 16:22:07.832            32.725              Murmansk1          1022.656
       373   04 Jun 2027 16:22:27.683   04 Jun 2027 16:23:07.177            39.494              Murmansk1          1234.188
       374   04 Jun 2027 16:24:43.551   04 Jun 2027 16:26:38.679           115.128                Norilsk          3597.750
       375   04 Jun 2027 16:28:19.504   04 Jun 2027 16:30:29.591           130.087                Norilsk          4065.219
       376   04 Jun 2027 17:32:12.428   04 Jun 2027 17:32:24.756            12.328               CapeTown           385.250
       377   04 Jun 2027 17:37:10.993   04 Jun 2027 17:38:18.132            67.139               CapeTown          2098.094
       378   04 Jun 2027 17:54:37.082   04 Jun 2027 17:55:11.476            34.394                 Moscow          1074.812
       379   04 Jun 2027 17:57:44.349   04 Jun 2027 17:58:41.500            57.151              Murmansk2          1785.969
       380   04 Jun 2027 17:59:25.844   04 Jun 2027 17:59:45.430            19.586                 Moscow           612.063
       381   04 Jun 2027 18:01:35.628   04 Jun 2027 18:01:56.708            21.080              Murmansk1           658.750
       382   04 Jun 2027 18:03:46.161   04 Jun 2027 18:05:11.359            85.198              Murmansk2          2662.438
       383   04 Jun 2027 18:07:29.761   04 Jun 2027 18:07:33.632             3.871              Murmansk1           120.969
       384   04 Jun 2027 18:11:39.760   04 Jun 2027 18:12:00.895            21.135                Anadyr1           660.469
       385   04 Jun 2027 18:12:17.587   04 Jun 2027 18:12:48.491            30.904                Anadyr1           965.750
       386   04 Jun 2027 19:06:42.590   04 Jun 2027 19:08:16.961            94.371               CapeTown          2949.094
       387   04 Jun 2027 19:10:25.749   04 Jun 2027 19:10:52.307            26.558               CapeTown           829.938
       388   04 Jun 2027 19:37:06.492   04 Jun 2027 19:38:14.469            67.977              Murmansk1          2124.281
       389   04 Jun 2027 19:39:17.726   04 Jun 2027 19:41:52.539           154.813              Murmansk2          4837.906
       390   04 Jun 2027 19:42:29.096   04 Jun 2027 19:42:38.908             9.812              Murmansk1           306.625
       391   04 Jun 2027 19:44:45.204   04 Jun 2027 19:45:02.274            17.070              Murmansk1           533.437
       392   04 Jun 2027 19:45:08.803   04 Jun 2027 19:45:16.390             7.587              Murmansk1           237.094
       393   04 Jun 2027 19:50:35.102   04 Jun 2027 19:52:06.838            91.736               Magadan2          2866.750
       394   04 Jun 2027 19:53:43.806   04 Jun 2027 19:53:51.708             7.902               Magadan2           246.938
       395   04 Jun 2027 19:56:01.477   04 Jun 2027 19:56:14.282            12.805               Magadan2           400.156
       396   04 Jun 2027 21:23:10.498   04 Jun 2027 21:27:03.686           233.188                Anadyr2          7287.125
       397   04 Jun 2027 21:27:11.847   04 Jun 2027 21:28:32.843            80.996               Magadan2          2531.125
       398   04 Jun 2027 21:28:32.843   04 Jun 2027 21:30:41.320           128.477               Magadan1          4014.906
       399   04 Jun 2027 21:33:29.900   04 Jun 2027 21:33:57.637            27.737               Magadan2           866.781
       400   04 Jun 2027 21:35:17.026   04 Jun 2027 21:35:20.097             3.071               Magadan1            95.969
       401   04 Jun 2027 21:35:46.875   04 Jun 2027 21:36:19.592            32.717               Magadan1          1022.406
       402   04 Jun 2027 22:20:37.524   04 Jun 2027 22:22:14.672            97.148            RioGallegos          3035.875
       403   04 Jun 2027 22:59:02.152   04 Jun 2027 23:00:55.212           113.060                Anadyr2          3533.125
       404   04 Jun 2027 23:01:11.289   04 Jun 2027 23:02:54.320           103.031                Norilsk          3219.719
       405   04 Jun 2027 23:03:08.934   04 Jun 2027 23:03:48.763            39.829               Magadan1          1244.656
       406   04 Jun 2027 23:03:48.763   04 Jun 2027 23:04:17.073            28.310               Magadan2           884.687
       407   04 Jun 2027 23:04:47.422   04 Jun 2027 23:04:57.057             9.635               Magadan1           301.094
       408   04 Jun 2027 23:06:11.469   04 Jun 2027 23:06:25.615            14.146                Norilsk           442.063
       409   04 Jun 2027 23:06:27.114   04 Jun 2027 23:06:45.682            18.568                Irkutsk           580.250
       410   04 Jun 2027 23:07:32.079   04 Jun 2027 23:08:16.674            44.595                Irkutsk          1393.594
       411   04 Jun 2027 23:09:14.016   04 Jun 2027 23:09:25.960            11.944                Irkutsk           373.250
       412   04 Jun 2027 23:09:35.325   04 Jun 2027 23:10:21.526            46.201                Irkutsk          1443.781
       413   04 Jun 2027 23:22:08.912   04 Jun 2027 23:23:30.601            81.689                Sumatra          2552.781
       414   04 Jun 2027 23:23:44.754   04 Jun 2027 23:23:46.583             1.829                Sumatra            57.156
       415   04 Jun 2027 23:24:11.681   04 Jun 2027 23:24:21.772            10.091                Sumatra           315.344
       416   04 Jun 2027 23:27:12.022   04 Jun 2027 23:28:43.597            91.575                Sumatra          2861.719
       417   05 Jun 2027 00:34:25.224   05 Jun 2027 00:34:55.712            30.488                Anadyr1           952.750
       418   05 Jun 2027 00:35:03.708   05 Jun 2027 00:35:50.274            46.566                Anadyr2          1455.187
       419   05 Jun 2027 00:36:10.492   05 Jun 2027 00:36:37.760            27.268                Anadyr2           852.125
       420   05 Jun 2027 00:36:53.225   05 Jun 2027 00:37:26.865            33.640                Norilsk          1051.250
       421   05 Jun 2027 00:37:30.269   05 Jun 2027 00:38:44.161            73.892               Magadan1          2309.125
       422   05 Jun 2027 00:39:29.888   05 Jun 2027 00:40:03.352            33.464               Magadan2          1045.750
       423   05 Jun 2027 00:40:51.521   05 Jun 2027 00:42:23.645            92.124                Irkutsk          2878.875
       424   05 Jun 2027 00:44:42.116   05 Jun 2027 00:44:59.539            17.423                Novosib           544.469
       425   05 Jun 2027 00:45:44.935   05 Jun 2027 00:46:06.486            21.551                Novosib           673.469
       426   05 Jun 2027 00:46:39.255   05 Jun 2027 00:47:22.798            43.543                Novosib          1360.719
       427   05 Jun 2027 00:54:37.078   05 Jun 2027 00:56:31.868           114.790                Sumatra          3587.187
       428   05 Jun 2027 01:03:44.224   05 Jun 2027 01:04:58.326            74.102                Sumatra          2315.688
       429   05 Jun 2027 01:37:47.020   05 Jun 2027 01:38:00.739            13.719            RioGallegos           428.719
       430   05 Jun 2027 01:39:15.616   05 Jun 2027 01:40:04.544            48.928            RioGallegos          1529.000
       431   05 Jun 2027 02:09:53.069   05 Jun 2027 02:10:37.022            43.953                Anadyr1          1373.531
       432   05 Jun 2027 02:12:53.877   05 Jun 2027 02:14:15.820            81.943                Norilsk          2560.719
       433   05 Jun 2027 02:16:04.153   05 Jun 2027 02:16:13.301             9.148                Norilsk           285.875
       434   05 Jun 2027 02:16:27.770   05 Jun 2027 02:17:11.708            43.938              Murmansk2          1373.062
       435   05 Jun 2027 02:17:16.594   05 Jun 2027 02:18:32.193            75.599                Irkutsk          2362.469
       436   05 Jun 2027 02:18:48.366   05 Jun 2027 02:19:12.711            24.345                Novosib           760.781
       437   05 Jun 2027 02:24:06.639   05 Jun 2027 02:24:56.740            50.101                  Delhi          1565.656
       438   05 Jun 2027 02:30:05.922   05 Jun 2027 02:30:12.490             6.568                  Delhi           205.250
       439   05 Jun 2027 02:31:00.541   05 Jun 2027 02:31:08.681             8.140                  Delhi           254.375
       440   05 Jun 2027 02:31:51.691   05 Jun 2027 02:32:30.194            38.503                  Delhi          1203.219
       441   05 Jun 2027 03:05:43.828   05 Jun 2027 03:06:40.321            56.493            RioGallegos          1765.406
       442   05 Jun 2027 03:07:21.864   05 Jun 2027 03:10:12.659           170.795            RioGallegos          5337.344
       443   05 Jun 2027 03:55:49.548   05 Jun 2027 03:57:25.127            95.579                Irkutsk          2986.844
       444   05 Jun 2027 03:57:50.783   05 Jun 2027 03:59:07.389            76.606              Murmansk2          2393.937
       445   05 Jun 2027 03:59:07.389   05 Jun 2027 04:00:18.256            70.867              Murmansk1          2214.594
       446   05 Jun 2027 05:34:25.352   05 Jun 2027 05:34:53.417            28.065                Novosib           877.031
       447   05 Jun 2027 05:35:19.989   05 Jun 2027 05:35:41.677            21.688                Norilsk           677.750
       448   05 Jun 2027 05:36:06.014   05 Jun 2027 05:36:17.042            11.028                Norilsk           344.625
       449   05 Jun 2027 05:36:35.658   05 Jun 2027 05:36:46.837            11.179                Novosib           349.344
       450   05 Jun 2027 05:37:18.386   05 Jun 2027 05:37:50.183            31.797                 Moscow           993.656
       451   05 Jun 2027 05:37:52.877   05 Jun 2027 05:38:50.937            58.060                 Moscow          1814.375
       452   05 Jun 2027 05:38:59.641   05 Jun 2027 05:39:19.773            20.132              Murmansk2           629.125
       453   05 Jun 2027 05:54:08.540   05 Jun 2027 05:55:02.801            54.261               CapeTown          1695.656
       454   05 Jun 2027 05:57:02.345   05 Jun 2027 05:57:15.928            13.583               CapeTown           424.469
       455   05 Jun 2027 05:57:20.002   05 Jun 2027 05:58:01.143            41.141               CapeTown          1285.656
       456   05 Jun 2027 06:57:12.670   05 Jun 2027 06:58:53.830           101.160                Anadyr1          3161.250
       457   05 Jun 2027 07:32:47.273   05 Jun 2027 07:34:52.215           124.942               CapeTown          3904.437
       458   05 Jun 2027 08:33:06.291   05 Jun 2027 08:33:36.899            30.608               Magadan2           956.500
       459   05 Jun 2027 08:33:44.267   05 Jun 2027 08:34:23.910            39.643                Anadyr1          1238.844
       460   05 Jun 2027 08:35:04.103   05 Jun 2027 08:35:31.487            27.384               Magadan1           855.750
       461   05 Jun 2027 08:35:43.068   05 Jun 2027 08:36:05.203            22.135               Magadan2           691.719
       462   05 Jun 2027 08:37:09.085   05 Jun 2027 08:37:48.626            39.541                Anadyr2          1235.656
       463   05 Jun 2027 09:18:28.391   05 Jun 2027 09:18:38.062             9.671            RioGallegos           302.219
       464   05 Jun 2027 09:20:07.669   05 Jun 2027 09:20:32.940            25.271            RioGallegos           789.719
       465   05 Jun 2027 10:07:33.173   05 Jun 2027 10:08:04.962            31.789               Magadan2           993.406
       466   05 Jun 2027 10:08:29.925   05 Jun 2027 10:08:39.458             9.533               Magadan2           297.906
       467   05 Jun 2027 10:09:03.016   05 Jun 2027 10:09:12.135             9.119               Magadan2           284.969
       468   05 Jun 2027 10:09:12.135   05 Jun 2027 10:11:24.911           132.776               Magadan1          4149.250
       469   05 Jun 2027 10:12:28.742   05 Jun 2027 10:12:35.402             6.660                Irkutsk           208.125
       470   05 Jun 2027 10:12:37.479   05 Jun 2027 10:13:09.956            32.477               Magadan2          1014.906
       471   05 Jun 2027 10:13:13.069   05 Jun 2027 10:14:01.120            48.051               Magadan2          1501.594
       472   05 Jun 2027 10:14:27.480   05 Jun 2027 10:14:27.969             0.489                Norilsk            15.281
       473   05 Jun 2027 10:14:36.883   05 Jun 2027 10:14:50.307            13.424                Norilsk           419.500
       474   05 Jun 2027 10:15:10.369   05 Jun 2027 10:15:52.704            42.335                Norilsk          1322.969
       475   05 Jun 2027 10:50:12.557   05 Jun 2027 10:50:34.782            22.225            RioGallegos           694.531
       476   05 Jun 2027 10:53:26.492   05 Jun 2027 10:53:38.795            12.303            RioGallegos           384.469
       477   05 Jun 2027 11:27:31.649   05 Jun 2027 11:29:24.584           112.935                Sumatra          3529.219
       478   05 Jun 2027 11:44:31.974   05 Jun 2027 11:46:09.302            97.328               Magadan1          3041.500
       479   05 Jun 2027 11:47:10.727   05 Jun 2027 11:47:50.448            39.721                Irkutsk          1241.281
       480   05 Jun 2027 11:48:08.306   05 Jun 2027 11:48:12.208             3.902                Norilsk           121.937
       481   05 Jun 2027 11:48:13.847   05 Jun 2027 11:48:21.514             7.667                Novosib           239.594
       482   05 Jun 2027 11:48:56.127   05 Jun 2027 11:49:06.350            10.223                Norilsk           319.469
