uniorb/output/strategy_4/Drop/Drop_KinoSat_110607.txt

KinoSat_110607
-------------------------
    Access    *     Start Time (UTCG)     *     Stop Time (UTCG)  *   Duration (s)        *       Station  *  Data (Mbytes)
         1   01 Jun 2027 03:25:57.192   01 Jun 2027 03:26:24.921            27.729                Anadyr2           866.531
         2   01 Jun 2027 03:26:29.602   01 Jun 2027 03:26:58.066            28.464                Anadyr2           889.500
         3   01 Jun 2027 03:27:01.975   01 Jun 2027 03:29:14.981           133.006                Anadyr2          4156.438
         4   01 Jun 2027 03:29:51.274   01 Jun 2027 03:30:15.487            24.213                Anadyr2           756.656
         5   01 Jun 2027 05:01:17.489   01 Jun 2027 05:04:42.515           205.026               Magadan2          6407.063
         6   01 Jun 2027 05:04:43.307   01 Jun 2027 05:05:24.301            40.994                Anadyr1          1281.063
         7   01 Jun 2027 05:05:34.107   01 Jun 2027 05:05:51.139            17.032               Magadan1           532.250
         8   01 Jun 2027 05:05:51.139   01 Jun 2027 05:05:54.380             3.241               Magadan2           101.281
         9   01 Jun 2027 05:05:56.761   01 Jun 2027 05:06:38.330            41.569                Irkutsk          1299.031
        10   01 Jun 2027 05:06:40.084   01 Jun 2027 05:07:37.112            57.028                Novosib          1782.125
        11   01 Jun 2027 05:08:39.986   01 Jun 2027 05:08:56.710            16.724                Norilsk           522.625
        12   01 Jun 2027 05:09:45.104   01 Jun 2027 05:10:16.616            31.512                Norilsk           984.750
        13   01 Jun 2027 05:41:47.555   01 Jun 2027 05:44:24.852           157.297            RioGallegos          4915.531
        14   01 Jun 2027 06:18:13.015   01 Jun 2027 06:18:52.147            39.132                Sumatra          1222.875
        15   01 Jun 2027 06:21:14.943   01 Jun 2027 06:22:50.045            95.102                Sumatra          2971.938
        16   01 Jun 2027 06:24:19.683   01 Jun 2027 06:25:29.705            70.022                Sumatra          2188.187
        17   01 Jun 2027 06:38:06.601   01 Jun 2027 06:39:14.647            68.046                Novosib          2126.437
        18   01 Jun 2027 06:39:15.868   01 Jun 2027 06:39:40.047            24.179                Norilsk           755.594
        19   01 Jun 2027 06:39:49.941   01 Jun 2027 06:43:16.036           206.095                Novosib          6440.469
        20   01 Jun 2027 06:43:19.336   01 Jun 2027 06:44:14.557            55.221              Murmansk1          1725.656
        21   01 Jun 2027 06:44:50.196   01 Jun 2027 06:44:56.497             6.301                Norilsk           196.906
        22   01 Jun 2027 06:46:54.789   01 Jun 2027 06:46:59.672             4.883              Murmansk1           152.594
        23   01 Jun 2027 06:47:26.271   01 Jun 2027 06:48:06.999            40.728              Murmansk2          1272.750
        24   01 Jun 2027 07:18:22.352   01 Jun 2027 07:18:38.460            16.108            RioGallegos           503.375
        25   01 Jun 2027 07:19:11.044   01 Jun 2027 07:19:51.263            40.219            RioGallegos          1256.844
        26   01 Jun 2027 07:20:27.573   01 Jun 2027 07:20:45.409            17.836            RioGallegos           557.375
        27   01 Jun 2027 07:52:41.605   01 Jun 2027 07:53:58.520            76.915                Sumatra          2403.594
        28   01 Jun 2027 07:56:20.901   01 Jun 2027 07:57:44.197            83.296                Sumatra          2603.000
        29   01 Jun 2027 08:01:24.227   01 Jun 2027 08:05:08.164           223.937                  Delhi          6998.031
        30   01 Jun 2027 08:15:22.278   01 Jun 2027 08:16:05.492            43.214              Murmansk2          1350.438
        31   01 Jun 2027 08:16:16.721   01 Jun 2027 08:21:11.992           295.271                 Moscow          9227.219
        32   01 Jun 2027 09:37:25.799   01 Jun 2027 09:39:14.376           108.577                  Delhi          3393.031
        33   01 Jun 2027 09:41:27.493   01 Jun 2027 09:42:04.132            36.639                  Delhi          1144.969
        34   01 Jun 2027 09:52:47.768   01 Jun 2027 09:56:47.881           240.113                 Moscow          7503.531
        35   01 Jun 2027 09:56:49.520   01 Jun 2027 09:57:24.849            35.329                Norilsk          1104.031
        36   01 Jun 2027 11:41:33.607   01 Jun 2027 11:44:09.729           156.122                Anadyr1          4878.813
        37   01 Jun 2027 13:16:54.137   01 Jun 2027 13:17:24.720            30.583                Anadyr2           955.719
        38   01 Jun 2027 13:20:21.513   01 Jun 2027 13:20:51.446            29.933                Anadyr2           935.406
        39   01 Jun 2027 14:53:57.940   01 Jun 2027 15:03:53.549           595.609               Magadan2         18612.781
        40   01 Jun 2027 17:22:24.132   01 Jun 2027 17:30:04.562           460.430            RioGallegos         14388.437
        41   01 Jun 2027 18:07:16.258   01 Jun 2027 18:10:37.355           201.097                Norilsk          6284.281
        42   01 Jun 2027 18:10:46.432   01 Jun 2027 18:13:35.552           169.120                Norilsk          5285.000
        43   01 Jun 2027 18:14:30.354   01 Jun 2027 18:17:33.516           183.162                Irkutsk          5723.813
        44   01 Jun 2027 18:26:48.405   01 Jun 2027 18:31:20.565           272.160                Sumatra          8505.000
        45   01 Jun 2027 19:53:59.649   01 Jun 2027 20:02:27.934           508.285                  Delhi         15883.906
        46   01 Jun 2027 21:19:28.180   01 Jun 2027 21:26:05.229           397.049              Murmansk2         12407.781
        47   01 Jun 2027 22:58:32.298   01 Jun 2027 22:59:58.688            86.390                 Moscow          2699.687
        48   01 Jun 2027 23:23:52.837   01 Jun 2027 23:26:24.359           151.522               CapeTown          4735.062
        49   01 Jun 2027 23:28:05.557   01 Jun 2027 23:31:04.654           179.097               CapeTown          5596.781
        50   02 Jun 2027 00:38:32.473   02 Jun 2027 00:39:02.624            30.151                 Moscow           942.219
        51   02 Jun 2027 00:43:31.810   02 Jun 2027 00:43:35.482             3.672                 Moscow           114.750
        52   02 Jun 2027 00:58:02.823   02 Jun 2027 00:59:40.739            97.916               CapeTown          3059.875
        53   02 Jun 2027 01:02:00.020   02 Jun 2027 01:03:17.117            77.097               CapeTown          2409.281
        54   02 Jun 2027 01:54:49.595   02 Jun 2027 01:54:53.646             4.051                Anadyr1           126.594
        55   02 Jun 2027 01:55:22.112   02 Jun 2027 01:56:45.903            83.791               Magadan1          2618.469
        56   02 Jun 2027 01:58:16.333   02 Jun 2027 01:58:19.548             3.215               Magadan2           100.469
        57   02 Jun 2027 02:00:04.962   02 Jun 2027 02:00:25.270            20.308               Magadan1           634.625
        58   02 Jun 2027 02:01:19.399   02 Jun 2027 02:01:22.144             2.745               Magadan2            85.781
        59   02 Jun 2027 02:02:01.616   02 Jun 2027 02:02:08.167             6.551               Magadan1           204.719
        60   02 Jun 2027 02:03:06.982   02 Jun 2027 02:03:13.907             6.925                Norilsk           216.406
        61   02 Jun 2027 02:03:20.201   02 Jun 2027 02:03:28.220             8.019               Magadan2           250.594
        62   02 Jun 2027 02:04:06.060   02 Jun 2027 02:04:41.477            35.417               Magadan2          1106.781
        63   02 Jun 2027 02:06:47.558   02 Jun 2027 02:07:55.391            67.833              Murmansk1          2119.781
        64   02 Jun 2027 02:08:49.050   02 Jun 2027 02:09:36.496            47.446              Murmansk2          1482.688
        65   02 Jun 2027 02:12:12.743   02 Jun 2027 02:12:34.352            21.609                 Moscow           675.281
        66   02 Jun 2027 02:14:41.326   02 Jun 2027 02:14:49.785             8.459                 Moscow           264.344
        67   02 Jun 2027 02:16:18.842   02 Jun 2027 02:16:37.902            19.060                 Moscow           595.625
        68   02 Jun 2027 02:18:02.040   02 Jun 2027 02:18:23.008            20.968                 Moscow           655.250
        69   02 Jun 2027 03:34:39.091   02 Jun 2027 03:34:55.519            16.428                Anadyr1           513.375
        70   02 Jun 2027 03:35:02.947   02 Jun 2027 03:36:10.296            67.349                Anadyr1          2104.656
        71   02 Jun 2027 03:37:13.803   02 Jun 2027 03:38:26.312            72.509                Anadyr2          2265.906
        72   02 Jun 2027 03:38:26.312   02 Jun 2027 03:42:02.084           215.772                Anadyr1          6742.875
        73   02 Jun 2027 03:42:02.808   02 Jun 2027 03:42:06.351             3.543               Magadan2           110.719
        74   02 Jun 2027 03:42:21.047   02 Jun 2027 03:43:14.467            53.420               Magadan2          1669.375
        75   02 Jun 2027 05:15:04.999   02 Jun 2027 05:15:50.560            45.561                Irkutsk          1423.781
        76   02 Jun 2027 05:15:56.835   02 Jun 2027 05:17:53.396           116.561               Magadan1          3642.531
        77   02 Jun 2027 05:17:53.396   02 Jun 2027 05:17:57.314             3.918               Magadan2           122.438
        78   02 Jun 2027 05:18:04.126   02 Jun 2027 05:18:43.599            39.473               Magadan1          1233.531
        79   02 Jun 2027 06:51:17.544   02 Jun 2027 06:51:55.662            38.118                Novosib          1191.188
        80   02 Jun 2027 06:52:32.654   02 Jun 2027 06:53:46.111            73.457                Novosib          2295.531
        81   02 Jun 2027 06:53:47.332   02 Jun 2027 06:54:56.508            69.176                Irkutsk          2161.750
        82   02 Jun 2027 08:30:22.762   02 Jun 2027 08:30:35.906            13.144                Novosib           410.750
        83   02 Jun 2027 08:33:14.867   02 Jun 2027 08:33:27.057            12.190                 Moscow           380.938
        84   02 Jun 2027 08:35:15.355   02 Jun 2027 08:35:23.696             8.341                Norilsk           260.656
        85   02 Jun 2027 09:53:07.277   02 Jun 2027 09:55:30.653           143.376                  Delhi          4480.500
        86   02 Jun 2027 09:56:55.088   02 Jun 2027 09:58:21.516            86.428                  Delhi          2700.875
        87   02 Jun 2027 10:03:30.513   02 Jun 2027 10:03:42.034            11.521                Norilsk           360.031
        88   02 Jun 2027 10:05:21.156   02 Jun 2027 10:06:28.440            67.284                Novosib          2102.625
        89   02 Jun 2027 11:52:47.228   02 Jun 2027 11:55:19.216           151.988                Anadyr2          4749.625
        90   02 Jun 2027 11:57:18.818   02 Jun 2027 11:57:37.227            18.409                Anadyr2           575.281
        91   02 Jun 2027 12:49:29.738   02 Jun 2027 12:49:52.004            22.266               CapeTown           695.812
        92   02 Jun 2027 12:58:01.985   02 Jun 2027 12:58:54.557            52.572               CapeTown          1642.875
        93   02 Jun 2027 13:14:43.619   02 Jun 2027 13:16:29.145           105.526              Murmansk1          3297.687
        94   02 Jun 2027 13:27:19.751   02 Jun 2027 13:28:58.767            99.016                Anadyr1          3094.250
        95   02 Jun 2027 13:29:34.069   02 Jun 2027 13:32:56.594           202.525                Anadyr2          6328.906
        96   02 Jun 2027 13:34:30.234   02 Jun 2027 13:35:01.507            31.273                Anadyr2           977.281
        97   02 Jun 2027 14:55:32.840   02 Jun 2027 14:56:13.628            40.788              Murmansk1          1274.625
        98   02 Jun 2027 15:03:06.393   02 Jun 2027 15:04:16.565            70.172                Anadyr2          2192.875
        99   02 Jun 2027 15:05:20.489   02 Jun 2027 15:06:22.677            62.188                Anadyr2          1943.375
       100   02 Jun 2027 15:06:25.721   02 Jun 2027 15:11:51.019           325.298               Magadan2         10165.562
       101   02 Jun 2027 15:13:32.649   02 Jun 2027 15:15:20.074           107.425               Magadan1          3357.031
       102   02 Jun 2027 16:41:18.666   02 Jun 2027 16:42:36.949            78.283               Magadan1          2446.344
       103   02 Jun 2027 16:43:38.024   02 Jun 2027 16:44:33.997            55.973               Magadan2          1749.156
       104   02 Jun 2027 16:47:55.027   02 Jun 2027 16:48:18.377            23.350               Magadan1           729.687
       105   02 Jun 2027 17:34:00.206   02 Jun 2027 17:40:35.584           395.378            RioGallegos         12355.563
       106   02 Jun 2027 18:16:55.378   02 Jun 2027 18:22:06.802           311.424                Norilsk          9732.000
       107   02 Jun 2027 18:22:35.700   02 Jun 2027 18:23:16.688            40.988                Irkutsk          1280.875
       108   02 Jun 2027 18:24:43.440   02 Jun 2027 18:25:16.155            32.715                Irkutsk          1022.344
       109   02 Jun 2027 18:28:22.303   02 Jun 2027 18:29:38.567            76.264                Irkutsk          2383.250
       110   02 Jun 2027 18:35:24.210   02 Jun 2027 18:36:51.701            87.491                Sumatra          2734.094
       111   02 Jun 2027 18:38:59.355   02 Jun 2027 18:42:12.797           193.442                Sumatra          6045.062
       112   02 Jun 2027 19:57:00.223   02 Jun 2027 19:58:26.392            86.169                Novosib          2692.781
       113   02 Jun 2027 20:05:22.309   02 Jun 2027 20:12:42.601           440.292                  Delhi         13759.125
       114   02 Jun 2027 21:31:21.132   02 Jun 2027 21:38:49.645           448.513              Murmansk2         14016.031
       115   02 Jun 2027 23:10:26.706   02 Jun 2027 23:11:45.868            79.162                 Moscow          2473.813
       116   02 Jun 2027 23:35:20.879   02 Jun 2027 23:38:39.972           199.093               CapeTown          6221.656
       117   02 Jun 2027 23:40:48.747   02 Jun 2027 23:42:08.999            80.252               CapeTown          2507.875
       118   03 Jun 2027 01:10:14.412   03 Jun 2027 01:11:25.334            70.922               CapeTown          2216.313
       119   03 Jun 2027 01:13:46.769   03 Jun 2027 01:14:10.194            23.425               CapeTown           732.031
       120   03 Jun 2027 02:06:57.888   03 Jun 2027 02:07:16.195            18.307                Anadyr1           572.094
       121   03 Jun 2027 02:07:16.195   03 Jun 2027 02:07:49.019            32.824                Anadyr2          1025.750
       122   03 Jun 2027 02:08:12.146   03 Jun 2027 02:08:39.575            27.429               Magadan2           857.156
       123   03 Jun 2027 02:08:44.137   03 Jun 2027 02:09:40.827            56.690               Magadan1          1771.563
       124   03 Jun 2027 02:09:49.811   03 Jun 2027 02:09:56.067             6.256               Magadan1           195.500
       125   03 Jun 2027 02:12:26.647   03 Jun 2027 02:12:44.364            17.717               Magadan2           553.656
       126   03 Jun 2027 02:14:55.700   03 Jun 2027 02:15:21.739            26.039               Magadan1           813.719
       127   03 Jun 2027 02:18:48.029   03 Jun 2027 02:20:10.439            82.410              Murmansk2          2575.313
       128   03 Jun 2027 02:20:59.289   03 Jun 2027 02:21:00.940             1.651              Murmansk1            51.594
       129   03 Jun 2027 02:21:23.652   03 Jun 2027 02:21:26.885             3.233              Murmansk1           101.031
       130   03 Jun 2027 02:22:23.916   03 Jun 2027 02:23:50.927            87.011                 Moscow          2719.094
       131   03 Jun 2027 02:29:25.682   03 Jun 2027 02:29:47.136            21.454                 Moscow           670.438
       132   03 Jun 2027 03:42:25.243   03 Jun 2027 03:42:38.323            13.080               Magadan2           408.750
       133   03 Jun 2027 03:43:04.611   03 Jun 2027 03:44:02.680            58.069               Magadan2          1814.656
       134   03 Jun 2027 03:44:45.793   03 Jun 2027 03:45:40.054            54.261               Magadan2          1695.656
       135   03 Jun 2027 03:49:26.240   03 Jun 2027 03:55:13.783           347.543                Anadyr1         10860.719
       136   03 Jun 2027 04:36:20.879   03 Jun 2027 04:36:59.245            38.366            RioGallegos          1198.938
       137   03 Jun 2027 04:37:13.761   03 Jun 2027 04:38:17.956            64.195            RioGallegos          2006.094
       138   03 Jun 2027 05:26:30.546   03 Jun 2027 05:27:05.370            34.824                Irkutsk          1088.250
       139   03 Jun 2027 05:27:20.234   03 Jun 2027 05:28:00.298            40.064               Magadan2          1252.000
       140   03 Jun 2027 05:28:00.298   03 Jun 2027 05:28:04.048             3.750               Magadan1           117.187
       141   03 Jun 2027 05:28:16.050   03 Jun 2027 05:29:55.151            99.101                Irkutsk          3096.906
       142   03 Jun 2027 05:30:23.497   03 Jun 2027 05:30:51.275            27.778                Irkutsk           868.063
       143   03 Jun 2027 07:06:52.839   03 Jun 2027 07:07:16.439            23.600                Norilsk           737.500
       144   03 Jun 2027 07:08:22.094   03 Jun 2027 07:08:27.309             5.215                Novosib           162.969
       145   03 Jun 2027 07:48:21.101   03 Jun 2027 07:49:00.897            39.796            RioGallegos          1243.625
       146   03 Jun 2027 08:24:42.568   03 Jun 2027 08:25:53.910            71.342                Sumatra          2229.438
       147   03 Jun 2027 08:42:51.852   03 Jun 2027 08:42:59.772             7.920                Novosib           247.500
       148   03 Jun 2027 10:02:39.440   03 Jun 2027 10:05:49.987           190.547                  Delhi          5954.594
       149   03 Jun 2027 10:20:53.364   03 Jun 2027 10:21:07.097            13.733                Norilsk           429.156
       150   03 Jun 2027 12:09:37.930   03 Jun 2027 12:10:39.668            61.738                Anadyr1          1929.312
       151   03 Jun 2027 13:02:57.277   03 Jun 2027 13:03:02.476             5.199               CapeTown           162.469
       152   03 Jun 2027 13:06:24.754   03 Jun 2027 13:08:05.689           100.935               CapeTown          3154.219
       153   03 Jun 2027 13:26:46.462   03 Jun 2027 13:28:08.425            81.963                 Moscow          2561.344
       154   03 Jun 2027 13:28:16.263   03 Jun 2027 13:29:56.254            99.991              Murmansk1          3124.719
       155   03 Jun 2027 13:31:26.560   03 Jun 2027 13:31:35.800             9.240              Murmansk2           288.750
       156   03 Jun 2027 13:33:16.627   03 Jun 2027 13:33:25.450             8.823              Murmansk1           275.719
       157   03 Jun 2027 13:34:21.123   03 Jun 2027 13:35:05.754            44.631              Murmansk2          1394.719
       158   03 Jun 2027 13:36:07.956   03 Jun 2027 13:36:18.000            10.044              Murmansk1           313.875
       159   03 Jun 2027 13:36:42.425   03 Jun 2027 13:37:07.598            25.173              Murmansk2           786.656
       160   03 Jun 2027 13:39:18.448   03 Jun 2027 13:40:50.234            91.786                Anadyr1          2868.313
       161   03 Jun 2027 13:41:06.030   03 Jun 2027 13:41:29.935            23.905                Anadyr2           747.031
       162   03 Jun 2027 13:41:44.032   03 Jun 2027 13:43:10.602            86.570                Anadyr2          2705.312
       163   03 Jun 2027 13:47:56.021   03 Jun 2027 13:48:08.107            12.086                Anadyr2           377.687
       164   03 Jun 2027 13:49:42.755   03 Jun 2027 13:50:57.237            74.482                Anadyr1          2327.562
       165   03 Jun 2027 15:08:38.886   03 Jun 2027 15:10:01.774            82.888              Murmansk1          2590.250
       166   03 Jun 2027 15:15:07.620   03 Jun 2027 15:16:16.668            69.048                Anadyr1          2157.750
       167   03 Jun 2027 15:17:27.074   03 Jun 2027 15:18:12.599            45.525                Anadyr2          1422.656
       168   03 Jun 2027 15:18:56.212   03 Jun 2027 15:23:36.449           280.237               Magadan1          8757.406
       169   03 Jun 2027 15:24:41.695   03 Jun 2027 15:26:10.210            88.515               Magadan1          2766.094
       170   03 Jun 2027 15:26:40.919   03 Jun 2027 15:27:15.526            34.607               Magadan1          1081.469
       171   03 Jun 2027 16:53:19.478   03 Jun 2027 16:55:28.633           129.155               Magadan1          4036.094
       172   03 Jun 2027 17:45:42.827   03 Jun 2027 17:51:54.673           371.846            RioGallegos         11620.187
       173   03 Jun 2027 18:29:44.497   03 Jun 2027 18:33:17.236           212.739                Norilsk          6648.094
       174   03 Jun 2027 18:34:20.941   03 Jun 2027 18:34:40.219            19.278                Irkutsk           602.437
       175   03 Jun 2027 18:35:22.428   03 Jun 2027 18:36:46.360            83.932                Irkutsk          2622.875
       176   03 Jun 2027 18:36:49.136   03 Jun 2027 18:38:45.688           116.552                Novosib          3642.250
       177   03 Jun 2027 18:48:38.625   03 Jun 2027 18:50:58.395           139.770                Sumatra          4367.813
       178   03 Jun 2027 18:53:07.238   03 Jun 2027 18:53:23.558            16.320                Sumatra           510.000
       179   03 Jun 2027 20:08:54.971   03 Jun 2027 20:10:11.884            76.913                Novosib          2403.531
       180   03 Jun 2027 20:11:24.429   03 Jun 2027 20:12:41.035            76.606                Novosib          2393.937
       181   03 Jun 2027 20:16:55.709   03 Jun 2027 20:20:27.329           211.620                  Delhi          6613.125
       182   03 Jun 2027 20:20:55.395   03 Jun 2027 20:23:35.850           160.455                  Delhi          5014.219
       183   03 Jun 2027 21:43:16.368   03 Jun 2027 21:48:51.923           335.555              Murmansk2         10486.094
       184   03 Jun 2027 21:49:27.776   03 Jun 2027 21:51:29.702           121.926              Murmansk1          3810.188
       185   03 Jun 2027 21:53:10.969   03 Jun 2027 21:53:43.869            32.900                 Moscow          1028.125
       186   03 Jun 2027 23:22:22.632   03 Jun 2027 23:24:44.903           142.271                 Moscow          4445.969
       187   03 Jun 2027 23:46:55.703   03 Jun 2027 23:48:34.829            99.126               CapeTown          3097.688
       188   03 Jun 2027 23:50:32.643   03 Jun 2027 23:52:11.502            98.859               CapeTown          3089.344
       189   04 Jun 2027 00:54:55.249   04 Jun 2027 00:56:00.314            65.065              Murmansk2          2033.281
       190   04 Jun 2027 00:57:25.920   04 Jun 2027 00:57:31.921             6.001              Murmansk1           187.531
       191   04 Jun 2027 00:58:07.940   04 Jun 2027 00:58:27.186            19.246              Murmansk2           601.437
       192   04 Jun 2027 00:58:42.569   04 Jun 2027 00:58:48.277             5.708              Murmansk2           178.375
       193   04 Jun 2027 00:58:54.324   04 Jun 2027 00:59:20.077            25.753              Murmansk2           804.781
       194   04 Jun 2027 01:01:08.777   04 Jun 2027 01:01:16.263             7.486                 Moscow           233.938
       195   04 Jun 2027 01:01:35.681   04 Jun 2027 01:01:55.217            19.536                 Moscow           610.500
       196   04 Jun 2027 01:02:22.001   04 Jun 2027 01:02:35.399            13.398                 Moscow           418.687
       197   04 Jun 2027 01:07:21.620   04 Jun 2027 01:07:45.213            23.593                 Moscow           737.281
       198   04 Jun 2027 01:22:31.910   04 Jun 2027 01:23:15.118            43.208               CapeTown          1350.250
       199   04 Jun 2027 01:26:17.296   04 Jun 2027 01:26:30.054            12.758               CapeTown           398.687
       200   04 Jun 2027 01:28:12.628   04 Jun 2027 01:28:46.547            33.919               CapeTown          1059.969
       201   04 Jun 2027 01:31:32.534   04 Jun 2027 01:32:25.216            52.682               CapeTown          1646.312
       202   04 Jun 2027 02:18:57.148   04 Jun 2027 02:20:41.471           104.323               Magadan1          3260.094
       203   04 Jun 2027 02:22:50.555   04 Jun 2027 02:23:55.550            64.995               Magadan2          2031.094
       204   04 Jun 2027 02:30:33.601   04 Jun 2027 02:30:37.849             4.248                Norilsk           132.750
       205   04 Jun 2027 02:30:48.212   04 Jun 2027 02:31:30.069            41.857              Murmansk1          1308.031
       206   04 Jun 2027 02:31:44.237   04 Jun 2027 02:31:58.225            13.988              Murmansk2           437.125
       207   04 Jun 2027 02:32:04.185   04 Jun 2027 02:32:23.600            19.415              Murmansk1           606.719
       208   04 Jun 2027 02:34:30.434   04 Jun 2027 02:35:16.430            45.996                 Moscow          1437.375
       209   04 Jun 2027 02:37:24.839   04 Jun 2027 02:37:39.879            15.040                 Moscow           470.000
       210   04 Jun 2027 02:39:18.609   04 Jun 2027 02:39:37.272            18.663                 Moscow           583.219
       211   04 Jun 2027 02:42:22.693   04 Jun 2027 02:43:44.045            81.352                 Moscow          2542.250
       212   04 Jun 2027 03:13:29.837   04 Jun 2027 03:14:06.267            36.430            RioGallegos          1138.438
       213   04 Jun 2027 03:14:41.567   04 Jun 2027 03:15:32.441            50.874            RioGallegos          1589.812
       214   04 Jun 2027 04:01:15.388   04 Jun 2027 04:03:56.445           161.057               Magadan1          5033.031
       215   04 Jun 2027 04:04:11.793   04 Jun 2027 04:06:11.488           119.695               Magadan1          3740.469
       216   04 Jun 2027 04:06:19.895   04 Jun 2027 04:07:07.200            47.305                Anadyr1          1478.281
       217   04 Jun 2027 04:07:07.200   04 Jun 2027 04:07:08.496             1.296                Anadyr2            40.500
       218   04 Jun 2027 04:45:35.681   04 Jun 2027 04:46:43.823            68.142            RioGallegos          2129.437
       219   04 Jun 2027 04:47:32.512   04 Jun 2027 04:48:07.683            35.171            RioGallegos          1099.094
       220   04 Jun 2027 04:48:45.794   04 Jun 2027 04:50:41.630           115.836            RioGallegos          3619.875
       221   04 Jun 2027 04:51:25.478   04 Jun 2027 04:52:35.371            69.893            RioGallegos          2184.156
       222   04 Jun 2027 05:38:23.800   04 Jun 2027 05:41:36.016           192.216                Irkutsk          6006.750
       223   04 Jun 2027 05:42:23.993   04 Jun 2027 05:42:56.445            32.452                Irkutsk          1014.125
       224   04 Jun 2027 05:43:45.036   04 Jun 2027 05:44:05.846            20.810                Novosib           650.313
       225   04 Jun 2027 07:13:47.056   04 Jun 2027 07:14:13.092            26.036                Norilsk           813.625
       226   04 Jun 2027 07:18:48.646   04 Jun 2027 07:18:50.750             2.104                 Moscow            65.750
       227   04 Jun 2027 07:59:30.970   04 Jun 2027 07:59:59.056            28.086            RioGallegos           877.687
       228   04 Jun 2027 08:01:08.026   04 Jun 2027 08:01:49.540            41.514            RioGallegos          1297.313
       229   04 Jun 2027 08:30:05.672   04 Jun 2027 08:30:26.105            20.433                Sumatra           638.531
       230   04 Jun 2027 08:36:27.950   04 Jun 2027 08:37:33.417            65.467                Sumatra          2045.844
       231   04 Jun 2027 08:54:45.288   04 Jun 2027 08:54:53.092             7.804                Novosib           243.875
       232   04 Jun 2027 10:15:38.664   04 Jun 2027 10:18:20.916           162.252                  Delhi          5070.375
       233   04 Jun 2027 10:18:42.175   04 Jun 2027 10:19:02.556            20.381                  Delhi           636.906
       234   04 Jun 2027 10:34:20.230   04 Jun 2027 10:34:34.727            14.497                Norilsk           453.031
       235   04 Jun 2027 12:08:27.907   04 Jun 2027 12:09:10.423            42.516              Murmansk2          1328.625
       236   04 Jun 2027 12:09:34.206   04 Jun 2027 12:10:31.260            57.054              Murmansk2          1782.937
       237   04 Jun 2027 12:16:07.887   04 Jun 2027 12:20:02.551           234.664                Anadyr2          7333.250
       238   04 Jun 2027 12:21:54.427   04 Jun 2027 12:22:18.878            24.451                Anadyr1           764.094
       239   04 Jun 2027 12:22:37.994   04 Jun 2027 12:23:31.201            53.207                Anadyr2          1662.719
       240   04 Jun 2027 13:39:39.132   04 Jun 2027 13:40:58.766            79.634              Murmansk2          2488.562
       241   04 Jun 2027 13:42:39.382   04 Jun 2027 13:42:56.663            17.281              Murmansk2           540.031
       242   04 Jun 2027 13:43:56.573   04 Jun 2027 13:44:01.394             4.821              Murmansk1           150.656
       243   04 Jun 2027 13:44:51.436   04 Jun 2027 13:45:08.716            17.280              Murmansk1           540.000
       244   04 Jun 2027 13:46:29.272   04 Jun 2027 13:47:02.316            33.044              Murmansk1          1032.625
       245   04 Jun 2027 13:48:31.019   04 Jun 2027 13:48:36.445             5.426              Murmansk2           169.562
       246   04 Jun 2027 13:51:17.745   04 Jun 2027 13:52:44.017            86.272                Anadyr1          2696.000
       247   04 Jun 2027 13:53:24.118   04 Jun 2027 13:55:11.120           107.002                Anadyr2          3343.813
       248   04 Jun 2027 13:56:15.945   04 Jun 2027 13:59:26.270           190.325               Magadan2          5947.656
       249   04 Jun 2027 15:27:08.928   04 Jun 2027 15:28:17.122            68.194                Anadyr1          2131.062
       250   04 Jun 2027 15:29:18.980   04 Jun 2027 15:29:56.209            37.229                Anadyr1          1163.406
       251   04 Jun 2027 15:31:19.420   04 Jun 2027 15:31:33.549            14.129                Anadyr2           441.531
       252   04 Jun 2027 15:32:01.123   04 Jun 2027 15:35:19.880           198.757               Magadan2          6211.156
       253   04 Jun 2027 15:36:39.926   04 Jun 2027 15:38:08.120            88.194               Magadan1          2756.063
       254   04 Jun 2027 17:03:13.285   04 Jun 2027 17:03:27.594            14.309                Anadyr2           447.156
       255   04 Jun 2027 17:05:20.643   04 Jun 2027 17:07:17.110           116.467               Magadan2          3639.594
       256   04 Jun 2027 17:08:40.398   04 Jun 2027 17:09:02.572            22.174               Magadan1           692.938
       257   04 Jun 2027 17:09:20.996   04 Jun 2027 17:09:58.422            37.426                Norilsk          1169.563
       258   04 Jun 2027 17:57:29.842   04 Jun 2027 18:01:50.460           260.618            RioGallegos          8144.312
       259   04 Jun 2027 18:06:56.352   04 Jun 2027 18:08:01.854            65.502            RioGallegos          2046.937
       260   04 Jun 2027 18:40:55.064   04 Jun 2027 18:42:17.311            82.247                Norilsk          2570.219
       261   04 Jun 2027 18:45:04.587   04 Jun 2027 18:47:32.124           147.537                Irkutsk          4610.531
       262   04 Jun 2027 18:48:47.355   04 Jun 2027 18:52:29.922           222.567                Novosib          6955.219
       263   04 Jun 2027 19:00:18.772   04 Jun 2027 19:01:34.114            75.342                Sumatra          2354.437
       264   04 Jun 2027 19:03:03.037   04 Jun 2027 19:03:10.360             7.323                Sumatra           228.844
       265   04 Jun 2027 20:20:43.409   04 Jun 2027 20:20:45.484             2.075                Irkutsk            64.844
       266   04 Jun 2027 20:20:51.174   04 Jun 2027 20:21:49.221            58.047                Novosib          1813.969
       267   04 Jun 2027 20:23:17.956   04 Jun 2027 20:24:44.260            86.304                Novosib          2697.000
       268   04 Jun 2027 20:28:18.798   04 Jun 2027 20:29:37.233            78.435                Novosib          2451.094
       269   04 Jun 2027 20:29:45.737   04 Jun 2027 20:33:54.384           248.647                  Delhi          7770.219
       270   04 Jun 2027 20:34:07.561   04 Jun 2027 20:34:53.770            46.209                  Delhi          1444.031
       271   04 Jun 2027 21:55:13.202   04 Jun 2027 21:57:15.926           122.724              Murmansk1          3835.125
       272   04 Jun 2027 21:57:20.762   04 Jun 2027 22:00:43.940           203.178              Murmansk2          6349.312
       273   04 Jun 2027 22:00:44.185   04 Jun 2027 22:06:55.321           371.136                 Moscow         11598.000
       274   04 Jun 2027 23:38:37.496   04 Jun 2027 23:38:49.344            11.848                 Moscow           370.250
       275   04 Jun 2027 23:58:36.465   05 Jun 2027 00:01:04.376           147.911               CapeTown          4622.219
       276   05 Jun 2027 00:02:30.252   05 Jun 2027 00:02:55.308            25.056               CapeTown           783.000
       277   05 Jun 2027 01:06:56.765   05 Jun 2027 01:09:21.038           144.273              Murmansk2          4508.531
       278   05 Jun 2027 01:10:11.293   05 Jun 2027 01:10:35.999            24.706                 Moscow           772.062
       279   05 Jun 2027 01:14:52.291   05 Jun 2027 01:15:00.768             8.477                 Moscow           264.906
       280   05 Jun 2027 01:18:42.693   05 Jun 2027 01:18:45.645             2.952                 Moscow            92.250
       281   05 Jun 2027 01:19:30.674   05 Jun 2027 01:19:44.103            13.429                 Moscow           419.656
       282   05 Jun 2027 01:22:03.269   05 Jun 2027 01:22:34.495            31.226                 Moscow           975.813
       283   05 Jun 2027 01:34:56.156   05 Jun 2027 01:35:09.896            13.740               CapeTown           429.375
       284   05 Jun 2027 01:36:41.256   05 Jun 2027 01:37:39.823            58.567               CapeTown          1830.219
       285   05 Jun 2027 01:43:43.429   05 Jun 2027 01:44:11.203            27.774               CapeTown           867.937
       286   05 Jun 2027 02:30:47.834   05 Jun 2027 02:33:07.504           139.670               Magadan1          4364.687
       287   05 Jun 2027 02:34:04.509   05 Jun 2027 02:34:15.685            11.176               Magadan1           349.250
       288   05 Jun 2027 02:34:53.212   05 Jun 2027 02:35:05.138            11.926               Magadan2           372.687
       289   05 Jun 2027 02:35:23.621   05 Jun 2027 02:36:11.002            47.381               Magadan1          1480.656
       290   05 Jun 2027 02:40:01.148   05 Jun 2027 02:40:33.615            32.467                Norilsk          1014.594
       291   05 Jun 2027 02:42:48.088   05 Jun 2027 02:43:31.487            43.399              Murmansk2          1356.219
       292   05 Jun 2027 02:43:52.326   05 Jun 2027 02:43:59.422             7.096              Murmansk1           221.750
       293   05 Jun 2027 02:45:39.877   05 Jun 2027 02:46:08.905            29.028              Murmansk1           907.125
       294   05 Jun 2027 02:46:37.717   05 Jun 2027 02:47:15.784            38.067                 Moscow          1189.594
       295   05 Jun 2027 02:49:54.997   05 Jun 2027 02:50:19.142            24.145                 Moscow           754.531
       296   05 Jun 2027 02:53:41.731   05 Jun 2027 02:54:44.603            62.872                 Moscow          1964.750
       297   05 Jun 2027 03:24:07.470   05 Jun 2027 03:25:22.412            74.942            RioGallegos          2341.938
       298   05 Jun 2027 03:26:36.826   05 Jun 2027 03:27:08.233            31.407            RioGallegos           981.469
       299   05 Jun 2027 04:11:15.034   05 Jun 2027 04:12:39.599            84.565                Anadyr1          2642.656
       300   05 Jun 2027 04:12:48.842   05 Jun 2027 04:13:26.263            37.421                Irkutsk          1169.406
       301   05 Jun 2027 04:13:29.870   05 Jun 2027 04:14:03.789            33.919                Anadyr1          1059.969
       302   05 Jun 2027 04:14:19.091   05 Jun 2027 04:15:53.103            94.012               Magadan2          2937.875
       303   05 Jun 2027 04:15:59.001   05 Jun 2027 04:17:06.512            67.511               Magadan2          2109.719
       304   05 Jun 2027 04:54:56.720   05 Jun 2027 04:58:48.285           231.565            RioGallegos          7236.406
       305   05 Jun 2027 05:49:54.195   05 Jun 2027 05:54:23.547           269.352                Irkutsk          8417.250
       306   05 Jun 2027 05:54:59.837   05 Jun 2027 05:55:00.830             0.993                Irkutsk            31.031
       307   05 Jun 2027 05:55:08.403   05 Jun 2027 05:55:30.755            22.352                Norilsk           698.500
       308   05 Jun 2027 05:55:40.540   05 Jun 2027 05:56:12.807            32.267                Novosib          1008.344
       309   05 Jun 2027 07:30:34.390   05 Jun 2027 07:30:40.403             6.013                Irkutsk           187.906
       310   05 Jun 2027 07:32:19.423   05 Jun 2027 07:32:41.482            22.059              Murmansk2           689.344
       311   05 Jun 2027 08:10:40.367   05 Jun 2027 08:10:45.661             5.294            RioGallegos           165.437
       312   05 Jun 2027 08:11:33.247   05 Jun 2027 08:12:21.296            48.049            RioGallegos          1501.531
       313   05 Jun 2027 08:43:02.874   05 Jun 2027 08:43:49.488            46.614                Sumatra          1456.688
       314   05 Jun 2027 08:45:43.907   05 Jun 2027 08:46:38.504            54.597                Sumatra          1706.156
       315   05 Jun 2027 09:06:18.282   05 Jun 2027 09:06:25.496             7.214                Novosib           225.437
       316   05 Jun 2027 09:07:02.489   05 Jun 2027 09:08:14.211            71.722                Novosib          2241.313
       317   05 Jun 2027 10:29:14.326   05 Jun 2027 10:31:01.652           107.326                  Delhi          3353.937
       318   05 Jun 2027 10:46:36.765   05 Jun 2027 10:46:53.856            17.091                Norilsk           534.094
       319   05 Jun 2027 12:13:20.645   05 Jun 2027 12:13:44.375            23.730              Murmansk2           741.563
       320   05 Jun 2027 12:14:31.011   05 Jun 2027 12:14:40.732             9.721              Murmansk2           303.781
       321   05 Jun 2027 12:15:29.410   05 Jun 2027 12:15:57.110            27.700              Murmansk2           865.625
       322   05 Jun 2027 12:22:57.077   05 Jun 2027 12:23:36.331            39.254              Murmansk2          1226.688
       323   05 Jun 2027 12:24:15.681   05 Jun 2027 12:24:49.351            33.670              Murmansk2          1052.188
       324   05 Jun 2027 12:27:57.070   05 Jun 2027 12:36:15.617           498.547                Anadyr2         15579.594
       325   05 Jun 2027 13:56:01.632   05 Jun 2027 13:56:20.287            18.655              Murmansk2           582.969
       326   05 Jun 2027 14:00:11.473   05 Jun 2027 14:00:20.237             8.764              Murmansk2           273.875
       327   05 Jun 2027 14:03:17.533   05 Jun 2027 14:05:44.512           146.979                Anadyr1          4593.094
       328   05 Jun 2027 14:07:11.348   05 Jun 2027 14:07:39.512            28.164                Anadyr1           880.125
       329   05 Jun 2027 14:07:52.576   05 Jun 2027 14:12:55.781           303.205               Magadan1          9475.156
       330   05 Jun 2027 15:41:37.136   05 Jun 2027 15:45:26.194           229.058               Magadan1          7158.062
       331   05 Jun 2027 15:45:45.905   05 Jun 2027 15:47:01.373            75.468               Magadan1          2358.375
       332   05 Jun 2027 15:48:35.831   05 Jun 2027 15:48:55.227            19.396               Magadan2           606.125
       333   05 Jun 2027 17:15:03.230   05 Jun 2027 17:15:28.184            24.954                Anadyr2           779.813
       334   05 Jun 2027 17:17:17.703   05 Jun 2027 17:17:32.956            15.253                Anadyr1           476.656
       335   05 Jun 2027 17:18:23.945   05 Jun 2027 17:19:32.242            68.297                Norilsk          2134.281
       336   05 Jun 2027 17:21:27.676   05 Jun 2027 17:21:38.563            10.887               Magadan2           340.219
       337   05 Jun 2027 17:21:38.563   05 Jun 2027 17:21:48.903            10.340               Magadan1           323.125
       338   05 Jun 2027 17:22:18.820   05 Jun 2027 17:22:54.281            35.461                Norilsk          1108.156
       339   05 Jun 2027 17:23:50.423   05 Jun 2027 17:28:00.047           249.624                Irkutsk          7800.750
       340   05 Jun 2027 18:11:29.849   05 Jun 2027 18:12:26.348            56.499            RioGallegos          1765.594
       341   05 Jun 2027 18:18:48.598   05 Jun 2027 18:19:43.475            54.877            RioGallegos          1714.906
       342   05 Jun 2027 18:56:57.745   05 Jun 2027 18:57:51.732            53.987                Norilsk          1687.094
       343   05 Jun 2027 18:58:23.252   05 Jun 2027 19:05:36.874           433.622                Novosib         13550.687
       344   05 Jun 2027 19:12:27.197   05 Jun 2027 19:13:43.683            76.486                Sumatra          2390.188
       345   05 Jun 2027 19:22:47.607   05 Jun 2027 19:23:00.746            13.139                Sumatra           410.594
       346   05 Jun 2027 20:34:32.771   05 Jun 2027 20:34:33.466             0.695                Novosib            21.719
       347   05 Jun 2027 20:35:17.070   05 Jun 2027 20:36:38.015            80.945                Novosib          2529.531
       348   05 Jun 2027 20:40:22.709   05 Jun 2027 20:42:45.766           143.057                  Delhi          4470.531
       349   05 Jun 2027 20:44:26.651   05 Jun 2027 20:44:32.115             5.464                  Delhi           170.750
       350   05 Jun 2027 22:06:51.871   05 Jun 2027 22:07:00.839             8.968               Magadan1           280.250
       351   05 Jun 2027 22:07:11.193   05 Jun 2027 22:08:56.180           104.987              Murmansk1          3280.844
       352   05 Jun 2027 22:09:28.231   05 Jun 2027 22:13:55.327           267.096              Murmansk2          8346.750
       353   05 Jun 2027 22:14:13.784   05 Jun 2027 22:16:39.286           145.502              Murmansk2          4546.938
       354   05 Jun 2027 22:17:01.793   05 Jun 2027 22:19:22.460           140.667                 Moscow          4395.844
       355   05 Jun 2027 22:40:40.264   05 Jun 2027 22:43:13.688           153.424               CapeTown          4794.500
       356   05 Jun 2027 23:49:42.579   05 Jun 2027 23:50:22.003            39.424                 Moscow          1232.000
       357   05 Jun 2027 23:58:48.748   05 Jun 2027 23:58:58.293             9.545                 Moscow           298.281
       358   06 Jun 2027 00:10:22.629   06 Jun 2027 00:12:47.831           145.202               CapeTown          4537.562
       359   06 Jun 2027 00:13:13.551   06 Jun 2027 00:14:00.167            46.616               CapeTown          1456.750
       360   06 Jun 2027 00:21:46.964   06 Jun 2027 00:21:46.978             0.014               CapeTown             0.437
       361   06 Jun 2027 01:13:37.453   06 Jun 2027 01:13:51.900            14.447               Magadan1           451.469
       362   06 Jun 2027 01:18:58.176   06 Jun 2027 01:21:14.986           136.810              Murmansk1          4275.313
       363   06 Jun 2027 01:22:14.615   06 Jun 2027 01:22:57.816            43.201                 Moscow          1350.031
       364   06 Jun 2027 01:27:02.625   06 Jun 2027 01:27:16.314            13.689                 Moscow           427.781
       365   06 Jun 2027 01:30:38.987   06 Jun 2027 01:30:50.905            11.918                 Moscow           372.438
       366   06 Jun 2027 01:31:30.449   06 Jun 2027 01:31:37.745             7.296                 Moscow           228.000
       367   06 Jun 2027 01:47:28.564   06 Jun 2027 01:48:24.040            55.476               CapeTown          1733.625
       368   06 Jun 2027 01:52:48.737   06 Jun 2027 01:54:13.724            84.987               CapeTown          2655.844
       369   06 Jun 2027 02:42:40.705   06 Jun 2027 02:45:07.880           147.175               Magadan2          4599.219
       370   06 Jun 2027 02:48:13.527   06 Jun 2027 02:48:21.556             8.029               Magadan1           250.906
       371   06 Jun 2027 02:50:27.462   06 Jun 2027 02:50:59.373            31.911                Norilsk           997.219
       372   06 Jun 2027 02:54:47.613   06 Jun 2027 02:55:33.092            45.479              Murmansk1          1421.219
       373   06 Jun 2027 02:55:40.032   06 Jun 2027 02:56:00.444            20.412              Murmansk2           637.875
       374   06 Jun 2027 02:57:31.661   06 Jun 2027 02:57:32.092             0.431              Murmansk2            13.469
       375   06 Jun 2027 02:58:45.950   06 Jun 2027 02:59:25.270            39.320                 Moscow          1228.750
       376   06 Jun 2027 03:35:08.364   06 Jun 2027 03:37:50.201           161.837            RioGallegos          5057.406
       377   06 Jun 2027 03:40:04.163   06 Jun 2027 03:41:16.554            72.391            RioGallegos          2262.219
       378   06 Jun 2027 04:23:50.892   06 Jun 2027 04:24:14.433            23.541               Magadan2           735.656
       379   06 Jun 2027 04:24:40.472   06 Jun 2027 04:26:58.330           137.858                Anadyr1          4308.062
       380   06 Jun 2027 04:27:01.311   06 Jun 2027 04:27:21.949            20.638               Magadan2           644.938
       381   06 Jun 2027 04:27:21.949   06 Jun 2027 04:28:01.763            39.814               Magadan1          1244.187
       382   06 Jun 2027 04:28:21.621   06 Jun 2027 04:29:47.942            86.321               Magadan2          2697.531
       383   06 Jun 2027 04:30:18.053   06 Jun 2027 04:30:25.093             7.040                Irkutsk           220.000
       384   06 Jun 2027 04:30:53.245   06 Jun 2027 04:31:02.852             9.607                Novosib           300.219
       385   06 Jun 2027 04:31:04.313   06 Jun 2027 04:31:31.687            27.374              Murmansk2           855.438
       386   06 Jun 2027 05:06:38.254   06 Jun 2027 05:10:09.602           211.348            RioGallegos          6604.625
       387   06 Jun 2027 06:01:38.695   06 Jun 2027 06:02:09.552            30.857               Magadan2           964.281
       388   06 Jun 2027 06:02:37.003   06 Jun 2027 06:03:23.867            46.864                Irkutsk          1464.500
       389   06 Jun 2027 06:03:26.424   06 Jun 2027 06:04:00.228            33.804                Irkutsk          1056.375
       390   06 Jun 2027 06:04:03.334   06 Jun 2027 06:07:15.776           192.442                Novosib          6013.813
       391   06 Jun 2027 07:40:40.123   06 Jun 2027 07:41:33.616            53.493                 Moscow          1671.656
       392   06 Jun 2027 07:41:47.017   06 Jun 2027 07:42:47.521            60.504                Irkutsk          1890.750
       393   06 Jun 2027 07:44:50.971   06 Jun 2027 07:44:52.526             1.555              Murmansk2            48.594
       394   06 Jun 2027 07:44:53.564   06 Jun 2027 07:45:35.733            42.169              Murmansk1          1317.781
       395   06 Jun 2027 08:21:30.322   06 Jun 2027 08:22:32.798            62.476            RioGallegos          1952.375
       396   06 Jun 2027 08:56:50.955   06 Jun 2027 08:58:03.737            72.782                Sumatra          2274.438
       397   06 Jun 2027 09:17:17.117   06 Jun 2027 09:17:29.451            12.334                Norilsk           385.438
       398   06 Jun 2027 09:18:22.556   06 Jun 2027 09:18:26.223             3.667                Novosib           114.594
       399   06 Jun 2027 09:19:07.026   06 Jun 2027 09:20:05.317            58.291                Novosib          1821.594
       400   06 Jun 2027 10:58:38.795   06 Jun 2027 10:58:54.904            16.109                Norilsk           503.406
       401   06 Jun 2027 12:23:03.262   06 Jun 2027 12:24:01.609            58.347                 Moscow          1823.344
       402   06 Jun 2027 12:24:44.636   06 Jun 2027 12:25:33.558            48.922                 Moscow          1528.813
       403   06 Jun 2027 12:25:35.980   06 Jun 2027 12:26:22.600            46.620              Murmansk1          1456.875
       404   06 Jun 2027 12:26:41.376   06 Jun 2027 12:27:14.709            33.333              Murmansk2          1041.656
       405   06 Jun 2027 12:27:58.580   06 Jun 2027 12:28:36.894            38.314              Murmansk2          1197.312
       406   06 Jun 2027 12:29:52.329   06 Jun 2027 12:30:24.341            32.012              Murmansk2          1000.375
       407   06 Jun 2027 12:30:34.810   06 Jun 2027 12:31:00.301            25.491              Murmansk1           796.594
       408   06 Jun 2027 12:35:50.715   06 Jun 2027 12:36:16.526            25.811              Murmansk2           806.594
       409   06 Jun 2027 12:39:49.254   06 Jun 2027 12:48:54.615           545.361                Anadyr2         17042.531
       410   06 Jun 2027 14:15:17.708   06 Jun 2027 14:15:52.120            34.412                Anadyr1          1075.375
       411   06 Jun 2027 14:17:57.160   06 Jun 2027 14:17:59.850             2.690                Anadyr1            84.062
       412   06 Jun 2027 14:18:55.400   06 Jun 2027 14:25:58.770           423.370               Magadan1         13230.312
       413   06 Jun 2027 15:53:35.006   06 Jun 2027 15:54:53.170            78.164               Magadan1          2442.625
       414   06 Jun 2027 15:57:28.285   06 Jun 2027 15:58:40.995            72.710               Magadan2          2272.187
       415   06 Jun 2027 17:27:03.196   06 Jun 2027 17:28:04.130            60.934                Anadyr1          1904.187
       416   06 Jun 2027 17:28:45.746   06 Jun 2027 17:29:04.028            18.282                Anadyr2           571.313
       417   06 Jun 2027 17:29:22.643   06 Jun 2027 17:29:39.021            16.378                Norilsk           511.812
       418   06 Jun 2027 17:30:47.900   06 Jun 2027 17:31:45.070            57.170               Magadan2          1786.562
       419   06 Jun 2027 17:32:17.830   06 Jun 2027 17:32:59.847            42.017                Norilsk          1313.031
       420   06 Jun 2027 17:33:31.103   06 Jun 2027 17:34:40.904            69.801                Norilsk          2181.281
       421   06 Jun 2027 17:34:56.851   06 Jun 2027 17:41:25.288           388.437                Irkutsk         12138.656
       422   06 Jun 2027 17:51:27.050   06 Jun 2027 17:55:37.096           250.046                Sumatra          7813.938
       423   06 Jun 2027 19:10:00.104   06 Jun 2027 19:17:32.718           452.614                Novosib         14144.187
       424   06 Jun 2027 20:46:07.998   06 Jun 2027 20:47:15.683            67.685              Murmansk1          2115.156
       425   06 Jun 2027 20:53:59.578   06 Jun 2027 20:55:02.739            63.161                  Delhi          1973.781
       426   06 Jun 2027 22:19:10.068   06 Jun 2027 22:20:44.263            94.195              Murmansk2          2943.594
       427   06 Jun 2027 22:21:34.007   06 Jun 2027 22:24:34.962           180.955              Murmansk1          5654.844
       428   06 Jun 2027 22:24:40.478   06 Jun 2027 22:29:31.216           290.738                 Moscow          9085.563
       429   06 Jun 2027 22:50:46.140   06 Jun 2027 22:56:41.763           355.623               CapeTown         11113.219
       430   07 Jun 2027 00:29:55.476   07 Jun 2027 00:30:21.705            26.229               CapeTown           819.656
       431   07 Jun 2027 00:32:21.129   07 Jun 2027 00:32:30.084             8.955               CapeTown           279.844
       432   07 Jun 2027 01:25:05.382   07 Jun 2027 01:25:28.013            22.631               Magadan2           707.219
       433   07 Jun 2027 01:30:36.667   07 Jun 2027 01:30:49.186            12.519               Magadan1           391.219
       434   07 Jun 2027 01:30:59.454   07 Jun 2027 01:31:25.254            25.800              Murmansk1           806.250
       435   07 Jun 2027 01:31:25.254   07 Jun 2027 01:32:05.347            40.093              Murmansk2          1252.906
       436   07 Jun 2027 01:33:07.838   07 Jun 2027 01:33:35.452            27.614              Murmansk1           862.937
       437   07 Jun 2027 01:34:18.416   07 Jun 2027 01:35:17.737            59.321                 Moscow          1853.781
       438   07 Jun 2027 01:37:24.154   07 Jun 2027 01:38:36.537            72.383                 Moscow          2261.969
       439   07 Jun 2027 02:00:11.655   07 Jun 2027 02:00:32.182            20.527               CapeTown           641.469
       440   07 Jun 2027 02:03:41.141   07 Jun 2027 02:04:07.665            26.524               CapeTown           828.875
       441   07 Jun 2027 02:05:18.755   07 Jun 2027 02:06:06.678            47.923               CapeTown          1497.594
       442   07 Jun 2027 02:54:35.817   07 Jun 2027 02:56:19.594           103.777               Magadan1          3243.031
       443   07 Jun 2027 02:56:25.783   07 Jun 2027 02:56:40.221            14.438               Magadan2           451.188
       444   07 Jun 2027 02:57:12.216   07 Jun 2027 02:57:49.661            37.445               Magadan1          1170.156
       445   07 Jun 2027 02:58:38.415   07 Jun 2027 02:58:51.317            12.902               Magadan2           403.188
       446   07 Jun 2027 02:59:44.005   07 Jun 2027 03:00:11.558            27.553               Magadan1           861.031
       447   07 Jun 2027 03:01:04.883   07 Jun 2027 03:04:44.657           219.774                Anadyr1          6867.937
       448   07 Jun 2027 04:35:19.931   07 Jun 2027 04:37:01.321           101.390                Irkutsk          3168.437
       449   07 Jun 2027 04:37:35.720   07 Jun 2027 04:42:35.881           300.161                Irkutsk          9380.031
       450   07 Jun 2027 06:14:11.277   07 Jun 2027 06:14:30.676            19.399               Magadan2           606.219
       451   07 Jun 2027 06:14:47.150   07 Jun 2027 06:15:00.905            13.755               Magadan2           429.844
       452   07 Jun 2027 06:15:00.905   07 Jun 2027 06:16:09.491            68.586               Magadan1          2143.312
       453   07 Jun 2027 06:16:18.820   07 Jun 2027 06:16:44.675            25.855               Magadan2           807.969
       454   07 Jun 2027 06:17:05.505   07 Jun 2027 06:17:27.131            21.626               Magadan2           675.812
       455   07 Jun 2027 06:19:10.473   07 Jun 2027 06:19:51.000            40.527                Norilsk          1266.469
       456   07 Jun 2027 07:53:02.694   07 Jun 2027 07:53:47.223            44.529                 Moscow          1391.531
       457   07 Jun 2027 07:55:23.318   07 Jun 2027 07:55:42.590            19.272                Norilsk           602.250
       458   07 Jun 2027 08:34:44.090   07 Jun 2027 08:35:07.068            22.978            RioGallegos           718.063
       459   07 Jun 2027 08:35:35.043   07 Jun 2027 08:36:12.311            37.268            RioGallegos          1164.625
       460   07 Jun 2027 09:30:53.373   07 Jun 2027 09:31:11.078            17.705                Novosib           553.281
       461   07 Jun 2027 11:10:56.201   07 Jun 2027 11:11:19.036            22.835                Norilsk           713.594
       462   07 Jun 2027 12:34:49.459   07 Jun 2027 12:35:07.319            17.860                 Moscow           558.125
       463   07 Jun 2027 12:35:39.603   07 Jun 2027 12:36:51.012            71.409                 Moscow          2231.531
       464   07 Jun 2027 12:37:33.427   07 Jun 2027 12:38:32.813            59.386                 Moscow          1855.813
       465   07 Jun 2027 12:38:37.142   07 Jun 2027 12:39:06.234            29.092                 Moscow           909.125
       466   07 Jun 2027 12:39:14.378   07 Jun 2027 12:39:22.539             8.161              Murmansk1           255.031
       467   07 Jun 2027 12:39:59.911   07 Jun 2027 12:40:40.084            40.173              Murmansk2          1255.406
       468   07 Jun 2027 12:41:05.665   07 Jun 2027 12:42:36.145            90.480              Murmansk2          2827.500
       469   07 Jun 2027 12:51:43.547   07 Jun 2027 12:57:21.030           337.483                Anadyr2         10546.344
       470   07 Jun 2027 12:58:30.626   07 Jun 2027 13:01:14.653           164.027                Anadyr1          5125.844
       471   07 Jun 2027 14:27:18.209   07 Jun 2027 14:28:33.994            75.785                Anadyr1          2368.281
       472   07 Jun 2027 14:30:12.764   07 Jun 2027 14:30:33.393            20.629                Anadyr2           644.656
       473   07 Jun 2027 14:30:36.337   07 Jun 2027 14:36:57.310           380.973               Magadan2         11905.406
       474   07 Jun 2027 14:38:17.302   07 Jun 2027 14:38:49.517            32.215               Magadan1          1006.719
       475   07 Jun 2027 16:05:33.671   07 Jun 2027 16:06:48.834            75.163               Magadan2          2348.844
       476   07 Jun 2027 16:08:07.498   07 Jun 2027 16:09:30.551            83.053               Magadan2          2595.406
       477   07 Jun 2027 17:00:15.698   07 Jun 2027 17:03:52.831           217.133            RioGallegos          6785.406
       478   07 Jun 2027 17:41:44.983   07 Jun 2027 17:42:30.620            45.637                Norilsk          1426.156
       479   07 Jun 2027 17:45:30.125   07 Jun 2027 17:47:00.896            90.771                Norilsk          2836.594
       480   07 Jun 2027 17:47:16.415   07 Jun 2027 17:53:40.882           384.467                Irkutsk         12014.594
       481   07 Jun 2027 18:01:48.185   07 Jun 2027 18:09:09.082           440.897                Sumatra         13778.031
       482   07 Jun 2027 19:24:06.976   07 Jun 2027 19:27:53.589           226.613                Novosib          7081.656
