uniorb/output/strategy_4/Drop/Drop_KinoSat_111002.txt

KinoSat_111002
-------------------------
    Access    *     Start Time (UTCG)     *     Stop Time (UTCG)  *   Duration (s)        *       Station  *  Data (Mbytes)
         1   01 Jun 2027 03:57:31.173   01 Jun 2027 03:57:50.818            19.645                Anadyr2           613.906
         2   01 Jun 2027 03:58:07.571   01 Jun 2027 03:58:34.989            27.418               Magadan2           856.813
         3   01 Jun 2027 03:59:02.396   01 Jun 2027 04:02:56.660           234.264                Anadyr1          7320.750
         4   01 Jun 2027 05:33:54.739   01 Jun 2027 05:34:14.751            20.012               Magadan1           625.375
         5   01 Jun 2027 05:34:19.890   01 Jun 2027 05:35:07.403            47.513                Irkutsk          1484.781
         6   01 Jun 2027 05:35:37.023   01 Jun 2027 05:35:56.655            19.632                Irkutsk           613.500
         7   01 Jun 2027 05:36:33.096   01 Jun 2027 05:38:40.003           126.907                Anadyr1          3965.844
         8   01 Jun 2027 06:18:56.028   01 Jun 2027 06:19:53.912            57.884            RioGallegos          1808.875
         9   01 Jun 2027 06:24:47.892   01 Jun 2027 06:25:02.150            14.258            RioGallegos           445.563
        10   01 Jun 2027 07:07:50.265   01 Jun 2027 07:08:01.626            11.361                Novosib           355.031
        11   01 Jun 2027 07:08:11.282   01 Jun 2027 07:08:47.744            36.462               Magadan2          1139.437
        12   01 Jun 2027 07:08:49.891   01 Jun 2027 07:10:11.416            81.525                Novosib          2547.656
        13   01 Jun 2027 07:10:26.195   01 Jun 2027 07:10:47.050            20.855               Magadan1           651.719
        14   01 Jun 2027 07:10:47.050   01 Jun 2027 07:10:51.679             4.629               Magadan2           144.656
        15   01 Jun 2027 07:10:58.613   01 Jun 2027 07:12:22.200            83.587                Norilsk          2612.094
        16   01 Jun 2027 07:12:26.159   01 Jun 2027 07:13:51.693            85.534                Irkutsk          2672.937
        17   01 Jun 2027 07:13:58.880   01 Jun 2027 07:14:07.802             8.922               Magadan1           278.813
        18   01 Jun 2027 07:14:08.278   01 Jun 2027 07:14:13.144             4.866              Murmansk2           152.062
        19   01 Jun 2027 07:14:27.106   01 Jun 2027 07:15:17.028            49.922              Murmansk1          1560.063
        20   01 Jun 2027 07:15:38.775   01 Jun 2027 07:15:53.140            14.365                Norilsk           448.906
        21   01 Jun 2027 07:16:39.990   01 Jun 2027 07:17:03.685            23.695                Norilsk           740.469
        22   01 Jun 2027 07:49:05.200   01 Jun 2027 07:50:39.836            94.636            RioGallegos          2957.375
        23   01 Jun 2027 07:52:13.140   01 Jun 2027 07:52:26.188            13.048            RioGallegos           407.750
        24   01 Jun 2027 08:25:18.291   01 Jun 2027 08:26:47.284            88.993                Sumatra          2781.031
        25   01 Jun 2027 08:45:58.052   01 Jun 2027 08:49:40.990           222.938                Irkutsk          6966.813
        26   01 Jun 2027 08:50:06.377   01 Jun 2027 08:51:41.185            94.808                Novosib          2962.750
        27   01 Jun 2027 08:51:48.997   01 Jun 2027 08:52:07.600            18.603              Murmansk2           581.344
        28   01 Jun 2027 08:52:39.807   01 Jun 2027 08:53:21.870            42.063                Norilsk          1314.469
        29   01 Jun 2027 08:53:29.814   01 Jun 2027 08:53:59.915            30.101              Murmansk1           940.656
        30   01 Jun 2027 09:25:51.003   01 Jun 2027 09:26:46.264            55.261            RioGallegos          1726.906
        31   01 Jun 2027 09:29:48.715   01 Jun 2027 09:29:59.754            11.039            RioGallegos           344.969
        32   01 Jun 2027 10:00:08.132   01 Jun 2027 10:01:44.412            96.280                Sumatra          3008.750
        33   01 Jun 2027 10:05:13.995   01 Jun 2027 10:05:16.499             2.504                Sumatra            78.250
        34   01 Jun 2027 10:08:37.049   01 Jun 2027 10:10:56.615           139.566                  Delhi          4361.438
        35   01 Jun 2027 10:22:50.172   01 Jun 2027 10:23:35.729            45.557              Murmansk1          1423.656
        36   01 Jun 2027 10:23:38.311   01 Jun 2027 10:25:11.204            92.893                 Moscow          2902.906
        37   01 Jun 2027 10:25:27.066   01 Jun 2027 10:25:37.600            10.534                Norilsk           329.187
        38   01 Jun 2027 10:25:43.176   01 Jun 2027 10:25:54.008            10.832                Novosib           338.500
        39   01 Jun 2027 10:25:59.849   01 Jun 2027 10:26:32.931            33.082              Murmansk1          1033.813
        40   01 Jun 2027 10:26:32.931   01 Jun 2027 10:26:55.775            22.844              Murmansk2           713.875
        41   01 Jun 2027 10:27:37.421   01 Jun 2027 10:27:53.247            15.826                 Moscow           494.562
        42   01 Jun 2027 11:44:56.824   01 Jun 2027 11:45:49.506            52.682                  Delhi          1646.312
        43   01 Jun 2027 11:58:43.275   01 Jun 2027 12:00:53.714           130.439              Murmansk1          4076.219
        44   01 Jun 2027 12:00:56.399   01 Jun 2027 12:02:33.567            97.168                 Moscow          3036.500
        45   01 Jun 2027 12:02:37.618   01 Jun 2027 12:02:48.719            11.101                 Moscow           346.906
        46   01 Jun 2027 12:03:12.069   01 Jun 2027 12:05:15.147           123.078                 Moscow          3846.187
        47   01 Jun 2027 12:05:57.498   01 Jun 2027 12:07:09.366            71.868                Norilsk          2245.875
        48   01 Jun 2027 12:08:40.799   01 Jun 2027 12:08:50.753             9.954              Murmansk1           311.063
        49   01 Jun 2027 13:28:29.604   01 Jun 2027 13:35:25.177           415.573                 Moscow         12986.656
        50   01 Jun 2027 13:35:31.900   01 Jun 2027 13:36:20.771            48.871                 Moscow          1527.219
        51   01 Jun 2027 13:37:22.692   01 Jun 2027 13:38:46.439            83.747                 Moscow          2617.094
        52   01 Jun 2027 13:38:53.351   01 Jun 2027 13:41:07.284           133.933                Norilsk          4185.406
        53   01 Jun 2027 13:41:38.593   01 Jun 2027 13:42:14.564            35.971                Norilsk          1124.094
        54   01 Jun 2027 13:42:49.118   01 Jun 2027 13:43:17.088            27.970              Murmansk2           874.063
        55   01 Jun 2027 13:44:09.151   01 Jun 2027 13:44:39.250            30.099              Murmansk1           940.594
        56   01 Jun 2027 13:48:28.927   01 Jun 2027 13:52:10.635           221.708                Anadyr2          6928.375
        57   01 Jun 2027 14:52:58.642   01 Jun 2027 14:54:13.441            74.799               CapeTown          2337.469
        58   01 Jun 2027 15:15:18.721   01 Jun 2027 15:15:52.892            34.171              Murmansk2          1067.844
        59   01 Jun 2027 15:16:46.897   01 Jun 2027 15:17:05.661            18.764              Murmansk1           586.375
        60   01 Jun 2027 15:17:32.379   01 Jun 2027 15:18:47.012            74.633              Murmansk2          2332.281
        61   01 Jun 2027 15:23:14.077   01 Jun 2027 15:23:30.432            16.355                Anadyr1           511.094
        62   01 Jun 2027 15:23:43.919   01 Jun 2027 15:23:47.037             3.118                Anadyr1            97.438
        63   01 Jun 2027 15:23:48.114   01 Jun 2027 15:24:02.554            14.440                Anadyr2           451.250
        64   01 Jun 2027 15:26:03.344   01 Jun 2027 15:26:33.544            30.200                Anadyr1           943.750
        65   01 Jun 2027 15:27:30.468   01 Jun 2027 15:27:42.124            11.656                Anadyr2           364.250
        66   01 Jun 2027 15:28:22.081   01 Jun 2027 15:28:29.164             7.083                Anadyr1           221.344
        67   01 Jun 2027 15:28:37.341   01 Jun 2027 15:29:27.329            49.988                Anadyr2          1562.125
        68   01 Jun 2027 15:33:28.772   01 Jun 2027 15:33:42.038            13.266                Anadyr2           414.563
        69   01 Jun 2027 16:28:38.386   01 Jun 2027 16:29:16.803            38.417               CapeTown          1200.531
        70   01 Jun 2027 16:50:17.616   01 Jun 2027 16:51:52.717            95.101              Murmansk2          2971.906
        71   01 Jun 2027 16:53:04.584   01 Jun 2027 16:53:30.383            25.799              Murmansk1           806.219
        72   01 Jun 2027 16:54:41.028   01 Jun 2027 16:54:51.643            10.615              Murmansk1           331.719
        73   01 Jun 2027 16:55:04.433   01 Jun 2027 16:56:00.796            56.363              Murmansk1          1761.344
        74   01 Jun 2027 16:58:34.678   01 Jun 2027 16:58:55.919            21.241                Anadyr2           663.781
        75   01 Jun 2027 16:59:35.071   01 Jun 2027 17:00:00.780            25.709                Anadyr2           803.406
        76   01 Jun 2027 17:00:11.015   01 Jun 2027 17:00:35.299            24.284                Anadyr1           758.875
        77   01 Jun 2027 17:01:14.456   01 Jun 2027 17:02:29.074            74.618               Magadan2          2331.813
        78   01 Jun 2027 17:03:47.660   01 Jun 2027 17:05:37.744           110.084               Magadan1          3440.125
        79   01 Jun 2027 18:34:21.349   01 Jun 2027 18:36:12.172           110.823                Anadyr1          3463.219
        80   01 Jun 2027 18:36:38.483   01 Jun 2027 18:38:52.935           134.452               Magadan2          4201.625
        81   01 Jun 2027 18:39:31.708   01 Jun 2027 18:39:49.316            17.608               Magadan1           550.250
        82   01 Jun 2027 18:41:04.717   01 Jun 2027 18:41:06.159             1.442               Magadan1            45.063
        83   01 Jun 2027 18:41:44.091   01 Jun 2027 18:42:04.200            20.109               Magadan2           628.406
        84   01 Jun 2027 18:42:34.084   01 Jun 2027 18:42:54.126            20.042               Magadan1           626.313
        85   01 Jun 2027 18:43:56.448   01 Jun 2027 18:44:17.009            20.561               Magadan2           642.531
        86   01 Jun 2027 18:47:12.767   01 Jun 2027 18:47:49.767            37.000               Magadan1          1156.250
        87   01 Jun 2027 19:29:33.509   01 Jun 2027 19:32:44.780           191.271            RioGallegos          5977.219
        88   01 Jun 2027 19:35:45.535   01 Jun 2027 19:36:20.706            35.171            RioGallegos          1099.094
        89   01 Jun 2027 20:12:15.577   01 Jun 2027 20:16:10.794           235.217                Norilsk          7350.531
        90   01 Jun 2027 20:17:26.981   01 Jun 2027 20:17:28.007             1.026                Irkutsk            32.063
        91   01 Jun 2027 20:17:57.699   01 Jun 2027 20:18:42.909            45.210                Irkutsk          1412.813
        92   01 Jun 2027 20:19:19.688   01 Jun 2027 20:20:30.363            70.675                Irkutsk          2208.594
        93   01 Jun 2027 20:26:09.377   01 Jun 2027 20:26:33.395            24.018                Irkutsk           750.562
        94   01 Jun 2027 20:31:01.556   01 Jun 2027 20:31:55.080            53.524                Sumatra          1672.625
        95   01 Jun 2027 20:32:55.947   01 Jun 2027 20:34:03.700            67.753                Sumatra          2117.281
        96   01 Jun 2027 20:37:50.506   01 Jun 2027 20:37:59.353             8.847                Sumatra           276.469
        97   01 Jun 2027 21:48:54.957   01 Jun 2027 21:49:20.991            26.034                Norilsk           813.562
        98   01 Jun 2027 21:49:43.810   01 Jun 2027 21:49:56.638            12.828                Norilsk           400.875
        99   01 Jun 2027 21:50:00.879   01 Jun 2027 21:50:28.606            27.727               Magadan1           866.469
       100   01 Jun 2027 21:50:44.477   01 Jun 2027 21:50:48.650             4.173                Norilsk           130.406
       101   01 Jun 2027 21:51:08.710   01 Jun 2027 21:51:17.690             8.980               Magadan1           280.625
       102   01 Jun 2027 21:51:24.932   01 Jun 2027 21:51:46.323            21.391               Magadan1           668.469
       103   01 Jun 2027 21:51:56.305   01 Jun 2027 21:52:03.854             7.549                Norilsk           235.906
       104   01 Jun 2027 21:52:24.178   01 Jun 2027 21:54:14.034           109.856                Novosib          3433.000
       105   01 Jun 2027 21:55:53.854   01 Jun 2027 21:56:21.073            27.219                Novosib           850.594
       106   01 Jun 2027 21:59:45.531   01 Jun 2027 22:02:01.013           135.482                Novosib          4233.813
       107   01 Jun 2027 22:02:17.788   01 Jun 2027 22:03:51.120            93.332                  Delhi          2916.625
       108   01 Jun 2027 23:21:14.334   01 Jun 2027 23:21:26.777            12.443                Anadyr2           388.844
       109   01 Jun 2027 23:23:41.091   01 Jun 2027 23:24:07.204            26.113                Anadyr1           816.031
       110   01 Jun 2027 23:24:08.453   01 Jun 2027 23:25:29.946            81.493                Norilsk          2546.656
       111   01 Jun 2027 23:25:36.582   01 Jun 2027 23:25:55.237            18.655                Norilsk           582.969
       112   01 Jun 2027 23:26:44.400   01 Jun 2027 23:30:32.577           228.177              Murmansk1          7130.531
       113   01 Jun 2027 23:32:27.106   01 Jun 2027 23:33:17.141            50.035              Murmansk1          1563.594
       114   01 Jun 2027 23:39:49.764   01 Jun 2027 23:40:55.567            65.803                  Delhi          2056.344
       115   02 Jun 2027 00:21:55.559   02 Jun 2027 00:22:17.757            22.198            RioGallegos           693.687
       116   02 Jun 2027 00:52:19.718   02 Jun 2027 00:52:35.443            15.725                Anadyr2           491.406
       117   02 Jun 2027 00:53:12.270   02 Jun 2027 00:54:25.606            73.336                Anadyr1          2291.750
       118   02 Jun 2027 00:54:49.011   02 Jun 2027 00:55:03.385            14.374                Anadyr1           449.187
       119   02 Jun 2027 00:57:58.479   02 Jun 2027 00:58:20.371            21.892                Anadyr1           684.125
       120   02 Jun 2027 00:58:26.363   02 Jun 2027 01:00:43.766           137.403               Magadan2          4293.844
       121   02 Jun 2027 01:01:00.643   02 Jun 2027 01:01:16.094            15.451               Magadan1           482.844
       122   02 Jun 2027 01:02:15.686   02 Jun 2027 01:03:44.959            89.273              Murmansk2          2789.781
       123   02 Jun 2027 01:03:46.805   02 Jun 2027 01:04:11.669            24.864              Murmansk2           777.000
       124   02 Jun 2027 01:05:07.331   02 Jun 2027 01:05:43.536            36.205                Novosib          1131.406
       125   02 Jun 2027 01:05:49.857   02 Jun 2027 01:06:09.400            19.543                 Moscow           610.719
       126   02 Jun 2027 01:07:25.161   02 Jun 2027 01:07:30.360             5.199                 Moscow           162.469
       127   02 Jun 2027 01:08:08.944   02 Jun 2027 01:08:33.163            24.219                 Moscow           756.844
       128   02 Jun 2027 01:15:24.543   02 Jun 2027 01:17:17.762           113.219                  Delhi          3538.094
       129   02 Jun 2027 01:36:21.082   02 Jun 2027 01:37:19.916            58.834               CapeTown          1838.562
       130   02 Jun 2027 02:26:25.840   02 Jun 2027 02:27:35.741            69.901                Anadyr2          2184.406
       131   02 Jun 2027 02:29:41.522   02 Jun 2027 02:31:42.975           121.453               Magadan2          3795.406
       132   02 Jun 2027 02:37:10.893   02 Jun 2027 02:37:30.473            19.580                Norilsk           611.875
       133   02 Jun 2027 02:38:12.779   02 Jun 2027 02:39:49.842            97.063              Murmansk2          3033.219
       134   02 Jun 2027 02:40:31.924   02 Jun 2027 02:40:36.729             4.805              Murmansk1           150.156
       135   02 Jun 2027 02:41:05.991   02 Jun 2027 02:42:28.506            82.515                Novosib          2578.594
       136   02 Jun 2027 03:05:26.825   02 Jun 2027 03:05:40.553            13.728               CapeTown           429.000
       137   02 Jun 2027 03:06:51.130   02 Jun 2027 03:07:23.205            32.075               CapeTown          1002.344
       138   02 Jun 2027 03:14:49.012   02 Jun 2027 03:15:11.890            22.878               CapeTown           714.938
       139   02 Jun 2027 03:15:50.059   02 Jun 2027 03:16:20.706            30.647               CapeTown           957.719
       140   02 Jun 2027 04:08:40.500   02 Jun 2027 04:12:57.837           257.337               Magadan2          8041.781
       141   02 Jun 2027 04:13:08.418   02 Jun 2027 04:13:49.031            40.613               Magadan2          1269.156
       142   02 Jun 2027 05:47:17.939   02 Jun 2027 05:50:37.013           199.074                Anadyr1          6221.063
       143   02 Jun 2027 07:22:54.213   02 Jun 2027 07:24:32.694            98.481               Magadan2          3077.531
       144   02 Jun 2027 07:24:32.694   02 Jun 2027 07:25:49.017            76.323               Magadan1          2385.094
       145   02 Jun 2027 07:25:49.017   02 Jun 2027 07:26:01.677            12.660               Magadan2           395.625
       146   02 Jun 2027 07:26:07.772   02 Jun 2027 07:26:22.957            15.185                Novosib           474.531
       147   02 Jun 2027 07:27:09.529   02 Jun 2027 07:27:12.254             2.725                Novosib            85.156
       148   02 Jun 2027 09:00:11.968   02 Jun 2027 09:02:16.750           124.782                Irkutsk          3899.438
       149   02 Jun 2027 09:38:17.089   02 Jun 2027 09:40:35.336           138.247            RioGallegos          4320.219
       150   02 Jun 2027 10:12:29.884   02 Jun 2027 10:16:28.275           238.391                Sumatra          7449.719
       151   02 Jun 2027 10:16:43.063   02 Jun 2027 10:17:39.973            56.910                Sumatra          1778.437
       152   02 Jun 2027 10:35:01.915   02 Jun 2027 10:35:45.850            43.935                Novosib          1372.969
       153   02 Jun 2027 10:36:08.780   02 Jun 2027 10:36:38.891            30.111                Novosib           940.969
       154   02 Jun 2027 10:36:42.869   02 Jun 2027 10:37:18.396            35.527                Novosib          1110.219
       155   02 Jun 2027 10:37:25.374   02 Jun 2027 10:37:46.737            21.363                Novosib           667.594
       156   02 Jun 2027 11:57:32.047   02 Jun 2027 12:00:14.451           162.404                  Delhi          5075.125
       157   02 Jun 2027 12:01:00.452   02 Jun 2027 12:02:19.576            79.124                  Delhi          2472.625
       158   02 Jun 2027 13:40:39.066   02 Jun 2027 13:42:16.479            97.413                 Moscow          3044.156
       159   02 Jun 2027 13:43:37.445   02 Jun 2027 13:44:10.713            33.268                 Moscow          1039.625
       160   02 Jun 2027 13:44:31.067   02 Jun 2027 13:46:32.275           121.208              Murmansk1          3787.750
       161   02 Jun 2027 13:46:32.275   02 Jun 2027 13:48:04.174            91.899              Murmansk2          2871.844
       162   02 Jun 2027 13:48:43.314   02 Jun 2027 13:48:50.013             6.699              Murmansk1           209.344
       163   02 Jun 2027 13:51:05.511   02 Jun 2027 13:51:13.402             7.891              Murmansk1           246.594
       164   02 Jun 2027 13:51:33.022   02 Jun 2027 13:53:00.776            87.754                Norilsk          2742.312
       165   02 Jun 2027 13:59:55.592   02 Jun 2027 14:02:11.363           135.771                Anadyr1          4242.844
       166   02 Jun 2027 14:02:48.998   02 Jun 2027 14:03:13.599            24.601                Anadyr1           768.781
       167   02 Jun 2027 14:04:41.084   02 Jun 2027 14:04:53.419            12.335                Anadyr1           385.469
       168   02 Jun 2027 15:02:05.849   02 Jun 2027 15:03:03.422            57.573               CapeTown          1799.156
       169   02 Jun 2027 15:22:13.448   02 Jun 2027 15:22:39.340            25.892              Murmansk1           809.125
       170   02 Jun 2027 15:23:17.048   02 Jun 2027 15:23:27.421            10.373              Murmansk2           324.156
       171   02 Jun 2027 15:25:01.039   02 Jun 2027 15:25:21.292            20.253              Murmansk1           632.906
       172   02 Jun 2027 15:27:02.529   02 Jun 2027 15:27:14.189            11.660              Murmansk1           364.375
       173   02 Jun 2027 15:29:07.468   02 Jun 2027 15:30:48.863           101.395              Murmansk1          3168.594
       174   02 Jun 2027 15:34:39.095   02 Jun 2027 15:35:13.723            34.628                Anadyr1          1082.125
       175   02 Jun 2027 15:35:43.711   02 Jun 2027 15:36:12.457            28.746                Anadyr1           898.312
       176   02 Jun 2027 15:36:17.650   02 Jun 2027 15:37:11.007            53.357                Anadyr1          1667.406
       177   02 Jun 2027 15:45:03.069   02 Jun 2027 15:45:22.378            19.309                Anadyr1           603.406
       178   02 Jun 2027 17:03:15.138   02 Jun 2027 17:06:40.721           205.583              Murmansk2          6424.469
       179   02 Jun 2027 17:10:27.068   02 Jun 2027 17:10:51.956            24.888                Anadyr2           777.750
       180   02 Jun 2027 17:11:09.407   02 Jun 2027 17:12:06.154            56.747                Anadyr1          1773.344
       181   02 Jun 2027 17:13:07.714   02 Jun 2027 17:13:56.260            48.546               Magadan2          1517.063
       182   02 Jun 2027 17:13:58.551   02 Jun 2027 17:14:21.292            22.741               Magadan1           710.656
       183   02 Jun 2027 17:14:31.167   02 Jun 2027 17:15:28.185            57.018               Magadan1          1781.813
       184   02 Jun 2027 18:46:22.361   02 Jun 2027 18:48:13.698           111.337                Anadyr2          3479.281
       185   02 Jun 2027 18:48:39.149   02 Jun 2027 18:52:57.747           258.598               Magadan2          8081.188
       186   02 Jun 2027 18:58:56.887   02 Jun 2027 18:59:02.404             5.517               Magadan1           172.406
       187   02 Jun 2027 19:00:59.411   02 Jun 2027 19:01:33.824            34.413               Magadan2          1075.406
       188   02 Jun 2027 19:41:12.622   02 Jun 2027 19:43:54.280           161.658            RioGallegos          5051.813
       189   02 Jun 2027 19:46:06.036   02 Jun 2027 19:46:49.936            43.900            RioGallegos          1371.875
       190   02 Jun 2027 19:47:07.046   02 Jun 2027 19:47:38.710            31.664            RioGallegos           989.500
       191   02 Jun 2027 20:22:03.798   02 Jun 2027 20:22:33.569            29.771                Anadyr1           930.344
       192   02 Jun 2027 20:24:14.820   02 Jun 2027 20:28:11.496           236.676                Norilsk          7396.125
       193   02 Jun 2027 20:28:36.598   02 Jun 2027 20:29:39.214            62.616                Irkutsk          1956.750
       194   02 Jun 2027 20:32:15.070   02 Jun 2027 20:32:15.241             0.171                Irkutsk             5.344
       195   02 Jun 2027 20:42:35.263   02 Jun 2027 20:45:55.979           200.716                Sumatra          6272.375
       196   02 Jun 2027 22:01:57.408   02 Jun 2027 22:01:57.855             0.447                Norilsk            13.969
       197   02 Jun 2027 22:02:09.670   02 Jun 2027 22:02:38.477            28.807               Magadan2           900.219
       198   02 Jun 2027 22:03:09.828   02 Jun 2027 22:03:24.249            14.421                Norilsk           450.656
       199   02 Jun 2027 22:03:32.581   02 Jun 2027 22:03:39.528             6.947               Magadan1           217.094
       200   02 Jun 2027 22:04:00.077   02 Jun 2027 22:04:16.656            16.579                Irkutsk           518.094
       201   02 Jun 2027 22:04:17.987   02 Jun 2027 22:05:22.927            64.940                Novosib          2029.375
       202   02 Jun 2027 22:05:55.285   02 Jun 2027 22:07:08.320            73.035                Novosib          2282.344
       203   02 Jun 2027 22:09:25.669   02 Jun 2027 22:09:56.207            30.538                Novosib           954.313
       204   02 Jun 2027 22:12:30.979   02 Jun 2027 22:14:02.785            91.806                  Delhi          2868.937
       205   02 Jun 2027 22:20:21.197   02 Jun 2027 22:21:46.222            85.025                  Delhi          2657.031
       206   02 Jun 2027 23:33:01.141   02 Jun 2027 23:33:31.026            29.885                Anadyr1           933.906
       207   02 Jun 2027 23:36:08.583   02 Jun 2027 23:36:11.472             2.889                Norilsk            90.281
       208   02 Jun 2027 23:36:28.954   02 Jun 2027 23:37:03.404            34.450               Magadan1          1076.562
       209   02 Jun 2027 23:37:14.720   02 Jun 2027 23:37:33.283            18.563               Magadan2           580.094
       210   02 Jun 2027 23:38:33.930   02 Jun 2027 23:38:59.234            25.304               Magadan2           790.750
       211   02 Jun 2027 23:39:39.254   02 Jun 2027 23:42:24.560           165.306              Murmansk2          5165.813
       212   02 Jun 2027 23:42:45.912   02 Jun 2027 23:43:04.919            19.007              Murmansk2           593.969
       213   02 Jun 2027 23:44:27.683   02 Jun 2027 23:44:33.976             6.293              Murmansk2           196.656
       214   02 Jun 2027 23:44:37.875   02 Jun 2027 23:46:30.223           112.348                 Moscow          3510.875
       215   03 Jun 2027 01:04:03.278   03 Jun 2027 01:04:10.961             7.683                Anadyr2           240.094
       216   03 Jun 2027 01:04:10.961   03 Jun 2027 01:04:34.837            23.876                Anadyr1           746.125
       217   03 Jun 2027 01:05:05.691   03 Jun 2027 01:05:39.337            33.646                Anadyr1          1051.438
       218   03 Jun 2027 01:06:18.429   03 Jun 2027 01:07:14.914            56.485                Anadyr1          1765.156
       219   03 Jun 2027 01:09:32.010   03 Jun 2027 01:11:19.621           107.611               Magadan1          3362.844
       220   03 Jun 2027 01:11:29.206   03 Jun 2027 01:11:34.417             5.211               Magadan1           162.844
       221   03 Jun 2027 01:12:00.959   03 Jun 2027 01:12:47.921            46.962               Magadan1          1467.563
       222   03 Jun 2027 01:14:16.735   03 Jun 2027 01:15:31.718            74.983              Murmansk1          2343.219
       223   03 Jun 2027 01:15:43.065   03 Jun 2027 01:15:58.841            15.776              Murmansk1           493.000
       224   03 Jun 2027 01:16:05.121   03 Jun 2027 01:16:08.263             3.142              Murmansk1            98.187
       225   03 Jun 2027 01:16:11.352   03 Jun 2027 01:17:03.438            52.086                Novosib          1627.687
       226   03 Jun 2027 01:21:23.142   03 Jun 2027 01:23:25.140           121.998                 Moscow          3812.437
       227   03 Jun 2027 01:47:10.922   03 Jun 2027 01:47:39.842            28.920               CapeTown           903.750
       228   03 Jun 2027 02:38:19.799   03 Jun 2027 02:39:35.430            75.631                Anadyr2          2363.469
       229   03 Jun 2027 02:40:46.366   03 Jun 2027 02:40:56.166             9.800                Anadyr2           306.250
       230   03 Jun 2027 02:41:14.401   03 Jun 2027 02:42:43.091            88.690               Magadan2          2771.562
       231   03 Jun 2027 02:46:49.503   03 Jun 2027 02:47:26.041            36.538               Magadan2          1141.812
       232   03 Jun 2027 02:50:14.508   03 Jun 2027 02:50:21.801             7.293              Murmansk1           227.906
       233   03 Jun 2027 02:50:30.685   03 Jun 2027 02:51:48.246            77.561              Murmansk1          2423.781
       234   03 Jun 2027 02:51:48.246   03 Jun 2027 02:52:01.470            13.224              Murmansk2           413.250
       235   03 Jun 2027 02:53:27.314   03 Jun 2027 02:54:08.260            40.946                 Moscow          1279.562
       236   03 Jun 2027 02:55:21.361   03 Jun 2027 02:55:56.637            35.276                Novosib          1102.375
       237   03 Jun 2027 03:19:00.431   03 Jun 2027 03:19:04.059             3.628               CapeTown           113.375
       238   03 Jun 2027 03:19:11.888   03 Jun 2027 03:19:15.129             3.241               CapeTown           101.281
       239   03 Jun 2027 04:21:11.131   03 Jun 2027 04:21:50.167            39.036               Magadan1          1219.875
       240   03 Jun 2027 04:22:40.660   03 Jun 2027 04:26:10.573           209.913               Magadan2          6559.781
       241   03 Jun 2027 05:55:16.982   03 Jun 2027 05:55:57.184            40.202                Irkutsk          1256.312
       242   03 Jun 2027 05:58:32.765   03 Jun 2027 05:59:49.650            76.885                Anadyr1          2402.656
       243   03 Jun 2027 05:59:56.429   03 Jun 2027 06:02:32.789           156.360                Anadyr2          4886.250
       244   03 Jun 2027 07:33:40.768   03 Jun 2027 07:34:03.930            23.162               Magadan1           723.812
       245   03 Jun 2027 07:34:14.776   03 Jun 2027 07:34:19.266             4.490               Magadan2           140.313
       246   03 Jun 2027 07:34:19.824   03 Jun 2027 07:34:56.542            36.718               Magadan1          1147.438
       247   03 Jun 2027 07:35:22.245   03 Jun 2027 07:36:32.530            70.285               Magadan1          2196.406
       248   03 Jun 2027 07:36:43.357   03 Jun 2027 07:36:55.690            12.333                Norilsk           385.406
       249   03 Jun 2027 07:37:04.230   03 Jun 2027 07:37:24.320            20.090                Norilsk           627.812
       250   03 Jun 2027 07:37:28.831   03 Jun 2027 07:37:46.222            17.391                Norilsk           543.469
       251   03 Jun 2027 07:38:14.232   03 Jun 2027 07:38:30.041            15.809                Norilsk           494.031
       252   03 Jun 2027 08:14:00.631   03 Jun 2027 08:14:19.742            19.111            RioGallegos           597.219
       253   03 Jun 2027 08:15:44.681   03 Jun 2027 08:16:17.332            32.651            RioGallegos          1020.344
       254   03 Jun 2027 08:19:38.608   03 Jun 2027 08:20:13.300            34.692            RioGallegos          1084.125
       255   03 Jun 2027 08:49:24.547   03 Jun 2027 08:50:36.040            71.493                Sumatra          2234.156
       256   03 Jun 2027 09:10:54.991   03 Jun 2027 09:11:09.485            14.494                Irkutsk           452.938
       257   03 Jun 2027 09:11:12.976   03 Jun 2027 09:12:15.761            62.785                Irkutsk          1962.031
       258   03 Jun 2027 09:12:47.624   03 Jun 2027 09:12:56.139             8.515                Irkutsk           266.094
       259   03 Jun 2027 09:12:58.350   03 Jun 2027 09:13:06.695             8.345                Novosib           260.781
       260   03 Jun 2027 09:13:13.698   03 Jun 2027 09:14:07.366            53.668              Murmansk2          1677.125
       261   03 Jun 2027 09:50:48.892   03 Jun 2027 09:51:06.100            17.208            RioGallegos           537.750
       262   03 Jun 2027 09:55:24.748   03 Jun 2027 09:55:26.628             1.880            RioGallegos            58.750
       263   03 Jun 2027 10:25:00.954   03 Jun 2027 10:25:40.984            40.030                Sumatra          1250.938
       264   03 Jun 2027 10:29:02.698   03 Jun 2027 10:29:55.995            53.297                Sumatra          1665.531
       265   03 Jun 2027 10:47:52.373   03 Jun 2027 10:47:52.823             0.450                Novosib            14.063
       266   03 Jun 2027 10:47:54.778   03 Jun 2027 10:48:18.757            23.979                Norilsk           749.344
       267   03 Jun 2027 10:48:55.677   03 Jun 2027 10:49:11.791            16.114                Novosib           503.562
       268   03 Jun 2027 10:49:29.094   03 Jun 2027 10:49:34.863             5.769                Novosib           180.281
       269   03 Jun 2027 10:49:38.995   03 Jun 2027 10:49:49.803            10.808                Novosib           337.750
       270   03 Jun 2027 10:49:57.541   03 Jun 2027 10:49:58.816             1.275                Norilsk            39.844
       271   03 Jun 2027 12:10:20.019   03 Jun 2027 12:12:03.634           103.615                  Delhi          3237.969
       272   03 Jun 2027 12:12:55.430   03 Jun 2027 12:13:34.941            39.511                  Delhi          1234.719
       273   03 Jun 2027 12:18:52.421   03 Jun 2027 12:20:19.608            87.187                Novosib          2724.594
       274   03 Jun 2027 12:22:53.692   03 Jun 2027 12:23:28.856            35.164                Norilsk          1098.875
       275   03 Jun 2027 12:25:30.280   03 Jun 2027 12:25:42.627            12.347                Norilsk           385.844
       276   03 Jun 2027 12:29:09.936   03 Jun 2027 12:29:16.800             6.864                Norilsk           214.500
       277   03 Jun 2027 12:29:34.070   03 Jun 2027 12:30:06.015            31.945                Norilsk           998.281
       278   03 Jun 2027 13:33:41.900   03 Jun 2027 13:35:18.935            97.035               CapeTown          3032.344
       279   03 Jun 2027 13:36:59.897   03 Jun 2027 13:37:46.684            46.787               CapeTown          1462.094
       280   03 Jun 2027 13:52:51.856   03 Jun 2027 13:53:25.344            33.488                 Moscow          1046.500
       281   03 Jun 2027 13:53:35.294   03 Jun 2027 13:53:46.056            10.762                 Moscow           336.313
       282   03 Jun 2027 13:54:12.182   03 Jun 2027 13:54:16.192             4.010                 Moscow           125.312
       283   03 Jun 2027 13:56:20.228   03 Jun 2027 13:59:15.035           174.807              Murmansk1          5462.719
       284   03 Jun 2027 14:03:41.304   03 Jun 2027 14:04:05.535            24.231              Murmansk1           757.219
       285   03 Jun 2027 14:07:24.510   03 Jun 2027 14:07:43.935            19.425              Murmansk2           607.031
       286   03 Jun 2027 14:11:36.013   03 Jun 2027 14:13:22.879           106.866                Anadyr2          3339.563
       287   03 Jun 2027 14:13:57.918   03 Jun 2027 14:15:04.453            66.535                Anadyr1          2079.219
       288   03 Jun 2027 15:11:30.085   03 Jun 2027 15:11:52.449            22.364               CapeTown           698.875
       289   03 Jun 2027 15:33:14.347   03 Jun 2027 15:33:52.679            38.332                 Moscow          1197.875
       290   03 Jun 2027 15:34:40.958   03 Jun 2027 15:34:57.091            16.133              Murmansk2           504.156
       291   03 Jun 2027 15:35:08.808   03 Jun 2027 15:36:06.946            58.138              Murmansk1          1816.813
       292   03 Jun 2027 15:39:20.142   03 Jun 2027 15:39:37.380            17.238              Murmansk2           538.687
       293   03 Jun 2027 15:46:38.153   03 Jun 2027 15:49:06.407           148.254                Anadyr2          4632.937
       294   03 Jun 2027 15:57:21.661   03 Jun 2027 15:57:48.260            26.599                Anadyr2           831.219
       295   03 Jun 2027 15:57:54.181   03 Jun 2027 15:57:57.529             3.348                Anadyr2           104.625
       296   03 Jun 2027 16:46:41.018   03 Jun 2027 16:48:05.772            84.754               CapeTown          2648.562
       297   03 Jun 2027 17:16:28.887   03 Jun 2027 17:18:39.707           130.820              Murmansk2          4088.125
       298   03 Jun 2027 17:22:28.436   03 Jun 2027 17:24:02.442            94.006                Anadyr2          2937.688
       299   03 Jun 2027 17:25:02.689   03 Jun 2027 17:25:22.672            19.983               Magadan1           624.469
       300   03 Jun 2027 17:25:22.672   03 Jun 2027 17:26:22.441            59.769               Magadan2          1867.781
       301   03 Jun 2027 17:26:27.392   03 Jun 2027 17:26:33.435             6.043               Magadan2           188.844
       302   03 Jun 2027 17:29:22.232   03 Jun 2027 17:29:54.263            32.031               Magadan2          1000.969
       303   03 Jun 2027 17:30:43.237   03 Jun 2027 17:30:56.159            12.922               Magadan1           403.812
       304   03 Jun 2027 17:31:09.255   03 Jun 2027 17:31:16.833             7.578               Magadan2           236.813
       305   03 Jun 2027 17:35:57.372   03 Jun 2027 17:35:57.790             0.418               Magadan1            13.062
       306   03 Jun 2027 17:35:58.087   03 Jun 2027 17:36:09.891            11.804               Magadan1           368.875
       307   03 Jun 2027 18:58:23.167   03 Jun 2027 19:00:15.186           112.019                Anadyr1          3500.594
       308   03 Jun 2027 19:00:40.213   03 Jun 2027 19:03:59.852           199.639               Magadan2          6238.719
       309   03 Jun 2027 19:04:05.975   03 Jun 2027 19:04:47.623            41.648                Norilsk          1301.500
       310   03 Jun 2027 19:52:57.265   03 Jun 2027 19:56:28.227           210.962            RioGallegos          6592.563
       311   03 Jun 2027 20:02:15.177   03 Jun 2027 20:02:22.315             7.138            RioGallegos           223.063
       312   03 Jun 2027 20:35:58.726   03 Jun 2027 20:36:04.852             6.126                Anadyr1           191.438
       313   03 Jun 2027 20:36:22.389   03 Jun 2027 20:36:33.733            11.344                Norilsk           354.500
       314   03 Jun 2027 20:36:42.257   03 Jun 2027 20:38:32.542           110.285               Magadan2          3446.406
       315   03 Jun 2027 20:38:54.470   03 Jun 2027 20:39:54.419            59.949                Norilsk          1873.406
       316   03 Jun 2027 20:40:28.562   03 Jun 2027 20:41:47.821            79.259                Irkutsk          2476.844
       317   03 Jun 2027 20:42:50.981   03 Jun 2027 20:45:04.057           133.076                Novosib          4158.625
       318   03 Jun 2027 20:54:16.832   03 Jun 2027 20:55:16.995            60.163                Sumatra          1880.094
       319   03 Jun 2027 20:55:41.321   03 Jun 2027 20:56:45.394            64.073                Sumatra          2002.281
       320   03 Jun 2027 22:12:10.688   03 Jun 2027 22:12:37.898            27.210                Norilsk           850.313
       321   03 Jun 2027 22:12:48.083   03 Jun 2027 22:13:03.069            14.986               Magadan2           468.312
       322   03 Jun 2027 22:14:02.705   03 Jun 2027 22:14:51.334            48.629                Norilsk          1519.656
       323   03 Jun 2027 22:15:26.782   03 Jun 2027 22:16:04.204            37.422               Magadan2          1169.438
       324   03 Jun 2027 22:16:13.453   03 Jun 2027 22:17:45.922            92.469                Novosib          2889.656
       325   03 Jun 2027 22:18:26.594   03 Jun 2027 22:19:48.509            81.915                Novosib          2559.844
       326   03 Jun 2027 22:24:07.594   03 Jun 2027 22:27:28.987           201.393                  Delhi          6293.531
       327   03 Jun 2027 23:48:10.082   03 Jun 2027 23:48:13.449             3.367                Norilsk           105.219
       328   03 Jun 2027 23:48:21.667   03 Jun 2027 23:49:47.275            85.608               Magadan1          2675.250
       329   03 Jun 2027 23:49:47.275   03 Jun 2027 23:50:15.944            28.669               Magadan2           895.906
       330   03 Jun 2027 23:50:34.639   03 Jun 2027 23:53:02.043           147.404              Murmansk1          4606.375
       331   03 Jun 2027 23:54:15.607   03 Jun 2027 23:54:29.806            14.199              Murmansk1           443.719
       332   03 Jun 2027 23:55:40.590   03 Jun 2027 23:56:26.895            46.305                 Moscow          1447.031
       333   03 Jun 2027 23:57:16.928   03 Jun 2027 23:57:44.960            28.032                 Moscow           876.000
       334   03 Jun 2027 23:58:41.224   03 Jun 2027 23:59:57.336            76.112                 Moscow          2378.500
       335   04 Jun 2027 01:15:47.792   04 Jun 2027 01:15:57.633             9.841                Anadyr1           307.531
       336   04 Jun 2027 01:17:00.759   04 Jun 2027 01:17:38.744            37.985                Anadyr1          1187.031
       337   04 Jun 2027 01:18:30.292   04 Jun 2027 01:18:42.827            12.535                Anadyr2           391.719
       338   04 Jun 2027 01:19:07.311   04 Jun 2027 01:19:19.879            12.568                Anadyr1           392.750
       339   04 Jun 2027 01:21:00.229   04 Jun 2027 01:23:04.201           123.972               Magadan2          3874.125
       340   04 Jun 2027 01:24:03.645   04 Jun 2027 01:24:48.992            45.347               Magadan1          1417.094
       341   04 Jun 2027 01:26:18.014   04 Jun 2027 01:26:54.584            36.570              Murmansk1          1142.813
       342   04 Jun 2027 01:27:30.477   04 Jun 2027 01:28:27.002            56.525              Murmansk2          1766.406
       343   04 Jun 2027 01:28:41.626   04 Jun 2027 01:29:58.031            76.405              Murmansk2          2387.656
       344   04 Jun 2027 01:38:13.881   04 Jun 2027 01:38:16.037             2.156                 Moscow            67.375
       345   04 Jun 2027 01:40:54.626   04 Jun 2027 01:41:09.027            14.401                 Moscow           450.031
       346   04 Jun 2027 01:41:30.806   04 Jun 2027 01:41:50.006            19.200                 Moscow           600.000
       347   04 Jun 2027 01:54:08.000   04 Jun 2027 01:54:51.954            43.954               CapeTown          1373.562
       348   04 Jun 2027 02:00:36.179   04 Jun 2027 02:01:30.926            54.747               CapeTown          1710.844
       349   04 Jun 2027 02:50:15.431   04 Jun 2027 02:51:58.084           102.653                Anadyr1          3207.906
       350   04 Jun 2027 02:52:48.777   04 Jun 2027 02:53:50.110            61.333               Magadan2          1916.656
       351   04 Jun 2027 02:56:50.946   04 Jun 2027 02:56:53.272             2.326               Magadan2            72.688
       352   04 Jun 2027 02:58:01.955   04 Jun 2027 02:58:31.846            29.891               Magadan1           934.094
       353   04 Jun 2027 02:59:39.796   04 Jun 2027 03:00:08.051            28.255                Norilsk           882.969
       354   04 Jun 2027 03:10:19.452   04 Jun 2027 03:11:11.107            51.655              Murmansk2          1614.219
       355   04 Jun 2027 03:11:38.780   04 Jun 2027 03:11:57.886            19.106              Murmansk2           597.062
       356   04 Jun 2027 03:11:57.886   04 Jun 2027 03:13:18.665            80.779              Murmansk1          2524.344
       357   04 Jun 2027 04:26:13.753   04 Jun 2027 04:26:58.263            44.510               Magadan1          1390.937
       358   04 Jun 2027 04:26:58.263   04 Jun 2027 04:27:18.827            20.564               Magadan2           642.625
       359   04 Jun 2027 04:32:36.641   04 Jun 2027 04:33:43.807            67.166                Anadyr2          2098.937
       360   04 Jun 2027 04:33:49.158   04 Jun 2027 04:34:18.575            29.417               Magadan2           919.281
       361   04 Jun 2027 04:34:18.575   04 Jun 2027 04:35:41.328            82.753               Magadan1          2586.031
       362   04 Jun 2027 04:35:43.635   04 Jun 2027 04:36:07.372            23.737                Anadyr1           741.781
       363   04 Jun 2027 06:10:28.648   04 Jun 2027 06:10:43.754            15.106               Magadan1           472.062
       364   04 Jun 2027 06:10:48.167   04 Jun 2027 06:11:16.041            27.874                Anadyr2           871.063
       365   04 Jun 2027 06:11:16.041   04 Jun 2027 06:11:57.329            41.288                Anadyr1          1290.250
       366   04 Jun 2027 06:12:17.166   04 Jun 2027 06:12:40.857            23.691               Magadan2           740.344
       367   04 Jun 2027 06:13:09.513   04 Jun 2027 06:14:17.858            68.345               Magadan2          2135.781
       368   04 Jun 2027 07:43:30.188   04 Jun 2027 07:43:39.932             9.744               Magadan2           304.500
       369   04 Jun 2027 07:44:50.765   04 Jun 2027 07:45:02.124            11.359               Magadan2           354.969
       370   04 Jun 2027 07:45:27.112   04 Jun 2027 07:45:55.412            28.300               Magadan1           884.375
       371   04 Jun 2027 07:46:14.699   04 Jun 2027 07:46:58.624            43.925               Magadan1          1372.656
       372   04 Jun 2027 07:47:06.629   04 Jun 2027 07:47:26.168            19.539               Magadan1           610.594
       373   04 Jun 2027 07:47:36.186   04 Jun 2027 07:47:37.964             1.778                Irkutsk            55.562
       374   04 Jun 2027 07:48:19.913   04 Jun 2027 07:48:22.542             2.629                Irkutsk            82.156
       375   04 Jun 2027 07:48:31.732   04 Jun 2027 07:48:56.935            25.203               Magadan1           787.594
       376   04 Jun 2027 07:49:04.598   04 Jun 2027 07:49:35.977            31.379               Magadan2           980.594
       377   04 Jun 2027 07:50:05.218   04 Jun 2027 07:50:18.454            13.236                Irkutsk           413.625
       378   04 Jun 2027 07:50:56.319   04 Jun 2027 07:51:02.689             6.370              Murmansk2           199.063
       379   04 Jun 2027 08:25:01.490   04 Jun 2027 08:26:07.177            65.687            RioGallegos          2052.719
       380   04 Jun 2027 08:33:13.967   04 Jun 2027 08:33:22.695             8.728            RioGallegos           272.750
       381   04 Jun 2027 09:00:10.151   04 Jun 2027 09:01:13.526            63.375                Sumatra          1980.469
       382   04 Jun 2027 09:02:52.982   04 Jun 2027 09:03:55.022            62.040                Sumatra          1938.750
       383   04 Jun 2027 09:20:28.037   04 Jun 2027 09:21:20.368            52.331                Irkutsk          1635.344
       384   04 Jun 2027 09:23:21.277   04 Jun 2027 09:23:25.186             3.909                Irkutsk           122.156
       385   04 Jun 2027 09:23:33.374   04 Jun 2027 09:24:01.754            28.380                Norilsk           886.875
       386   04 Jun 2027 09:24:05.029   04 Jun 2027 09:24:21.024            15.995                Irkutsk           499.844
       387   04 Jun 2027 09:24:26.018   04 Jun 2027 09:24:48.097            22.079                Irkutsk           689.969
       388   04 Jun 2027 09:24:53.089   04 Jun 2027 09:25:05.305            12.216                Novosib           381.750
       389   04 Jun 2027 09:25:34.134   04 Jun 2027 09:26:20.899            46.765                Novosib          1461.406
       390   04 Jun 2027 10:04:04.683   04 Jun 2027 10:04:22.174            17.491            RioGallegos           546.594
       391   04 Jun 2027 10:06:11.817   04 Jun 2027 10:07:15.530            63.713            RioGallegos          1991.031
       392   04 Jun 2027 10:37:45.545   04 Jun 2027 10:37:47.779             2.234                Sumatra            69.813
       393   04 Jun 2027 10:40:43.778   04 Jun 2027 10:42:19.698            95.920                Sumatra          2997.500
       394   04 Jun 2027 10:59:52.743   04 Jun 2027 10:59:58.277             5.534                Novosib           172.937
       395   04 Jun 2027 11:00:18.190   04 Jun 2027 11:00:20.959             2.769                Norilsk            86.531
       396   04 Jun 2027 11:00:43.473   04 Jun 2027 11:01:12.083            28.610                Norilsk           894.062
       397   04 Jun 2027 11:01:20.218   04 Jun 2027 11:01:27.632             7.414                Novosib           231.687
       398   04 Jun 2027 11:01:38.378   04 Jun 2027 11:01:50.985            12.607                Novosib           393.969
       399   04 Jun 2027 12:23:29.262   04 Jun 2027 12:27:02.371           213.109                  Delhi          6659.656
       400   04 Jun 2027 12:32:42.733   04 Jun 2027 12:33:14.904            32.171              Murmansk1          1005.344
       401   04 Jun 2027 12:33:27.186   04 Jun 2027 12:33:48.184            20.998              Murmansk1           656.188
       402   04 Jun 2027 12:34:07.371   04 Jun 2027 12:34:32.834            25.463              Murmansk2           795.719
       403   04 Jun 2027 12:35:54.456   04 Jun 2027 12:36:23.174            28.718              Murmansk2           897.438
       404   04 Jun 2027 13:44:28.577   04 Jun 2027 13:46:54.810           146.233               CapeTown          4569.781
       405   04 Jun 2027 13:50:18.338   04 Jun 2027 13:51:47.916            89.578               CapeTown          2799.312
       406   04 Jun 2027 14:08:32.505   04 Jun 2027 14:09:17.993            45.488              Murmansk1          1421.500
       407   04 Jun 2027 14:09:17.993   04 Jun 2027 14:09:50.051            32.058              Murmansk2          1001.812
       408   04 Jun 2027 14:10:07.136   04 Jun 2027 14:11:16.752            69.616              Murmansk2          2175.500
       409   04 Jun 2027 14:15:08.089   04 Jun 2027 14:15:39.298            31.209              Murmansk2           975.281
       410   04 Jun 2027 14:23:22.850   04 Jun 2027 14:25:22.231           119.381                Anadyr1          3730.656
       411   04 Jun 2027 14:25:43.310   04 Jun 2027 14:27:05.543            82.233                Anadyr2          2569.781
       412   04 Jun 2027 14:28:42.640   04 Jun 2027 14:28:56.073            13.433                Anadyr2           419.781
       413   04 Jun 2027 15:22:06.361   04 Jun 2027 15:23:45.716            99.355               CapeTown          3104.844
       414   04 Jun 2027 15:50:58.492   04 Jun 2027 15:51:06.421             7.929              Murmansk2           247.781
       415   04 Jun 2027 15:51:21.268   04 Jun 2027 15:51:51.631            30.363              Murmansk1           948.844
       416   04 Jun 2027 15:58:37.763   04 Jun 2027 16:00:54.456           136.693                Anadyr1          4271.656
       417   04 Jun 2027 16:03:09.386   04 Jun 2027 16:07:02.365           232.979               Magadan1          7280.594
       418   04 Jun 2027 17:34:29.862   04 Jun 2027 17:36:03.219            93.357                Anadyr2          2917.406
       419   04 Jun 2027 17:36:07.670   04 Jun 2027 17:36:12.446             4.776                Anadyr2           149.250
       420   04 Jun 2027 17:36:59.016   04 Jun 2027 17:38:32.456            93.440               Magadan1          2920.000
       421   04 Jun 2027 17:38:35.848   04 Jun 2027 17:38:43.820             7.972               Magadan1           249.125
       422   04 Jun 2027 17:38:52.132   04 Jun 2027 17:41:11.235           139.103               Magadan1          4346.969
       423   04 Jun 2027 19:10:23.730   04 Jun 2027 19:12:34.202           130.472                Anadyr2          4077.250
       424   04 Jun 2027 19:12:41.607   04 Jun 2027 19:14:15.089            93.482               Magadan2          2921.312
       425   04 Jun 2027 19:15:58.217   04 Jun 2027 19:16:17.504            19.287               Magadan1           602.719
       426   04 Jun 2027 19:16:23.679   04 Jun 2027 19:16:32.302             8.623                Norilsk           269.469
       427   04 Jun 2027 19:19:15.417   04 Jun 2027 19:19:24.259             8.842               Magadan2           276.312
       428   04 Jun 2027 19:19:47.538   04 Jun 2027 19:19:49.960             2.422               Magadan2            75.688
       429   04 Jun 2027 19:20:28.259   04 Jun 2027 19:21:41.743            73.484                Irkutsk          2296.375
       430   04 Jun 2027 20:04:45.770   04 Jun 2027 20:08:08.605           202.835            RioGallegos          6338.594
       431   04 Jun 2027 20:48:15.208   04 Jun 2027 20:48:43.206            27.998                Norilsk           874.937
       432   04 Jun 2027 20:48:45.023   04 Jun 2027 20:48:47.026             2.003               Magadan2            62.594
       433   04 Jun 2027 20:48:50.362   04 Jun 2027 20:49:48.266            57.904               Magadan1          1809.500
       434   04 Jun 2027 20:50:29.238   04 Jun 2027 20:50:30.644             1.406               Magadan1            43.937
       435   04 Jun 2027 20:50:56.361   04 Jun 2027 20:51:44.341            47.980                Norilsk          1499.375
       436   04 Jun 2027 20:52:22.633   04 Jun 2027 20:53:53.006            90.373                Irkutsk          2824.156
       437   04 Jun 2027 20:54:02.001   04 Jun 2027 20:55:42.701           100.700                Novosib          3146.875
       438   04 Jun 2027 20:56:23.615   04 Jun 2027 20:57:10.480            46.865                Novosib          1464.531
       439   04 Jun 2027 20:57:23.885   04 Jun 2027 20:58:27.217            63.332                Novosib          1979.125
       440   04 Jun 2027 21:06:05.021   04 Jun 2027 21:07:05.639            60.618                Sumatra          1894.313
       441   04 Jun 2027 21:08:58.930   04 Jun 2027 21:09:38.909            39.979                Sumatra          1249.344
       442   04 Jun 2027 22:24:12.678   04 Jun 2027 22:24:22.070             9.392                Norilsk           293.500
       443   04 Jun 2027 22:24:49.953   04 Jun 2027 22:24:51.844             1.891               Magadan2            59.094
       444   04 Jun 2027 22:25:35.620   04 Jun 2027 22:26:19.239            43.619               Magadan1          1363.094
       445   04 Jun 2027 22:28:05.103   04 Jun 2027 22:28:49.701            44.598                Irkutsk          1393.687
       446   04 Jun 2027 22:29:11.188   04 Jun 2027 22:30:05.225            54.037                Novosib          1688.656
       447   04 Jun 2027 22:30:22.603   04 Jun 2027 22:30:31.132             8.529                Novosib           266.531
       448   04 Jun 2027 22:33:48.240   04 Jun 2027 22:33:58.389            10.149                Novosib           317.156
       449   04 Jun 2027 22:35:50.732   04 Jun 2027 22:39:23.981           213.249                  Delhi          6664.031
       450   04 Jun 2027 23:56:22.965   04 Jun 2027 23:56:54.910            31.945                Anadyr2           998.281
       451   04 Jun 2027 23:56:56.998   04 Jun 2027 23:57:10.800            13.802                Anadyr2           431.312
       452   05 Jun 2027 00:00:10.903   05 Jun 2027 00:01:56.974           106.071               Magadan1          3314.719
       453   05 Jun 2027 00:02:32.112   05 Jun 2027 00:06:25.474           233.362              Murmansk2          7292.562
       454   05 Jun 2027 00:07:08.785   05 Jun 2027 00:08:24.173            75.388                 Moscow          2355.875
       455   05 Jun 2027 00:10:27.186   05 Jun 2027 00:10:40.271            13.085                 Moscow           408.906
       456   05 Jun 2027 00:12:08.798   05 Jun 2027 00:12:15.494             6.696                 Moscow           209.250
       457   05 Jun 2027 00:12:35.306   05 Jun 2027 00:14:03.297            87.991                 Moscow          2749.719
       458   05 Jun 2027 01:29:54.453   05 Jun 2027 01:30:14.178            19.725                Anadyr1           616.406
       459   05 Jun 2027 01:30:34.479   05 Jun 2027 01:30:38.297             3.818                Anadyr2           119.313
       460   05 Jun 2027 01:32:28.139   05 Jun 2027 01:34:24.157           116.018               Magadan2          3625.563
       461   05 Jun 2027 01:34:36.193   05 Jun 2027 01:34:48.426            12.233               Magadan2           382.281
       462   05 Jun 2027 01:35:33.607   05 Jun 2027 01:36:06.333            32.726               Magadan2          1022.688
       463   05 Jun 2027 01:38:19.479   05 Jun 2027 01:38:47.813            28.334              Murmansk2           885.438
       464   05 Jun 2027 01:38:53.617   05 Jun 2027 01:39:28.777            35.160              Murmansk1          1098.750
       465   05 Jun 2027 01:40:01.173   05 Jun 2027 01:40:14.112            12.939              Murmansk1           404.344
       466   05 Jun 2027 01:40:24.838   05 Jun 2027 01:40:48.616            23.778                Novosib           743.062
       467   05 Jun 2027 01:41:39.273   05 Jun 2027 01:43:20.022           100.749                 Moscow          3148.406
       468   05 Jun 2027 02:05:50.929   05 Jun 2027 02:07:04.153            73.224               CapeTown          2288.250
       469   05 Jun 2027 02:17:01.726   05 Jun 2027 02:18:09.804            68.078               CapeTown          2127.438
       470   05 Jun 2027 03:02:12.802   05 Jun 2027 03:02:47.321            34.519                Anadyr2          1078.719
       471   05 Jun 2027 03:09:03.835   05 Jun 2027 03:13:41.310           277.475               Magadan1          8671.094
       472   05 Jun 2027 03:13:43.270   05 Jun 2027 03:14:32.249            48.979               Magadan2          1530.594
       473   05 Jun 2027 04:45:07.472   05 Jun 2027 04:46:46.048            98.576               Magadan1          3080.500
       474   05 Jun 2027 04:46:50.084   05 Jun 2027 04:47:25.751            35.667               Magadan1          1114.594
       475   05 Jun 2027 04:47:26.805   05 Jun 2027 04:48:01.815            35.010                Anadyr1          1094.062
       476   05 Jun 2027 04:48:16.201   05 Jun 2027 04:48:51.190            34.989               Magadan1          1093.406
       477   05 Jun 2027 04:49:05.869   05 Jun 2027 04:49:14.818             8.949                Anadyr1           279.656
       478   05 Jun 2027 04:49:31.111   05 Jun 2027 04:49:40.361             9.250                Anadyr1           289.063
       479   05 Jun 2027 04:50:01.981   05 Jun 2027 04:50:32.882            30.901               Magadan1           965.656
       480   05 Jun 2027 06:20:14.455   05 Jun 2027 06:21:14.775            60.320                Anadyr2          1885.000
       481   05 Jun 2027 06:21:26.761   05 Jun 2027 06:21:37.859            11.098               Magadan2           346.813
       482   05 Jun 2027 06:21:55.561   05 Jun 2027 06:22:57.143            61.582               Magadan1          1924.437
