uniorb/output/strategy_4/Drop/Drop_KinoSat_111403.txt

KinoSat_111403
-------------------------
    Access    *     Start Time (UTCG)     *     Stop Time (UTCG)  *   Duration (s)        *       Station  *  Data (Mbytes)
         1   01 Jun 2027 03:45:07.387   01 Jun 2027 03:45:52.972            45.585              Murmansk1          1424.531
         2   01 Jun 2027 03:45:59.288   01 Jun 2027 03:46:41.047            41.759                Norilsk          1304.969
         3   01 Jun 2027 03:46:47.696   01 Jun 2027 03:49:39.835           172.139              Murmansk1          5379.344
         4   01 Jun 2027 03:49:41.255   01 Jun 2027 03:50:02.441            21.186                 Moscow           662.063
         5   01 Jun 2027 03:51:11.319   01 Jun 2027 03:51:34.301            22.982                 Moscow           718.188
         6   01 Jun 2027 04:04:26.948   01 Jun 2027 04:05:38.464            71.516               CapeTown          2234.875
         7   01 Jun 2027 04:07:07.007   01 Jun 2027 04:07:29.223            22.216               CapeTown           694.250
         8   01 Jun 2027 05:08:06.033   01 Jun 2027 05:10:00.197           114.164                Anadyr1          3567.625
         9   01 Jun 2027 05:13:51.262   01 Jun 2027 05:13:59.083             7.821                Anadyr1           244.406
        10   01 Jun 2027 05:22:22.496   01 Jun 2027 05:22:45.824            23.328              Murmansk2           729.000
        11   01 Jun 2027 05:22:58.435   01 Jun 2027 05:23:42.592            44.157              Murmansk2          1379.906
        12   01 Jun 2027 06:42:33.212   01 Jun 2027 06:42:43.140             9.928                Anadyr1           310.250
        13   01 Jun 2027 06:42:47.786   01 Jun 2027 06:43:28.787            41.001               Magadan1          1281.281
        14   01 Jun 2027 06:43:46.511   01 Jun 2027 06:48:26.148           279.637               Magadan2          8738.656
        15   01 Jun 2027 08:18:02.725   01 Jun 2027 08:18:48.736            46.011               Magadan2          1437.844
        16   01 Jun 2027 08:19:02.550   01 Jun 2027 08:23:23.748           261.198                Anadyr2          8162.437
        17   01 Jun 2027 08:23:23.748   01 Jun 2027 08:24:02.760            39.012                Anadyr1          1219.125
        18   01 Jun 2027 08:24:02.760   01 Jun 2027 08:24:55.561            52.801                Anadyr2          1650.031
        19   01 Jun 2027 09:55:54.044   01 Jun 2027 09:59:50.202           236.158               Magadan1          7379.937
        20   01 Jun 2027 10:00:50.539   01 Jun 2027 10:02:32.096           101.557              Murmansk2          3173.656
        21   01 Jun 2027 10:04:06.980   01 Jun 2027 10:04:45.779            38.799                Norilsk          1212.469
        22   01 Jun 2027 10:36:10.329   01 Jun 2027 10:37:02.835            52.506            RioGallegos          1640.812
        23   01 Jun 2027 10:42:20.372   01 Jun 2027 10:42:41.088            20.716            RioGallegos           647.375
        24   01 Jun 2027 10:44:00.015   01 Jun 2027 10:44:06.142             6.127            RioGallegos           191.469
        25   01 Jun 2027 10:45:02.375   01 Jun 2027 10:45:25.401            23.026            RioGallegos           719.562
        26   01 Jun 2027 11:10:49.190   01 Jun 2027 11:11:14.942            25.752                Sumatra           804.750
        27   01 Jun 2027 11:13:10.592   01 Jun 2027 11:13:37.910            27.318                Sumatra           853.688
        28   01 Jun 2027 11:18:57.179   01 Jun 2027 11:19:38.125            40.946                Sumatra          1279.563
        29   01 Jun 2027 11:20:15.375   01 Jun 2027 11:20:25.158             9.783                Sumatra           305.719
        30   01 Jun 2027 11:30:55.839   01 Jun 2027 11:31:04.360             8.521                  Delhi           266.281
        31   01 Jun 2027 11:31:22.737   01 Jun 2027 11:31:33.044            10.307                Irkutsk           322.094
        32   01 Jun 2027 11:31:44.147   01 Jun 2027 11:32:17.024            32.877                Irkutsk          1027.406
        33   01 Jun 2027 11:34:01.472   01 Jun 2027 11:34:59.770            58.298                Irkutsk          1821.812
        34   01 Jun 2027 11:34:59.934   01 Jun 2027 11:35:09.219             9.285                Norilsk           290.156
        35   01 Jun 2027 11:35:16.014   01 Jun 2027 11:36:55.478            99.464                Irkutsk          3108.250
        36   01 Jun 2027 11:36:55.780   01 Jun 2027 11:38:47.579           111.799                Novosib          3493.719
        37   01 Jun 2027 12:17:48.994   01 Jun 2027 12:19:11.023            82.029            RioGallegos          2563.406
        38   01 Jun 2027 12:59:13.708   01 Jun 2027 13:00:14.172            60.464                  Delhi          1889.500
        39   01 Jun 2027 13:01:25.190   01 Jun 2027 13:01:49.103            23.913                  Delhi           747.281
        40   01 Jun 2027 13:03:00.661   01 Jun 2027 13:04:06.986            66.325                Novosib          2072.656
        41   01 Jun 2027 13:04:43.704   01 Jun 2027 13:04:49.686             5.982                Novosib           186.938
        42   01 Jun 2027 13:05:20.323   01 Jun 2027 13:05:58.638            38.315                Novosib          1197.344
        43   01 Jun 2027 13:07:03.090   01 Jun 2027 13:10:18.315           195.225                Norilsk          6100.781
        44   01 Jun 2027 13:10:42.643   01 Jun 2027 13:11:06.808            24.165                Norilsk           755.156
        45   01 Jun 2027 13:11:43.129   01 Jun 2027 13:12:22.965            39.836                Norilsk          1244.875
        46   01 Jun 2027 14:39:25.283   01 Jun 2027 14:42:08.981           163.698                 Moscow          5115.563
        47   01 Jun 2027 14:42:52.361   01 Jun 2027 14:44:11.787            79.426              Murmansk1          2482.062
        48   01 Jun 2027 14:44:11.787   01 Jun 2027 14:45:07.827            56.040              Murmansk2          1751.250
        49   01 Jun 2027 14:47:00.726   01 Jun 2027 14:49:07.892           127.166                Norilsk          3973.938
        50   01 Jun 2027 14:50:17.119   01 Jun 2027 14:51:53.353            96.234                Norilsk          3007.313
        51   01 Jun 2027 15:53:56.591   01 Jun 2027 15:54:43.620            47.029               CapeTown          1469.656
        52   01 Jun 2027 15:55:11.267   01 Jun 2027 15:57:01.529           110.262               CapeTown          3445.688
        53   01 Jun 2027 16:16:52.267   01 Jun 2027 16:17:27.545            35.278                 Moscow          1102.437
        54   01 Jun 2027 16:20:41.578   01 Jun 2027 16:21:36.034            54.456                 Moscow          1701.750
        55   01 Jun 2027 16:21:43.975   01 Jun 2027 16:22:11.595            27.620              Murmansk1           863.125
        56   01 Jun 2027 16:24:16.849   01 Jun 2027 16:24:22.275             5.426              Murmansk1           169.562
        57   01 Jun 2027 16:33:54.439   01 Jun 2027 16:35:22.572            88.133                Anadyr2          2754.156
        58   01 Jun 2027 16:35:49.597   01 Jun 2027 16:36:44.113            54.516                Anadyr1          1703.625
        59   01 Jun 2027 17:28:56.285   01 Jun 2027 17:30:25.776            89.491               CapeTown          2796.594
        60   01 Jun 2027 17:32:51.827   01 Jun 2027 17:33:02.752            10.925               CapeTown           341.406
        61   01 Jun 2027 17:34:36.468   01 Jun 2027 17:34:42.536             6.068               CapeTown           189.625
        62   01 Jun 2027 17:38:36.998   01 Jun 2027 17:38:53.875            16.877               CapeTown           527.406
        63   01 Jun 2027 17:59:22.963   01 Jun 2027 18:00:33.039            70.076              Murmansk2          2189.875
        64   01 Jun 2027 18:00:59.970   01 Jun 2027 18:05:23.309           263.339              Murmansk1          8229.344
        65   01 Jun 2027 18:10:25.402   01 Jun 2027 18:10:44.655            19.253                Anadyr2           601.656
        66   01 Jun 2027 18:11:05.159   01 Jun 2027 18:11:39.871            34.712                Anadyr2          1084.750
        67   01 Jun 2027 18:12:49.750   01 Jun 2027 18:13:40.160            50.410               Magadan2          1575.312
        68   01 Jun 2027 18:14:20.592   01 Jun 2027 18:14:41.574            20.982               Magadan1           655.687
        69   01 Jun 2027 18:15:04.437   01 Jun 2027 18:15:54.356            49.919               Magadan1          1559.969
        70   01 Jun 2027 19:45:24.026   01 Jun 2027 19:49:09.354           225.328                Anadyr1          7041.500
        71   01 Jun 2027 19:49:28.836   01 Jun 2027 19:52:44.866           196.030               Magadan2          6125.938
        72   01 Jun 2027 19:58:41.464   01 Jun 2027 19:59:12.719            31.255               Magadan1           976.719
        73   01 Jun 2027 20:42:51.143   01 Jun 2027 20:44:27.778            96.635            RioGallegos          3019.844
        74   01 Jun 2027 21:21:15.098   01 Jun 2027 21:23:25.692           130.594                Anadyr1          4081.063
        75   01 Jun 2027 21:23:26.761   01 Jun 2027 21:25:00.581            93.820                Norilsk          2931.875
        76   01 Jun 2027 21:25:02.424   01 Jun 2027 21:26:13.764            71.340               Magadan2          2229.375
        77   01 Jun 2027 21:26:13.764   01 Jun 2027 21:26:44.603            30.839               Magadan1           963.719
        78   01 Jun 2027 21:27:03.000   01 Jun 2027 21:27:16.258            13.258               Magadan1           414.313
        79   01 Jun 2027 21:27:26.190   01 Jun 2027 21:27:39.659            13.469                Norilsk           420.906
        80   01 Jun 2027 21:27:59.664   01 Jun 2027 21:28:02.823             3.159               Magadan2            98.719
        81   01 Jun 2027 21:28:41.333   01 Jun 2027 21:30:29.465           108.132                Irkutsk          3379.125
        82   01 Jun 2027 21:34:22.798   01 Jun 2027 21:34:33.097            10.299                Irkutsk           321.844
        83   01 Jun 2027 21:44:19.658   01 Jun 2027 21:45:58.495            98.837                Sumatra          3088.656
        84   01 Jun 2027 21:47:36.519   01 Jun 2027 21:48:47.220            70.701                Sumatra          2209.406
        85   01 Jun 2027 22:56:37.442   01 Jun 2027 22:57:58.294            80.852                Anadyr1          2526.625
        86   01 Jun 2027 22:57:58.294   01 Jun 2027 22:59:06.270            67.976                Anadyr2          2124.250
        87   01 Jun 2027 22:59:07.675   01 Jun 2027 22:59:19.624            11.949                Norilsk           373.406
        88   01 Jun 2027 22:59:37.698   01 Jun 2027 23:00:59.128            81.430                Norilsk          2544.687
        89   01 Jun 2027 23:01:05.583   01 Jun 2027 23:01:53.294            47.711               Magadan1          1490.969
        90   01 Jun 2027 23:02:39.578   01 Jun 2027 23:03:07.039            27.461               Magadan2           858.156
        91   01 Jun 2027 23:03:56.981   01 Jun 2027 23:05:34.704            97.723                Novosib          3053.844
        92   01 Jun 2027 23:19:57.971   01 Jun 2027 23:21:37.477            99.506                Sumatra          3109.563
        93   01 Jun 2027 23:54:03.975   01 Jun 2027 23:54:59.234            55.259            RioGallegos          1726.844
        94   02 Jun 2027 00:03:13.990   02 Jun 2027 00:03:16.320             2.330            RioGallegos            72.812
        95   02 Jun 2027 00:03:21.897   02 Jun 2027 00:03:30.598             8.701            RioGallegos           271.906
        96   02 Jun 2027 00:30:53.989   02 Jun 2027 00:32:51.920           117.931                Anadyr2          3685.344
        97   02 Jun 2027 00:35:07.788   02 Jun 2027 00:35:24.591            16.803                Norilsk           525.094
        98   02 Jun 2027 00:35:45.086   02 Jun 2027 00:36:44.961            59.875               Magadan2          1871.094
        99   02 Jun 2027 00:36:48.868   02 Jun 2027 00:37:38.080            49.212               Magadan1          1537.875
       100   02 Jun 2027 00:38:22.357   02 Jun 2027 00:39:48.639            86.282              Murmansk2          2696.313
       101   02 Jun 2027 00:40:08.393   02 Jun 2027 00:41:04.062            55.669                Novosib          1739.656
       102   02 Jun 2027 00:46:20.256   02 Jun 2027 00:47:02.223            41.967                  Delhi          1311.469
       103   02 Jun 2027 00:47:09.126   02 Jun 2027 00:48:43.743            94.617                  Delhi          2956.781
       104   02 Jun 2027 00:58:38.566   02 Jun 2027 00:59:02.728            24.162                  Delhi           755.062
       105   02 Jun 2027 01:27:56.573   02 Jun 2027 01:27:59.027             2.454            RioGallegos            76.687
       106   02 Jun 2027 01:28:53.965   02 Jun 2027 01:29:26.170            32.205            RioGallegos          1006.406
       107   02 Jun 2027 01:29:38.031   02 Jun 2027 01:29:56.667            18.636            RioGallegos           582.375
       108   02 Jun 2027 01:30:57.910   02 Jun 2027 01:31:09.598            11.688            RioGallegos           365.250
       109   02 Jun 2027 01:33:29.826   02 Jun 2027 01:33:38.589             8.763            RioGallegos           273.844
       110   02 Jun 2027 01:34:06.139   02 Jun 2027 01:35:06.970            60.831            RioGallegos          1900.969
       111   02 Jun 2027 02:04:13.194   02 Jun 2027 02:04:23.628            10.434                Anadyr1           326.062
       112   02 Jun 2027 02:05:25.775   02 Jun 2027 02:05:52.082            26.307                Anadyr1           822.094
       113   02 Jun 2027 02:06:47.629   02 Jun 2027 02:07:13.010            25.381                Anadyr2           793.156
       114   02 Jun 2027 02:09:32.601   02 Jun 2027 02:09:36.487             3.886                Anadyr2           121.437
       115   02 Jun 2027 02:10:16.176   02 Jun 2027 02:10:35.473            19.297                Anadyr1           603.031
       116   02 Jun 2027 02:10:48.783   02 Jun 2027 02:11:03.470            14.687               Magadan1           458.969
       117   02 Jun 2027 02:11:03.470   02 Jun 2027 02:11:34.326            30.856               Magadan2           964.250
       118   02 Jun 2027 02:12:20.555   02 Jun 2027 02:13:11.656            51.101                Norilsk          1596.906
       119   02 Jun 2027 02:13:19.556   02 Jun 2027 02:13:43.157            23.601              Murmansk1           737.531
       120   02 Jun 2027 02:13:43.157   02 Jun 2027 02:14:46.620            63.463              Murmansk2          1983.219
       121   02 Jun 2027 02:14:59.323   02 Jun 2027 02:16:11.450            72.127                Novosib          2253.969
       122   02 Jun 2027 02:21:37.985   02 Jun 2027 02:21:39.600             1.615                Irkutsk            50.469
       123   02 Jun 2027 02:23:29.436   02 Jun 2027 02:24:27.694            58.258                  Delhi          1820.563
       124   02 Jun 2027 02:32:21.137   02 Jun 2027 02:32:21.286             0.149                  Delhi             4.656
       125   02 Jun 2027 02:45:20.257   02 Jun 2027 02:45:44.795            24.538               CapeTown           766.813
       126   02 Jun 2027 02:49:20.463   02 Jun 2027 02:49:48.619            28.156               CapeTown           879.875
       127   02 Jun 2027 03:44:47.354   02 Jun 2027 03:44:53.264             5.910                Anadyr1           184.687
       128   02 Jun 2027 03:57:08.724   02 Jun 2027 03:57:53.833            45.109                Norilsk          1409.656
       129   02 Jun 2027 03:58:13.634   02 Jun 2027 04:01:50.984           217.350              Murmansk2          6792.187
       130   02 Jun 2027 05:20:02.980   02 Jun 2027 05:21:59.178           116.198                Anadyr1          3631.187
       131   02 Jun 2027 05:21:59.178   02 Jun 2027 05:22:15.893            16.715                Anadyr2           522.344
       132   02 Jun 2027 05:23:56.749   02 Jun 2027 05:25:33.856            97.107                Anadyr2          3034.594
       133   02 Jun 2027 06:58:52.879   02 Jun 2027 06:59:29.446            36.567                Anadyr1          1142.719
       134   02 Jun 2027 06:59:29.446   02 Jun 2027 07:00:11.934            42.488                Anadyr2          1327.750
       135   02 Jun 2027 07:00:48.458   02 Jun 2027 07:01:38.016            49.558               Magadan1          1548.688
       136   02 Jun 2027 08:31:22.439   02 Jun 2027 08:32:36.042            73.603               Magadan1          2300.094
       137   02 Jun 2027 08:33:30.207   02 Jun 2027 08:36:37.621           187.414                Anadyr2          5856.687
       138   02 Jun 2027 08:37:34.313   02 Jun 2027 08:37:41.751             7.438              Murmansk1           232.437
       139   02 Jun 2027 08:37:43.814   02 Jun 2027 08:37:45.287             1.473                Novosib            46.031
       140   02 Jun 2027 08:37:58.113   02 Jun 2027 08:38:13.381            15.268              Murmansk1           477.125
       141   02 Jun 2027 09:12:25.497   02 Jun 2027 09:13:58.834            93.337            RioGallegos          2916.781
       142   02 Jun 2027 09:14:53.141   02 Jun 2027 09:15:11.830            18.689            RioGallegos           584.031
       143   02 Jun 2027 09:15:45.511   02 Jun 2027 09:15:49.849             4.338            RioGallegos           135.563
       144   02 Jun 2027 09:18:39.869   02 Jun 2027 09:19:02.810            22.941            RioGallegos           716.906
       145   02 Jun 2027 09:23:20.518   02 Jun 2027 09:23:38.823            18.305            RioGallegos           572.031
       146   02 Jun 2027 09:49:43.139   02 Jun 2027 09:51:19.387            96.248                Sumatra          3007.750
       147   02 Jun 2027 10:07:14.397   02 Jun 2027 10:07:30.246            15.849                Irkutsk           495.281
       148   02 Jun 2027 10:07:44.845   02 Jun 2027 10:07:58.610            13.765                Irkutsk           430.156
       149   02 Jun 2027 10:08:38.967   02 Jun 2027 10:09:50.172            71.205               Magadan1          2225.156
       150   02 Jun 2027 10:10:03.875   02 Jun 2027 10:10:22.143            18.268                Irkutsk           570.875
       151   02 Jun 2027 10:10:27.173   02 Jun 2027 10:10:57.109            29.936               Magadan1           935.500
       152   02 Jun 2027 10:10:57.109   02 Jun 2027 10:11:11.782            14.673               Magadan2           458.531
       153   02 Jun 2027 10:11:20.381   02 Jun 2027 10:11:40.924            20.543                Irkutsk           641.969
       154   02 Jun 2027 10:11:48.729   02 Jun 2027 10:11:59.828            11.099                Norilsk           346.844
       155   02 Jun 2027 10:12:15.757   02 Jun 2027 10:12:40.502            24.745                Irkutsk           773.281
       156   02 Jun 2027 10:12:42.172   02 Jun 2027 10:12:45.739             3.567                Irkutsk           111.469
       157   02 Jun 2027 10:12:50.766   02 Jun 2027 10:12:51.089             0.323                Novosib            10.094
       158   02 Jun 2027 10:13:06.471   02 Jun 2027 10:13:23.692            17.221                Novosib           538.156
       159   02 Jun 2027 10:48:24.584   02 Jun 2027 10:49:17.090            52.506            RioGallegos          1640.812
       160   02 Jun 2027 10:55:39.209   02 Jun 2027 10:55:55.371            16.162            RioGallegos           505.062
       161   02 Jun 2027 11:22:53.881   02 Jun 2027 11:23:54.325            60.444                Sumatra          1888.875
       162   02 Jun 2027 11:32:21.233   02 Jun 2027 11:32:56.752            35.519                  Delhi          1109.969
       163   02 Jun 2027 11:43:11.899   02 Jun 2027 11:43:24.512            12.613                  Delhi           394.156
       164   02 Jun 2027 11:44:19.427   02 Jun 2027 11:45:20.865            61.438                Irkutsk          1919.937
       165   02 Jun 2027 11:45:38.219   02 Jun 2027 11:46:32.512            54.293                Irkutsk          1696.656
       166   02 Jun 2027 11:46:44.250   02 Jun 2027 11:47:14.941            30.691                Norilsk           959.094
       167   02 Jun 2027 11:47:26.631   02 Jun 2027 11:47:36.585             9.954                Irkutsk           311.063
       168   02 Jun 2027 11:48:16.466   02 Jun 2027 11:48:20.540             4.074                Irkutsk           127.313
       169   02 Jun 2027 11:48:26.711   02 Jun 2027 11:48:45.166            18.455                Norilsk           576.719
       170   02 Jun 2027 11:48:58.270   02 Jun 2027 11:49:14.456            16.186              Murmansk2           505.812
       171   02 Jun 2027 12:30:15.085   02 Jun 2027 12:33:06.647           171.562            RioGallegos          5361.313
       172   02 Jun 2027 13:07:24.290   02 Jun 2027 13:07:37.544            13.254                  Delhi           414.187
       173   02 Jun 2027 13:15:17.371   02 Jun 2027 13:15:28.904            11.533                  Delhi           360.406
       174   02 Jun 2027 13:15:29.243   02 Jun 2027 13:16:43.858            74.615                Novosib          2331.719
       175   02 Jun 2027 13:19:10.735   02 Jun 2027 13:20:35.286            84.551                Novosib          2642.219
       176   02 Jun 2027 13:21:37.931   02 Jun 2027 13:22:15.936            38.005                Norilsk          1187.656
       177   02 Jun 2027 13:24:44.946   02 Jun 2027 13:25:49.438            64.492                Norilsk          2015.375
       178   02 Jun 2027 14:51:26.823   02 Jun 2027 14:54:32.545           185.722                 Moscow          5803.812
       179   02 Jun 2027 14:54:45.329   02 Jun 2027 14:55:18.990            33.661                 Moscow          1051.906
       180   02 Jun 2027 14:56:13.628   02 Jun 2027 14:56:45.867            32.239              Murmansk1          1007.469
       181   02 Jun 2027 14:59:47.462   02 Jun 2027 15:02:16.700           149.238                Norilsk          4663.687
       182   02 Jun 2027 15:02:31.377   02 Jun 2027 15:02:58.565            27.188                Norilsk           849.625
       183   02 Jun 2027 16:05:37.239   02 Jun 2027 16:06:42.756            65.517               CapeTown          2047.406
       184   02 Jun 2027 16:08:35.833   02 Jun 2027 16:08:53.133            17.300               CapeTown           540.625
       185   02 Jun 2027 16:11:01.024   02 Jun 2027 16:11:36.473            35.449               CapeTown          1107.781
       186   02 Jun 2027 16:29:23.303   02 Jun 2027 16:30:01.318            38.015                 Moscow          1187.969
       187   02 Jun 2027 16:32:18.233   02 Jun 2027 16:32:26.836             8.603              Murmansk1           268.844
       188   02 Jun 2027 16:32:31.968   02 Jun 2027 16:33:31.364            59.396              Murmansk2          1856.125
       189   02 Jun 2027 16:34:13.108   02 Jun 2027 16:34:26.581            13.473              Murmansk2           421.031
       190   02 Jun 2027 16:36:18.905   02 Jun 2027 16:36:57.925            39.020              Murmansk1          1219.375
       191   02 Jun 2027 16:45:50.315   02 Jun 2027 16:47:22.976            92.661                Anadyr2          2895.656
       192   02 Jun 2027 16:47:28.442   02 Jun 2027 16:47:48.392            19.950                Anadyr1           623.437
       193   02 Jun 2027 16:49:08.708   02 Jun 2027 16:49:44.582            35.874                Anadyr2          1121.063
       194   02 Jun 2027 16:54:26.661   02 Jun 2027 16:54:47.324            20.663                Anadyr2           645.719
       195   02 Jun 2027 17:41:04.580   02 Jun 2027 17:42:01.461            56.881               CapeTown          1777.531
       196   02 Jun 2027 17:45:38.077   02 Jun 2027 17:46:08.199            30.122               CapeTown           941.312
       197   02 Jun 2027 17:51:48.782   02 Jun 2027 17:51:53.004             4.222               CapeTown           131.937
       198   02 Jun 2027 17:51:59.534   02 Jun 2027 17:52:34.836            35.302               CapeTown          1103.187
       199   02 Jun 2027 18:12:04.247   02 Jun 2027 18:13:57.515           113.268              Murmansk2          3539.625
       200   02 Jun 2027 18:14:17.523   02 Jun 2027 18:15:51.387            93.864              Murmansk1          2933.250
       201   02 Jun 2027 18:21:29.782   02 Jun 2027 18:21:45.008            15.226                Anadyr1           475.813
       202   02 Jun 2027 18:22:26.689   02 Jun 2027 18:22:47.563            20.874                Anadyr1           652.312
       203   02 Jun 2027 18:24:32.477   02 Jun 2027 18:24:39.647             7.170                Anadyr2           224.062
       204   02 Jun 2027 18:25:04.791   02 Jun 2027 18:25:08.287             3.496                Anadyr2           109.250
       205   02 Jun 2027 18:25:33.532   02 Jun 2027 18:25:39.841             6.309               Magadan2           197.156
       206   02 Jun 2027 18:26:12.464   02 Jun 2027 18:27:09.765            57.301               Magadan1          1790.656
       207   02 Jun 2027 18:28:38.426   02 Jun 2027 18:28:40.824             2.398               Magadan1            74.937
       208   02 Jun 2027 18:29:12.578   02 Jun 2027 18:29:20.841             8.263               Magadan2           258.219
       209   02 Jun 2027 18:31:04.607   02 Jun 2027 18:31:12.405             7.798               Magadan2           243.688
       210   02 Jun 2027 18:32:35.302   02 Jun 2027 18:33:27.542            52.240               Magadan1          1632.500
       211   02 Jun 2027 19:57:25.573   02 Jun 2027 20:00:18.373           172.800                Anadyr2          5400.000
       212   02 Jun 2027 20:00:26.841   02 Jun 2027 20:00:33.031             6.190                Anadyr2           193.437
       213   02 Jun 2027 20:00:35.475   02 Jun 2027 20:03:27.204           171.729               Magadan1          5366.531
       214   02 Jun 2027 20:04:32.957   02 Jun 2027 20:05:25.672            52.715               Magadan1          1647.344
       215   02 Jun 2027 20:11:16.174   02 Jun 2027 20:11:34.716            18.542               Magadan2           579.437
       216   02 Jun 2027 20:53:33.982   02 Jun 2027 20:56:05.133           151.151            RioGallegos          4723.469
       217   02 Jun 2027 20:58:34.674   02 Jun 2027 20:59:01.904            27.230            RioGallegos           850.938
       218   02 Jun 2027 21:33:14.660   02 Jun 2027 21:35:33.629           138.969                Anadyr2          4342.781
       219   02 Jun 2027 21:35:39.250   02 Jun 2027 21:36:01.783            22.533               Magadan2           704.156
       220   02 Jun 2027 21:36:02.437   02 Jun 2027 21:36:41.986            39.549               Magadan1          1235.906
       221   02 Jun 2027 21:37:55.720   02 Jun 2027 21:38:15.335            19.615                Norilsk           612.969
       222   02 Jun 2027 21:38:20.185   02 Jun 2027 21:38:37.925            17.740               Magadan1           554.375
       223   02 Jun 2027 21:39:28.115   02 Jun 2027 21:40:45.186            77.071                Norilsk          2408.469
       224   02 Jun 2027 21:42:29.552   02 Jun 2027 21:43:12.188            42.636                Irkutsk          1332.375
       225   02 Jun 2027 21:46:14.153   02 Jun 2027 21:46:50.720            36.567                Irkutsk          1142.719
       226   02 Jun 2027 21:55:13.783   02 Jun 2027 21:56:40.916            87.133                Sumatra          2722.906
       227   02 Jun 2027 22:01:24.699   02 Jun 2027 22:03:04.931           100.232                Sumatra          3132.250
       228   02 Jun 2027 23:08:30.809   02 Jun 2027 23:08:57.663            26.854                Anadyr1           839.188
       229   02 Jun 2027 23:11:09.411   02 Jun 2027 23:11:28.571            19.160                Norilsk           598.750
       230   02 Jun 2027 23:11:46.104   02 Jun 2027 23:13:21.243            95.139               Magadan2          2973.094
       231   02 Jun 2027 23:13:21.243   02 Jun 2027 23:14:06.526            45.283               Magadan1          1415.094
       232   02 Jun 2027 23:15:44.086   02 Jun 2027 23:18:22.863           158.777                Novosib          4961.781
       233   02 Jun 2027 23:25:39.543   02 Jun 2027 23:27:10.866            91.323                  Delhi          2853.844
       234   03 Jun 2027 00:11:47.261   03 Jun 2027 00:12:01.369            14.108            RioGallegos           440.875
       235   03 Jun 2027 00:42:37.626   03 Jun 2027 00:44:46.772           129.146                Anadyr2          4035.813
       236   03 Jun 2027 00:47:09.886   03 Jun 2027 00:47:20.642            10.756                Norilsk           336.125
       237   03 Jun 2027 00:47:43.009   03 Jun 2027 00:49:13.614            90.605                Norilsk          2831.406
       238   03 Jun 2027 00:49:42.049   03 Jun 2027 00:50:49.537            67.488               Magadan2          2109.000
       239   03 Jun 2027 00:50:55.497   03 Jun 2027 00:52:29.469            93.972              Murmansk2          2936.625
       240   03 Jun 2027 00:55:01.293   03 Jun 2027 00:55:31.162            29.869              Murmansk2           933.406
       241   03 Jun 2027 00:58:54.331   03 Jun 2027 01:00:25.615            91.284                  Delhi          2852.625
       242   03 Jun 2027 01:40:13.749   03 Jun 2027 01:41:35.067            81.318            RioGallegos          2541.187
       243   03 Jun 2027 02:15:54.932   03 Jun 2027 02:15:55.387             0.455                Anadyr2            14.219
       244   03 Jun 2027 02:16:13.426   03 Jun 2027 02:16:40.693            27.267                Anadyr2           852.094
       245   03 Jun 2027 02:16:40.693   03 Jun 2027 02:16:48.628             7.935                Anadyr1           247.969
       246   03 Jun 2027 02:17:35.041   03 Jun 2027 02:18:23.974            48.933                Anadyr2          1529.156
       247   03 Jun 2027 02:20:27.339   03 Jun 2027 02:20:45.638            18.299                Anadyr1           571.844
       248   03 Jun 2027 02:21:50.584   03 Jun 2027 02:22:04.109            13.525                Anadyr1           422.656
       249   03 Jun 2027 02:22:40.488   03 Jun 2027 02:23:15.900            35.412               Magadan1          1106.625
       250   03 Jun 2027 02:23:30.132   03 Jun 2027 02:23:40.195            10.063                Norilsk           314.469
       251   03 Jun 2027 02:23:44.635   03 Jun 2027 02:24:04.529            19.894               Magadan2           621.687
       252   03 Jun 2027 02:24:14.604   03 Jun 2027 02:24:24.775            10.171                Norilsk           317.844
       253   03 Jun 2027 02:24:27.922   03 Jun 2027 02:24:39.582            11.660                Norilsk           364.375
       254   03 Jun 2027 02:25:19.870   03 Jun 2027 02:25:49.492            29.622              Murmansk1           925.687
       255   03 Jun 2027 02:26:13.499   03 Jun 2027 02:27:07.283            53.784              Murmansk1          1680.750
       256   03 Jun 2027 02:28:26.194   03 Jun 2027 02:28:32.068             5.874                Novosib           183.563
       257   03 Jun 2027 02:28:33.989   03 Jun 2027 02:29:39.855            65.866                Irkutsk          2058.313
       258   03 Jun 2027 02:32:49.992   03 Jun 2027 02:32:52.274             2.282                Irkutsk            71.313
       259   03 Jun 2027 02:34:50.096   03 Jun 2027 02:34:58.679             8.583                Novosib           268.219
       260   03 Jun 2027 02:36:08.626   03 Jun 2027 02:36:39.653            31.027                  Delhi           969.594
       261   03 Jun 2027 02:40:51.578   03 Jun 2027 02:41:07.179            15.601                  Delhi           487.531
       262   03 Jun 2027 02:41:33.393   03 Jun 2027 02:41:35.919             2.526                  Delhi            78.938
       263   03 Jun 2027 02:42:14.976   03 Jun 2027 02:42:19.317             4.341                  Delhi           135.656
       264   03 Jun 2027 03:01:19.110   03 Jun 2027 03:02:36.751            77.641               CapeTown          2426.281
       265   03 Jun 2027 04:10:51.616   03 Jun 2027 04:11:37.414            45.798              Murmansk1          1431.188
       266   03 Jun 2027 04:11:42.778   03 Jun 2027 04:13:50.698           127.920              Murmansk1          3997.500
       267   03 Jun 2027 04:13:50.698   03 Jun 2027 04:14:00.314             9.616              Murmansk2           300.500
       268   03 Jun 2027 04:33:25.157   03 Jun 2027 04:35:09.191           104.034               CapeTown          3251.062
       269   03 Jun 2027 04:38:00.065   03 Jun 2027 04:38:18.543            18.478               CapeTown           577.437
       270   03 Jun 2027 04:38:26.369   03 Jun 2027 04:38:54.173            27.804               CapeTown           868.875
       271   03 Jun 2027 04:40:24.373   03 Jun 2027 04:41:08.416            44.043               CapeTown          1376.344
       272   03 Jun 2027 05:31:49.151   03 Jun 2027 05:37:37.047           347.896               Magadan2         10871.750
       273   03 Jun 2027 05:37:43.203   03 Jun 2027 05:37:54.421            11.218                Anadyr1           350.563
       274   03 Jun 2027 07:08:41.651   03 Jun 2027 07:09:20.315            38.664               Magadan1          1208.250
       275   03 Jun 2027 07:09:26.307   03 Jun 2027 07:09:34.813             8.506               Magadan2           265.812
       276   03 Jun 2027 07:09:45.296   03 Jun 2027 07:09:46.417             1.121               Magadan2            35.031
       277   03 Jun 2027 07:09:54.450   03 Jun 2027 07:10:19.950            25.500               Magadan1           796.875
       278   03 Jun 2027 07:10:19.950   03 Jun 2027 07:11:33.115            73.165               Magadan2          2286.406
       279   03 Jun 2027 08:42:47.716   03 Jun 2027 08:43:01.606            13.890               Magadan1           434.062
       280   03 Jun 2027 08:43:16.620   03 Jun 2027 08:44:04.235            47.615               Magadan1          1487.969
       281   03 Jun 2027 08:44:07.859   03 Jun 2027 08:44:41.787            33.928               Magadan2          1060.250
       282   03 Jun 2027 08:45:19.499   03 Jun 2027 08:46:14.520            55.021                Anadyr1          1719.406
       283   03 Jun 2027 08:46:14.520   03 Jun 2027 08:47:03.572            49.052                Anadyr2          1532.875
       284   03 Jun 2027 08:47:46.777   03 Jun 2027 08:47:59.423            12.646                Irkutsk           395.187
       285   03 Jun 2027 08:48:10.705   03 Jun 2027 08:48:48.116            37.411               Magadan1          1169.094
       286   03 Jun 2027 08:49:21.626   03 Jun 2027 08:49:45.939            24.313              Murmansk1           759.781
       287   03 Jun 2027 09:24:15.870   03 Jun 2027 09:24:39.266            23.396            RioGallegos           731.125
       288   03 Jun 2027 09:25:01.764   03 Jun 2027 09:25:52.674            50.910            RioGallegos          1590.937
       289   03 Jun 2027 10:01:48.610   03 Jun 2027 10:03:18.624            90.014                Sumatra          2812.937
       290   03 Jun 2027 10:20:18.738   03 Jun 2027 10:20:22.619             3.881                Irkutsk           121.281
       291   03 Jun 2027 10:20:53.364   03 Jun 2027 10:21:07.097            13.733                Norilsk           429.156
       292   03 Jun 2027 10:21:24.848   03 Jun 2027 10:21:35.539            10.691                Irkutsk           334.094
       293   03 Jun 2027 10:22:03.796   03 Jun 2027 10:22:53.534            49.738                Irkutsk          1554.313
       294   03 Jun 2027 10:23:11.254   03 Jun 2027 10:23:27.470            16.216                Irkutsk           506.750
       295   03 Jun 2027 10:23:52.563   03 Jun 2027 10:24:33.704            41.141                Irkutsk          1285.656
       296   03 Jun 2027 10:24:50.554   03 Jun 2027 10:24:56.380             5.826                Novosib           182.063
       297   03 Jun 2027 10:24:56.830   03 Jun 2027 10:25:23.636            26.806                Novosib           837.687
       298   03 Jun 2027 11:00:43.025   03 Jun 2027 11:00:59.900            16.875            RioGallegos           527.344
       299   03 Jun 2027 11:02:57.077   03 Jun 2027 11:04:18.600            81.523            RioGallegos          2547.594
       300   03 Jun 2027 11:40:01.227   03 Jun 2027 11:40:12.027            10.800                Sumatra           337.500
       301   03 Jun 2027 11:43:55.840   03 Jun 2027 11:44:18.354            22.514                  Delhi           703.562
       302   03 Jun 2027 11:53:52.895   03 Jun 2027 11:54:57.863            64.968                  Delhi          2030.250
       303   03 Jun 2027 11:56:57.179   03 Jun 2027 11:57:09.377            12.198                Novosib           381.188
       304   03 Jun 2027 11:57:16.467   03 Jun 2027 11:57:29.462            12.995                Irkutsk           406.094
       305   03 Jun 2027 11:57:55.083   03 Jun 2027 11:58:32.397            37.314                Norilsk          1166.062
       306   03 Jun 2027 11:58:36.245   03 Jun 2027 11:59:05.992            29.747                Novosib           929.594
       307   03 Jun 2027 11:59:22.254   03 Jun 2027 11:59:34.544            12.290                Norilsk           384.063
       308   03 Jun 2027 11:59:37.075   03 Jun 2027 11:59:59.149            22.074                Irkutsk           689.813
       309   03 Jun 2027 12:00:28.824   03 Jun 2027 12:00:42.191            13.367                Norilsk           417.719
       310   03 Jun 2027 12:01:05.077   03 Jun 2027 12:01:46.038            40.961                Novosib          1280.031
       311   03 Jun 2027 12:02:39.001   03 Jun 2027 12:03:15.346            36.345                Norilsk          1135.781
       312   03 Jun 2027 12:05:05.022   03 Jun 2027 12:06:18.075            73.053                Norilsk          2282.906
       313   03 Jun 2027 13:19:45.605   03 Jun 2027 13:20:58.568            72.963                  Delhi          2280.094
       314   03 Jun 2027 13:24:23.311   03 Jun 2027 13:24:53.416            30.105                  Delhi           940.781
       315   03 Jun 2027 13:26:21.094   03 Jun 2027 13:27:07.467            46.373                  Delhi          1449.156
       316   03 Jun 2027 13:27:57.762   03 Jun 2027 13:28:40.689            42.927                  Delhi          1341.469
       317   03 Jun 2027 13:31:08.948   03 Jun 2027 13:31:46.785            37.837                Novosib          1182.406
       318   03 Jun 2027 13:32:40.879   03 Jun 2027 13:32:53.295            12.416                Norilsk           388.000
       319   03 Jun 2027 13:34:04.058   03 Jun 2027 13:34:16.067            12.009                Novosib           375.281
       320   03 Jun 2027 13:34:40.753   03 Jun 2027 13:35:04.341            23.588                Novosib           737.125
       321   03 Jun 2027 13:37:03.586   03 Jun 2027 13:38:02.246            58.660                Novosib          1833.125
       322   03 Jun 2027 13:41:47.808   03 Jun 2027 13:42:16.086            28.278                Norilsk           883.687
       323   03 Jun 2027 15:03:31.331   03 Jun 2027 15:05:01.346            90.015                 Moscow          2812.969
       324   03 Jun 2027 15:05:31.915   03 Jun 2027 15:06:42.672            70.757                 Moscow          2211.156
       325   03 Jun 2027 15:08:36.439   03 Jun 2027 15:08:40.267             3.828              Murmansk2           119.625
       326   03 Jun 2027 15:09:00.827   03 Jun 2027 15:10:01.774            60.947              Murmansk2          1904.594
       327   03 Jun 2027 15:12:40.172   03 Jun 2027 15:16:16.538           216.366                Norilsk          6761.437
       328   03 Jun 2027 16:23:39.930   03 Jun 2027 16:23:51.988            12.058               CapeTown           376.813
       329   03 Jun 2027 16:24:32.031   03 Jun 2027 16:24:39.601             7.570               CapeTown           236.562
       330   03 Jun 2027 16:24:47.252   03 Jun 2027 16:25:26.879            39.627               CapeTown          1238.344
       331   03 Jun 2027 16:28:20.840   03 Jun 2027 16:28:41.551            20.711               CapeTown           647.219
       332   03 Jun 2027 16:29:21.792   03 Jun 2027 16:29:23.124             1.332               CapeTown            41.625
       333   03 Jun 2027 16:42:59.288   03 Jun 2027 16:43:35.799            36.511                 Moscow          1140.969
       334   03 Jun 2027 16:44:39.571   03 Jun 2027 16:45:10.063            30.492              Murmansk1           952.875
       335   03 Jun 2027 16:48:20.905   03 Jun 2027 16:48:47.488            26.583              Murmansk1           830.719
       336   03 Jun 2027 16:51:13.505   03 Jun 2027 16:52:05.907            52.402              Murmansk1          1637.562
       337   03 Jun 2027 16:57:47.447   03 Jun 2027 16:59:22.352            94.905                Anadyr2          2965.781
       338   03 Jun 2027 17:02:08.618   03 Jun 2027 17:02:20.783            12.165                Anadyr1           380.156
       339   03 Jun 2027 17:03:07.024   03 Jun 2027 17:03:17.615            10.591                Anadyr1           330.969
       340   03 Jun 2027 17:04:57.554   03 Jun 2027 17:05:10.065            12.511                Anadyr1           390.969
       341   03 Jun 2027 17:06:33.446   03 Jun 2027 17:06:40.338             6.892                Anadyr2           215.375
       342   03 Jun 2027 17:07:45.948   03 Jun 2027 17:07:48.389             2.441                Anadyr1            76.281
       343   03 Jun 2027 17:08:22.668   03 Jun 2027 17:08:32.696            10.028                Anadyr1           313.375
       344   03 Jun 2027 17:53:16.088   03 Jun 2027 17:54:17.292            61.204               CapeTown          1912.625
       345   03 Jun 2027 17:58:53.303   03 Jun 2027 17:59:38.970            45.667               CapeTown          1427.094
       346   03 Jun 2027 18:24:50.089   03 Jun 2027 18:29:57.528           307.439              Murmansk1          9607.469
       347   03 Jun 2027 18:36:24.888   03 Jun 2027 18:37:10.588            45.700               Magadan2          1428.125
       348   03 Jun 2027 18:40:57.240   03 Jun 2027 18:41:08.575            11.335               Magadan2           354.219
       349   03 Jun 2027 18:43:05.932   03 Jun 2027 18:43:08.420             2.488               Magadan2            77.750
       350   03 Jun 2027 18:44:44.042   03 Jun 2027 18:45:13.542            29.500               Magadan1           921.875
       351   03 Jun 2027 20:09:27.025   03 Jun 2027 20:11:33.352           126.327                Anadyr2          3947.719
       352   03 Jun 2027 20:11:44.216   03 Jun 2027 20:16:03.765           259.549               Magadan2          8110.906
       353   03 Jun 2027 20:16:36.090   03 Jun 2027 20:17:05.160            29.070               Magadan2           908.437
       354   03 Jun 2027 20:22:46.473   03 Jun 2027 20:23:18.041            31.568               Magadan1           986.500
       355   03 Jun 2027 21:04:55.428   03 Jun 2027 21:07:26.539           151.111            RioGallegos          4722.219
       356   03 Jun 2027 21:07:48.474   03 Jun 2027 21:07:48.675             0.201            RioGallegos             6.281
       357   03 Jun 2027 21:10:25.856   03 Jun 2027 21:11:08.342            42.486            RioGallegos          1327.688
       358   03 Jun 2027 21:45:13.734   03 Jun 2027 21:45:35.926            22.192                Anadyr2           693.500
       359   03 Jun 2027 21:46:26.041   03 Jun 2027 21:46:27.831             1.790                Anadyr2            55.937
       360   03 Jun 2027 21:46:29.093   03 Jun 2027 21:46:31.833             2.740                Anadyr2            85.625
       361   03 Jun 2027 21:47:18.483   03 Jun 2027 21:47:27.431             8.948                Anadyr2           279.625
       362   03 Jun 2027 21:47:41.857   03 Jun 2027 21:49:11.746            89.889               Magadan1          2809.031
       363   03 Jun 2027 21:49:11.746   03 Jun 2027 21:49:38.030            26.284               Magadan2           821.375
       364   03 Jun 2027 21:49:40.984   03 Jun 2027 21:50:38.245            57.261                Norilsk          1789.406
       365   03 Jun 2027 21:52:00.941   03 Jun 2027 21:52:59.175            58.234                Irkutsk          1819.813
       366   03 Jun 2027 21:54:54.808   03 Jun 2027 21:55:18.390            23.582                Irkutsk           736.937
       367   03 Jun 2027 21:58:02.460   03 Jun 2027 21:58:22.269            19.809                Irkutsk           619.031
       368   03 Jun 2027 22:06:28.930   03 Jun 2027 22:09:09.384           160.454                Sumatra          5014.187
       369   03 Jun 2027 23:20:22.997   03 Jun 2027 23:21:32.132            69.135                Anadyr2          2160.469
       370   03 Jun 2027 23:21:34.843   03 Jun 2027 23:22:51.100            76.257                Anadyr1          2383.031
       371   03 Jun 2027 23:23:11.318   03 Jun 2027 23:23:22.609            11.291                Norilsk           352.844
       372   03 Jun 2027 23:23:49.031   03 Jun 2027 23:25:37.161           108.130               Magadan1          3379.062
       373   03 Jun 2027 23:27:04.455   03 Jun 2027 23:27:55.040            50.585                Irkutsk          1580.781
       374   03 Jun 2027 23:28:23.597   03 Jun 2027 23:30:18.608           115.011                Novosib          3594.094
       375   03 Jun 2027 23:36:36.021   03 Jun 2027 23:37:09.284            33.263                  Delhi          1039.469
       376   03 Jun 2027 23:41:03.801   03 Jun 2027 23:42:10.055            66.254                  Delhi          2070.438
       377   04 Jun 2027 00:54:20.371   04 Jun 2027 00:55:04.430            44.059                Anadyr2          1376.844
       378   04 Jun 2027 00:55:44.261   04 Jun 2027 00:56:37.898            53.637                Anadyr2          1676.156
       379   04 Jun 2027 00:56:47.468   04 Jun 2027 00:57:05.711            18.243                Anadyr1           570.094
       380   04 Jun 2027 00:59:11.908   04 Jun 2027 00:59:22.368            10.460                Norilsk           326.875
       381   04 Jun 2027 00:59:39.321   04 Jun 2027 01:01:15.927            96.606                Norilsk          3018.938
       382   04 Jun 2027 01:01:38.766   04 Jun 2027 01:02:17.460            38.694               Magadan2          1209.188
       383   04 Jun 2027 01:02:27.893   04 Jun 2027 01:05:22.818           174.925              Murmansk1          5466.406
       384   04 Jun 2027 01:15:06.410   04 Jun 2027 01:16:12.078            65.668                  Delhi          2052.125
       385   04 Jun 2027 01:52:36.037   04 Jun 2027 01:53:45.419            69.382            RioGallegos          2168.187
       386   04 Jun 2027 01:54:59.694   04 Jun 2027 01:55:20.377            20.683            RioGallegos           646.344
       387   04 Jun 2027 01:56:57.764   04 Jun 2027 01:57:23.486            25.722            RioGallegos           803.813
       388   04 Jun 2027 02:27:37.247   04 Jun 2027 02:28:01.883            24.636                Anadyr2           769.875
       389   04 Jun 2027 02:29:07.849   04 Jun 2027 02:30:13.064            65.215                Anadyr2          2037.969
       390   04 Jun 2027 02:33:30.625   04 Jun 2027 02:34:26.886            56.261               Magadan1          1758.156
       391   04 Jun 2027 02:36:09.309   04 Jun 2027 02:36:14.706             5.397                Norilsk           168.656
       392   04 Jun 2027 02:36:37.293   04 Jun 2027 02:36:50.617            13.324                Norilsk           416.375
       393   04 Jun 2027 02:37:20.617   04 Jun 2027 02:38:21.295            60.678              Murmansk1          1896.188
       394   04 Jun 2027 02:38:21.295   04 Jun 2027 02:38:33.393            12.098              Murmansk2           378.063
       395   04 Jun 2027 02:39:09.058   04 Jun 2027 02:39:13.426             4.368                Novosib           136.500
       396   04 Jun 2027 02:39:26.913   04 Jun 2027 02:39:45.322            18.409              Murmansk1           575.281
       397   04 Jun 2027 02:40:31.263   04 Jun 2027 02:41:04.565            33.302                Novosib          1040.688
       398   04 Jun 2027 02:41:08.781   04 Jun 2027 02:41:49.164            40.383                Irkutsk          1261.969
       399   04 Jun 2027 02:48:37.149   04 Jun 2027 02:48:47.878            10.729                Novosib           335.281
       400   04 Jun 2027 02:49:11.070   04 Jun 2027 02:49:35.157            24.087                  Delhi           752.719
       401   04 Jun 2027 02:52:55.625   04 Jun 2027 02:53:34.107            38.482                  Delhi          1202.562
       402   04 Jun 2027 03:13:14.798   04 Jun 2027 03:13:32.234            17.436               CapeTown           544.875
       403   04 Jun 2027 03:15:09.916   04 Jun 2027 03:15:17.546             7.630               CapeTown           238.438
       404   04 Jun 2027 04:22:06.712   04 Jun 2027 04:23:09.068            62.356              Murmansk1          1948.625
       405   04 Jun 2027 04:23:21.514   04 Jun 2027 04:23:35.169            13.655              Murmansk1           426.719
       406   04 Jun 2027 04:23:50.171   04 Jun 2027 04:24:12.988            22.817              Murmansk1           713.031
       407   04 Jun 2027 04:25:38.439   04 Jun 2027 04:26:06.247            27.808                 Moscow           869.000
       408   04 Jun 2027 05:43:41.387   04 Jun 2027 05:49:36.747           355.360                Anadyr1         11105.000
       409   04 Jun 2027 07:21:09.632   04 Jun 2027 07:21:11.046             1.414               Magadan1            44.187
       410   04 Jun 2027 07:21:20.010   04 Jun 2027 07:21:26.723             6.713                Anadyr1           209.781
       411   04 Jun 2027 07:21:26.723   04 Jun 2027 07:22:09.043            42.320                Anadyr2          1322.500
       412   04 Jun 2027 07:22:20.655   04 Jun 2027 07:23:14.323            53.668                Anadyr2          1677.125
       413   04 Jun 2027 07:32:31.115   04 Jun 2027 07:32:31.754             0.639                 Moscow            19.969
       414   04 Jun 2027 08:02:47.692   04 Jun 2027 08:03:30.551            42.859            RioGallegos          1339.344
       415   04 Jun 2027 08:55:08.804   04 Jun 2027 08:55:24.433            15.629               Magadan1           488.406
       416   04 Jun 2027 08:55:39.570   04 Jun 2027 08:56:09.576            30.006               Magadan2           937.688
       417   04 Jun 2027 08:56:50.226   04 Jun 2027 08:57:38.395            48.169               Magadan2          1505.281
       418   04 Jun 2027 08:57:56.308   04 Jun 2027 08:58:20.266            23.958               Magadan1           748.687
       419   04 Jun 2027 08:58:35.196   04 Jun 2027 08:59:56.102            80.906               Magadan1          2528.313
       420   04 Jun 2027 09:00:21.991   04 Jun 2027 09:00:31.146             9.155               Magadan1           286.094
       421   04 Jun 2027 09:01:03.358   04 Jun 2027 09:01:05.902             2.544               Magadan1            79.500
       422   04 Jun 2027 09:01:15.038   04 Jun 2027 09:01:16.414             1.376              Murmansk1            43.000
       423   04 Jun 2027 09:36:09.450   04 Jun 2027 09:37:12.153            62.703            RioGallegos          1959.469
       424   04 Jun 2027 09:38:17.411   04 Jun 2027 09:38:26.958             9.547            RioGallegos           298.344
       425   04 Jun 2027 09:43:06.571   04 Jun 2027 09:43:08.289             1.718            RioGallegos            53.688
       426   04 Jun 2027 10:12:11.524   04 Jun 2027 10:12:52.151            40.627                Sumatra          1269.594
       427   04 Jun 2027 10:20:54.214   04 Jun 2027 10:21:23.467            29.253                Sumatra           914.156
       428   04 Jun 2027 10:32:59.843   04 Jun 2027 10:33:08.620             8.777                Irkutsk           274.281
       429   04 Jun 2027 10:33:16.888   04 Jun 2027 10:33:37.526            20.638                Norilsk           644.938
       430   04 Jun 2027 10:35:07.720   04 Jun 2027 10:35:18.440            10.720                Irkutsk           335.000
       431   04 Jun 2027 10:35:33.649   04 Jun 2027 10:36:24.754            51.105                Irkutsk          1597.031
       432   04 Jun 2027 10:36:29.673   04 Jun 2027 10:36:40.118            10.445                Novosib           326.406
       433   04 Jun 2027 10:36:42.973   04 Jun 2027 10:36:53.042            10.069                Novosib           314.656
       434   04 Jun 2027 10:37:04.690   04 Jun 2027 10:37:23.068            18.378                Irkutsk           574.313
       435   04 Jun 2027 11:13:06.074   04 Jun 2027 11:14:13.588            67.514            RioGallegos          2109.813
       436   04 Jun 2027 11:47:21.754   04 Jun 2027 11:48:28.795            67.041                Sumatra          2095.031
       437   04 Jun 2027 11:52:07.516   04 Jun 2027 11:52:10.710             3.194                Sumatra            99.812
       438   04 Jun 2027 11:56:18.147   04 Jun 2027 11:57:27.501            69.354                  Delhi          2167.312
       439   04 Jun 2027 12:11:36.564   04 Jun 2027 12:12:26.641            50.077                Irkutsk          1564.906
       440   04 Jun 2027 13:32:14.945   04 Jun 2027 13:35:38.699           203.754                  Delhi          6367.313
       441   04 Jun 2027 13:40:38.171   04 Jun 2027 13:41:29.236            51.065                Novosib          1595.781
       442   04 Jun 2027 13:42:06.720   04 Jun 2027 13:43:06.013            59.293                Novosib          1852.906
       443   04 Jun 2027 13:45:19.656   04 Jun 2027 13:45:35.540            15.884                Novosib           496.375
       444   04 Jun 2027 15:15:38.923   04 Jun 2027 15:18:46.305           187.382                 Moscow          5855.688
       445   04 Jun 2027 15:19:10.299   04 Jun 2027 15:20:17.114            66.815              Murmansk2          2087.969
       446   04 Jun 2027 15:24:07.365   04 Jun 2027 15:24:23.831            16.466              Murmansk2           514.562
       447   04 Jun 2027 15:25:42.764   04 Jun 2027 15:28:18.891           156.127                Norilsk          4878.969
       448   04 Jun 2027 15:35:33.136   04 Jun 2027 15:35:43.699            10.563                Anadyr2           330.094
       449   04 Jun 2027 15:36:04.214   04 Jun 2027 15:36:11.715             7.501                Anadyr1           234.406
       450   04 Jun 2027 16:30:54.405   04 Jun 2027 16:31:03.362             8.957               CapeTown           279.906
       451   04 Jun 2027 16:31:52.403   04 Jun 2027 16:31:59.185             6.782               CapeTown           211.938
       452   04 Jun 2027 16:33:29.641   04 Jun 2027 16:35:23.380           113.739               CapeTown          3554.344
       453   04 Jun 2027 16:55:01.272   04 Jun 2027 16:55:43.954            42.682                 Moscow          1333.812
       454   04 Jun 2027 16:57:03.209   04 Jun 2027 16:57:56.696            53.487              Murmansk2          1671.469
       455   04 Jun 2027 17:00:48.677   04 Jun 2027 17:01:57.699            69.022              Murmansk2          2156.937
       456   04 Jun 2027 17:09:45.549   04 Jun 2027 17:10:10.287            24.738                Anadyr1           773.063
       457   04 Jun 2027 17:10:46.298   04 Jun 2027 17:11:03.714            17.416                Anadyr1           544.250
       458   04 Jun 2027 17:11:09.877   04 Jun 2027 17:11:14.662             4.785                Anadyr1           149.531
       459   04 Jun 2027 17:12:33.413   04 Jun 2027 17:13:02.716            29.303                Anadyr1           915.719
       460   04 Jun 2027 17:16:56.660   04 Jun 2027 17:17:57.493            60.833                Anadyr1          1901.031
       461   04 Jun 2027 18:11:03.143   04 Jun 2027 18:11:31.442            28.299               CapeTown           884.344
       462   04 Jun 2027 18:11:58.653   04 Jun 2027 18:12:24.895            26.242               CapeTown           820.062
       463   04 Jun 2027 18:37:41.944   04 Jun 2027 18:42:18.297           276.353              Murmansk1          8636.031
       464   04 Jun 2027 18:42:53.973   04 Jun 2027 18:43:04.998            11.025              Murmansk2           344.531
       465   04 Jun 2027 18:48:17.076   04 Jun 2027 18:48:45.104            28.028               Magadan1           875.875
       466   04 Jun 2027 18:49:13.734   04 Jun 2027 18:49:33.767            20.033               Magadan1           626.031
       467   04 Jun 2027 18:51:12.850   04 Jun 2027 18:51:17.902             5.052               Magadan2           157.875
       468   04 Jun 2027 18:52:19.094   04 Jun 2027 18:52:39.919            20.825               Magadan2           650.781
       469   04 Jun 2027 18:55:50.458   04 Jun 2027 18:56:49.102            58.644               Magadan1          1832.625
       470   04 Jun 2027 20:21:28.339   04 Jun 2027 20:23:35.104           126.765                Anadyr2          3961.406
       471   04 Jun 2027 20:23:43.949   04 Jun 2027 20:25:12.344            88.395                Anadyr1          2762.344
       472   04 Jun 2027 20:25:39.935   04 Jun 2027 20:28:06.459           146.524               Magadan2          4578.875
       473   04 Jun 2027 20:31:09.229   04 Jun 2027 20:31:24.622            15.393               Magadan2           481.031
       474   04 Jun 2027 20:35:34.898   04 Jun 2027 20:36:37.925            63.027               Magadan1          1969.594
       475   04 Jun 2027 21:16:29.944   04 Jun 2027 21:18:36.324           126.380            RioGallegos          3949.375
       476   04 Jun 2027 21:22:19.023   04 Jun 2027 21:22:25.729             6.706            RioGallegos           209.562
       477   04 Jun 2027 21:23:02.338   04 Jun 2027 21:23:06.404             4.066            RioGallegos           127.063
       478   04 Jun 2027 21:57:12.234   04 Jun 2027 21:57:41.682            29.448                Anadyr1           920.250
       479   04 Jun 2027 21:59:20.251   04 Jun 2027 22:01:40.523           140.272                Norilsk          4383.500
       480   04 Jun 2027 22:02:17.683   04 Jun 2027 22:02:52.981            35.298               Magadan2          1103.062
       481   04 Jun 2027 22:02:59.034   04 Jun 2027 22:03:02.765             3.731                Norilsk           116.594
       482   04 Jun 2027 22:03:48.396   04 Jun 2027 22:06:20.359           151.963                Irkutsk          4748.844
