uniorb/output/strategy_4/Drop/Drop_KinoSat_112010.txt

KinoSat_112010
-------------------------
    Access    *     Start Time (UTCG)     *     Stop Time (UTCG)  *   Duration (s)        *       Station  *  Data (Mbytes)
         1   01 Jun 2027 03:47:08.155   01 Jun 2027 03:48:06.603            58.448                Norilsk          1826.500
         2   01 Jun 2027 03:48:12.319   01 Jun 2027 03:49:27.077            74.758                Norilsk          2336.188
         3   01 Jun 2027 03:49:35.721   01 Jun 2027 03:50:44.730            69.009              Murmansk2          2156.531
         4   01 Jun 2027 03:50:50.910   01 Jun 2027 03:51:24.606            33.696                Novosib          1053.000
         5   01 Jun 2027 03:51:28.686   01 Jun 2027 03:51:51.442            22.756                Norilsk           711.125
         6   01 Jun 2027 03:51:55.760   01 Jun 2027 03:53:53.138           117.378                Norilsk          3668.063
         7   01 Jun 2027 03:54:07.391   01 Jun 2027 03:55:41.780            94.389                Irkutsk          2949.656
         8   01 Jun 2027 03:55:51.198   01 Jun 2027 03:56:26.362            35.164                  Delhi          1098.875
         9   01 Jun 2027 04:01:03.126   01 Jun 2027 04:01:44.263            41.137                  Delhi          1285.531
        10   01 Jun 2027 04:34:47.763   01 Jun 2027 04:38:28.503           220.740            RioGallegos          6898.125
        11   01 Jun 2027 05:25:04.383   01 Jun 2027 05:26:05.204            60.821              Murmansk2          1900.656
        12   01 Jun 2027 05:26:22.976   01 Jun 2027 05:29:15.250           172.274                Norilsk          5383.562
        13   01 Jun 2027 05:29:16.148   01 Jun 2027 05:30:36.331            80.183                Novosib          2505.719
        14   01 Jun 2027 07:03:13.623   01 Jun 2027 07:03:45.937            32.314              Murmansk1          1009.812
        15   01 Jun 2027 07:03:49.456   01 Jun 2027 07:04:54.269            64.813                 Moscow          2025.406
        16   01 Jun 2027 07:05:07.933   01 Jun 2027 07:05:42.894            34.961                 Moscow          1092.531
        17   01 Jun 2027 07:05:49.148   01 Jun 2027 07:07:55.211           126.063              Murmansk1          3939.469
        18   01 Jun 2027 07:08:53.394   01 Jun 2027 07:09:17.391            23.997                 Moscow           749.906
        19   01 Jun 2027 07:22:17.527   01 Jun 2027 07:25:14.104           176.577               CapeTown          5518.031
        20   01 Jun 2027 07:29:19.430   01 Jun 2027 07:31:31.646           132.216               CapeTown          4131.750
        21   01 Jun 2027 08:26:06.026   01 Jun 2027 08:27:32.339            86.313                Anadyr2          2697.281
        22   01 Jun 2027 08:27:36.011   01 Jun 2027 08:28:44.441            68.430                Anadyr2          2138.437
        23   01 Jun 2027 09:57:13.107   01 Jun 2027 09:57:55.340            42.233                Anadyr1          1319.781
        24   01 Jun 2027 09:57:55.340   01 Jun 2027 09:58:33.787            38.447                Anadyr2          1201.469
        25   01 Jun 2027 10:01:36.113   01 Jun 2027 10:02:35.279            59.166                Anadyr2          1848.937
        26   01 Jun 2027 10:02:59.500   01 Jun 2027 10:03:45.249            45.749                Anadyr2          1429.656
        27   01 Jun 2027 10:04:59.165   01 Jun 2027 10:07:27.439           148.274                Anadyr1          4633.563
        28   01 Jun 2027 11:32:29.763   01 Jun 2027 11:36:08.816           219.053               Magadan2          6845.406
        29   01 Jun 2027 11:36:08.816   01 Jun 2027 11:36:51.858            43.042               Magadan1          1345.063
        30   01 Jun 2027 11:36:51.858   01 Jun 2027 11:38:06.104            74.246               Magadan2          2320.187
        31   01 Jun 2027 11:39:52.182   01 Jun 2027 11:42:51.324           179.142               Magadan2          5598.188
        32   01 Jun 2027 13:59:50.983   01 Jun 2027 14:00:42.447            51.464            RioGallegos          1608.250
        33   01 Jun 2027 14:33:08.628   01 Jun 2027 14:35:17.957           129.329                Sumatra          4041.531
        34   01 Jun 2027 14:44:46.450   01 Jun 2027 14:51:11.921           385.471                Irkutsk         12045.969
        35   01 Jun 2027 16:17:00.174   01 Jun 2027 16:21:37.071           276.897                  Delhi          8653.031
        36   01 Jun 2027 16:22:56.072   01 Jun 2027 16:29:45.979           409.907                Novosib         12809.594
        37   01 Jun 2027 19:37:32.855   01 Jun 2027 19:44:31.877           419.022                 Moscow         13094.437
        38   01 Jun 2027 20:50:21.752   01 Jun 2027 20:52:49.375           147.623               CapeTown          4613.219
        39   01 Jun 2027 21:20:08.773   01 Jun 2027 21:24:38.344           269.571              Murmansk1          8424.094
        40   02 Jun 2027 00:41:30.111   02 Jun 2027 00:43:23.259           113.148               Magadan1          3535.875
        41   02 Jun 2027 00:45:21.857   02 Jun 2027 00:46:09.015            47.158                Irkutsk          1473.687
        42   02 Jun 2027 00:47:47.566   02 Jun 2027 00:48:58.940            71.374                Irkutsk          2230.437
        43   02 Jun 2027 00:55:51.269   02 Jun 2027 00:56:17.496            26.227                Irkutsk           819.594
        44   02 Jun 2027 00:59:19.421   02 Jun 2027 01:00:01.053            41.632                Sumatra          1301.000
        45   02 Jun 2027 01:01:17.753   02 Jun 2027 01:02:11.700            53.947                Sumatra          1685.844
        46   02 Jun 2027 01:05:54.538   02 Jun 2027 01:06:11.091            16.553                Sumatra           517.281
        47   02 Jun 2027 01:08:39.856   02 Jun 2027 01:09:30.808            50.952                Sumatra          1592.250
        48   02 Jun 2027 01:40:03.428   02 Jun 2027 01:40:13.767            10.339            RioGallegos           323.094
        49   02 Jun 2027 01:40:47.690   02 Jun 2027 01:41:35.067            47.377            RioGallegos          1480.531
        50   02 Jun 2027 02:13:49.885   02 Jun 2027 02:14:23.450            33.565                Anadyr2          1048.906
        51   02 Jun 2027 02:14:59.618   02 Jun 2027 02:15:13.356            13.738                Anadyr1           429.313
        52   02 Jun 2027 02:15:58.310   02 Jun 2027 02:16:34.089            35.779                Anadyr1          1118.094
        53   02 Jun 2027 02:16:56.835   02 Jun 2027 02:18:15.117            78.282                Norilsk          2446.313
        54   02 Jun 2027 02:20:14.880   02 Jun 2027 02:20:54.264            39.384                Norilsk          1230.750
        55   02 Jun 2027 02:21:04.338   02 Jun 2027 02:22:51.330           106.992                Novosib          3343.500
        56   02 Jun 2027 02:23:52.385   02 Jun 2027 02:24:39.002            46.617                Irkutsk          1456.781
        57   02 Jun 2027 02:29:24.417   02 Jun 2027 02:29:41.095            16.678                Irkutsk           521.187
        58   02 Jun 2027 02:30:25.819   02 Jun 2027 02:30:31.804             5.985                Irkutsk           187.031
        59   02 Jun 2027 02:30:59.969   02 Jun 2027 02:31:26.026            26.057                Irkutsk           814.281
        60   02 Jun 2027 02:35:40.014   02 Jun 2027 02:42:06.485           386.471                Sumatra         12077.219
        61   02 Jun 2027 03:58:07.986   02 Jun 2027 03:59:39.140            91.154                Irkutsk          2848.562
        62   02 Jun 2027 04:00:31.489   02 Jun 2027 04:00:59.668            28.179                Novosib           880.594
        63   02 Jun 2027 04:01:25.577   02 Jun 2027 04:01:35.043             9.466                Irkutsk           295.812
        64   02 Jun 2027 04:01:37.561   02 Jun 2027 04:06:04.036           266.475                Irkutsk          8327.344
        65   02 Jun 2027 04:12:27.718   02 Jun 2027 04:16:25.324           237.606                  Delhi          7425.187
        66   02 Jun 2027 04:47:50.242   02 Jun 2027 04:49:34.120           103.878            RioGallegos          3246.188
        67   02 Jun 2027 05:38:57.260   02 Jun 2027 05:42:43.432           226.172                Novosib          7067.875
        68   02 Jun 2027 07:16:07.582   02 Jun 2027 07:16:31.275            23.693              Murmansk1           740.406
        69   02 Jun 2027 07:16:31.275   02 Jun 2027 07:17:40.899            69.624              Murmansk2          2175.750
        70   02 Jun 2027 07:21:20.198   02 Jun 2027 07:22:15.480            55.282                 Moscow          1727.562
        71   02 Jun 2027 07:40:23.579   02 Jun 2027 07:44:23.902           240.323               CapeTown          7510.094
        72   02 Jun 2027 08:39:34.544   02 Jun 2027 08:41:53.642           139.098                Anadyr1          4346.813
        73   02 Jun 2027 10:14:16.116   02 Jun 2027 10:14:52.880            36.764                Anadyr1          1148.875
        74   02 Jun 2027 10:14:53.003   02 Jun 2027 10:15:34.007            41.004               Magadan2          1281.375
        75   02 Jun 2027 10:16:19.560   02 Jun 2027 10:17:24.876            65.316               Magadan1          2041.125
        76   02 Jun 2027 10:17:24.876   02 Jun 2027 10:17:57.692            32.816               Magadan2          1025.500
        77   02 Jun 2027 11:45:03.895   02 Jun 2027 11:48:25.879           201.984               Magadan2          6312.000
        78   02 Jun 2027 11:48:25.879   02 Jun 2027 11:54:43.367           377.488               Magadan1         11796.500
        79   02 Jun 2027 13:18:21.776   02 Jun 2027 13:19:23.180            61.404                Irkutsk          1918.875
        80   02 Jun 2027 13:23:08.786   02 Jun 2027 13:24:23.768            74.982                Norilsk          2343.188
        81   02 Jun 2027 13:25:40.495   02 Jun 2027 13:25:54.768            14.273                Irkutsk           446.031
        82   02 Jun 2027 14:07:43.903   02 Jun 2027 14:10:36.632           172.729            RioGallegos          5397.781
        83   02 Jun 2027 14:13:03.352   02 Jun 2027 14:13:39.751            36.399            RioGallegos          1137.469
        84   02 Jun 2027 14:16:41.184   02 Jun 2027 14:17:46.860            65.676            RioGallegos          2052.375
        85   02 Jun 2027 14:41:58.580   02 Jun 2027 14:49:39.365           460.785                Sumatra         14399.531
        86   02 Jun 2027 14:51:18.887   02 Jun 2027 14:51:31.546            12.659                Sumatra           395.594
        87   02 Jun 2027 14:58:42.813   02 Jun 2027 15:05:35.895           413.082                Irkutsk         12908.813
        88   02 Jun 2027 16:27:20.310   02 Jun 2027 16:35:28.554           488.244                  Delhi         15257.625
        89   02 Jun 2027 16:35:50.456   02 Jun 2027 16:42:55.557           425.101                Novosib         13284.406
        90   02 Jun 2027 19:50:14.361   02 Jun 2027 19:55:59.082           344.721                 Moscow         10772.531
        91   02 Jun 2027 19:55:59.845   02 Jun 2027 19:57:46.596           106.751              Murmansk2          3335.969
        92   02 Jun 2027 21:01:11.580   02 Jun 2027 21:06:08.341           296.761               CapeTown          9273.781
        93   02 Jun 2027 21:33:23.279   02 Jun 2027 21:36:08.918           165.639              Murmansk1          5176.219
        94   03 Jun 2027 00:11:23.904   03 Jun 2027 00:11:47.261            23.357            RioGallegos           729.906
        95   03 Jun 2027 00:15:28.349   03 Jun 2027 00:16:05.352            37.003            RioGallegos          1156.344
        96   03 Jun 2027 00:50:51.840   03 Jun 2027 00:51:36.421            44.581                Anadyr1          1393.156
        97   03 Jun 2027 00:51:56.756   03 Jun 2027 00:51:58.355             1.599                Anadyr1            49.969
        98   03 Jun 2027 00:52:17.940   03 Jun 2027 00:52:38.771            20.831                Anadyr1           650.969
        99   03 Jun 2027 00:53:01.403   03 Jun 2027 00:55:02.137           120.734                Norilsk          3772.937
       100   03 Jun 2027 00:55:34.428   03 Jun 2027 00:55:41.199             6.771               Magadan2           211.594
       101   03 Jun 2027 00:55:45.288   03 Jun 2027 00:56:14.796            29.508               Magadan1           922.125
       102   03 Jun 2027 00:56:45.012   03 Jun 2027 00:56:45.873             0.861                Norilsk            26.906
       103   03 Jun 2027 00:56:57.220   03 Jun 2027 00:56:58.315             1.095               Magadan2            34.219
       104   03 Jun 2027 00:57:14.883   03 Jun 2027 00:58:49.541            94.658                Irkutsk          2958.063
       105   03 Jun 2027 00:59:19.928   03 Jun 2027 01:00:25.554            65.626                Novosib          2050.813
       106   03 Jun 2027 01:03:50.926   03 Jun 2027 01:04:02.774            11.848                Novosib           370.250
       107   03 Jun 2027 01:07:56.220   03 Jun 2027 01:08:30.580            34.360                Irkutsk          1073.750
       108   03 Jun 2027 01:11:02.724   03 Jun 2027 01:11:54.754            52.030                Sumatra          1625.937
       109   03 Jun 2027 01:17:49.126   03 Jun 2027 01:18:49.156            60.030                Sumatra          1875.937
       110   03 Jun 2027 01:48:13.652   03 Jun 2027 01:48:20.717             7.065            RioGallegos           220.781
       111   03 Jun 2027 01:48:33.491   03 Jun 2027 01:48:53.871            20.380            RioGallegos           636.875
       112   03 Jun 2027 01:51:32.902   03 Jun 2027 01:51:47.263            14.361            RioGallegos           448.781
       113   03 Jun 2027 01:53:41.917   03 Jun 2027 01:54:11.530            29.613            RioGallegos           925.406
       114   03 Jun 2027 01:56:54.871   03 Jun 2027 01:57:31.572            36.701            RioGallegos          1146.906
       115   03 Jun 2027 02:26:21.494   03 Jun 2027 02:26:49.148            27.654                Anadyr1           864.187
       116   03 Jun 2027 02:28:59.316   03 Jun 2027 02:30:06.988            67.672                Norilsk          2114.750
       117   03 Jun 2027 02:30:26.857   03 Jun 2027 02:31:02.815            35.958                Norilsk          1123.687
       118   03 Jun 2027 02:32:52.274   03 Jun 2027 02:35:19.169           146.895                Irkutsk          4590.469
       119   03 Jun 2027 02:38:48.487   03 Jun 2027 02:39:25.649            37.162                Irkutsk          1161.312
       120   03 Jun 2027 02:41:35.919   03 Jun 2027 02:42:14.976            39.057                  Delhi          1220.531
       121   03 Jun 2027 02:48:20.830   03 Jun 2027 02:57:07.138           526.308                Sumatra         16447.125
       122   03 Jun 2027 04:11:55.125   03 Jun 2027 04:13:10.320            75.195                Irkutsk          2349.844
       123   03 Jun 2027 04:13:26.829   03 Jun 2027 04:18:43.410           316.581                Irkutsk          9893.156
       124   03 Jun 2027 04:19:30.147   03 Jun 2027 04:19:49.962            19.815                Novosib           619.219
       125   03 Jun 2027 05:50:54.171   03 Jun 2027 05:54:01.516           187.345                Novosib          5854.531
       126   03 Jun 2027 05:54:05.216   03 Jun 2027 05:54:14.599             9.383              Murmansk1           293.219
       127   03 Jun 2027 05:54:33.975   03 Jun 2027 05:54:59.781            25.806                 Moscow           806.438
       128   03 Jun 2027 05:57:05.334   03 Jun 2027 05:57:25.022            19.688                 Moscow           615.250
       129   03 Jun 2027 05:57:58.463   03 Jun 2027 05:58:09.624            11.161                 Moscow           348.781
       130   03 Jun 2027 06:10:53.537   03 Jun 2027 06:12:33.676           100.139               CapeTown          3129.344
       131   03 Jun 2027 06:13:08.192   03 Jun 2027 06:13:49.397            41.205               CapeTown          1287.656
       132   03 Jun 2027 06:17:13.900   03 Jun 2027 06:17:21.923             8.023               CapeTown           250.719
       133   03 Jun 2027 06:18:04.616   03 Jun 2027 06:18:29.171            24.555               CapeTown           767.344
       134   03 Jun 2027 07:14:40.670   03 Jun 2027 07:16:36.713           116.043                Anadyr1          3626.344
       135   03 Jun 2027 07:25:57.650   03 Jun 2027 07:26:20.288            22.638                Norilsk           707.438
       136   03 Jun 2027 07:26:49.093   03 Jun 2027 07:26:58.393             9.300                Norilsk           290.625
       137   03 Jun 2027 07:27:19.907   03 Jun 2027 07:27:31.525            11.618              Murmansk1           363.062
       138   03 Jun 2027 07:27:55.376   03 Jun 2027 07:28:04.081             8.705              Murmansk1           272.031
       139   03 Jun 2027 07:28:19.016   03 Jun 2027 07:28:25.429             6.413              Murmansk1           200.406
       140   03 Jun 2027 07:28:41.441   03 Jun 2027 07:29:33.402            51.961              Murmansk1          1623.781
       141   03 Jun 2027 07:46:54.857   03 Jun 2027 07:48:40.563           105.706               CapeTown          3303.313
       142   03 Jun 2027 07:51:59.219   03 Jun 2027 07:52:21.837            22.618               CapeTown           706.812
       143   03 Jun 2027 08:48:48.116   03 Jun 2027 08:49:17.609            29.493               Magadan1           921.656
       144   03 Jun 2027 08:49:27.221   03 Jun 2027 08:49:51.352            24.131               Magadan1           754.094
       145   03 Jun 2027 08:50:07.094   03 Jun 2027 08:51:28.239            81.145                Anadyr1          2535.781
       146   03 Jun 2027 08:51:38.139   03 Jun 2027 08:52:29.452            51.313               Magadan1          1603.531
       147   03 Jun 2027 08:52:43.777   03 Jun 2027 08:52:53.734             9.957                Anadyr1           311.156
       148   03 Jun 2027 08:54:42.034   03 Jun 2027 08:55:49.522            67.488                Anadyr1          2109.000
       149   03 Jun 2027 10:22:21.677   03 Jun 2027 10:22:37.915            16.238                Anadyr2           507.437
       150   03 Jun 2027 10:25:40.824   03 Jun 2027 10:26:40.886            60.062               Magadan2          1876.938
       151   03 Jun 2027 10:27:59.689   03 Jun 2027 10:28:21.576            21.887               Magadan2           683.969
       152   03 Jun 2027 10:28:31.124   03 Jun 2027 10:29:21.478            50.354               Magadan1          1573.563
       153   03 Jun 2027 10:29:28.961   03 Jun 2027 10:31:25.266           116.305               Magadan2          3634.531
       154   03 Jun 2027 11:57:43.571   03 Jun 2027 12:06:32.519           528.948               Magadan1         16529.625
       155   03 Jun 2027 14:20:24.537   03 Jun 2027 14:26:57.661           393.124            RioGallegos         12285.125
       156   03 Jun 2027 14:54:47.969   03 Jun 2027 15:02:37.635           469.666                Sumatra         14677.063
       157   03 Jun 2027 15:10:36.601   03 Jun 2027 15:17:04.425           387.824                Irkutsk         12119.500
       158   03 Jun 2027 16:40:36.619   03 Jun 2027 16:46:26.098           349.479                  Delhi         10921.219
       159   03 Jun 2027 16:49:00.835   03 Jun 2027 16:54:19.087           318.252                Novosib          9945.375
       160   03 Jun 2027 20:03:52.928   03 Jun 2027 20:06:56.938           184.010                 Moscow          5750.312
       161   03 Jun 2027 20:07:47.555   03 Jun 2027 20:09:30.017           102.462              Murmansk1          3201.938
       162   03 Jun 2027 21:12:31.908   03 Jun 2027 21:19:50.781           438.873               CapeTown         13714.781
       163   04 Jun 2027 00:21:31.426   04 Jun 2027 00:24:54.696           203.270            RioGallegos          6352.188
       164   04 Jun 2027 01:02:48.587   04 Jun 2027 01:03:46.018            57.431                Anadyr1          1794.719
       165   04 Jun 2027 01:04:39.640   04 Jun 2027 01:05:19.856            40.216                Anadyr2          1256.750
       166   04 Jun 2027 01:05:22.375   04 Jun 2027 01:07:04.462           102.087                Norilsk          3190.219
       167   04 Jun 2027 01:07:44.093   04 Jun 2027 01:08:56.549            72.456               Magadan2          2264.250
       168   04 Jun 2027 01:09:09.919   04 Jun 2027 01:10:56.875           106.956                Irkutsk          3342.375
       169   04 Jun 2027 01:16:07.770   04 Jun 2027 01:16:43.438            35.668                Irkutsk          1114.625
       170   04 Jun 2027 01:22:52.589   04 Jun 2027 01:25:50.349           177.760                Sumatra          5555.000
       171   04 Jun 2027 02:00:32.826   04 Jun 2027 02:00:39.899             7.073            RioGallegos           221.031
       172   04 Jun 2027 02:04:49.243   04 Jun 2027 02:04:59.947            10.704            RioGallegos           334.500
       173   04 Jun 2027 02:05:47.772   04 Jun 2027 02:06:24.340            36.568            RioGallegos          1142.750
       174   04 Jun 2027 02:37:26.029   04 Jun 2027 02:38:00.476            34.447                Anadyr1          1076.469
       175   04 Jun 2027 02:41:01.823   04 Jun 2027 02:42:28.462            86.639                Norilsk          2707.469
       176   04 Jun 2027 02:44:40.739   04 Jun 2027 02:44:48.232             7.493               Magadan2           234.156
       177   04 Jun 2027 02:44:55.923   04 Jun 2027 02:47:21.776           145.853                Irkutsk          4557.906
       178   04 Jun 2027 02:50:12.841   04 Jun 2027 02:50:20.606             7.765                Novosib           242.656
       179   04 Jun 2027 02:51:02.748   04 Jun 2027 02:51:17.051            14.303                Irkutsk           446.969
       180   04 Jun 2027 02:51:20.242   04 Jun 2027 02:51:35.963            15.721                Irkutsk           491.281
       181   04 Jun 2027 02:52:40.238   04 Jun 2027 02:53:26.645            46.407                Irkutsk          1450.219
       182   04 Jun 2027 02:59:46.703   04 Jun 2027 03:00:00.927            14.224                  Delhi           444.500
       183   04 Jun 2027 03:01:22.176   04 Jun 2027 03:08:00.808           398.632                Sumatra         12457.250
       184   04 Jun 2027 04:24:12.665   04 Jun 2027 04:30:08.301           355.636                Irkutsk         11113.625
       185   04 Jun 2027 04:33:45.808   04 Jun 2027 04:36:32.177           166.369                  Delhi          5199.031
       186   04 Jun 2027 06:03:05.599   04 Jun 2027 06:03:25.686            20.087                Novosib           627.719
       187   04 Jun 2027 06:03:47.585   04 Jun 2027 06:04:08.323            20.738              Murmansk1           648.062
       188   04 Jun 2027 06:04:28.370   04 Jun 2027 06:06:12.883           104.513                Novosib          3266.031
       189   04 Jun 2027 06:09:11.155   04 Jun 2027 06:09:26.283            15.128                 Moscow           472.750
       190   04 Jun 2027 06:09:51.728   04 Jun 2027 06:10:01.885            10.157                 Moscow           317.406
       191   04 Jun 2027 06:10:32.598   04 Jun 2027 06:11:04.868            32.270                 Moscow          1008.438
       192   04 Jun 2027 06:22:37.724   04 Jun 2027 06:24:53.530           135.806               CapeTown          4243.937
       193   04 Jun 2027 07:25:45.257   04 Jun 2027 07:26:17.846            32.589                Anadyr1          1018.406
       194   04 Jun 2027 07:26:23.665   04 Jun 2027 07:27:13.275            49.610               Magadan2          1550.312
       195   04 Jun 2027 07:28:02.942   04 Jun 2027 07:28:36.153            33.211                Anadyr1          1037.844
       196   04 Jun 2027 07:37:36.657   04 Jun 2027 07:37:59.530            22.873                Norilsk           714.781
       197   04 Jun 2027 07:38:17.858   04 Jun 2027 07:38:48.050            30.192                Norilsk           943.500
       198   04 Jun 2027 07:40:28.400   04 Jun 2027 07:40:52.994            24.594                 Moscow           768.563
       199   04 Jun 2027 07:41:31.788   04 Jun 2027 07:42:05.529            33.741                 Moscow          1054.406
       200   04 Jun 2027 07:59:24.351   04 Jun 2027 08:05:25.432           361.081               CapeTown         11283.781
       201   04 Jun 2027 08:59:56.102   04 Jun 2027 09:00:21.991            25.889               Magadan1           809.031
       202   04 Jun 2027 09:00:31.146   04 Jun 2027 09:01:03.358            32.212               Magadan2          1006.625
       203   04 Jun 2027 09:01:53.619   04 Jun 2027 09:02:28.131            34.512               Magadan1          1078.500
       204   04 Jun 2027 09:03:19.413   04 Jun 2027 09:05:12.808           113.395                Anadyr2          3543.594
       205   04 Jun 2027 10:35:14.612   04 Jun 2027 10:35:36.100            21.488               Magadan2           671.500
       206   04 Jun 2027 10:35:37.743   04 Jun 2027 10:37:33.904           116.161               Magadan1          3630.031
       207   04 Jun 2027 10:38:24.051   04 Jun 2027 10:40:29.568           125.517               Magadan2          3922.406
       208   04 Jun 2027 10:40:35.028   04 Jun 2027 10:40:45.679            10.651               Magadan1           332.844
       209   04 Jun 2027 10:41:02.236   04 Jun 2027 10:41:18.398            16.162               Magadan1           505.062
       210   04 Jun 2027 10:42:20.417   04 Jun 2027 10:42:31.074            10.657                Norilsk           333.031
       211   04 Jun 2027 10:42:31.616   04 Jun 2027 10:43:10.398            38.782                Anadyr2          1211.937
       212   04 Jun 2027 11:18:56.143   04 Jun 2027 11:19:23.920            27.777            RioGallegos           868.031
       213   04 Jun 2027 11:21:08.557   04 Jun 2027 11:22:11.563            63.006            RioGallegos          1968.938
       214   04 Jun 2027 12:06:47.038   04 Jun 2027 12:07:52.004            64.966                Irkutsk          2030.187
       215   04 Jun 2027 12:08:06.174   04 Jun 2027 12:08:34.412            28.238                Irkutsk           882.437
       216   04 Jun 2027 12:10:30.155   04 Jun 2027 12:17:25.100           414.945               Magadan1         12967.031
       217   04 Jun 2027 13:47:32.848   04 Jun 2027 13:47:55.635            22.787                Irkutsk           712.094
       218   04 Jun 2027 13:52:29.520   04 Jun 2027 13:52:34.494             4.974                Irkutsk           155.437
       219   04 Jun 2027 13:56:01.529   04 Jun 2027 13:56:05.038             3.509                Novosib           109.656
       220   04 Jun 2027 14:33:14.683   04 Jun 2027 14:41:06.738           472.055            RioGallegos         14751.719
       221   04 Jun 2027 15:08:08.555   04 Jun 2027 15:13:11.538           302.983                Sumatra          9468.219
       222   04 Jun 2027 15:24:03.766   04 Jun 2027 15:28:10.565           246.799                Irkutsk          7712.469
       223   04 Jun 2027 17:02:57.658   04 Jun 2027 17:04:59.387           121.729                Novosib          3804.031
       224   04 Jun 2027 18:42:05.213   04 Jun 2027 18:42:17.843            12.630              Murmansk2           394.688
       225   04 Jun 2027 18:44:05.307   04 Jun 2027 18:45:44.078            98.771              Murmansk2          3086.594
       226   04 Jun 2027 19:47:03.068   04 Jun 2027 19:49:21.219           138.151               CapeTown          4317.219
       227   04 Jun 2027 20:16:39.163   04 Jun 2027 20:17:51.051            71.888              Murmansk1          2246.500
       228   04 Jun 2027 20:18:16.733   04 Jun 2027 20:22:13.262           236.529              Murmansk2          7391.531
       229   04 Jun 2027 20:23:09.848   04 Jun 2027 20:25:32.890           143.042              Murmansk1          4470.062
       230   04 Jun 2027 21:25:25.820   04 Jun 2027 21:30:33.918           308.098               CapeTown          9628.063
       231   04 Jun 2027 23:39:15.237   04 Jun 2027 23:44:13.383           298.146                Anadyr2          9317.062
       232   04 Jun 2027 23:44:21.958   04 Jun 2027 23:44:49.402            27.444                Norilsk           857.625
       233   04 Jun 2027 23:44:58.345   04 Jun 2027 23:46:14.343            75.998               Magadan2          2374.937
       234   04 Jun 2027 23:47:03.339   04 Jun 2027 23:47:35.772            32.433               Magadan2          1013.531
       235   04 Jun 2027 23:48:10.993   04 Jun 2027 23:48:41.213            30.220                Irkutsk           944.375
       236   04 Jun 2027 23:49:15.849   04 Jun 2027 23:49:58.723            42.874                Irkutsk          1339.813
       237   04 Jun 2027 23:50:25.567   04 Jun 2027 23:50:52.081            26.514                Irkutsk           828.563
       238   04 Jun 2027 23:52:30.014   04 Jun 2027 23:53:11.728            41.714                Irkutsk          1303.563
       239   05 Jun 2027 00:05:08.009   05 Jun 2027 00:06:17.043            69.034                Sumatra          2157.312
       240   05 Jun 2027 00:33:23.937   05 Jun 2027 00:34:27.286            63.349            RioGallegos          1979.656
       241   05 Jun 2027 00:35:02.494   05 Jun 2027 00:35:15.475            12.981            RioGallegos           405.656
       242   05 Jun 2027 00:35:41.418   05 Jun 2027 00:35:58.586            17.168            RioGallegos           536.500
       243   05 Jun 2027 00:38:42.942   05 Jun 2027 00:38:52.018             9.076            RioGallegos           283.625
       244   05 Jun 2027 00:40:50.281   05 Jun 2027 00:41:05.233            14.952            RioGallegos           467.250
       245   05 Jun 2027 00:42:53.766   05 Jun 2027 00:43:48.185            54.419            RioGallegos          1700.594
       246   05 Jun 2027 01:14:44.427   05 Jun 2027 01:15:22.087            37.660                Anadyr1          1176.875
       247   05 Jun 2027 01:16:40.284   05 Jun 2027 01:17:21.201            40.917                Anadyr2          1278.656
       248   05 Jun 2027 01:17:24.157   05 Jun 2027 01:19:06.820           102.663                Norilsk          3208.219
       249   05 Jun 2027 01:19:28.560   05 Jun 2027 01:20:27.320            58.760               Magadan1          1836.250
       250   05 Jun 2027 01:21:06.601   05 Jun 2027 01:22:27.785            81.184                Irkutsk          2537.000
       251   05 Jun 2027 01:24:35.376   05 Jun 2027 01:24:36.071             0.695                Novosib            21.719
       252   05 Jun 2027 01:25:39.347   05 Jun 2027 01:25:46.726             7.379                Novosib           230.594
       253   05 Jun 2027 01:25:56.331   05 Jun 2027 01:26:38.434            42.103                Novosib          1315.719
       254   05 Jun 2027 01:34:48.407   05 Jun 2027 01:37:42.256           173.849                Sumatra          5432.781
       255   05 Jun 2027 01:46:28.257   05 Jun 2027 01:47:32.349            64.092                Sumatra          2002.875
       256   05 Jun 2027 02:49:57.722   05 Jun 2027 02:51:35.843            98.121                Anadyr2          3066.281
       257   05 Jun 2027 02:53:04.321   05 Jun 2027 02:53:25.831            21.510                Norilsk           672.187
       258   05 Jun 2027 02:56:05.307   05 Jun 2027 02:56:40.174            34.867                Norilsk          1089.594
       259   05 Jun 2027 02:56:55.768   05 Jun 2027 02:58:25.014            89.246              Murmansk2          2788.938
       260   05 Jun 2027 02:58:42.450   05 Jun 2027 02:59:17.728            35.278                Irkutsk          1102.437
       261   05 Jun 2027 03:00:18.746   05 Jun 2027 03:01:12.807            54.061                Norilsk          1689.406
       262   05 Jun 2027 03:01:47.552   05 Jun 2027 03:04:15.482           147.930                Norilsk          4622.813
       263   05 Jun 2027 03:04:26.137   05 Jun 2027 03:06:27.598           121.461                  Delhi          3795.656
       264   05 Jun 2027 03:08:24.885   05 Jun 2027 03:09:14.282            49.397                Irkutsk          1543.656
       265   05 Jun 2027 03:15:29.396   05 Jun 2027 03:17:47.512           138.116                Sumatra          4316.125
       266   05 Jun 2027 03:47:01.291   05 Jun 2027 03:48:38.252            96.961            RioGallegos          3030.031
       267   05 Jun 2027 03:49:08.046   05 Jun 2027 03:50:16.396            68.350            RioGallegos          2135.938
       268   05 Jun 2027 04:33:53.484   05 Jun 2027 04:34:18.380            24.896                Irkutsk           778.000
       269   05 Jun 2027 04:36:56.570   05 Jun 2027 04:41:28.559           271.989                Irkutsk          8499.656
       270   05 Jun 2027 04:42:00.894   05 Jun 2027 04:46:25.656           264.762                  Delhi          8273.812
       271   05 Jun 2027 06:15:44.175   05 Jun 2027 06:16:04.679            20.504              Murmansk1           640.750
       272   05 Jun 2027 06:16:06.456   05 Jun 2027 06:16:20.383            13.927                 Moscow           435.219
       273   05 Jun 2027 06:16:50.274   05 Jun 2027 06:17:15.451            25.177              Murmansk2           786.781
       274   05 Jun 2027 06:17:20.609   05 Jun 2027 06:17:34.190            13.581                 Moscow           424.406
       275   05 Jun 2027 06:17:39.224   05 Jun 2027 06:18:13.178            33.954                 Moscow          1061.063
       276   05 Jun 2027 06:21:16.408   05 Jun 2027 06:21:22.730             6.322                 Moscow           197.562
       277   05 Jun 2027 06:34:27.254   05 Jun 2027 06:37:20.567           173.313               CapeTown          5416.031
       278   05 Jun 2027 07:37:34.819   05 Jun 2027 07:37:37.532             2.713                Anadyr1            84.781
       279   05 Jun 2027 07:37:41.726   05 Jun 2027 07:37:51.764            10.038               Magadan1           313.688
       280   05 Jun 2027 07:38:00.295   05 Jun 2027 07:38:14.039            13.744               Magadan2           429.500
       281   05 Jun 2027 07:38:18.282   05 Jun 2027 07:38:24.044             5.762                Anadyr1           180.063
       282   05 Jun 2027 07:38:37.585   05 Jun 2027 07:39:06.031            28.446               Magadan2           888.938
       283   05 Jun 2027 07:39:09.008   05 Jun 2027 07:39:18.454             9.446               Magadan1           295.187
       284   05 Jun 2027 07:40:02.873   05 Jun 2027 07:40:37.498            34.625                Anadyr1          1082.031
       285   05 Jun 2027 07:42:09.063   05 Jun 2027 07:42:43.451            34.388                Anadyr1          1074.625
       286   05 Jun 2027 07:51:58.659   05 Jun 2027 07:53:20.639            81.980              Murmansk1          2561.875
       287   05 Jun 2027 08:12:03.433   05 Jun 2027 08:14:35.019           151.586               CapeTown          4737.063
       288   05 Jun 2027 08:17:25.498   05 Jun 2027 08:19:10.012           104.514               CapeTown          3266.063
       289   05 Jun 2027 09:11:56.282   05 Jun 2027 09:12:55.816            59.534               Magadan1          1860.437
       290   05 Jun 2027 09:13:21.813   05 Jun 2027 09:13:55.601            33.788               Magadan2          1055.875
       291   05 Jun 2027 09:14:16.661   05 Jun 2027 09:14:34.970            18.309               Magadan1           572.156
       292   05 Jun 2027 09:15:06.832   05 Jun 2027 09:16:25.649            78.817                Anadyr2          2463.031
       293   05 Jun 2027 09:17:39.052   05 Jun 2027 09:17:45.469             6.417                Anadyr2           200.531
       294   05 Jun 2027 09:18:33.388   05 Jun 2027 09:19:50.483            77.095                Anadyr1          2409.219
       295   05 Jun 2027 10:45:50.561   05 Jun 2027 10:48:00.012           129.451               Magadan2          4045.344
       296   05 Jun 2027 10:48:11.573   05 Jun 2027 10:51:52.011           220.438                Anadyr1          6888.687
       297   05 Jun 2027 10:53:03.403   05 Jun 2027 10:54:32.086            88.683               Magadan1          2771.344
       298   05 Jun 2027 10:54:48.639   05 Jun 2027 10:54:52.338             3.699                Norilsk           115.594
       299   05 Jun 2027 10:55:01.104   05 Jun 2027 10:55:23.861            22.757               Magadan2           711.156
       300   05 Jun 2027 11:30:39.724   05 Jun 2027 11:30:46.745             7.021            RioGallegos           219.406
       301   05 Jun 2027 11:32:01.359   05 Jun 2027 11:32:30.854            29.495            RioGallegos           921.719
       302   05 Jun 2027 11:35:13.718   05 Jun 2027 11:35:35.476            21.758            RioGallegos           679.938
       303   05 Jun 2027 12:09:20.759   05 Jun 2027 12:09:48.774            28.015                Sumatra           875.469
       304   05 Jun 2027 12:10:20.680   05 Jun 2027 12:10:40.330            19.650                Sumatra           614.062
       305   05 Jun 2027 12:18:37.973   05 Jun 2027 12:20:47.342           129.369                Irkutsk          4042.781
       306   05 Jun 2027 12:21:57.698   05 Jun 2027 12:22:51.559            53.861                Novosib          1683.156
       307   05 Jun 2027 12:23:26.231   05 Jun 2027 12:29:55.852           389.621               Magadan1         12175.656
       308   05 Jun 2027 14:01:00.113   05 Jun 2027 14:01:41.111            40.998                Irkutsk          1281.187
       309   05 Jun 2027 14:46:19.225   05 Jun 2027 14:52:32.061           372.836            RioGallegos         11651.125
       310   05 Jun 2027 15:36:59.379   05 Jun 2027 15:37:18.999            19.620                Norilsk           613.125
       311   05 Jun 2027 15:41:41.948   05 Jun 2027 15:41:54.056            12.108                Norilsk           378.375
       312   05 Jun 2027 15:42:33.464   05 Jun 2027 15:43:00.762            27.298                Norilsk           853.062
       313   05 Jun 2027 15:46:22.152   05 Jun 2027 15:46:51.694            29.542                Norilsk           923.187
       314   05 Jun 2027 17:09:24.810   05 Jun 2027 17:11:46.562           141.752                 Moscow          4429.750
       315   05 Jun 2027 17:13:56.978   05 Jun 2027 17:14:25.209            28.231              Murmansk1           882.219
       316   05 Jun 2027 17:16:52.924   05 Jun 2027 17:19:39.669           166.745                Norilsk          5210.781
       317   05 Jun 2027 17:20:27.392   05 Jun 2027 17:20:58.473            31.081                Norilsk           971.281
       318   05 Jun 2027 17:21:33.015   05 Jun 2027 17:22:18.820            45.805                Norilsk          1431.406
       319   05 Jun 2027 18:29:33.278   05 Jun 2027 18:30:43.016            69.738               CapeTown          2179.312
       320   05 Jun 2027 18:46:48.092   05 Jun 2027 18:47:49.894            61.802                 Moscow          1931.313
       321   05 Jun 2027 18:49:56.075   05 Jun 2027 18:51:25.676            89.601              Murmansk1          2800.031
       322   05 Jun 2027 18:51:43.697   05 Jun 2027 18:52:09.555            25.858                 Moscow           808.063
       323   05 Jun 2027 18:57:40.946   05 Jun 2027 18:59:00.876            79.930              Murmansk1          2497.812
       324   05 Jun 2027 19:58:55.337   05 Jun 2027 20:00:27.414            92.077               CapeTown          2877.406
       325   05 Jun 2027 20:01:54.535   05 Jun 2027 20:03:11.453            76.918               CapeTown          2403.688
       326   05 Jun 2027 20:07:37.659   05 Jun 2027 20:07:55.376            17.717               CapeTown           553.656
       327   05 Jun 2027 20:29:16.405   05 Jun 2027 20:30:53.420            97.015              Murmansk2          3031.719
       328   05 Jun 2027 20:31:38.119   05 Jun 2027 20:35:01.491           203.372              Murmansk1          6355.375
       329   05 Jun 2027 20:35:08.608   05 Jun 2027 20:37:30.432           141.824              Murmansk2          4432.000
       330   05 Jun 2027 22:15:23.588   05 Jun 2027 22:17:20.098           116.510                Anadyr1          3640.937
       331   05 Jun 2027 22:17:43.644   05 Jun 2027 22:19:54.536           130.892               Magadan1          4090.375
       332   05 Jun 2027 22:20:17.482   05 Jun 2027 22:20:55.836            38.354               Magadan2          1198.563
       333   05 Jun 2027 22:20:55.836   05 Jun 2027 22:21:04.511             8.675               Magadan1           271.094
       334   05 Jun 2027 22:21:33.480   05 Jun 2027 22:21:38.456             4.976               Magadan2           155.500
       335   05 Jun 2027 22:22:21.079   05 Jun 2027 22:22:45.876            24.797               Magadan2           774.906
       336   05 Jun 2027 22:27:09.514   05 Jun 2027 22:27:13.360             3.846               Magadan1           120.187
       337   05 Jun 2027 23:12:58.913   05 Jun 2027 23:14:31.550            92.637            RioGallegos          2894.906
       338   05 Jun 2027 23:51:15.572   05 Jun 2027 23:54:43.429           207.857                Anadyr2          6495.531
       339   05 Jun 2027 23:54:51.295   05 Jun 2027 23:55:09.613            18.318                Norilsk           572.437
       340   05 Jun 2027 23:55:33.424   05 Jun 2027 23:56:22.988            49.564                Norilsk          1548.875
       341   05 Jun 2027 23:56:44.533   05 Jun 2027 23:57:01.025            16.492               Magadan1           515.375
       342   05 Jun 2027 23:57:10.074   05 Jun 2027 23:57:18.529             8.455               Magadan1           264.219
       343   05 Jun 2027 23:58:12.814   05 Jun 2027 23:58:38.315            25.501               Magadan2           796.906
       344   05 Jun 2027 23:58:38.315   05 Jun 2027 23:58:53.847            15.532               Magadan1           485.375
       345   05 Jun 2027 23:59:51.058   06 Jun 2027 00:00:43.698            52.640                Irkutsk          1645.000
       346   06 Jun 2027 00:01:48.280   06 Jun 2027 00:02:51.173            62.893                Irkutsk          1965.406
       347   06 Jun 2027 00:14:27.921   06 Jun 2027 00:16:44.769           136.848                Sumatra          4276.500
       348   06 Jun 2027 00:45:18.596   06 Jun 2027 00:46:05.539            46.943            RioGallegos          1466.969
       349   06 Jun 2027 00:50:17.321   06 Jun 2027 00:50:20.373             3.052            RioGallegos            95.375
       350   06 Jun 2027 00:52:08.493   06 Jun 2027 00:52:19.037            10.544            RioGallegos           329.500
       351   06 Jun 2027 00:53:41.276   06 Jun 2027 00:53:57.891            16.615            RioGallegos           519.219
       352   06 Jun 2027 00:56:29.150   06 Jun 2027 00:56:42.179            13.029            RioGallegos           407.156
       353   06 Jun 2027 00:56:50.422   06 Jun 2027 00:57:27.774            37.352            RioGallegos          1167.250
       354   06 Jun 2027 01:26:39.255   06 Jun 2027 01:26:44.019             4.764                Anadyr2           148.875
       355   06 Jun 2027 01:26:55.248   06 Jun 2027 01:27:20.797            25.549                Anadyr1           798.406
       356   06 Jun 2027 01:28:08.677   06 Jun 2027 01:28:27.448            18.771                Anadyr2           586.594
       357   06 Jun 2027 01:29:05.944   06 Jun 2027 01:29:55.775            49.831                Norilsk          1557.219
       358   06 Jun 2027 01:29:55.924   06 Jun 2027 01:31:54.996           119.072               Magadan2          3721.000
       359   06 Jun 2027 01:33:03.354   06 Jun 2027 01:33:04.342             0.988               Magadan2            30.875
       360   06 Jun 2027 01:33:04.656   06 Jun 2027 01:36:02.370           177.714                Irkutsk          5553.562
       361   06 Jun 2027 01:46:49.940   06 Jun 2027 01:48:38.261           108.321                Sumatra          3385.031
       362   06 Jun 2027 01:49:57.852   06 Jun 2027 01:51:12.217            74.365                Sumatra          2323.906
       363   06 Jun 2027 02:24:49.742   06 Jun 2027 02:25:09.759            20.017            RioGallegos           625.531
       364   06 Jun 2027 02:26:55.054   06 Jun 2027 02:27:23.937            28.883            RioGallegos           902.594
       365   06 Jun 2027 02:27:46.695   06 Jun 2027 02:28:00.480            13.785            RioGallegos           430.781
       366   06 Jun 2027 02:30:20.342   06 Jun 2027 02:30:42.756            22.414            RioGallegos           700.438
       367   06 Jun 2027 03:09:12.353   06 Jun 2027 03:11:16.457           124.104               Magadan2          3878.250
       368   06 Jun 2027 03:11:29.897   06 Jun 2027 03:11:48.589            18.692               Magadan2           584.125
       369   06 Jun 2027 03:12:55.965   06 Jun 2027 03:13:13.555            17.590                Irkutsk           549.688
       370   06 Jun 2027 03:13:43.830   06 Jun 2027 03:15:09.074            85.244                Irkutsk          2663.875
       371   06 Jun 2027 03:15:54.700   06 Jun 2027 03:16:09.083            14.383                Novosib           449.469
       372   06 Jun 2027 03:16:20.018   06 Jun 2027 03:19:59.261           219.243                  Delhi          6851.344
       373   06 Jun 2027 03:20:15.087   06 Jun 2027 03:20:59.866            44.779                Irkutsk          1399.344
       374   06 Jun 2027 03:57:56.484   06 Jun 2027 04:02:43.471           286.987            RioGallegos          8968.344
       375   06 Jun 2027 04:49:03.470   06 Jun 2027 04:50:03.517            60.047                Novosib          1876.469
       376   06 Jun 2027 04:50:52.775   06 Jun 2027 04:51:36.540            43.765                Novosib          1367.656
       377   06 Jun 2027 04:52:15.687   06 Jun 2027 04:53:09.214            53.527                 Moscow          1672.719
       378   06 Jun 2027 04:53:26.850   06 Jun 2027 04:59:58.702           391.852                  Delhi         12245.375
       379   06 Jun 2027 06:26:03.912   06 Jun 2027 06:26:12.790             8.878                Norilsk           277.438
       380   06 Jun 2027 06:26:17.651   06 Jun 2027 06:26:56.699            39.048                Norilsk          1220.250
       381   06 Jun 2027 06:27:00.055   06 Jun 2027 06:27:35.944            35.889                Norilsk          1121.531
       382   06 Jun 2027 06:27:41.346   06 Jun 2027 06:28:15.614            34.268              Murmansk1          1070.875
       383   06 Jun 2027 06:28:25.504   06 Jun 2027 06:28:59.816            34.312                 Moscow          1072.250
       384   06 Jun 2027 06:29:06.472   06 Jun 2027 06:29:32.126            25.654              Murmansk2           801.687
       385   06 Jun 2027 06:29:37.261   06 Jun 2027 06:30:11.291            34.030              Murmansk2          1063.438
       386   06 Jun 2027 06:30:40.017   06 Jun 2027 06:31:07.304            27.287                 Moscow           852.719
       387   06 Jun 2027 06:33:21.141   06 Jun 2027 06:34:10.209            49.068                 Moscow          1533.375
       388   06 Jun 2027 06:46:21.907   06 Jun 2027 06:47:26.329            64.422               CapeTown          2013.187
       389   06 Jun 2027 07:49:38.426   06 Jun 2027 07:50:19.950            41.524                Anadyr1          1297.625
       390   06 Jun 2027 07:50:27.821   06 Jun 2027 07:51:22.123            54.302                Anadyr1          1696.938
       391   06 Jun 2027 08:04:28.290   06 Jun 2027 08:05:18.346            50.056                 Moscow          1564.250
       392   06 Jun 2027 08:31:24.617   06 Jun 2027 08:32:58.376            93.759               CapeTown          2929.969
       393   06 Jun 2027 09:25:35.178   06 Jun 2027 09:25:43.722             8.544               Magadan1           267.000
       394   06 Jun 2027 09:25:57.254   06 Jun 2027 09:26:44.544            47.290               Magadan1          1477.813
       395   06 Jun 2027 09:26:48.022   06 Jun 2027 09:27:54.637            66.615                Anadyr1          2081.719
       396   06 Jun 2027 09:28:02.963   06 Jun 2027 09:28:18.406            15.443               Magadan2           482.594
       397   06 Jun 2027 09:28:18.406   06 Jun 2027 09:28:22.023             3.617               Magadan1           113.031
       398   06 Jun 2027 09:29:35.847   06 Jun 2027 09:29:46.514            10.667               Magadan1           333.344
       399   06 Jun 2027 09:31:03.477   06 Jun 2027 09:31:21.739            18.262               Magadan1           570.687
       400   06 Jun 2027 10:10:06.226   06 Jun 2027 10:10:43.518            37.292            RioGallegos          1165.375
       401   06 Jun 2027 10:58:48.935   06 Jun 2027 11:00:27.904            98.969               Magadan1          3092.781
       402   06 Jun 2027 11:00:43.987   06 Jun 2027 11:03:36.162           172.175                Anadyr1          5380.469
       403   06 Jun 2027 11:04:45.654   06 Jun 2027 11:05:08.684            23.030                Norilsk           719.688
       404   06 Jun 2027 11:05:24.524   06 Jun 2027 11:07:21.913           117.389               Magadan2          3668.406
       405   06 Jun 2027 12:19:49.299   06 Jun 2027 12:21:40.401           111.102                Sumatra          3471.937
       406   06 Jun 2027 12:30:32.038   06 Jun 2027 12:31:52.874            80.836                Irkutsk          2526.125
       407   06 Jun 2027 12:36:38.174   06 Jun 2027 12:41:21.258           283.084               Magadan1          8846.375
       408   06 Jun 2027 13:55:56.156   06 Jun 2027 13:57:23.762            87.606                Sumatra          2737.687
       409   06 Jun 2027 13:59:14.208   06 Jun 2027 14:01:37.664           143.456                Sumatra          4483.000
       410   06 Jun 2027 14:12:39.534   06 Jun 2027 14:12:40.639             1.105                Irkutsk            34.531
       411   06 Jun 2027 14:15:47.901   06 Jun 2027 14:17:22.673            94.772                Irkutsk          2961.625
       412   06 Jun 2027 14:59:54.980   06 Jun 2027 15:03:29.395           214.415            RioGallegos          6700.469
       413   06 Jun 2027 15:45:32.797   06 Jun 2027 15:47:12.205            99.408                  Delhi          3106.500
       414   06 Jun 2027 15:50:11.906   06 Jun 2027 15:50:48.559            36.653                Novosib          1145.406
       415   06 Jun 2027 15:53:06.300   06 Jun 2027 15:56:13.944           187.644                Novosib          5863.875
       416   06 Jun 2027 17:25:55.427   06 Jun 2027 17:26:27.369            31.942              Murmansk2           998.187
       417   06 Jun 2027 17:29:39.021   06 Jun 2027 17:32:17.830           158.809                Norilsk          4962.781
       418   06 Jun 2027 17:32:59.847   06 Jun 2027 17:33:31.103            31.256                Norilsk           976.750
       419   06 Jun 2027 17:34:40.904   06 Jun 2027 17:35:49.430            68.526                Norilsk          2141.438
       420   06 Jun 2027 18:59:18.770   06 Jun 2027 19:01:03.004           104.234                 Moscow          3257.313
       421   06 Jun 2027 19:02:15.196   06 Jun 2027 19:02:22.668             7.472              Murmansk1           233.500
       422   06 Jun 2027 19:02:42.772   06 Jun 2027 19:04:08.270            85.498              Murmansk2          2671.812
       423   06 Jun 2027 19:06:39.806   06 Jun 2027 19:08:02.269            82.463              Murmansk1          2576.969
       424   06 Jun 2027 20:11:03.723   06 Jun 2027 20:13:43.636           159.913               CapeTown          4997.281
       425   06 Jun 2027 20:41:57.322   06 Jun 2027 20:44:21.967           144.645              Murmansk1          4520.156
       426   06 Jun 2027 20:44:41.078   06 Jun 2027 20:47:56.619           195.541              Murmansk2          6110.656
       427   06 Jun 2027 20:47:57.143   06 Jun 2027 20:49:26.414            89.271              Murmansk1          2789.719
       428   06 Jun 2027 22:27:25.447   06 Jun 2027 22:27:35.161             9.714                Anadyr1           303.563
       429   06 Jun 2027 22:27:35.161   06 Jun 2027 22:29:20.398           105.237                Anadyr2          3288.656
       430   06 Jun 2027 22:29:43.407   06 Jun 2027 22:31:06.893            83.486               Magadan2          2608.937
       431   06 Jun 2027 22:31:06.893   06 Jun 2027 22:32:39.322            92.429               Magadan1          2888.406
       432   06 Jun 2027 22:32:46.017   06 Jun 2027 22:32:57.800            11.783               Magadan2           368.219
       433   06 Jun 2027 22:33:07.257   06 Jun 2027 22:33:27.187            19.930               Magadan2           622.812
       434   06 Jun 2027 22:38:16.348   06 Jun 2027 22:38:58.207            41.859               Magadan1          1308.094
       435   06 Jun 2027 23:23:35.485   06 Jun 2027 23:26:10.327           154.842            RioGallegos          4838.812
       436   07 Jun 2027 00:03:15.476   07 Jun 2027 00:04:45.414            89.938                Anadyr1          2810.563
       437   07 Jun 2027 00:04:48.599   07 Jun 2027 00:05:16.119            27.520                Anadyr2           860.000
       438   07 Jun 2027 00:05:20.825   07 Jun 2027 00:06:53.231            92.406                Norilsk          2887.688
       439   07 Jun 2027 00:07:37.846   07 Jun 2027 00:07:57.026            19.180               Magadan1           599.375
       440   07 Jun 2027 00:08:22.664   07 Jun 2027 00:08:36.458            13.794                Norilsk           431.063
       441   07 Jun 2027 00:08:38.197   07 Jun 2027 00:08:49.863            11.666               Magadan2           364.562
       442   07 Jun 2027 00:09:03.652   07 Jun 2027 00:09:09.895             6.243               Magadan2           195.094
       443   07 Jun 2027 00:09:09.895   07 Jun 2027 00:09:20.895            11.000               Magadan1           343.750
       444   07 Jun 2027 00:10:06.496   07 Jun 2027 00:10:36.076            29.580               Magadan2           924.375
       445   07 Jun 2027 00:11:06.199   07 Jun 2027 00:11:49.922            43.723                Irkutsk          1366.344
       446   07 Jun 2027 00:12:48.671   07 Jun 2027 00:13:33.780            45.109                Irkutsk          1409.656
       447   07 Jun 2027 00:15:50.023   07 Jun 2027 00:18:05.061           135.038                Irkutsk          4219.938
       448   07 Jun 2027 00:25:18.637   07 Jun 2027 00:27:14.394           115.757                Sumatra          3617.406
       449   07 Jun 2027 01:06:59.440   07 Jun 2027 01:08:09.302            69.862            RioGallegos          2183.188
       450   07 Jun 2027 01:38:32.989   07 Jun 2027 01:38:44.330            11.341                Anadyr1           354.406
       451   07 Jun 2027 01:40:40.630   07 Jun 2027 01:41:05.834            25.204                Anadyr1           787.625
       452   07 Jun 2027 01:41:07.998   07 Jun 2027 01:42:50.182           102.184                Norilsk          3193.250
       453   07 Jun 2027 01:45:00.822   07 Jun 2027 01:45:27.010            26.188               Magadan2           818.375
       454   07 Jun 2027 01:45:43.495   07 Jun 2027 01:47:02.124            78.629                Novosib          2457.156
       455   07 Jun 2027 01:48:11.557   07 Jun 2027 01:48:56.902            45.345                Novosib          1417.031
       456   07 Jun 2027 01:50:06.748   07 Jun 2027 01:50:50.234            43.486                Novosib          1358.937
       457   07 Jun 2027 01:52:37.283   07 Jun 2027 01:52:45.250             7.967                Irkutsk           248.969
       458   07 Jun 2027 01:54:10.511   07 Jun 2027 01:54:28.305            17.794                Novosib           556.062
       459   07 Jun 2027 01:55:45.907   07 Jun 2027 01:56:28.654            42.747                  Delhi          1335.844
       460   07 Jun 2027 01:58:57.257   07 Jun 2027 01:58:58.909             1.652                Sumatra            51.625
       461   07 Jun 2027 02:01:53.002   07 Jun 2027 02:03:37.548           104.546                Sumatra          3267.062
       462   07 Jun 2027 02:07:10.158   07 Jun 2027 02:08:41.617            91.459                Sumatra          2858.094
       463   07 Jun 2027 03:21:24.382   07 Jun 2027 03:21:29.348             4.966               Magadan1           155.187
       464   07 Jun 2027 03:21:29.348   07 Jun 2027 03:23:15.704           106.356               Magadan2          3323.625
       465   07 Jun 2027 03:23:49.496   07 Jun 2027 03:25:22.029            92.533                Irkutsk          2891.656
       466   07 Jun 2027 03:25:31.982   07 Jun 2027 03:26:19.973            47.991                Irkutsk          1499.719
       467   07 Jun 2027 03:29:03.451   07 Jun 2027 03:35:13.933           370.482                  Delhi         11577.563
       468   07 Jun 2027 04:10:14.013   07 Jun 2027 04:10:29.753            15.740            RioGallegos           491.875
       469   07 Jun 2027 04:14:38.849   07 Jun 2027 04:15:27.879            49.030            RioGallegos          1532.188
       470   07 Jun 2027 04:58:34.618   07 Jun 2027 05:00:46.973           132.355                Irkutsk          4136.094
       471   07 Jun 2027 05:01:42.643   07 Jun 2027 05:02:05.838            23.195                Irkutsk           724.844
       472   07 Jun 2027 05:03:07.710   07 Jun 2027 05:03:49.866            42.156                Irkutsk          1317.375
       473   07 Jun 2027 05:04:17.197   07 Jun 2027 05:04:26.345             9.148                 Moscow           285.875
       474   07 Jun 2027 05:04:43.267   07 Jun 2027 05:04:47.859             4.592                 Moscow           143.500
       475   07 Jun 2027 05:05:14.986   07 Jun 2027 05:05:26.635            11.649                Novosib           364.031
       476   07 Jun 2027 05:06:05.427   07 Jun 2027 05:13:29.125           443.698                  Delhi         13865.563
       477   07 Jun 2027 06:38:29.714   07 Jun 2027 06:38:30.699             0.985                Novosib            30.781
       478   07 Jun 2027 06:39:12.685   07 Jun 2027 06:39:41.610            28.925                Novosib           903.906
       479   07 Jun 2027 06:40:12.456   07 Jun 2027 06:40:36.916            24.460              Murmansk1           764.375
       480   07 Jun 2027 06:40:43.477   07 Jun 2027 06:41:21.557            38.080              Murmansk2          1190.000
       481   07 Jun 2027 06:41:24.393   07 Jun 2027 06:42:22.423            58.030              Murmansk2          1813.437
       482   07 Jun 2027 06:58:21.604   07 Jun 2027 06:58:52.268            30.664               CapeTown           958.250
