uniorb/output/strategy_4/Drop/Drop_KinoSat_110107.txt

KinoSat_110107
-------------------------
    Access    *     Start Time (UTCG)     *     Stop Time (UTCG)  *   Duration (s)        *       Station  *  Data (Mbytes)
         1   01 Jun 2027 03:49:58.094   01 Jun 2027 03:50:30.260            32.166                Norilsk          4020.750
         2   01 Jun 2027 03:50:57.056   01 Jun 2027 03:51:21.780            24.724              Murmansk1          3090.500
         3   01 Jun 2027 03:51:21.780   01 Jun 2027 03:51:59.529            37.749              Murmansk2          4718.625
         4   01 Jun 2027 03:52:19.985   01 Jun 2027 03:54:07.391           107.406                Irkutsk         13425.750
         5   01 Jun 2027 03:54:21.726   01 Jun 2027 03:54:43.530            21.804                Norilsk          2725.500
         6   01 Jun 2027 04:30:32.994   01 Jun 2027 04:31:34.232            61.238            RioGallegos          7654.750
         7   01 Jun 2027 04:32:25.036   01 Jun 2027 04:33:42.068            77.032            RioGallegos          9629.000
         8   01 Jun 2027 05:05:53.068   01 Jun 2027 05:08:34.188           161.120                Sumatra         20140.000
         9   01 Jun 2027 05:28:20.883   01 Jun 2027 05:28:37.598            16.715                Novosib          2089.375
        10   01 Jun 2027 05:29:15.250   01 Jun 2027 05:30:18.874            63.624                Norilsk          7953.000
        11   01 Jun 2027 05:30:28.346   01 Jun 2027 05:31:32.411            64.065              Murmansk2          8008.125
        12   01 Jun 2027 05:33:55.483   01 Jun 2027 05:34:34.471            38.988                Norilsk          4873.500
        13   01 Jun 2027 06:49:56.985   01 Jun 2027 06:51:09.078            72.093                  Delhi          9011.625
        14   01 Jun 2027 07:03:34.756   01 Jun 2027 07:04:11.887            37.131                Norilsk          4641.375
        15   01 Jun 2027 07:04:19.346   01 Jun 2027 07:04:43.844            24.498              Murmansk2          3062.250
        16   01 Jun 2027 07:04:54.269   01 Jun 2027 07:05:07.933            13.664                 Moscow          1708.000
        17   01 Jun 2027 07:05:18.531   01 Jun 2027 07:06:13.428            54.897                Novosib          6862.125
        18   01 Jun 2027 07:06:37.331   01 Jun 2027 07:07:02.863            25.532                Norilsk          3191.500
        19   01 Jun 2027 09:45:56.858   01 Jun 2027 09:48:33.319           156.461               CapeTown         19557.625
        20   01 Jun 2027 12:05:01.008   01 Jun 2027 12:09:06.662           245.654               Magadan1         30706.750
        21   01 Jun 2027 13:40:36.288   01 Jun 2027 13:40:50.010            13.722               Magadan1          1715.250
        22   01 Jun 2027 13:43:55.336   01 Jun 2027 13:45:23.512            88.176               Magadan2         11022.000
        23   01 Jun 2027 15:21:31.015   01 Jun 2027 15:25:55.338           264.323                Irkutsk         33040.375
        24   01 Jun 2027 15:34:19.351   01 Jun 2027 15:36:35.182           135.831                Sumatra         16978.875
        25   01 Jun 2027 15:39:31.340   01 Jun 2027 15:40:44.872            73.532                Sumatra          9191.500
        26   01 Jun 2027 17:01:22.591   01 Jun 2027 17:03:50.962           148.371                Novosib         18546.375
        27   01 Jun 2027 17:05:06.295   01 Jun 2027 17:11:07.537           361.242                  Delhi         22871.500
        28   02 Jun 2027 04:06:04.036   02 Jun 2027 04:06:11.340             7.304                Irkutsk           913.000
        29   02 Jun 2027 04:06:20.832   02 Jun 2027 04:06:47.302            26.470                Novosib          3308.750
        30   02 Jun 2027 05:17:23.424   02 Jun 2027 05:18:51.245            87.821                Sumatra         10977.625
        31   02 Jun 2027 05:24:05.477   02 Jun 2027 05:24:10.542             5.065                  Delhi           633.125
        32   02 Jun 2027 05:28:03.063   02 Jun 2027 05:29:31.252            88.189                  Delhi         11023.625
        33   02 Jun 2027 05:41:36.426   02 Jun 2027 05:42:42.447            66.021              Murmansk1          8252.625
        34   02 Jun 2027 05:42:43.432   02 Jun 2027 05:43:36.641            53.209                Novosib          6651.125
        35   02 Jun 2027 05:43:41.758   02 Jun 2027 05:44:58.876            77.118                 Moscow          9639.750
        36   02 Jun 2027 05:45:04.386   02 Jun 2027 05:49:01.611           237.225              Murmansk2         29653.125
        37   02 Jun 2027 07:08:41.337   02 Jun 2027 07:09:37.711            56.374                 Moscow          7046.750
        38   02 Jun 2027 07:11:28.887   02 Jun 2027 07:13:03.206            94.319                Novosib         11789.875
        39   02 Jun 2027 07:17:29.942   02 Jun 2027 07:17:44.070            14.128                Novosib          1766.000
        40   02 Jun 2027 07:18:51.834   02 Jun 2027 07:21:20.198           148.364                 Moscow         18545.500
        41   02 Jun 2027 07:21:29.023   02 Jun 2027 07:24:50.289           201.266              Murmansk1         25158.250
        42   02 Jun 2027 08:24:47.194   02 Jun 2027 08:31:16.261           389.067               CapeTown         48633.375
        43   02 Jun 2027 08:47:39.958   02 Jun 2027 08:48:04.682            24.724                 Moscow          3090.500
        44   02 Jun 2027 08:51:12.534   02 Jun 2027 08:53:28.940           136.406              Murmansk2         17050.750
        45   02 Jun 2027 08:53:39.551   02 Jun 2027 08:54:47.320            67.769                 Moscow          8471.125
        46   02 Jun 2027 08:55:55.636   02 Jun 2027 09:00:48.343           292.707              Murmansk1         36588.375
        47   02 Jun 2027 09:03:23.965   02 Jun 2027 09:04:35.487            71.522                Anadyr1          8940.250
        48   02 Jun 2027 10:38:34.418   02 Jun 2027 10:39:06.048            31.630                Anadyr1          3953.750
        49   02 Jun 2027 12:16:56.820   02 Jun 2027 12:18:29.207            92.387               Magadan1         11548.375
        50   02 Jun 2027 12:21:52.197   02 Jun 2027 12:22:03.727            11.530               Magadan1          1441.250
        51   02 Jun 2027 12:22:53.074   02 Jun 2027 12:23:06.326            13.252               Magadan1          1656.500
        52   02 Jun 2027 12:24:16.040   02 Jun 2027 12:25:53.386            97.346               Magadan2         12168.250
        53   02 Jun 2027 13:52:37.526   02 Jun 2027 13:54:57.965           140.439               Magadan2         17554.875
        54   02 Jun 2027 14:47:50.029   02 Jun 2027 14:48:48.613            58.584            RioGallegos          7323.000
        55   02 Jun 2027 15:32:21.175   02 Jun 2027 15:34:50.580           149.405                Irkutsk         18675.625
        56   02 Jun 2027 15:41:51.669   02 Jun 2027 15:43:44.038           112.369                Irkutsk         14046.125
        57   02 Jun 2027 15:46:05.165   02 Jun 2027 15:48:51.161           165.996                Sumatra         20749.500
        58   02 Jun 2027 17:08:07.841   02 Jun 2027 17:10:35.215           147.374                Novosib         18421.750
        59   02 Jun 2027 17:15:52.873   02 Jun 2027 17:22:08.699           375.826                  Delhi         46978.250
        60   02 Jun 2027 20:21:36.520   02 Jun 2027 20:22:42.429            65.909                 Moscow          8238.625
        61   02 Jun 2027 20:31:07.028   02 Jun 2027 20:31:09.606             2.578                 Moscow           322.250
        62   02 Jun 2027 21:57:28.303   02 Jun 2027 21:58:32.369            64.066                 Moscow          3776.875
        63   03 Jun 2027 05:30:21.234   03 Jun 2027 05:30:52.546            31.312                Sumatra          3914.000
        64   03 Jun 2027 05:36:04.549   03 Jun 2027 05:39:17.139           192.590                  Delhi         24073.750
        65   03 Jun 2027 05:43:48.552   03 Jun 2027 05:45:42.147           113.595                  Delhi         14199.375
        66   03 Jun 2027 05:54:01.516   03 Jun 2027 05:55:33.387            91.871                Novosib         11483.875
        67   03 Jun 2027 05:56:02.149   03 Jun 2027 05:57:05.334            63.185                 Moscow          7898.125
        68   03 Jun 2027 05:57:07.409   03 Jun 2027 06:01:01.037           233.628              Murmansk1         29203.500
        69   03 Jun 2027 07:20:35.175   03 Jun 2027 07:21:09.940            34.765                 Moscow          4345.625
        70   03 Jun 2027 07:29:33.402   03 Jun 2027 07:30:03.506            30.104              Murmansk1          3763.000
        71   03 Jun 2027 07:31:48.208   03 Jun 2027 07:33:22.493            94.285                 Moscow         11785.625
        72   03 Jun 2027 07:33:28.377   03 Jun 2027 07:36:51.710           203.333              Murmansk1         25416.625
        73   03 Jun 2027 08:35:55.740   03 Jun 2027 08:44:23.401           507.661               CapeTown         63457.625
        74   03 Jun 2027 09:03:14.166   03 Jun 2027 09:06:08.270           174.104              Murmansk1         21763.000
        75   03 Jun 2027 09:06:35.313   03 Jun 2027 09:07:50.178            74.865                 Moscow          9358.125
        76   03 Jun 2027 09:07:57.336   03 Jun 2027 09:09:43.237           105.901              Murmansk2         13237.625
        77   03 Jun 2027 09:09:43.237   03 Jun 2027 09:11:51.404           128.167              Murmansk1         16020.875
        78   03 Jun 2027 09:12:46.809   03 Jun 2027 09:12:49.901             3.092              Murmansk2           386.500
        79   03 Jun 2027 09:15:13.328   03 Jun 2027 09:23:33.616           500.288                Anadyr1         62536.000
        80   03 Jun 2027 10:17:33.566   03 Jun 2027 10:19:31.566           118.000               CapeTown         14750.000
        81   03 Jun 2027 10:50:34.280   03 Jun 2027 10:50:58.587            24.307                Anadyr2          3038.375
        82   03 Jun 2027 10:52:48.951   03 Jun 2027 10:53:01.809            12.858                Anadyr1          1607.250
        83   03 Jun 2027 12:28:53.815   03 Jun 2027 12:33:55.908           302.093               Magadan1         37761.625
        84   03 Jun 2027 12:34:27.748   03 Jun 2027 12:38:26.616           238.868               Magadan2         29858.500
        85   03 Jun 2027 15:00:51.530   03 Jun 2027 15:02:07.003            75.473            RioGallegos          9434.125
        86   03 Jun 2027 15:57:57.112   03 Jun 2027 16:02:18.516           261.404                Sumatra         32675.500
        87   03 Jun 2027 17:20:05.338   03 Jun 2027 17:21:07.702            62.364                Novosib          7795.500
        88   03 Jun 2027 17:27:39.300   03 Jun 2027 17:33:30.171           350.871                  Delhi         43858.875
        89   03 Jun 2027 20:33:34.837   03 Jun 2027 20:35:35.718           120.881                 Moscow         15110.125
        90   03 Jun 2027 22:10:58.691   03 Jun 2027 22:11:35.368            36.677              Murmansk1          4584.625
        91   03 Jun 2027 22:16:57.220   03 Jun 2027 22:17:02.106             4.886                 Moscow           497.250
        92   04 Jun 2027 04:30:25.160   04 Jun 2027 04:31:07.802            42.642                Norilsk          5330.250
        93   04 Jun 2027 05:44:11.827   04 Jun 2027 05:45:01.569            49.742                Sumatra          6217.750
        94   04 Jun 2027 05:46:44.381   04 Jun 2027 05:47:16.391            32.010                Sumatra          4001.250
        95   04 Jun 2027 05:48:08.980   04 Jun 2027 05:49:38.602            89.622                  Delhi         11202.750
        96   04 Jun 2027 05:53:01.072   04 Jun 2027 05:55:57.630           176.558                  Delhi         22069.750
        97   04 Jun 2027 06:06:02.474   04 Jun 2027 06:06:46.442            43.968              Murmansk2          5496.000
        98   04 Jun 2027 06:06:48.110   04 Jun 2027 06:09:11.155           143.045                 Moscow         17880.625
        99   04 Jun 2027 06:09:24.118   04 Jun 2027 06:13:00.824           216.706              Murmansk1         27088.250
       100   04 Jun 2027 07:32:31.754   04 Jun 2027 07:32:49.496            17.742                 Moscow          2217.750
       101   04 Jun 2027 07:43:12.506   04 Jun 2027 07:45:24.255           131.749                 Moscow         16468.625
       102   04 Jun 2027 07:45:28.090   04 Jun 2027 07:48:53.242           205.152              Murmansk2         25644.000
       103   04 Jun 2027 08:47:21.388   04 Jun 2027 08:57:11.116           589.728               CapeTown         73716.000
       104   04 Jun 2027 09:11:43.559   04 Jun 2027 09:11:59.376            15.817                 Moscow          1977.125
       105   04 Jun 2027 09:15:15.700   04 Jun 2027 09:16:31.325            75.625              Murmansk2          9453.125
       106   04 Jun 2027 09:16:31.325   04 Jun 2027 09:18:00.199            88.874              Murmansk1         11109.250
       107   04 Jun 2027 09:19:59.037   04 Jun 2027 09:22:01.602           122.565              Murmansk2         15320.625
       108   04 Jun 2027 09:22:01.602   04 Jun 2027 09:23:41.306            99.704              Murmansk1         12463.000
       109   04 Jun 2027 09:24:48.395   04 Jun 2027 09:24:51.330             2.935              Murmansk2           366.875
       110   04 Jun 2027 09:27:05.656   04 Jun 2027 09:36:12.550           546.894                Anadyr2         68361.750
       111   04 Jun 2027 10:25:50.250   04 Jun 2027 10:29:22.851           212.601               CapeTown         26575.125
       112   04 Jun 2027 11:02:42.726   04 Jun 2027 11:02:53.144            10.418                Anadyr2          1302.250
       113   04 Jun 2027 11:05:17.143   04 Jun 2027 11:05:26.947             9.804                Anadyr1          1225.500
       114   04 Jun 2027 12:40:51.769   04 Jun 2027 12:41:55.361            63.592               Magadan1          7949.000
       115   04 Jun 2027 12:43:21.021   04 Jun 2027 12:45:43.993           142.972               Magadan2         17871.500
       116   04 Jun 2027 12:45:43.993   04 Jun 2027 12:46:59.033            75.040               Magadan1          9380.000
       117   04 Jun 2027 15:08:29.409   04 Jun 2027 15:11:13.618           164.209            RioGallegos         20526.125
       118   04 Jun 2027 15:13:39.598   04 Jun 2027 15:13:49.203             9.605            RioGallegos          1200.625
       119   04 Jun 2027 15:17:59.602   04 Jun 2027 15:20:00.884           121.282            RioGallegos         15160.250
       120   04 Jun 2027 16:02:43.036   04 Jun 2027 16:05:43.317           180.281                Irkutsk         22535.125
       121   04 Jun 2027 16:20:28.244   04 Jun 2027 16:21:37.263            69.019                Sumatra          8627.375
       122   04 Jun 2027 17:32:03.853   04 Jun 2027 17:32:20.384            16.531                Novosib          2066.375
       123   04 Jun 2027 17:34:26.266   04 Jun 2027 17:37:00.496           154.230                Novosib         19278.750
       124   04 Jun 2027 17:39:30.224   04 Jun 2027 17:43:49.418           259.194                  Delhi         32399.250
       125   04 Jun 2027 20:42:18.586   04 Jun 2027 20:42:19.876             1.290              Murmansk2           161.250
       126   04 Jun 2027 20:45:34.054   04 Jun 2027 20:46:12.918            38.864                 Moscow          4858.000
       127   04 Jun 2027 20:46:26.162   04 Jun 2027 20:46:56.218            30.056              Murmansk2          3757.000
       128   04 Jun 2027 20:48:42.686   04 Jun 2027 20:50:28.080           105.394                 Moscow          9954.749
       129   05 Jun 2027 03:06:23.720   05 Jun 2027 03:06:58.269            34.549              Murmansk1          4318.625
       130   05 Jun 2027 04:15:55.676   05 Jun 2027 04:18:18.319           142.643                Sumatra         17830.375
       131   05 Jun 2027 04:32:48.495   05 Jun 2027 04:33:53.484            64.989                Irkutsk          8123.625
       132   05 Jun 2027 04:41:27.829   05 Jun 2027 04:41:42.115            14.286                Novosib          1785.750
       133   05 Jun 2027 04:42:26.145   05 Jun 2027 04:49:26.219           420.074              Murmansk1         52509.250
       134   05 Jun 2027 06:00:19.044   05 Jun 2027 06:12:38.932           739.888                  Delhi         92486.000
       135   05 Jun 2027 06:12:48.283   05 Jun 2027 06:13:10.235            21.952                 Moscow          2744.000
       136   05 Jun 2027 06:17:59.199   05 Jun 2027 06:18:33.524            34.325                Novosib          4290.625
       137   05 Jun 2027 06:18:33.757   05 Jun 2027 06:21:16.408           162.651                 Moscow         20331.375
       138   05 Jun 2027 06:21:54.473   05 Jun 2027 06:25:00.939           186.466              Murmansk2         23308.250
       139   05 Jun 2027 07:47:50.041   05 Jun 2027 07:50:32.736           162.695                 Moscow         20336.875
       140   05 Jun 2027 07:53:53.585   05 Jun 2027 07:54:38.354            44.769              Murmansk1          5596.125
       141   05 Jun 2027 07:54:38.797   05 Jun 2027 07:57:25.432           166.635                 Moscow         20829.375
       142   05 Jun 2027 07:57:42.173   05 Jun 2027 08:00:54.867           192.694              Murmansk2         24086.750
       143   05 Jun 2027 09:00:47.953   05 Jun 2027 09:09:46.810           538.857               CapeTown         67357.125
       144   05 Jun 2027 09:27:17.097   05 Jun 2027 09:28:27.203            70.106              Murmansk2          8763.250
       145   05 Jun 2027 09:28:27.203   05 Jun 2027 09:28:49.149            21.946              Murmansk1          2743.250
       146   05 Jun 2027 09:29:06.575   05 Jun 2027 09:29:55.606            49.031                 Moscow          6128.875
       147   05 Jun 2027 09:32:00.710   05 Jun 2027 09:34:05.503           124.793              Murmansk1         15599.125
       148   05 Jun 2027 09:34:05.503   05 Jun 2027 09:36:00.051           114.548              Murmansk2         14318.500
       149   05 Jun 2027 09:36:50.041   05 Jun 2027 09:36:52.574             2.533              Murmansk1           316.625
       150   05 Jun 2027 09:39:00.071   05 Jun 2027 09:40:07.747            67.676                Anadyr1          8459.500
       151   05 Jun 2027 11:22:44.483   05 Jun 2027 11:24:10.243            85.760                Anadyr2         10720.000
       152   05 Jun 2027 12:52:50.516   05 Jun 2027 12:53:31.294            40.778               Magadan1          5097.250
       153   05 Jun 2027 12:54:56.063   05 Jun 2027 12:59:25.610           269.547               Magadan2         33693.375
       154   05 Jun 2027 15:20:24.187   05 Jun 2027 15:22:17.730           113.543            RioGallegos         14192.875
       155   05 Jun 2027 15:22:51.856   05 Jun 2027 15:25:35.933           164.077            RioGallegos         20509.625
       156   05 Jun 2027 16:13:10.249   05 Jun 2027 16:15:08.973           118.724                Irkutsk         14840.500
       157   05 Jun 2027 16:21:57.999   05 Jun 2027 16:23:53.117           115.118                Sumatra         14389.750
       158   05 Jun 2027 17:47:13.621   05 Jun 2027 17:47:44.724            31.103                Novosib          3887.875
       159   05 Jun 2027 17:48:56.621   05 Jun 2027 17:50:25.651            89.030                Novosib         11128.750
       160   05 Jun 2027 17:51:25.012   05 Jun 2027 17:54:10.393           165.381                  Delhi         20672.625
       161   05 Jun 2027 18:00:57.009   05 Jun 2027 18:00:57.881             0.872                  Delhi           109.000
       162   05 Jun 2027 19:28:43.815   05 Jun 2027 19:29:09.815            26.000                  Delhi          3250.000
       163   05 Jun 2027 20:55:13.783   05 Jun 2027 20:55:42.047            28.264              Murmansk2          3533.000
       164   05 Jun 2027 20:57:34.062   05 Jun 2027 21:00:49.584           195.522                 Moscow         24440.250
       165   06 Jun 2027 02:54:58.729   06 Jun 2027 02:56:13.292            74.563                Sumatra          8084.875
       166   06 Jun 2027 03:18:31.168   06 Jun 2027 03:19:46.678            75.510                Novosib          9438.750
       167   06 Jun 2027 03:19:58.690   06 Jun 2027 03:22:15.975           137.285                Norilsk         17160.625
       168   06 Jun 2027 04:28:01.765   06 Jun 2027 04:29:31.890            90.125                Sumatra         11265.625
       169   06 Jun 2027 04:30:59.449   06 Jun 2027 04:32:49.677           110.228                Sumatra         13778.500
       170   06 Jun 2027 04:54:13.959   06 Jun 2027 04:54:29.659            15.700              Murmansk1          1962.500
       171   06 Jun 2027 04:54:37.135   06 Jun 2027 04:55:54.846            77.711                Novosib          9713.875
       172   06 Jun 2027 04:56:00.877   06 Jun 2027 04:56:38.590            37.713                 Moscow          4714.125
       173   06 Jun 2027 04:56:52.346   06 Jun 2027 05:01:23.250           270.904              Murmansk2         33863.000
       174   06 Jun 2027 06:15:02.356   06 Jun 2027 06:16:52.779           110.423                  Delhi         13802.875
       175   06 Jun 2027 06:20:05.466   06 Jun 2027 06:24:26.845           261.379                  Delhi         32672.375
       176   06 Jun 2027 06:24:32.387   06 Jun 2027 06:25:08.527            36.140                 Moscow          4517.500
       177   06 Jun 2027 06:30:11.291   06 Jun 2027 06:30:49.989            38.698              Murmansk2          4837.250
       178   06 Jun 2027 06:31:07.304   06 Jun 2027 06:33:21.141           133.837                 Moscow         16729.625
       179   06 Jun 2027 06:33:51.342   06 Jun 2027 06:37:01.349           190.007              Murmansk1         23750.875
       180   06 Jun 2027 07:59:51.092   06 Jun 2027 08:00:22.211            31.119                 Moscow          3889.875
       181   06 Jun 2027 08:05:15.350   06 Jun 2027 08:06:37.862            82.512              Murmansk1         10314.000
       182   06 Jun 2027 08:06:43.752   06 Jun 2027 08:09:25.962           162.210                 Moscow         20276.250
       183   06 Jun 2027 08:09:29.545   06 Jun 2027 08:12:56.556           207.011              Murmansk1         25876.375
       184   06 Jun 2027 09:14:37.877   06 Jun 2027 09:22:13.661           455.784               CapeTown         56973.000
       185   06 Jun 2027 09:39:40.732   06 Jun 2027 09:42:52.387           191.655              Murmansk2         23956.875
       186   06 Jun 2027 09:44:02.322   06 Jun 2027 09:47:56.135           233.813              Murmansk2         29226.625
       187   06 Jun 2027 09:48:51.721   06 Jun 2027 09:48:53.590             1.869              Murmansk1           233.625
       188   06 Jun 2027 09:50:56.022   06 Jun 2027 09:59:55.770           539.748                Anadyr1         67468.500
       189   06 Jun 2027 13:04:49.938   06 Jun 2027 13:05:21.552            31.614               Magadan2          3951.750
       190   06 Jun 2027 13:07:49.244   06 Jun 2027 13:11:48.317           239.073               Magadan2         29884.125
       191   06 Jun 2027 15:00:31.053   06 Jun 2027 15:02:49.926           138.873                Sumatra         17359.125
       192   06 Jun 2027 15:32:20.589   06 Jun 2027 15:33:44.818            84.229            RioGallegos         10528.625
       193   06 Jun 2027 15:35:08.292   06 Jun 2027 15:37:25.954           137.662            RioGallegos         17207.750
       194   06 Jun 2027 16:25:05.182   06 Jun 2027 16:26:55.808           110.626                Irkutsk         13828.250
       195   06 Jun 2027 16:34:07.030   06 Jun 2027 16:35:13.857            66.827                Sumatra          8353.375
       196   06 Jun 2027 16:35:35.216   06 Jun 2027 16:36:54.222            79.006                  Delhi          9875.750
       197   06 Jun 2027 18:03:23.303   06 Jun 2027 18:05:17.965           114.662                  Delhi         14332.750
       198   06 Jun 2027 18:08:28.919   06 Jun 2027 18:10:49.262           140.343                  Delhi         17542.875
       199   06 Jun 2027 19:39:44.926   06 Jun 2027 19:39:58.344            13.418                 Moscow          1677.250
       200   06 Jun 2027 21:09:34.759   06 Jun 2027 21:09:56.291            21.532                 Moscow          2691.500
       201   06 Jun 2027 21:11:27.884   06 Jun 2027 21:12:53.449            85.565                 Moscow         10695.625
       202   06 Jun 2027 21:34:39.240   06 Jun 2027 21:35:12.499            33.259               CapeTown          4157.375
       203   06 Jun 2027 21:36:40.896   06 Jun 2027 21:38:28.911           108.015               CapeTown         13501.875
       204   07 Jun 2027 03:05:56.964   07 Jun 2027 03:09:41.262           224.298                Sumatra          6304.375
       205   07 Jun 2027 03:30:14.303   07 Jun 2027 03:31:57.151           102.848              Murmansk2         12856.000
       206   07 Jun 2027 04:40:13.880   07 Jun 2027 04:40:58.500            44.620                Sumatra          5577.500
       207   07 Jun 2027 04:42:08.990   07 Jun 2027 04:42:48.911            39.921                Sumatra          4990.125
       208   07 Jun 2027 04:44:18.392   07 Jun 2027 04:44:43.883            25.491                Sumatra          3186.375
       209   07 Jun 2027 05:05:26.635   07 Jun 2027 05:07:55.238           148.603                Novosib         18575.375
       210   07 Jun 2027 05:08:03.636   07 Jun 2027 05:08:49.429            45.793                 Moscow          5724.125
       211   07 Jun 2027 05:08:50.752   07 Jun 2027 05:13:20.841           270.089              Murmansk1         33761.125
       212   07 Jun 2027 06:32:04.443   07 Jun 2027 06:33:55.031           110.588                  Delhi         13823.500
       213   07 Jun 2027 06:34:13.926   07 Jun 2027 06:37:32.958           199.032                Novosib         24879.000
       214   07 Jun 2027 06:41:56.996   07 Jun 2027 06:45:25.380           208.384                 Moscow         26048.000
       215   07 Jun 2027 06:45:47.587   07 Jun 2027 06:49:02.021           194.434              Murmansk1         24304.250
       216   07 Jun 2027 08:11:51.488   07 Jun 2027 08:14:45.687           174.199                 Moscow         21774.875
       217   07 Jun 2027 08:15:22.401   07 Jun 2027 08:15:34.971            12.570              Murmansk2          1571.250
       218   07 Jun 2027 08:16:33.730   07 Jun 2027 08:21:25.778           292.048                 Moscow         36506.000
       219   07 Jun 2027 08:21:36.873   07 Jun 2027 08:24:58.284           201.411              Murmansk1         25176.375
       220   07 Jun 2027 08:29:00.952   07 Jun 2027 08:31:47.140           166.188                Anadyr1         20773.500
       221   07 Jun 2027 09:27:42.501   07 Jun 2027 09:34:33.354           410.853               CapeTown         51356.625
       222   07 Jun 2027 10:06:51.317   07 Jun 2027 10:07:54.885            63.568                Anadyr2          7946.000
       223   07 Jun 2027 13:16:49.927   07 Jun 2027 13:17:14.228            24.301               Magadan2          3037.625
       224   07 Jun 2027 13:17:55.746   07 Jun 2027 13:21:03.660           187.914               Magadan1         23489.250
       225   07 Jun 2027 15:11:24.479   07 Jun 2027 15:19:45.667           501.188                Sumatra         62648.500
       226   07 Jun 2027 16:37:45.269   07 Jun 2027 16:38:41.320            56.051                Novosib          7006.375
       227   07 Jun 2027 16:46:31.101   07 Jun 2027 16:50:01.697           210.596                  Delhi         26324.500
       228   07 Jun 2027 18:23:06.837   07 Jun 2027 18:24:22.402            75.565                  Delhi          9445.625
       229   07 Jun 2027 19:50:26.423   07 Jun 2027 19:51:23.693            57.270                 Moscow          7158.750
       230   07 Jun 2027 21:30:32.463   07 Jun 2027 21:31:12.060            39.597                 Moscow          4949.625
       231   07 Jun 2027 21:33:43.555   07 Jun 2027 21:34:27.597            44.042                 Moscow          5505.250
       232   07 Jun 2027 21:45:34.861   07 Jun 2027 21:46:41.647            66.786               CapeTown          8348.250
       233   07 Jun 2027 21:51:44.908   07 Jun 2027 21:53:24.601            99.693               CapeTown          8117.250
       234   08 Jun 2027 03:42:33.891   08 Jun 2027 03:42:58.147            24.256                Novosib          3032.000
       235   08 Jun 2027 04:52:32.869   08 Jun 2027 04:52:34.430             1.561                Sumatra           195.125
       236   08 Jun 2027 04:54:31.942   08 Jun 2027 04:56:43.707           131.765                Sumatra         16470.625
       237   08 Jun 2027 05:18:00.502   08 Jun 2027 05:18:55.393            54.891              Murmansk1          6861.375
       238   08 Jun 2027 05:19:27.410   08 Jun 2027 05:19:54.891            27.481                Novosib          3435.125
       239   08 Jun 2027 05:19:57.956   08 Jun 2027 05:20:58.696            60.740                 Moscow          7592.500
       240   08 Jun 2027 05:21:33.715   08 Jun 2027 05:25:18.952           225.237              Murmansk1         28154.625
       241   08 Jun 2027 06:43:59.973   08 Jun 2027 06:45:48.433           108.460                  Delhi         13557.500
       242   08 Jun 2027 06:46:13.274   08 Jun 2027 06:49:17.717           184.443                Novosib         23055.375
       243   08 Jun 2027 06:49:29.977   08 Jun 2027 06:49:47.885            17.908                 Moscow          2238.500
       244   08 Jun 2027 06:54:06.219   08 Jun 2027 06:54:43.551            37.332              Murmansk2          4666.500
       245   08 Jun 2027 06:55:05.737   08 Jun 2027 06:57:29.146           143.409                 Moscow         17926.125
       246   08 Jun 2027 06:58:00.763   08 Jun 2027 07:01:02.919           182.156              Murmansk1         22769.500
       247   08 Jun 2027 08:23:51.145   08 Jun 2027 08:25:19.400            88.255                 Moscow         11031.875
       248   08 Jun 2027 08:27:24.133   08 Jun 2027 08:30:35.516           191.383              Murmansk2         23922.875
       249   08 Jun 2027 08:31:02.651   08 Jun 2027 08:33:24.783           142.132                 Moscow         17766.500
       250   08 Jun 2027 08:33:26.278   08 Jun 2027 08:37:00.014           213.736              Murmansk2         26717.000
       251   08 Jun 2027 08:40:16.916   08 Jun 2027 08:44:31.765           254.849                Anadyr2         31856.125
       252   08 Jun 2027 10:14:51.315   08 Jun 2027 10:15:02.291            10.976                Anadyr1          1372.000
       253   08 Jun 2027 11:53:21.498   08 Jun 2027 11:53:29.985             8.487               Magadan2          1060.875
       254   08 Jun 2027 11:55:38.472   08 Jun 2027 11:56:19.288            40.816               Magadan2          5102.000
       255   08 Jun 2027 13:28:50.399   08 Jun 2027 13:30:25.547            95.148               Magadan2         11893.500
       256   08 Jun 2027 15:10:23.387   08 Jun 2027 15:13:30.288           186.901                Irkutsk         23362.625
       257   08 Jun 2027 15:26:22.763   08 Jun 2027 15:29:59.714           216.951                Sumatra         27118.875
       258   08 Jun 2027 16:47:41.345   08 Jun 2027 16:49:05.353            84.008                Novosib         10501.000
       259   08 Jun 2027 16:52:52.702   08 Jun 2027 17:01:39.126           526.424                  Delhi         65803.000
       260   08 Jun 2027 20:03:09.923   08 Jun 2027 20:03:10.304             0.381                 Moscow            47.625
       261   08 Jun 2027 20:05:21.649   08 Jun 2027 20:07:12.359           110.710                 Moscow         13838.750
       262   08 Jun 2027 21:33:37.987   08 Jun 2027 21:35:21.369           103.382                 Moscow         12922.750
       263   08 Jun 2027 21:57:46.702   08 Jun 2027 21:58:17.423            30.721               CapeTown          3840.125
       264   08 Jun 2027 22:00:18.999   08 Jun 2027 22:00:33.664            14.665               CapeTown          1833.125
       265   08 Jun 2027 22:04:21.281   08 Jun 2027 22:04:43.779            22.498               CapeTown          2651.000
       266   09 Jun 2027 05:06:07.456   09 Jun 2027 05:06:54.350            46.894                Sumatra          5861.750
       267   09 Jun 2027 05:17:50.967   09 Jun 2027 05:18:09.905            18.938                  Delhi          2367.250
       268   09 Jun 2027 05:19:33.066   09 Jun 2027 05:21:50.381           137.315                  Delhi         17164.375
       269   09 Jun 2027 05:30:17.321   09 Jun 2027 05:33:06.795           169.474                 Moscow         21184.250
       270   09 Jun 2027 05:33:27.284   09 Jun 2027 05:37:17.540           230.256              Murmansk2         28782.000
       271   09 Jun 2027 06:55:51.747   09 Jun 2027 06:57:47.127           115.380                  Delhi         14422.500
       272   09 Jun 2027 06:58:44.608   09 Jun 2027 07:01:16.816           152.208                Novosib         19026.000
       273   09 Jun 2027 07:06:42.131   09 Jun 2027 07:06:52.776            10.645                Norilsk          1330.625
       274   09 Jun 2027 07:07:24.372   09 Jun 2027 07:09:32.427           128.055                 Moscow         16006.875
       275   09 Jun 2027 07:09:54.101   09 Jun 2027 07:13:04.028           189.927              Murmansk2         23740.875
       276   09 Jun 2027 08:14:40.572   09 Jun 2027 08:17:35.120           174.548               CapeTown         21818.500
       277   09 Jun 2027 08:35:49.972   09 Jun 2027 08:37:21.329            91.357                 Moscow         11419.625
       278   09 Jun 2027 08:39:25.861   09 Jun 2027 08:41:33.108           127.247              Murmansk2         15905.875
       279   09 Jun 2027 08:41:55.120   09 Jun 2027 08:42:41.639            46.519              Murmansk2          5814.875
       280   09 Jun 2027 08:42:44.727   09 Jun 2027 08:43:14.463            29.736                 Moscow          3717.000
       281   09 Jun 2027 08:44:08.826   09 Jun 2027 08:49:01.721           292.895              Murmansk1         36611.875
       282   09 Jun 2027 08:51:53.739   09 Jun 2027 08:56:24.436           270.697                Anadyr1         33837.125
       283   09 Jun 2027 12:05:15.873   09 Jun 2027 12:06:29.223            73.350               Magadan2          9168.750
       284   09 Jun 2027 12:09:25.836   09 Jun 2027 12:10:28.747            62.911               Magadan2          7863.875
       285   09 Jun 2027 12:14:10.929   09 Jun 2027 12:14:46.960            36.031               Magadan2          4503.875
       286   09 Jun 2027 13:40:51.292   09 Jun 2027 13:42:51.141           119.849               Magadan1         14981.125
       287   09 Jun 2027 15:21:44.247   09 Jun 2027 15:22:13.187            28.940                Irkutsk          3617.500
       288   09 Jun 2027 15:25:02.679   09 Jun 2027 15:27:10.864           128.185                Irkutsk         16023.125
       289   09 Jun 2027 15:34:33.966   09 Jun 2027 15:40:58.839           384.873                Sumatra         48109.125
       290   09 Jun 2027 17:01:47.214   09 Jun 2027 17:04:06.742           139.528                Novosib         17441.000
       291   09 Jun 2027 17:06:20.447   09 Jun 2027 17:11:21.049           300.602                  Delhi         37575.250
       292   09 Jun 2027 20:09:54.160   09 Jun 2027 20:11:20.414            86.254                 Moscow         10781.750
       293   09 Jun 2027 20:15:46.254   09 Jun 2027 20:18:29.662           163.408                 Moscow         11939.250
       294   10 Jun 2027 04:06:17.907   10 Jun 2027 04:06:41.134            23.227                 Moscow          2903.375
       295   10 Jun 2027 05:17:39.388   10 Jun 2027 05:20:23.991           164.603                Sumatra         20575.375
       296   10 Jun 2027 05:24:20.386   10 Jun 2027 05:24:39.603            19.217                  Delhi          2402.125
       297   10 Jun 2027 05:31:50.640   10 Jun 2027 05:33:53.809           123.169                  Delhi         15396.125
       298   10 Jun 2027 05:42:07.269   10 Jun 2027 05:45:13.982           186.713                 Moscow         23339.125
       299   10 Jun 2027 05:45:19.788   10 Jun 2027 05:49:16.571           236.783              Murmansk1         29597.875
       300   10 Jun 2027 07:08:56.166   10 Jun 2027 07:09:54.670            58.504                 Moscow          7313.000
       301   10 Jun 2027 07:11:45.283   10 Jun 2027 07:12:05.782            20.499                Novosib          2562.375
       302   10 Jun 2027 07:12:53.557   10 Jun 2027 07:13:44.930            51.373                 Moscow          6421.625
       303   10 Jun 2027 07:17:45.460   10 Jun 2027 07:17:58.333            12.873                Novosib          1609.125
       304   10 Jun 2027 07:19:06.262   10 Jun 2027 07:21:35.231           148.969                 Moscow         18621.125
       305   10 Jun 2027 07:21:44.016   10 Jun 2027 07:25:05.300           201.284              Murmansk1         25160.500
       306   10 Jun 2027 08:25:00.789   10 Jun 2027 08:31:32.968           392.179               CapeTown         49022.375
       307   10 Jun 2027 08:47:47.840   10 Jun 2027 08:48:22.728            34.888                 Moscow          4361.000
       308   10 Jun 2027 08:51:27.559   10 Jun 2027 08:53:00.722            93.163              Murmansk1         11645.375
       309   10 Jun 2027 08:53:00.722   10 Jun 2027 08:53:44.258            43.536              Murmansk2          5442.000
       310   10 Jun 2027 08:53:52.196   10 Jun 2027 08:55:02.713            70.517                 Moscow          8814.625
       311   10 Jun 2027 08:56:10.491   10 Jun 2027 09:01:03.368           292.877              Murmansk1         36609.625
       312   10 Jun 2027 09:03:38.648   10 Jun 2027 09:05:31.062           112.414                Anadyr2         14051.750
       313   10 Jun 2027 10:47:47.047   10 Jun 2027 10:48:06.259            19.212                Anadyr2          2401.500
       314   10 Jun 2027 10:50:26.259   10 Jun 2027 10:50:37.333            11.074                Anadyr1          1384.250
       315   10 Jun 2027 12:17:11.715   10 Jun 2027 12:18:43.430            91.715               Magadan1         11464.375
       316   10 Jun 2027 12:22:07.692   10 Jun 2027 12:22:18.384            10.692               Magadan1          1336.500
       317   10 Jun 2027 12:23:08.988   10 Jun 2027 12:23:53.271            44.283               Magadan2          5535.375
       318   10 Jun 2027 12:24:29.850   10 Jun 2027 12:26:17.485           107.635               Magadan2         13454.375
       319   10 Jun 2027 13:55:12.963   10 Jun 2027 13:56:12.262            59.299               Magadan1          7412.375
       320   10 Jun 2027 14:48:06.080   10 Jun 2027 14:49:14.155            68.075            RioGallegos          8509.375
       321   10 Jun 2027 15:32:36.027   10 Jun 2027 15:35:04.318           148.291                Irkutsk         18536.375
       322   10 Jun 2027 15:37:49.064   10 Jun 2027 15:37:53.403             4.339                Irkutsk           542.375
       323   10 Jun 2027 15:42:06.552   10 Jun 2027 15:43:58.159           111.607                Irkutsk         13950.875
       324   10 Jun 2027 15:46:19.916   10 Jun 2027 15:49:06.404           166.488                Sumatra         20811.000
       325   10 Jun 2027 17:08:22.751   10 Jun 2027 17:10:50.581           147.830                Novosib         18478.750
       326   10 Jun 2027 17:16:07.512   10 Jun 2027 17:22:22.724           375.212                  Delhi         46901.500
       327   10 Jun 2027 20:21:51.450   10 Jun 2027 20:22:56.847            65.397                 Moscow          8174.625
       328   10 Jun 2027 20:24:34.465   10 Jun 2027 20:26:52.646           138.181                 Moscow          9157.374
       329   11 Jun 2027 05:30:37.758   11 Jun 2027 05:31:06.434            28.676                Sumatra          3584.500
       330   11 Jun 2027 05:36:19.565   11 Jun 2027 05:38:30.890           131.325                  Delhi         16415.625
       331   11 Jun 2027 05:39:32.128   11 Jun 2027 05:41:27.856           115.728                  Delhi         14466.000
       332   11 Jun 2027 05:54:01.830   11 Jun 2027 05:55:48.298           106.468                Novosib         13308.500
       333   11 Jun 2027 05:56:19.627   11 Jun 2027 05:57:20.429            60.802                 Moscow          7600.250
       334   11 Jun 2027 05:57:21.967   11 Jun 2027 06:01:16.006           234.039              Murmansk2         29254.875
       335   11 Jun 2027 07:20:50.060   11 Jun 2027 07:21:24.327            34.267                 Moscow          4283.375
       336   11 Jun 2027 07:29:48.028   11 Jun 2027 07:30:20.641            32.613              Murmansk2          4076.625
       337   11 Jun 2027 07:32:03.939   11 Jun 2027 07:33:37.517            93.578                 Moscow         11697.250
       338   11 Jun 2027 07:33:42.965   11 Jun 2027 07:37:06.725           203.760              Murmansk1         25470.000
       339   11 Jun 2027 08:36:09.848   11 Jun 2027 08:44:39.548           509.700               CapeTown         63712.500
       340   11 Jun 2027 09:03:29.191   11 Jun 2027 09:04:58.518            89.327              Murmansk1         11165.875
       341   11 Jun 2027 09:04:58.518   11 Jun 2027 09:06:22.802            84.284              Murmansk2         10535.500
       342   11 Jun 2027 09:07:24.677   11 Jun 2027 09:07:47.637            22.960                 Moscow          2870.000
       343   11 Jun 2027 09:08:12.193   11 Jun 2027 09:09:59.749           107.556              Murmansk1         13444.500
       344   11 Jun 2027 09:09:59.749   11 Jun 2027 09:12:05.964           126.215              Murmansk2         15776.875
       345   11 Jun 2027 09:13:01.541   11 Jun 2027 09:13:04.925             3.384              Murmansk1           423.000
       346   11 Jun 2027 09:15:28.095   11 Jun 2027 09:23:49.486           501.391                Anadyr1         62673.875
       347   11 Jun 2027 10:17:48.660   11 Jun 2027 10:20:41.017           172.357               CapeTown         21544.625
       348   11 Jun 2027 10:50:49.255   11 Jun 2027 10:51:13.198            23.943                Anadyr1          2992.875
       349   11 Jun 2027 11:00:25.311   11 Jun 2027 11:00:43.269            17.958                Anadyr1          2244.750
       350   11 Jun 2027 12:29:08.736   11 Jun 2027 12:34:10.606           301.870               Magadan2         37733.750
       351   11 Jun 2027 12:37:32.368   11 Jun 2027 12:39:36.045           123.677               Magadan2         15459.625
       352   11 Jun 2027 15:01:07.280   11 Jun 2027 15:02:21.460            74.180            RioGallegos          9272.500
       353   11 Jun 2027 15:44:31.207   11 Jun 2027 15:46:15.936           104.729                Irkutsk         13091.125
       354   11 Jun 2027 15:53:00.834   11 Jun 2027 15:54:02.954            62.120                Irkutsk          7765.000
       355   11 Jun 2027 15:58:11.987   11 Jun 2027 16:02:31.452           259.465                Sumatra         32433.125
       356   11 Jun 2027 17:20:20.274   11 Jun 2027 17:21:22.139            61.865                Novosib          7733.125
       357   11 Jun 2027 17:27:54.040   11 Jun 2027 17:33:44.441           350.401                  Delhi         43800.125
       358   11 Jun 2027 20:33:49.789   11 Jun 2027 20:35:51.739           121.950                 Moscow         15243.750
       359   11 Jun 2027 22:35:01.893   11 Jun 2027 22:35:39.674            37.781               CapeTown           835.000
       360   12 Jun 2027 04:30:40.009   12 Jun 2027 04:31:24.339            44.330                Norilsk          5541.250
       361   12 Jun 2027 05:44:31.027   12 Jun 2027 05:45:16.055            45.028                Sumatra          5628.500
       362   12 Jun 2027 05:46:58.736   12 Jun 2027 05:47:27.015            28.279                Sumatra          3534.875
       363   12 Jun 2027 05:48:24.119   12 Jun 2027 05:49:52.830            88.711                  Delhi         11088.875
       364   12 Jun 2027 05:56:12.576   12 Jun 2027 05:57:12.542            59.966                  Delhi          7495.750
       365   12 Jun 2027 06:06:17.370   12 Jun 2027 06:07:03.752            46.382              Murmansk2          5797.750
       366   12 Jun 2027 06:07:04.112   12 Jun 2027 06:09:26.241           142.129                 Moscow         17766.125
       367   12 Jun 2027 06:09:38.856   12 Jun 2027 06:13:15.801           216.945              Murmansk2         27118.125
       368   12 Jun 2027 07:43:06.037   12 Jun 2027 07:45:37.763           151.726                Norilsk         18965.750
       369   12 Jun 2027 07:45:38.439   12 Jun 2027 07:49:08.260           209.821              Murmansk1         26227.625
       370   12 Jun 2027 08:47:35.757   12 Jun 2027 08:57:26.958           591.201               CapeTown         73900.125
       371   12 Jun 2027 09:11:58.286   12 Jun 2027 09:12:14.048            15.762                 Moscow          1970.250
       372   12 Jun 2027 09:15:30.724   12 Jun 2027 09:16:47.813            77.089              Murmansk2          9636.125
       373   12 Jun 2027 09:16:47.813   12 Jun 2027 09:18:14.743            86.930              Murmansk1         10866.250
       374   12 Jun 2027 09:20:13.894   12 Jun 2027 09:23:55.877           221.983              Murmansk1         27747.875
       375   12 Jun 2027 09:25:03.128   12 Jun 2027 09:25:06.351             3.223              Murmansk2           402.875
       376   12 Jun 2027 09:27:20.480   12 Jun 2027 09:36:28.314           547.834                Anadyr2         68479.250
       377   12 Jun 2027 10:26:06.258   12 Jun 2027 10:31:52.014           345.756               CapeTown         43219.500
       378   12 Jun 2027 12:41:06.710   12 Jun 2027 12:41:58.879            52.169               Magadan1          6521.125
       379   12 Jun 2027 12:45:55.589   12 Jun 2027 12:48:18.596           143.007               Magadan2         17875.875
       380   12 Jun 2027 12:50:21.681   12 Jun 2027 12:51:22.689            61.008               Magadan1          7626.000
       381   12 Jun 2027 15:08:44.254   12 Jun 2027 15:11:27.172           162.918            RioGallegos         20364.750
       382   12 Jun 2027 15:13:55.161   12 Jun 2027 15:14:03.757             8.596            RioGallegos          1074.500
       383   12 Jun 2027 15:15:36.461   12 Jun 2027 15:18:14.483           158.022            RioGallegos         19752.750
       384   12 Jun 2027 16:05:58.759   12 Jun 2027 16:06:00.687             1.928                Irkutsk           241.000
       385   12 Jun 2027 16:10:09.752   12 Jun 2027 16:13:02.530           172.778                Sumatra         21597.250
       386   12 Jun 2027 16:17:36.713   12 Jun 2027 16:19:46.480           129.767                Sumatra         16220.875
       387   12 Jun 2027 17:32:18.810   12 Jun 2027 17:32:35.722            16.912                Novosib          2114.000
       388   12 Jun 2027 17:39:16.379   12 Jun 2027 17:41:52.775           156.396                Novosib         19549.500
       389   12 Jun 2027 17:42:35.235   12 Jun 2027 17:44:01.745            86.510                  Delhi         10813.750
       390   12 Jun 2027 20:42:33.598   12 Jun 2027 20:43:03.696            30.098              Murmansk1          3762.250
       391   12 Jun 2027 20:45:19.871   12 Jun 2027 20:46:41.255            81.384              Murmansk2         10173.000
       392   12 Jun 2027 20:48:57.848   12 Jun 2027 20:50:42.841           104.993                 Moscow         13124.125
       393   12 Jun 2027 22:55:10.734   12 Jun 2027 22:55:13.706             2.972               CapeTown           371.500
       394   13 Jun 2027 03:06:38.498   13 Jun 2027 03:08:35.744           117.246              Murmansk1         14655.750
       395   13 Jun 2027 04:16:10.730   13 Jun 2027 04:18:32.245           141.515                Sumatra         17689.375
       396   13 Jun 2027 04:23:45.862   13 Jun 2027 04:25:49.717           123.855                Sumatra         15481.875
       397   13 Jun 2027 04:41:31.251   13 Jun 2027 04:42:19.041            47.790              Murmansk2          5973.750
       398   13 Jun 2027 04:42:40.618   13 Jun 2027 04:49:41.125           420.507              Murmansk2         52563.375
       399   13 Jun 2027 06:00:34.297   13 Jun 2027 06:12:45.485           731.188                  Delhi         91398.500
       400   13 Jun 2027 06:18:13.368   13 Jun 2027 06:19:29.151            75.783                Novosib          9472.875
       401   13 Jun 2027 06:20:04.539   13 Jun 2027 06:21:31.485            86.946                 Moscow         10868.250
       402   13 Jun 2027 06:21:37.031   13 Jun 2027 06:25:15.924           218.893              Murmansk1         27361.625
       403   13 Jun 2027 07:45:13.978   13 Jun 2027 07:45:37.158            23.180                 Moscow          2897.500
       404   13 Jun 2027 07:48:05.054   13 Jun 2027 07:49:17.954            72.900                 Moscow          9112.500
       405   13 Jun 2027 07:53:55.142   13 Jun 2027 07:57:40.435           225.293                 Moscow         28161.625
       406   13 Jun 2027 07:57:57.807   13 Jun 2027 08:01:09.888           192.081              Murmansk1         24010.125
       407   13 Jun 2027 09:01:05.702   13 Jun 2027 09:10:02.442           536.740               CapeTown         67092.500
       408   13 Jun 2027 09:27:32.118   13 Jun 2027 09:28:49.403            77.285              Murmansk2          9660.625
       409   13 Jun 2027 09:28:49.403   13 Jun 2027 09:29:03.803            14.400              Murmansk1          1800.000
       410   13 Jun 2027 09:29:05.584   13 Jun 2027 09:33:01.657           236.073                 Moscow         29509.125
       411   13 Jun 2027 09:33:07.700   13 Jun 2027 09:35:46.605           158.905              Murmansk2         19863.125
       412   13 Jun 2027 11:24:25.241   13 Jun 2027 11:24:36.064            10.823                Anadyr2          1352.875
       413   13 Jun 2027 11:25:29.305   13 Jun 2027 11:26:02.557            33.252                Anadyr2          4156.500
       414   13 Jun 2027 12:53:05.475   13 Jun 2027 12:55:11.766           126.291               Magadan2         15786.375
       415   13 Jun 2027 12:55:51.924   13 Jun 2027 12:59:40.859           228.935               Magadan2         28616.875
       416   13 Jun 2027 14:49:43.607   13 Jun 2027 14:50:07.414            23.807                Sumatra          2975.875
       417   13 Jun 2027 15:20:39.073   13 Jun 2027 15:22:31.854           112.781            RioGallegos         14097.625
       418   13 Jun 2027 15:29:02.781   13 Jun 2027 15:30:10.612            67.831            RioGallegos          8478.875
       419   13 Jun 2027 16:09:48.434   13 Jun 2027 16:11:27.919            99.485                Irkutsk         12435.625
       420   13 Jun 2027 16:15:24.201   13 Jun 2027 16:15:53.350            29.149                Irkutsk          3643.625
       421   13 Jun 2027 16:22:13.113   13 Jun 2027 16:24:07.171           114.058                Sumatra         14257.250
       422   13 Jun 2027 16:25:17.392   13 Jun 2027 16:27:09.385           111.993                Sumatra         13999.125
       423   13 Jun 2027 17:47:28.770   13 Jun 2027 17:48:00.180            31.410                Novosib          3926.250
       424   13 Jun 2027 17:51:39.923   13 Jun 2027 17:54:24.162           164.239                  Delhi         20529.875
       425   13 Jun 2027 17:58:39.757   13 Jun 2027 18:01:12.838           153.081                  Delhi         19135.125
       426   13 Jun 2027 20:57:49.053   13 Jun 2027 20:58:18.028            28.975                 Moscow          3621.875
       427   13 Jun 2027 20:59:13.695   13 Jun 2027 21:01:04.681           110.986                 Moscow         13873.250
       428   13 Jun 2027 21:24:55.216   13 Jun 2027 21:26:57.727           122.511               CapeTown          7643.875
