uniorb/output/strategy_4/Drop/Drop_KinoSat_111501.txt

KinoSat_111501
-------------------------
    Access    *     Start Time (UTCG)     *     Stop Time (UTCG)  *   Duration (s)        *       Station  *  Data (Mbytes)
         1   01 Jun 2027 04:00:30.832   01 Jun 2027 04:01:18.655            47.823              Murmansk2          1494.469
         2   01 Jun 2027 04:01:27.209   01 Jun 2027 04:02:15.920            48.711                Norilsk          1522.219
         3   01 Jun 2027 04:02:21.125   01 Jun 2027 04:03:11.332            50.207                Novosib          1568.969
         4   01 Jun 2027 04:03:13.436   01 Jun 2027 04:04:58.196           104.760              Murmansk1          3273.750
         5   01 Jun 2027 04:05:30.076   01 Jun 2027 04:06:38.900            68.824                 Moscow          2150.750
         6   01 Jun 2027 04:07:49.107   01 Jun 2027 04:08:37.026            47.919                 Moscow          1497.469
         7   01 Jun 2027 04:20:01.511   01 Jun 2027 04:22:05.670           124.159               CapeTown          3879.969
         8   01 Jun 2027 04:22:51.699   01 Jun 2027 04:23:27.462            35.763               CapeTown          1117.594
         9   01 Jun 2027 04:24:17.718   01 Jun 2027 04:26:18.114           120.396               CapeTown          3762.375
        10   01 Jun 2027 05:24:12.269   01 Jun 2027 05:25:40.504            88.235                Anadyr2          2757.344
        11   01 Jun 2027 05:35:34.365   01 Jun 2027 05:35:57.083            22.718                Norilsk           709.938
        12   01 Jun 2027 05:36:00.175   01 Jun 2027 05:38:12.457           132.282              Murmansk1          4133.812
        13   01 Jun 2027 05:39:53.221   01 Jun 2027 05:40:56.792            63.571              Murmansk1          1986.594
        14   01 Jun 2027 06:59:24.085   01 Jun 2027 07:04:19.687           295.602                Anadyr2          9237.563
        15   01 Jun 2027 07:04:52.317   01 Jun 2027 07:05:02.222             9.905               Magadan2           309.531
        16   01 Jun 2027 08:33:10.456   01 Jun 2027 08:33:15.565             5.109                Anadyr2           159.656
        17   01 Jun 2027 08:33:28.263   01 Jun 2027 08:34:08.038            39.775               Magadan1          1242.969
        18   01 Jun 2027 08:34:16.345   01 Jun 2027 08:37:38.887           202.542                Anadyr2          6329.437
        19   01 Jun 2027 08:37:38.887   01 Jun 2027 08:38:41.218            62.331                Anadyr1          1947.844
        20   01 Jun 2027 10:11:16.092   01 Jun 2027 10:13:51.714           155.622               Magadan1          4863.188
        21   01 Jun 2027 10:13:51.714   01 Jun 2027 10:14:59.693            67.979               Magadan2          2124.344
        22   01 Jun 2027 10:15:30.786   01 Jun 2027 10:15:59.590            28.804                Irkutsk           900.125
        23   01 Jun 2027 10:16:16.943   01 Jun 2027 10:16:24.959             8.016              Murmansk2           250.500
        24   01 Jun 2027 10:16:28.470   01 Jun 2027 10:17:40.833            72.363                Norilsk          2261.344
        25   01 Jun 2027 10:51:30.008   01 Jun 2027 10:53:30.347           120.339            RioGallegos          3760.594
        26   01 Jun 2027 11:26:17.048   01 Jun 2027 11:29:23.628           186.580                Sumatra          5830.625
        27   01 Jun 2027 11:48:12.334   01 Jun 2027 11:48:23.177            10.843                Novosib           338.844
        28   01 Jun 2027 11:48:41.445   01 Jun 2027 11:51:27.773           166.328              Murmansk1          5197.750
        29   01 Jun 2027 11:51:30.938   01 Jun 2027 11:52:27.163            56.225                Irkutsk          1757.031
        30   01 Jun 2027 11:52:28.240   01 Jun 2027 11:52:51.863            23.623              Murmansk1           738.219
        31   01 Jun 2027 11:53:09.407   01 Jun 2027 11:53:40.710            31.303                Norilsk           978.219
        32   01 Jun 2027 12:34:33.420   01 Jun 2027 12:35:40.540            67.120            RioGallegos          2097.500
        33   01 Jun 2027 12:38:14.979   01 Jun 2027 12:38:21.757             6.778            RioGallegos           211.813
        34   01 Jun 2027 13:06:29.419   01 Jun 2027 13:09:43.939           194.520                Sumatra          6078.750
        35   01 Jun 2027 13:18:11.300   01 Jun 2027 13:19:26.562            75.262                Novosib          2351.937
        36   01 Jun 2027 13:20:20.774   01 Jun 2027 13:23:36.097           195.323                Novosib          6103.844
        37   01 Jun 2027 13:26:07.452   01 Jun 2027 13:26:20.717            13.265                Norilsk           414.531
        38   01 Jun 2027 13:35:11.504   01 Jun 2027 13:35:22.207            10.703              Murmansk2           334.469
        39   01 Jun 2027 14:54:53.713   01 Jun 2027 14:58:37.860           224.147                 Moscow          7004.594
        40   01 Jun 2027 14:59:35.172   01 Jun 2027 15:01:32.948           117.776              Murmansk1          3680.500
        41   01 Jun 2027 15:01:39.350   01 Jun 2027 15:01:54.139            14.789              Murmansk2           462.156
        42   01 Jun 2027 15:01:56.528   01 Jun 2027 15:03:21.410            84.882                Norilsk          2652.562
        43   01 Jun 2027 15:04:01.946   01 Jun 2027 15:05:47.486           105.540                Norilsk          3298.125
        44   01 Jun 2027 15:06:27.219   01 Jun 2027 15:07:35.831            68.612                Norilsk          2144.125
        45   01 Jun 2027 16:09:42.844   01 Jun 2027 16:10:48.480            65.636               CapeTown          2051.125
        46   01 Jun 2027 16:12:37.198   01 Jun 2027 16:13:17.544            40.346               CapeTown          1260.812
        47   01 Jun 2027 16:13:25.060   01 Jun 2027 16:13:31.332             6.272               CapeTown           196.000
        48   01 Jun 2027 16:13:59.762   01 Jun 2027 16:14:30.320            30.558               CapeTown           954.937
        49   01 Jun 2027 16:15:58.603   01 Jun 2027 16:16:34.515            35.912               CapeTown          1122.250
        50   01 Jun 2027 16:16:56.812   01 Jun 2027 16:18:18.451            81.639               CapeTown          2551.219
        51   01 Jun 2027 16:35:31.610   01 Jun 2027 16:35:52.533            20.923              Murmansk1           653.844
        52   01 Jun 2027 16:36:53.014   01 Jun 2027 16:37:11.737            18.723                 Moscow           585.094
        53   01 Jun 2027 16:37:20.232   01 Jun 2027 16:38:06.754            46.522                 Moscow          1453.813
        54   01 Jun 2027 16:40:18.765   01 Jun 2027 16:41:55.930            97.165                 Moscow          3036.406
        55   01 Jun 2027 16:44:18.433   01 Jun 2027 16:44:29.616            11.183              Murmansk1           349.469
        56   01 Jun 2027 16:45:02.155   01 Jun 2027 16:45:28.468            26.313              Murmansk1           822.281
        57   01 Jun 2027 16:46:17.487   01 Jun 2027 16:46:41.106            23.619              Murmansk2           738.094
        58   01 Jun 2027 16:49:25.846   01 Jun 2027 16:49:47.991            22.145                Anadyr2           692.031
        59   01 Jun 2027 16:50:32.584   01 Jun 2027 16:50:44.294            11.710                Anadyr1           365.938
        60   01 Jun 2027 16:51:59.506   01 Jun 2027 16:52:35.139            35.633                Anadyr2          1113.531
        61   01 Jun 2027 16:52:57.228   01 Jun 2027 16:53:14.430            17.202                Anadyr1           537.563
        62   01 Jun 2027 16:53:32.587   01 Jun 2027 16:53:44.755            12.168                Anadyr1           380.250
        63   01 Jun 2027 16:54:07.171   01 Jun 2027 16:54:32.274            25.103                Anadyr2           784.469
        64   01 Jun 2027 16:55:30.878   01 Jun 2027 16:55:46.236            15.358                Anadyr1           479.937
        65   01 Jun 2027 16:56:07.522   01 Jun 2027 16:56:35.320            27.798                Anadyr2           868.687
        66   01 Jun 2027 16:57:23.755   01 Jun 2027 16:57:37.747            13.992                Anadyr2           437.250
        67   01 Jun 2027 16:58:17.244   01 Jun 2027 16:58:34.678            17.434                Anadyr1           544.813
        68   01 Jun 2027 17:50:42.077   01 Jun 2027 17:52:38.398           116.321               CapeTown          3635.031
        69   01 Jun 2027 17:55:26.940   01 Jun 2027 17:56:03.561            36.621               CapeTown          1144.406
        70   01 Jun 2027 18:14:22.462   01 Jun 2027 18:16:58.958           156.496              Murmansk2          4890.500
        71   01 Jun 2027 18:19:21.267   01 Jun 2027 18:19:44.949            23.682              Murmansk2           740.062
        72   01 Jun 2027 18:20:18.483   01 Jun 2027 18:21:01.688            43.205              Murmansk2          1350.156
        73   01 Jun 2027 18:28:31.134   01 Jun 2027 18:28:38.815             7.681               Magadan2           240.031
        74   01 Jun 2027 18:28:47.441   01 Jun 2027 18:28:57.667            10.226               Magadan2           319.563
        75   01 Jun 2027 18:30:08.937   01 Jun 2027 18:30:13.960             5.023               Magadan2           156.969
        76   01 Jun 2027 18:30:57.325   01 Jun 2027 18:31:37.556            40.231               Magadan1          1257.219
        77   01 Jun 2027 18:32:37.577   01 Jun 2027 18:33:20.855            43.278               Magadan1          1352.437
        78   01 Jun 2027 18:35:02.466   01 Jun 2027 18:35:12.476            10.010               Magadan1           312.812
        79   01 Jun 2027 18:36:40.447   01 Jun 2027 18:37:16.268            35.821                Anadyr2          1119.406
        80   01 Jun 2027 19:23:22.356   01 Jun 2027 19:23:29.237             6.881               CapeTown           215.031
        81   01 Jun 2027 19:24:16.423   01 Jun 2027 19:24:16.657             0.234               CapeTown             7.313
        82   01 Jun 2027 19:26:31.067   01 Jun 2027 19:27:23.873            52.806               CapeTown          1650.187
        83   01 Jun 2027 20:00:50.587   01 Jun 2027 20:04:35.193           224.606                Anadyr2          7018.937
        84   01 Jun 2027 20:04:59.807   01 Jun 2027 20:06:06.433            66.626               Magadan1          2082.063
        85   01 Jun 2027 20:06:18.857   01 Jun 2027 20:06:34.094            15.237               Magadan1           476.156
        86   01 Jun 2027 20:08:07.661   01 Jun 2027 20:08:26.632            18.971               Magadan1           592.844
        87   01 Jun 2027 20:09:23.248   01 Jun 2027 20:09:55.976            32.728               Magadan1          1022.750
        88   01 Jun 2027 20:11:36.403   01 Jun 2027 20:11:47.521            11.118               Magadan1           347.438
        89   01 Jun 2027 20:12:22.687   01 Jun 2027 20:12:36.954            14.267               Magadan2           445.844
        90   01 Jun 2027 20:13:54.823   01 Jun 2027 20:14:14.655            19.832               Magadan2           619.750
        91   01 Jun 2027 20:15:06.695   01 Jun 2027 20:15:10.095             3.400               Magadan2           106.250
        92   01 Jun 2027 20:15:16.350   01 Jun 2027 20:15:20.937             4.587               Magadan2           143.344
        93   01 Jun 2027 20:15:26.542   01 Jun 2027 20:15:30.027             3.485               Magadan2           108.906
        94   01 Jun 2027 21:36:43.021   01 Jun 2027 21:38:51.326           128.305                Anadyr1          4009.531
        95   01 Jun 2027 21:38:57.731   01 Jun 2027 21:44:11.506           313.775                Norilsk          9805.469
        96   01 Jun 2027 21:44:23.534   01 Jun 2027 21:44:33.519             9.985               Magadan2           312.031
        97   01 Jun 2027 21:45:11.273   01 Jun 2027 21:45:39.003            27.730                Irkutsk           866.563
        98   01 Jun 2027 21:46:39.029   01 Jun 2027 21:47:15.998            36.969                Irkutsk          1155.281
        99   01 Jun 2027 21:49:37.110   01 Jun 2027 21:50:15.820            38.710                Irkutsk          1209.687
       100   01 Jun 2027 22:01:06.611   01 Jun 2027 22:04:25.611           199.000                Sumatra          6218.750
       101   01 Jun 2027 23:12:09.624   01 Jun 2027 23:13:10.678            61.054                Anadyr2          1907.938
       102   01 Jun 2027 23:14:05.628   01 Jun 2027 23:15:02.272            56.644                Anadyr1          1770.125
       103   01 Jun 2027 23:15:06.957   01 Jun 2027 23:16:19.144            72.187                Norilsk          2255.844
       104   01 Jun 2027 23:16:28.842   01 Jun 2027 23:16:57.326            28.484               Magadan2           890.125
       105   01 Jun 2027 23:17:36.454   01 Jun 2027 23:17:42.249             5.795               Magadan1           181.094
       106   01 Jun 2027 23:18:34.441   01 Jun 2027 23:19:40.199            65.758                Irkutsk          2054.937
       107   01 Jun 2027 23:19:41.587   01 Jun 2027 23:20:17.041            35.454                Novosib          1107.938
       108   01 Jun 2027 23:21:57.757   01 Jun 2027 23:22:02.650             4.893                Novosib           152.906
       109   01 Jun 2027 23:22:50.857   01 Jun 2027 23:23:07.511            16.654                Novosib           520.437
       110   01 Jun 2027 23:25:29.659   01 Jun 2027 23:25:54.666            25.007                Novosib           781.469
       111   01 Jun 2027 23:27:09.293   01 Jun 2027 23:28:08.855            59.562                Novosib          1861.313
       112   01 Jun 2027 23:32:16.631   01 Jun 2027 23:32:35.183            18.552                Sumatra           579.750
       113   01 Jun 2027 23:36:14.506   01 Jun 2027 23:36:45.220            30.714                Sumatra           959.812
       114   01 Jun 2027 23:38:54.868   01 Jun 2027 23:40:51.721           116.853                Sumatra          3651.656
       115   02 Jun 2027 00:18:08.857   02 Jun 2027 00:18:25.494            16.637            RioGallegos           519.906
       116   02 Jun 2027 00:47:03.214   02 Jun 2027 00:47:38.589            35.375                Anadyr1          1105.469
       117   02 Jun 2027 00:48:00.022   02 Jun 2027 00:48:25.964            25.942                Anadyr2           810.687
       118   02 Jun 2027 00:48:47.132   02 Jun 2027 00:49:00.919            13.787                Anadyr2           430.844
       119   02 Jun 2027 00:49:33.606   02 Jun 2027 00:49:34.022             0.416                Anadyr1            13.000
       120   02 Jun 2027 00:50:33.853   02 Jun 2027 00:52:18.121           104.268                Norilsk          3258.375
       121   02 Jun 2027 00:53:11.005   02 Jun 2027 00:53:55.613            44.608               Magadan2          1394.000
       122   02 Jun 2027 00:54:12.145   02 Jun 2027 00:54:38.453            26.308              Murmansk1           822.125
       123   02 Jun 2027 00:54:50.369   02 Jun 2027 00:55:51.269            60.900                Irkutsk          1903.125
       124   02 Jun 2027 00:56:17.409   02 Jun 2027 00:56:39.091            21.682                Novosib           677.562
       125   02 Jun 2027 00:57:06.463   02 Jun 2027 00:57:26.029            19.566                Novosib           611.438
       126   02 Jun 2027 00:58:37.954   02 Jun 2027 00:59:09.099            31.145                Novosib           973.281
       127   02 Jun 2027 01:01:51.975   02 Jun 2027 01:02:41.844            49.869                  Delhi          1558.406
       128   02 Jun 2027 01:06:34.566   02 Jun 2027 01:06:37.824             3.258                Irkutsk           101.813
       129   02 Jun 2027 01:08:23.394   02 Jun 2027 01:08:33.962            10.568                  Delhi           330.250
       130   02 Jun 2027 01:08:39.464   02 Jun 2027 01:08:54.564            15.100                  Delhi           471.875
       131   02 Jun 2027 01:09:37.337   02 Jun 2027 01:10:05.438            28.101                  Delhi           878.156
       132   02 Jun 2027 01:43:14.114   02 Jun 2027 01:43:56.675            42.561            RioGallegos          1330.031
       133   02 Jun 2027 01:44:57.325   02 Jun 2027 01:45:47.402            50.077            RioGallegos          1564.906
       134   02 Jun 2027 01:49:10.986   02 Jun 2027 01:49:33.962            22.976            RioGallegos           718.000
       135   02 Jun 2027 01:49:59.819   02 Jun 2027 01:50:26.346            26.527            RioGallegos           828.969
       136   02 Jun 2027 02:19:54.845   02 Jun 2027 02:20:20.941            26.096                Anadyr1           815.500
       137   02 Jun 2027 02:21:33.334   02 Jun 2027 02:21:45.105            11.771                Anadyr1           367.844
       138   02 Jun 2027 02:22:19.658   02 Jun 2027 02:22:51.920            32.262                Anadyr2          1008.187
       139   02 Jun 2027 02:23:56.212   02 Jun 2027 02:24:29.662            33.450                Anadyr1          1045.313
       140   02 Jun 2027 02:26:08.047   02 Jun 2027 02:26:47.952            39.905               Magadan2          1247.031
       141   02 Jun 2027 02:27:15.294   02 Jun 2027 02:27:43.206            27.912                Norilsk           872.250
       142   02 Jun 2027 02:28:47.100   02 Jun 2027 02:29:26.527            39.427              Murmansk1          1232.094
       143   02 Jun 2027 02:29:33.360   02 Jun 2027 02:30:16.247            42.887              Murmansk1          1340.219
       144   02 Jun 2027 02:30:24.073   02 Jun 2027 02:30:35.532            11.459                Novosib           358.094
       145   02 Jun 2027 02:31:26.026   02 Jun 2027 02:32:51.613            85.587                Irkutsk          2674.594
       146   02 Jun 2027 02:39:12.423   02 Jun 2027 02:39:45.668            33.245                Novosib          1038.906
       147   02 Jun 2027 02:41:48.780   02 Jun 2027 02:42:46.366            57.586                  Delhi          1799.563
       148   02 Jun 2027 03:05:26.825   02 Jun 2027 03:05:40.553            13.728               CapeTown           429.000
       149   02 Jun 2027 04:12:37.242   02 Jun 2027 04:14:05.963            88.721                Norilsk          2772.531
       150   02 Jun 2027 04:14:08.098   02 Jun 2027 04:17:10.767           182.669              Murmansk1          5708.406
       151   02 Jun 2027 04:18:35.224   02 Jun 2027 04:19:07.790            32.566                 Moscow          1017.687
       152   02 Jun 2027 04:42:14.351   02 Jun 2027 04:44:22.006           127.655               CapeTown          3989.219
       153   02 Jun 2027 05:35:43.970   02 Jun 2027 05:35:53.201             9.231                Anadyr2           288.469
       154   02 Jun 2027 05:35:53.201   02 Jun 2027 05:36:22.258            29.057                Anadyr1           908.031
       155   02 Jun 2027 05:36:35.618   02 Jun 2027 05:38:59.562           143.944               Magadan2          4498.250
       156   02 Jun 2027 05:38:59.562   02 Jun 2027 05:40:28.057            88.495               Magadan1          2765.469
       157   02 Jun 2027 05:40:28.057   02 Jun 2027 05:40:54.326            26.269               Magadan2           820.906
       158   02 Jun 2027 05:41:05.000   02 Jun 2027 05:41:27.249            22.249                Anadyr2           695.281
       159   02 Jun 2027 07:12:51.284   02 Jun 2027 07:13:47.129            55.845               Magadan2          1745.156
       160   02 Jun 2027 07:13:47.129   02 Jun 2027 07:14:58.039            70.910               Magadan1          2215.937
       161   02 Jun 2027 07:14:58.383   02 Jun 2027 07:17:17.961           139.578                Anadyr1          4361.813
       162   02 Jun 2027 08:45:10.172   02 Jun 2027 08:46:34.260            84.088                Irkutsk          2627.750
       163   02 Jun 2027 08:47:25.081   02 Jun 2027 08:47:57.630            32.549               Magadan2          1017.156
       164   02 Jun 2027 08:47:57.630   02 Jun 2027 08:49:12.515            74.885               Magadan1          2340.156
       165   02 Jun 2027 08:50:05.210   02 Jun 2027 08:51:54.959           109.749               Magadan1          3429.656
       166   02 Jun 2027 08:51:54.959   02 Jun 2027 08:52:02.580             7.621               Magadan2           238.156
       167   02 Jun 2027 08:54:25.267   02 Jun 2027 08:54:26.803             1.536                Norilsk            48.000
       168   02 Jun 2027 08:55:05.621   02 Jun 2027 08:55:13.703             8.082                Norilsk           252.563
       169   02 Jun 2027 08:56:07.321   02 Jun 2027 08:56:30.477            23.156              Murmansk2           723.625
       170   02 Jun 2027 08:56:51.940   02 Jun 2027 08:57:23.925            31.985              Murmansk2           999.531
       171   02 Jun 2027 09:28:02.407   02 Jun 2027 09:29:03.281            60.874            RioGallegos          1902.313
       172   02 Jun 2027 09:32:25.282   02 Jun 2027 09:33:16.485            51.203            RioGallegos          1600.094
       173   02 Jun 2027 09:37:26.985   02 Jun 2027 09:37:47.644            20.659            RioGallegos           645.594
       174   02 Jun 2027 09:38:09.803   02 Jun 2027 09:38:17.089             7.286            RioGallegos           227.688
       175   02 Jun 2027 10:06:08.086   02 Jun 2027 10:07:57.415           109.329                Sumatra          3416.531
       176   02 Jun 2027 10:10:16.695   02 Jun 2027 10:10:58.533            41.838                Sumatra          1307.437
       177   02 Jun 2027 10:23:15.319   02 Jun 2027 10:24:18.029            62.710               Magadan1          1959.687
       178   02 Jun 2027 10:24:22.104   02 Jun 2027 10:24:56.086            33.982                Irkutsk          1061.938
       179   02 Jun 2027 10:25:26.883   02 Jun 2027 10:25:33.709             6.826                Irkutsk           213.313
       180   02 Jun 2027 10:26:05.861   02 Jun 2027 10:26:16.770            10.909                Novosib           340.906
       181   02 Jun 2027 10:26:18.948   02 Jun 2027 10:26:37.193            18.245                Norilsk           570.156
       182   02 Jun 2027 10:26:39.273   02 Jun 2027 10:27:42.078            62.805                Irkutsk          1962.656
       183   02 Jun 2027 10:27:46.628   02 Jun 2027 10:27:47.399             0.771                Irkutsk            24.094
       184   02 Jun 2027 10:27:51.150   02 Jun 2027 10:28:23.539            32.389                Irkutsk          1012.156
       185   02 Jun 2027 10:28:26.154   02 Jun 2027 10:28:28.070             1.916                Norilsk            59.875
       186   02 Jun 2027 10:28:33.505   02 Jun 2027 10:28:48.019            14.514                Novosib           453.563
       187   02 Jun 2027 11:03:41.426   02 Jun 2027 11:04:22.552            41.126            RioGallegos          1285.187
       188   02 Jun 2027 11:04:53.588   02 Jun 2027 11:05:28.293            34.705            RioGallegos          1084.531
       189   02 Jun 2027 11:38:17.623   02 Jun 2027 11:38:30.330            12.707                Sumatra           397.094
       190   02 Jun 2027 11:40:25.321   02 Jun 2027 11:40:59.263            33.942                Sumatra          1060.687
       191   02 Jun 2027 11:50:52.727   02 Jun 2027 11:51:27.494            34.767                  Delhi          1086.469
       192   02 Jun 2027 11:58:11.523   02 Jun 2027 11:58:37.870            26.347                  Delhi           823.344
       193   02 Jun 2027 12:00:00.101   02 Jun 2027 12:00:06.001             5.900                Norilsk           184.375
       194   02 Jun 2027 12:00:19.270   02 Jun 2027 12:00:24.159             4.889                Novosib           152.781
       195   02 Jun 2027 12:00:28.853   02 Jun 2027 12:00:52.900            24.047              Murmansk2           751.469
       196   02 Jun 2027 12:01:22.804   02 Jun 2027 12:02:00.174            37.370                Irkutsk          1167.813
       197   02 Jun 2027 12:02:34.051   02 Jun 2027 12:04:21.748           107.697                Irkutsk          3365.531
       198   02 Jun 2027 12:09:34.945   02 Jun 2027 12:09:42.091             7.146                Norilsk           223.313
       199   02 Jun 2027 12:44:19.632   02 Jun 2027 12:46:32.188           132.556            RioGallegos          4142.375
       200   02 Jun 2027 13:28:39.836   02 Jun 2027 13:28:48.191             8.355                  Delhi           261.094
       201   02 Jun 2027 13:30:35.022   02 Jun 2027 13:31:35.972            60.950                Novosib          1904.688
       202   02 Jun 2027 13:32:16.230   02 Jun 2027 13:32:37.767            21.537                Novosib           673.031
       203   02 Jun 2027 13:34:36.617   02 Jun 2027 13:34:42.803             6.186                Norilsk           193.312
       204   02 Jun 2027 13:35:53.666   02 Jun 2027 13:36:36.751            43.085                Novosib          1346.406
       205   02 Jun 2027 13:37:12.489   02 Jun 2027 13:37:36.463            23.974                Novosib           749.187
       206   02 Jun 2027 13:37:40.365   02 Jun 2027 13:38:09.791            29.426                Norilsk           919.563
       207   02 Jun 2027 13:40:03.129   02 Jun 2027 13:40:53.966            50.837                Norilsk          1588.656
       208   02 Jun 2027 13:44:35.468   02 Jun 2027 13:44:55.219            19.751                Norilsk           617.219
       209   02 Jun 2027 15:06:53.157   02 Jun 2027 15:09:45.719           172.562                 Moscow          5392.562
       210   02 Jun 2027 15:09:56.312   02 Jun 2027 15:10:12.042            15.730                 Moscow           491.562
       211   02 Jun 2027 15:10:21.083   02 Jun 2027 15:11:37.087            76.004              Murmansk1          2375.125
       212   02 Jun 2027 15:14:39.914   02 Jun 2027 15:17:46.347           186.433                Norilsk          5826.031
       213   02 Jun 2027 15:19:15.249   02 Jun 2027 15:19:22.823             7.574                Norilsk           236.688
       214   02 Jun 2027 16:22:05.849   02 Jun 2027 16:22:22.113            16.264               CapeTown           508.250
       215   02 Jun 2027 16:22:26.852   02 Jun 2027 16:24:25.896           119.044               CapeTown          3720.125
       216   02 Jun 2027 16:44:27.622   02 Jun 2027 16:45:03.813            36.191                 Moscow          1130.969
       217   02 Jun 2027 16:47:54.658   02 Jun 2027 16:48:58.603            63.945              Murmansk1          1998.281
       218   02 Jun 2027 16:55:30.666   02 Jun 2027 16:55:56.411            25.745              Murmansk1           804.531
       219   02 Jun 2027 17:01:20.648   02 Jun 2027 17:02:44.421            83.773                Anadyr2          2617.906
       220   02 Jun 2027 17:03:47.462   02 Jun 2027 17:04:05.816            18.354                Anadyr2           573.562
       221   02 Jun 2027 17:06:01.009   02 Jun 2027 17:06:27.005            25.996                Anadyr1           812.375
       222   02 Jun 2027 17:08:11.551   02 Jun 2027 17:08:34.727            23.176                Anadyr1           724.250
       223   02 Jun 2027 17:10:08.973   02 Jun 2027 17:10:35.506            26.533                Anadyr1           829.156
       224   02 Jun 2027 17:59:19.330   02 Jun 2027 18:00:20.597            61.267               CapeTown          1914.594
       225   02 Jun 2027 18:06:12.801   02 Jun 2027 18:06:19.311             6.510               CapeTown           203.438
       226   02 Jun 2027 18:07:47.933   02 Jun 2027 18:08:01.210            13.277               CapeTown           414.906
       227   02 Jun 2027 18:27:00.928   02 Jun 2027 18:31:15.177           254.249              Murmansk1          7945.281
       228   02 Jun 2027 18:39:52.138   02 Jun 2027 18:40:27.388            35.250                Anadyr1          1101.562
       229   02 Jun 2027 18:40:40.237   02 Jun 2027 18:41:00.334            20.097               Magadan1           628.031
       230   02 Jun 2027 18:42:17.179   02 Jun 2027 18:42:32.063            14.884               Magadan1           465.125
       231   02 Jun 2027 18:44:27.464   02 Jun 2027 18:44:54.035            26.571               Magadan2           830.344
       232   02 Jun 2027 20:12:52.242   02 Jun 2027 20:16:40.454           228.212                Anadyr1          7131.625
       233   02 Jun 2027 20:17:00.096   02 Jun 2027 20:18:13.572            73.476               Magadan1          2296.125
       234   02 Jun 2027 20:18:13.572   02 Jun 2027 20:19:34.420            80.848               Magadan2          2526.500
       235   02 Jun 2027 20:20:06.520   02 Jun 2027 20:20:27.071            20.551               Magadan2           642.219
       236   02 Jun 2027 20:21:45.098   02 Jun 2027 20:21:58.709            13.611               Magadan1           425.344
       237   02 Jun 2027 20:23:04.805   02 Jun 2027 20:23:14.411             9.606               Magadan2           300.187
       238   02 Jun 2027 20:23:29.576   02 Jun 2027 20:23:30.278             0.702               Magadan2            21.938
       239   02 Jun 2027 20:23:40.650   02 Jun 2027 20:23:48.467             7.817               Magadan2           244.281
       240   02 Jun 2027 20:25:44.827   02 Jun 2027 20:25:57.628            12.801               Magadan1           400.031
       241   02 Jun 2027 21:09:48.684   02 Jun 2027 21:11:48.048           119.364            RioGallegos          3730.125
       242   02 Jun 2027 21:48:42.957   02 Jun 2027 21:50:52.555           129.598                Anadyr2          4049.937
       243   02 Jun 2027 21:50:52.922   02 Jun 2027 21:52:22.437            89.515                Norilsk          2797.344
       244   02 Jun 2027 21:52:28.678   02 Jun 2027 21:53:16.737            48.059               Magadan2          1501.844
       245   02 Jun 2027 21:53:28.187   02 Jun 2027 21:53:42.506            14.319               Magadan2           447.469
       246   02 Jun 2027 21:54:10.766   02 Jun 2027 21:55:10.600            59.834               Magadan2          1869.812
       247   02 Jun 2027 21:56:01.609   02 Jun 2027 21:56:25.326            23.717                Irkutsk           741.156
       248   02 Jun 2027 21:57:21.689   02 Jun 2027 21:58:25.809            64.120                Irkutsk          2003.750
       249   02 Jun 2027 22:11:26.829   02 Jun 2027 22:13:09.864           103.035                Sumatra          3219.844
       250   02 Jun 2027 22:16:54.711   02 Jun 2027 22:18:47.256           112.545                Sumatra          3517.031
       251   02 Jun 2027 23:24:56.256   02 Jun 2027 23:26:06.799            70.543                Anadyr1          2204.469
       252   02 Jun 2027 23:27:07.536   02 Jun 2027 23:27:14.023             6.487                Norilsk           202.719
       253   02 Jun 2027 23:27:14.703   02 Jun 2027 23:27:58.668            43.965               Magadan1          1373.906
       254   02 Jun 2027 23:28:07.880   02 Jun 2027 23:28:16.368             8.488                Norilsk           265.250
       255   02 Jun 2027 23:29:15.124   02 Jun 2027 23:30:24.466            69.342               Magadan1          2166.938
       256   02 Jun 2027 23:31:20.619   02 Jun 2027 23:32:15.007            54.388                Novosib          1699.625
       257   02 Jun 2027 23:35:16.568   02 Jun 2027 23:35:50.972            34.404                Novosib          1075.125
       258   02 Jun 2027 23:38:57.725   02 Jun 2027 23:39:16.297            18.572                Novosib           580.375
       259   02 Jun 2027 23:40:30.346   02 Jun 2027 23:40:52.010            21.664                Novosib           677.000
       260   02 Jun 2027 23:42:41.080   02 Jun 2027 23:43:19.053            37.973                  Delhi          1186.656
       261   02 Jun 2027 23:44:10.983   02 Jun 2027 23:45:06.306            55.323                  Delhi          1728.844
       262   03 Jun 2027 00:22:27.719   03 Jun 2027 00:22:42.399            14.680            RioGallegos           458.750
       263   03 Jun 2027 00:25:10.710   03 Jun 2027 00:26:02.963            52.253            RioGallegos          1632.906
       264   03 Jun 2027 00:58:36.626   03 Jun 2027 00:59:35.928            59.302                Anadyr2          1853.187
       265   03 Jun 2027 00:59:59.772   03 Jun 2027 01:00:23.549            23.777                Anadyr1           743.031
       266   03 Jun 2027 01:00:45.138   03 Jun 2027 01:00:56.383            11.245                Anadyr2           351.406
       267   03 Jun 2027 01:02:36.054   03 Jun 2027 01:02:36.501             0.447                Norilsk            13.969
       268   03 Jun 2027 01:03:01.919   03 Jun 2027 01:03:08.878             6.959                Norilsk           217.469
       269   03 Jun 2027 01:03:13.558   03 Jun 2027 01:04:55.459           101.901               Magadan2          3184.406
       270   03 Jun 2027 01:05:43.391   03 Jun 2027 01:08:40.495           177.104              Murmansk2          5534.500
       271   03 Jun 2027 01:13:46.997   03 Jun 2027 01:14:16.414            29.417                  Delhi           919.281
       272   03 Jun 2027 01:17:26.896   03 Jun 2027 01:19:36.621           129.725                  Delhi          4053.906
       273   03 Jun 2027 01:55:28.923   03 Jun 2027 01:56:07.605            38.682            RioGallegos          1208.813
       274   03 Jun 2027 02:02:32.746   03 Jun 2027 02:03:01.637            28.891            RioGallegos           902.844
       275   03 Jun 2027 02:33:32.708   03 Jun 2027 02:34:04.527            31.819                Anadyr2           994.344
       276   03 Jun 2027 02:34:30.303   03 Jun 2027 02:34:45.182            14.879                Anadyr1           464.969
       277   03 Jun 2027 02:37:34.188   03 Jun 2027 02:37:41.087             6.899                Anadyr2           215.594
       278   03 Jun 2027 02:37:46.064   03 Jun 2027 02:38:58.321            72.257               Magadan2          2258.031
       279   03 Jun 2027 02:39:54.211   03 Jun 2027 02:40:55.401            61.190               Magadan2          1912.188
       280   03 Jun 2027 02:41:19.927   03 Jun 2027 02:42:15.021            55.094              Murmansk1          1721.687
       281   03 Jun 2027 02:42:15.021   03 Jun 2027 02:42:54.797            39.776              Murmansk2          1243.000
       282   03 Jun 2027 02:43:54.964   03 Jun 2027 02:44:00.282             5.318                Novosib           166.187
       283   03 Jun 2027 02:45:00.198   03 Jun 2027 02:45:01.018             0.820                Irkutsk            25.625
       284   03 Jun 2027 02:45:54.730   03 Jun 2027 02:46:49.782            55.052                Irkutsk          1720.375
       285   03 Jun 2027 02:51:08.657   03 Jun 2027 02:51:54.731            46.074                  Delhi          1439.812
       286   03 Jun 2027 04:23:59.361   03 Jun 2027 04:26:10.463           131.102                Novosib          4096.938
       287   03 Jun 2027 04:26:30.751   03 Jun 2027 04:26:54.187            23.436              Murmansk2           732.375
       288   03 Jun 2027 04:27:34.696   03 Jun 2027 04:29:11.189            96.493              Murmansk2          3015.406
       289   03 Jun 2027 05:47:37.597   03 Jun 2027 05:52:17.460           279.863                Anadyr1          8745.719
       290   03 Jun 2027 07:24:31.913   03 Jun 2027 07:25:37.207            65.294                Anadyr1          2040.437
       291   03 Jun 2027 07:25:46.587   03 Jun 2027 07:26:58.304            71.717               Magadan1          2241.156
       292   03 Jun 2027 08:57:30.282   03 Jun 2027 08:57:50.023            19.741               Magadan1           616.906
       293   03 Jun 2027 08:58:37.657   03 Jun 2027 08:59:41.245            63.588                Anadyr2          1987.125
       294   03 Jun 2027 09:00:01.301   03 Jun 2027 09:01:11.931            70.630               Magadan1          2207.187
       295   03 Jun 2027 09:01:11.931   03 Jun 2027 09:01:58.711            46.780               Magadan2          1461.875
       296   03 Jun 2027 09:02:11.797   03 Jun 2027 09:02:57.747            45.950               Magadan1          1435.937
       297   03 Jun 2027 09:03:01.794   03 Jun 2027 09:03:18.927            17.133               Magadan2           535.406
       298   03 Jun 2027 09:03:25.248   03 Jun 2027 09:03:59.822            34.574                Anadyr2          1080.438
       299   03 Jun 2027 09:04:05.025   03 Jun 2027 09:04:48.232            43.207               Magadan2          1350.219
       300   03 Jun 2027 09:39:50.440   03 Jun 2027 09:40:16.138            25.698            RioGallegos           803.062
       301   03 Jun 2027 09:40:28.713   03 Jun 2027 09:40:32.759             4.046            RioGallegos           126.437
       302   03 Jun 2027 09:42:40.786   03 Jun 2027 09:43:06.481            25.695            RioGallegos           802.969
       303   03 Jun 2027 10:16:54.475   03 Jun 2027 10:18:41.762           107.287                Sumatra          3352.719
       304   03 Jun 2027 10:34:44.546   03 Jun 2027 10:35:13.731            29.185               Magadan2           912.031
       305   03 Jun 2027 10:36:02.356   03 Jun 2027 10:37:57.231           114.875               Magadan2          3589.844
       306   03 Jun 2027 10:38:04.551   03 Jun 2027 10:38:18.879            14.328                Norilsk           447.750
       307   03 Jun 2027 10:38:38.087   03 Jun 2027 10:38:46.033             7.946                Irkutsk           248.312
       308   03 Jun 2027 10:38:47.004   03 Jun 2027 10:38:51.937             4.933                Norilsk           154.156
       309   03 Jun 2027 10:39:10.710   03 Jun 2027 10:39:24.237            13.527                Novosib           422.719
       310   03 Jun 2027 10:39:31.078   03 Jun 2027 10:39:57.976            26.898                Irkutsk           840.562
       311   03 Jun 2027 10:40:05.234   03 Jun 2027 10:40:20.630            15.396                Norilsk           481.125
       312   03 Jun 2027 10:40:24.370   03 Jun 2027 10:40:42.961            18.591                Norilsk           580.969
       313   03 Jun 2027 10:40:45.493   03 Jun 2027 10:42:07.948            82.455                Novosib          2576.719
       314   03 Jun 2027 11:18:32.056   03 Jun 2027 11:18:48.875            16.819            RioGallegos           525.594
       315   03 Jun 2027 11:50:23.911   03 Jun 2027 11:51:03.945            40.034                Sumatra          1251.063
       316   03 Jun 2027 11:59:41.590   03 Jun 2027 12:00:06.096            24.506                  Delhi           765.813
       317   03 Jun 2027 12:05:05.107   03 Jun 2027 12:05:25.954            20.847                Irkutsk           651.469
       318   03 Jun 2027 12:07:07.914   03 Jun 2027 12:07:55.839            47.925                Irkutsk          1497.656
       319   03 Jun 2027 12:15:01.166   03 Jun 2027 12:15:50.079            48.913                Irkutsk          1528.531
       320   03 Jun 2027 12:58:38.564   03 Jun 2027 12:59:54.071            75.507            RioGallegos          2359.594
       321   03 Jun 2027 13:34:57.040   03 Jun 2027 13:35:15.111            18.071                  Delhi           564.719
       322   03 Jun 2027 13:37:25.240   03 Jun 2027 13:39:45.605           140.365                  Delhi          4386.406
       323   03 Jun 2027 13:43:03.401   03 Jun 2027 13:43:46.672            43.271                Novosib          1352.219
       324   03 Jun 2027 13:46:37.019   03 Jun 2027 13:47:26.393            49.374                Novosib          1542.937
       325   03 Jun 2027 13:55:52.487   03 Jun 2027 13:55:58.592             6.105                Norilsk           190.781
       326   03 Jun 2027 15:18:55.505   03 Jun 2027 15:22:48.378           232.873                 Moscow          7277.281
       327   03 Jun 2027 15:25:34.258   03 Jun 2027 15:25:53.193            18.935              Murmansk1           591.719
       328   03 Jun 2027 15:27:28.000   03 Jun 2027 15:31:52.446           264.446                Norilsk          8263.938
       329   03 Jun 2027 15:31:55.922   03 Jun 2027 15:32:09.375            13.453                Norilsk           420.406
       330   03 Jun 2027 16:38:31.713   03 Jun 2027 16:39:10.206            38.493               CapeTown          1202.906
       331   03 Jun 2027 16:57:00.157   03 Jun 2027 16:57:31.838            31.681                 Moscow           990.031
       332   03 Jun 2027 16:58:14.219   03 Jun 2027 16:58:17.393             3.174                 Moscow            99.187
       333   03 Jun 2027 16:59:51.363   03 Jun 2027 17:00:46.624            55.261              Murmansk2          1726.906
       334   03 Jun 2027 17:03:12.948   03 Jun 2027 17:04:27.009            74.061              Murmansk1          2314.406
       335   03 Jun 2027 17:13:16.967   03 Jun 2027 17:14:32.165            75.198                Anadyr1          2349.938
       336   03 Jun 2027 17:14:32.165   03 Jun 2027 17:15:31.854            59.689                Anadyr2          1865.281
       337   03 Jun 2027 17:21:56.036   03 Jun 2027 17:22:06.787            10.751                Anadyr2           335.969
       338   03 Jun 2027 18:10:26.800   03 Jun 2027 18:11:06.413            39.613               CapeTown          1237.906
       339   03 Jun 2027 18:17:17.383   03 Jun 2027 18:17:41.928            24.545               CapeTown           767.031
       340   03 Jun 2027 18:39:43.335   03 Jun 2027 18:41:46.145           122.810              Murmansk1          3837.813
       341   03 Jun 2027 18:43:07.225   03 Jun 2027 18:44:33.175            85.950              Murmansk1          2685.938
       342   03 Jun 2027 18:44:54.632   03 Jun 2027 18:44:57.116             2.484              Murmansk2            77.625
       343   03 Jun 2027 18:49:33.899   03 Jun 2027 18:49:45.965            12.066                Anadyr1           377.062
       344   03 Jun 2027 18:50:12.806   03 Jun 2027 18:51:05.937            53.131                Anadyr1          1660.344
       345   03 Jun 2027 18:51:59.728   03 Jun 2027 18:52:38.125            38.397               Magadan1          1199.906
       346   03 Jun 2027 18:53:02.958   03 Jun 2027 18:53:29.813            26.855               Magadan1           839.219
       347   03 Jun 2027 18:56:25.834   03 Jun 2027 18:57:15.448            49.614               Magadan1          1550.437
       348   03 Jun 2027 20:24:53.826   03 Jun 2027 20:26:31.107            97.281                Anadyr2          3040.031
       349   03 Jun 2027 20:26:58.555   03 Jun 2027 20:27:08.006             9.451                Anadyr1           295.344
       350   03 Jun 2027 20:27:11.807   03 Jun 2027 20:31:08.469           236.662               Magadan2          7395.688
       351   03 Jun 2027 20:31:55.798   03 Jun 2027 20:32:37.845            42.047               Magadan2          1313.969
       352   03 Jun 2027 20:34:32.852   03 Jun 2027 20:35:12.249            39.397               Magadan1          1231.156
       353   03 Jun 2027 21:20:49.019   03 Jun 2027 21:23:27.249           158.230            RioGallegos          4944.688
       354   03 Jun 2027 21:25:43.554   03 Jun 2027 21:26:09.615            26.061            RioGallegos           814.406
       355   03 Jun 2027 22:00:42.454   03 Jun 2027 22:03:09.453           146.999                Anadyr2          4593.719
       356   03 Jun 2027 22:03:11.871   03 Jun 2027 22:03:19.108             7.237               Magadan2           226.156
       357   03 Jun 2027 22:03:29.708   03 Jun 2027 22:03:43.106            13.398                Anadyr2           418.688
       358   03 Jun 2027 22:03:44.268   03 Jun 2027 22:04:18.766            34.498                Norilsk          1078.063
       359   03 Jun 2027 22:05:24.317   03 Jun 2027 22:05:38.007            13.690               Magadan2           427.813
       360   03 Jun 2027 22:05:51.637   03 Jun 2027 22:06:02.367            10.730               Magadan2           335.312
       361   03 Jun 2027 22:06:10.209   03 Jun 2027 22:06:28.782            18.573                Norilsk           580.406
       362   03 Jun 2027 22:07:40.286   03 Jun 2027 22:08:22.533            42.247                Irkutsk          1320.219
       363   03 Jun 2027 22:09:43.039   03 Jun 2027 22:10:29.344            46.305                Irkutsk          1447.031
       364   03 Jun 2027 22:16:38.884   03 Jun 2027 22:16:53.852            14.968                Irkutsk           467.750
       365   03 Jun 2027 22:22:27.977   03 Jun 2027 22:22:32.150             4.173                Sumatra           130.406
       366   03 Jun 2027 22:24:07.184   03 Jun 2027 22:26:16.052           128.868                Sumatra          4027.125
       367   03 Jun 2027 23:35:56.953   03 Jun 2027 23:36:49.334            52.381                Anadyr1          1636.906
       368   03 Jun 2027 23:38:07.824   03 Jun 2027 23:38:29.426            21.602                Anadyr2           675.062
       369   03 Jun 2027 23:38:37.528   03 Jun 2027 23:40:23.297           105.769                Norilsk          3305.281
       370   03 Jun 2027 23:40:38.083   03 Jun 2027 23:42:16.393            98.310               Magadan2          3072.187
       371   03 Jun 2027 23:42:32.067   03 Jun 2027 23:43:35.964            63.897                Irkutsk          1996.781
       372   03 Jun 2027 23:44:10.682   03 Jun 2027 23:45:06.153            55.471                Novosib          1733.469
       373   03 Jun 2027 23:45:36.474   03 Jun 2027 23:46:26.581            50.107                Novosib          1565.844
       374   03 Jun 2027 23:52:46.420   03 Jun 2027 23:54:21.328            94.908                  Delhi          2965.875
       375   04 Jun 2027 00:38:37.426   04 Jun 2027 00:39:06.621            29.195            RioGallegos           912.344
       376   04 Jun 2027 00:42:37.920   04 Jun 2027 00:42:41.783             3.863            RioGallegos           120.719
       377   04 Jun 2027 01:10:01.219   04 Jun 2027 01:11:23.498            82.279                Anadyr2          2571.219
       378   04 Jun 2027 01:11:35.063   04 Jun 2027 01:11:59.882            24.819                Anadyr1           775.594
       379   04 Jun 2027 01:14:38.194   04 Jun 2027 01:14:56.071            17.877                Norilsk           558.656
       380   04 Jun 2027 01:15:10.783   04 Jun 2027 01:16:40.616            89.833                Norilsk          2807.281
       381   04 Jun 2027 01:16:45.266   04 Jun 2027 01:16:54.794             9.528               Magadan2           297.750
       382   04 Jun 2027 01:17:28.120   04 Jun 2027 01:18:36.379            68.259              Murmansk1          2133.094
       383   04 Jun 2027 01:18:37.859   04 Jun 2027 01:20:31.491           113.632              Murmansk2          3551.000
       384   04 Jun 2027 01:28:08.172   04 Jun 2027 01:28:23.287            15.115                  Delhi           472.344
       385   04 Jun 2027 01:29:35.916   04 Jun 2027 01:30:14.298            38.382                  Delhi          1199.437
       386   04 Jun 2027 01:34:40.869   04 Jun 2027 01:34:45.679             4.810                  Delhi           150.313
       387   04 Jun 2027 01:37:47.097   04 Jun 2027 01:37:57.058             9.961                  Delhi           311.281
       388   04 Jun 2027 02:07:47.363   04 Jun 2027 02:09:05.279            77.916            RioGallegos          2434.875
       389   04 Jun 2027 02:09:45.785   04 Jun 2027 02:09:54.470             8.685            RioGallegos           271.406
       390   04 Jun 2027 02:10:14.718   04 Jun 2027 02:10:36.608            21.890            RioGallegos           684.062
       391   04 Jun 2027 02:12:41.281   04 Jun 2027 02:12:47.401             6.120            RioGallegos           191.250
       392   04 Jun 2027 02:43:18.133   04 Jun 2027 02:43:42.902            24.769                Anadyr1           774.031
       393   04 Jun 2027 02:45:31.511   04 Jun 2027 02:46:32.909            61.398                Anadyr1          1918.688
       394   04 Jun 2027 02:49:20.183   04 Jun 2027 02:50:04.771            44.588               Magadan1          1393.375
       395   04 Jun 2027 02:50:33.345   04 Jun 2027 02:50:38.007             4.662                Norilsk           145.688
       396   04 Jun 2027 02:51:25.339   04 Jun 2027 02:51:42.250            16.911                Norilsk           528.469
       397   04 Jun 2027 02:52:12.673   04 Jun 2027 02:52:40.308            27.635                Norilsk           863.594
       398   04 Jun 2027 02:52:47.603   04 Jun 2027 02:53:48.502            60.899              Murmansk2          1903.094
       399   04 Jun 2027 02:54:13.330   04 Jun 2027 02:54:26.549            13.219              Murmansk1           413.094
       400   04 Jun 2027 02:54:26.549   04 Jun 2027 02:54:29.378             2.829              Murmansk2            88.406
       401   04 Jun 2027 02:54:41.872   04 Jun 2027 02:55:58.539            76.667              Murmansk1          2395.844
       402   04 Jun 2027 02:58:55.912   04 Jun 2027 02:59:14.728            18.816                Irkutsk           588.000
       403   04 Jun 2027 03:00:16.947   04 Jun 2027 03:00:44.340            27.393              Murmansk1           856.031
       404   04 Jun 2027 03:00:46.481   04 Jun 2027 03:01:05.816            19.335                Novosib           604.219
       405   04 Jun 2027 03:01:30.914   04 Jun 2027 03:02:22.639            51.725              Murmansk1          1616.406
       406   04 Jun 2027 03:02:25.405   04 Jun 2027 03:03:49.120            83.715                Novosib          2616.094
       407   04 Jun 2027 03:03:50.244   04 Jun 2027 03:04:09.797            19.553                  Delhi           611.031
       408   04 Jun 2027 03:06:18.196   04 Jun 2027 03:08:42.770           144.574                  Delhi          4517.938
       409   04 Jun 2027 04:37:17.550   04 Jun 2027 04:38:52.830            95.280              Murmansk2          2977.500
       410   04 Jun 2027 04:39:37.102   04 Jun 2027 04:40:02.809            25.707              Murmansk1           803.344
       411   04 Jun 2027 04:40:02.809   04 Jun 2027 04:41:04.678            61.869              Murmansk2          1933.406
       412   04 Jun 2027 04:55:50.711   04 Jun 2027 04:56:22.688            31.977               CapeTown           999.281
       413   04 Jun 2027 05:53:43.335   04 Jun 2027 05:54:27.552            44.217               Magadan2          1381.781
       414   04 Jun 2027 05:59:04.402   04 Jun 2027 06:00:49.235           104.833                Anadyr2          3276.031
       415   04 Jun 2027 06:00:54.981   04 Jun 2027 06:01:08.479            13.498               Magadan2           421.812
       416   04 Jun 2027 06:01:38.724   04 Jun 2027 06:01:56.458            17.734               Magadan2           554.188
       417   04 Jun 2027 07:35:46.688   04 Jun 2027 07:35:52.153             5.465                Anadyr1           170.781
       418   04 Jun 2027 07:36:09.113   04 Jun 2027 07:36:21.041            11.928               Magadan2           372.750
       419   04 Jun 2027 07:36:40.934   04 Jun 2027 07:36:42.602             1.668               Magadan1            52.125
       420   04 Jun 2027 07:36:44.445   04 Jun 2027 07:37:22.686            38.241               Magadan2          1195.031
       421   04 Jun 2027 07:37:37.242   04 Jun 2027 07:38:11.265            34.023                Anadyr2          1063.219
       422   04 Jun 2027 07:39:43.053   04 Jun 2027 07:40:12.021            28.968                Anadyr2           905.250
       423   04 Jun 2027 07:45:24.255   04 Jun 2027 07:46:05.130            40.875                 Moscow          1277.344
       424   04 Jun 2027 08:22:38.511   04 Jun 2027 08:23:25.085            46.574            RioGallegos          1455.437
       425   04 Jun 2027 09:10:22.828   04 Jun 2027 09:10:42.074            19.246               Magadan2           601.437
       426   04 Jun 2027 09:10:52.034   04 Jun 2027 09:11:29.444            37.410               Magadan2          1169.063
       427   04 Jun 2027 09:11:34.760   04 Jun 2027 09:12:07.580            32.820               Magadan1          1025.625
       428   04 Jun 2027 09:12:44.152   04 Jun 2027 09:14:09.528            85.376                Anadyr1          2668.000
       429   04 Jun 2027 09:15:20.040   04 Jun 2027 09:15:27.901             7.861               Magadan2           245.656
       430   04 Jun 2027 09:15:45.142   04 Jun 2027 09:16:17.993            32.851               Magadan1          1026.594
       431   04 Jun 2027 09:16:46.193   04 Jun 2027 09:16:46.550             0.357                Novosib            11.156
       432   04 Jun 2027 09:18:24.393   04 Jun 2027 09:18:50.819            26.426                Norilsk           825.813
       433   04 Jun 2027 09:51:41.688   04 Jun 2027 09:52:28.060            46.372            RioGallegos          1449.125
       434   04 Jun 2027 09:57:03.233   04 Jun 2027 09:57:49.756            46.523            RioGallegos          1453.844
       435   04 Jun 2027 10:28:05.795   04 Jun 2027 10:28:07.469             1.674                Sumatra            52.313
       436   04 Jun 2027 10:29:22.235   04 Jun 2027 10:30:40.759            78.524                Sumatra          2453.875
       437   04 Jun 2027 10:46:15.979   04 Jun 2027 10:46:20.875             4.896                Novosib           153.000
       438   04 Jun 2027 10:47:13.490   04 Jun 2027 10:47:16.319             2.829                Norilsk            88.406
       439   04 Jun 2027 10:47:37.646   04 Jun 2027 10:47:55.847            18.201                Irkutsk           568.781
       440   04 Jun 2027 10:48:04.093   04 Jun 2027 10:48:46.018            41.925                Irkutsk          1310.156
       441   04 Jun 2027 10:49:21.760   04 Jun 2027 10:49:49.361            27.601                Norilsk           862.531
       442   04 Jun 2027 10:49:54.995   04 Jun 2027 10:50:19.164            24.169                Norilsk           755.281
       443   04 Jun 2027 10:50:35.713   04 Jun 2027 10:50:53.008            17.295                Irkutsk           540.469
       444   04 Jun 2027 10:51:08.651   04 Jun 2027 10:51:57.862            49.211                Irkutsk          1537.844
       445   04 Jun 2027 10:52:03.593   04 Jun 2027 10:52:27.124            23.531              Murmansk2           735.344
       446   04 Jun 2027 10:52:31.362   04 Jun 2027 10:52:50.255            18.893                Irkutsk           590.406
       447   04 Jun 2027 11:28:16.463   04 Jun 2027 11:29:00.493            44.030            RioGallegos          1375.938
       448   04 Jun 2027 11:30:37.522   04 Jun 2027 11:31:39.143            61.621            RioGallegos          1925.656
       449   04 Jun 2027 12:02:36.276   04 Jun 2027 12:02:40.719             4.443                Sumatra           138.844
       450   04 Jun 2027 12:05:11.702   04 Jun 2027 12:07:15.313           123.611                Sumatra          3862.844
       451   04 Jun 2027 12:21:48.024   04 Jun 2027 12:22:44.999            56.975                Irkutsk          1780.469
       452   04 Jun 2027 13:47:20.396   04 Jun 2027 13:48:45.430            85.034                  Delhi          2657.312
       453   04 Jun 2027 13:51:15.646   04 Jun 2027 13:51:59.997            44.351                  Delhi          1385.969
       454   04 Jun 2027 13:55:23.526   04 Jun 2027 13:57:19.245           115.719                  Delhi          3616.219
       455   04 Jun 2027 13:57:22.898   04 Jun 2027 13:58:35.031            72.133                Novosib          2254.156
       456   04 Jun 2027 13:59:26.407   04 Jun 2027 14:00:26.103            59.696                Norilsk          1865.500
       457   04 Jun 2027 14:02:39.262   04 Jun 2027 14:03:51.298            72.036                Norilsk          2251.125
       458   04 Jun 2027 15:31:00.858   04 Jun 2027 15:34:26.346           205.488                 Moscow          6421.500
       459   04 Jun 2027 15:35:01.990   04 Jun 2027 15:35:40.797            38.807              Murmansk2          1212.719
       460   04 Jun 2027 15:40:22.668   04 Jun 2027 15:43:27.596           184.928                Norilsk          5779.000
       461   04 Jun 2027 16:48:14.258   04 Jun 2027 16:48:22.855             8.597               CapeTown           268.656
       462   04 Jun 2027 16:49:04.244   04 Jun 2027 16:50:34.759            90.515               CapeTown          2828.594
       463   04 Jun 2027 17:09:38.858   04 Jun 2027 17:09:51.148            12.290                 Moscow           384.063
       464   04 Jun 2027 17:12:03.206   04 Jun 2027 17:12:21.882            18.676                 Moscow           583.625
       465   04 Jun 2027 17:12:26.668   04 Jun 2027 17:12:32.956             6.288              Murmansk1           196.500
       466   04 Jun 2027 17:13:13.315   04 Jun 2027 17:14:11.562            58.247                 Moscow          1820.219
       467   04 Jun 2027 17:15:48.053   04 Jun 2027 17:16:54.568            66.515              Murmansk1          2078.594
       468   04 Jun 2027 17:25:14.449   04 Jun 2027 17:26:03.902            49.453                Anadyr2          1545.406
       469   04 Jun 2027 17:26:11.844   04 Jun 2027 17:26:26.688            14.844                Anadyr2           463.875
       470   04 Jun 2027 17:30:08.311   04 Jun 2027 17:30:32.050            23.739                Anadyr1           741.844
       471   04 Jun 2027 17:34:15.471   04 Jun 2027 17:34:29.862            14.391                Anadyr2           449.719
       472   04 Jun 2027 18:20:47.728   04 Jun 2027 18:21:36.717            48.989               CapeTown          1530.906
       473   04 Jun 2027 18:29:07.226   04 Jun 2027 18:30:34.816            87.590               CapeTown          2737.188
       474   04 Jun 2027 18:52:30.575   04 Jun 2027 18:56:28.679           238.104              Murmansk1          7440.750
       475   04 Jun 2027 19:03:50.107   04 Jun 2027 19:04:30.106            39.999               Magadan2          1249.969
       476   04 Jun 2027 19:09:09.427   04 Jun 2027 19:09:39.795            30.368               Magadan2           949.000
       477   04 Jun 2027 19:13:16.815   04 Jun 2027 19:13:18.607             1.792               Magadan2            56.000
       478   04 Jun 2027 20:36:55.300   04 Jun 2027 20:40:34.344           219.044                Anadyr1          6845.125
       479   04 Jun 2027 20:40:46.342   04 Jun 2027 20:42:55.377           129.035               Magadan2          4032.344
       480   04 Jun 2027 20:43:03.922   04 Jun 2027 20:43:11.227             7.305               Magadan1           228.281
       481   04 Jun 2027 20:43:22.685   04 Jun 2027 20:43:49.401            26.716                Anadyr1           834.875
       482   04 Jun 2027 20:43:57.229   04 Jun 2027 20:44:17.740            20.511               Magadan1           640.969
