uniorb/output/strategy_4/Drop/Drop_KinoSat_110509.txt

KinoSat_110509
-------------------------
    Access    *     Start Time (UTCG)     *     Stop Time (UTCG)  *   Duration (s)        *       Station  *  Data (Mbytes)
         1   01 Jun 2027 03:11:02.121   01 Jun 2027 03:11:34.269            32.148                Anadyr2          4018.500
         2   01 Jun 2027 03:11:50.304   01 Jun 2027 03:12:20.037            29.733               Magadan1          3716.625
         3   01 Jun 2027 03:12:25.598   01 Jun 2027 03:12:47.740            22.142               Magadan2          2767.750
         4   01 Jun 2027 03:13:05.032   01 Jun 2027 03:13:14.215             9.183               Magadan2          1147.875
         5   01 Jun 2027 03:13:27.124   01 Jun 2027 03:14:19.730            52.606                Anadyr1          6575.750
         6   01 Jun 2027 03:16:14.608   01 Jun 2027 03:16:26.047            11.439               Magadan1          1429.875
         7   01 Jun 2027 04:46:45.440   01 Jun 2027 04:46:52.521             7.081                Irkutsk           885.125
         8   01 Jun 2027 04:47:00.269   01 Jun 2027 04:47:05.873             5.604                Irkutsk           700.500
         9   01 Jun 2027 04:47:27.123   01 Jun 2027 04:48:29.389            62.266               Magadan1          7783.250
        10   01 Jun 2027 04:48:41.811   01 Jun 2027 04:49:51.921            70.110                Irkutsk          8763.750
        11   01 Jun 2027 04:50:20.620   01 Jun 2027 04:51:32.817            72.197                Irkutsk          9024.625
        12   01 Jun 2027 04:51:55.037   01 Jun 2027 04:52:08.529            13.492                Norilsk          1686.500
        13   01 Jun 2027 04:53:09.707   01 Jun 2027 04:53:24.236            14.529                Norilsk          1816.125
        14   01 Jun 2027 05:26:50.943   01 Jun 2027 05:27:13.310            22.367            RioGallegos          2795.875
        15   01 Jun 2027 05:28:52.569   01 Jun 2027 05:29:25.333            32.764            RioGallegos          4095.500
        16   01 Jun 2027 06:02:30.957   01 Jun 2027 06:04:10.569            99.612                Sumatra         12451.500
        17   01 Jun 2027 06:24:10.521   01 Jun 2027 06:24:23.580            13.059                Irkutsk          1632.375
        18   01 Jun 2027 06:24:24.561   01 Jun 2027 06:24:27.212             2.651                Norilsk           331.375
        19   01 Jun 2027 06:24:35.817   01 Jun 2027 06:24:57.590            21.773                Irkutsk          2721.625
        20   01 Jun 2027 06:25:02.997   01 Jun 2027 06:25:51.298            48.301                Novosib          6037.625
        21   01 Jun 2027 06:25:58.655   01 Jun 2027 06:26:05.599             6.944                Norilsk           868.000
        22   01 Jun 2027 06:26:08.875   01 Jun 2027 06:26:34.990            26.115              Murmansk2          3264.375
        23   01 Jun 2027 06:26:58.133   01 Jun 2027 06:28:02.916            64.783                Novosib          8097.875
        24   01 Jun 2027 06:28:03.393   01 Jun 2027 06:28:42.304            38.911                Norilsk          4863.875
        25   01 Jun 2027 07:04:17.090   01 Jun 2027 07:05:15.137            58.047            RioGallegos          7255.875
        26   01 Jun 2027 07:46:09.397   01 Jun 2027 07:46:16.485             7.088                  Delhi           886.000
        27   01 Jun 2027 07:47:51.076   01 Jun 2027 07:48:11.072            19.996                  Delhi          2499.500
        28   01 Jun 2027 07:49:01.930   01 Jun 2027 07:49:57.097            55.167                  Delhi          6895.875
        29   01 Jun 2027 08:01:50.563   01 Jun 2027 08:03:37.593           107.030                 Moscow         13378.750
        30   01 Jun 2027 09:23:35.800   01 Jun 2027 09:23:54.602            18.802                  Delhi          2350.250
        31   01 Jun 2027 09:24:42.777   01 Jun 2027 09:25:09.132            26.355                  Delhi          3294.375
        32   01 Jun 2027 09:37:32.130   01 Jun 2027 09:38:13.055            40.925                Novosib          5115.625
        33   01 Jun 2027 09:39:14.596   01 Jun 2027 09:39:46.739            32.143                Novosib          4017.875
        34   01 Jun 2027 09:40:02.184   01 Jun 2027 09:40:14.892            12.708                Novosib          1588.500
        35   01 Jun 2027 09:40:20.292   01 Jun 2027 09:46:43.100           382.808              Murmansk2         47851.000
        36   01 Jun 2027 11:06:33.547   01 Jun 2027 11:10:26.664           233.117                 Moscow         29139.625
        37   01 Jun 2027 11:25:40.993   01 Jun 2027 11:29:26.727           225.734                Anadyr1         28216.750
        38   01 Jun 2027 11:31:04.283   01 Jun 2027 11:31:32.548            28.265                Anadyr2          3533.125
        39   01 Jun 2027 14:38:57.403   01 Jun 2027 14:41:18.646           141.243               Magadan2         17655.375
        40   01 Jun 2027 14:43:43.263   01 Jun 2027 14:45:44.112           120.849               Magadan2         15106.125
        41   01 Jun 2027 14:46:57.985   01 Jun 2027 14:48:28.061            90.076               Magadan2         11259.500
        42   01 Jun 2027 17:09:11.914   01 Jun 2027 17:13:16.373           244.459            RioGallegos         30557.375
        43   01 Jun 2027 18:02:04.748   01 Jun 2027 18:03:53.634           108.886                Irkutsk         13610.750
        44   01 Jun 2027 18:14:08.708   01 Jun 2027 18:14:51.374            42.666                Sumatra          5333.250
        45   01 Jun 2027 19:41:08.321   01 Jun 2027 19:45:07.772           239.451                  Delhi         29931.375
        46   01 Jun 2027 21:05:32.472   01 Jun 2027 21:08:48.274           195.802              Murmansk1         24475.250
        47   01 Jun 2027 21:08:51.279   01 Jun 2027 21:09:47.689            56.410              Murmansk2          7051.250
        48   01 Jun 2027 21:10:08.278   01 Jun 2027 21:11:50.787           102.509                 Moscow         10969.874
        49   02 Jun 2027 05:02:19.455   02 Jun 2027 05:03:40.918            81.463               Magadan2         10182.875
        50   02 Jun 2027 05:03:48.700   02 Jun 2027 05:04:06.127            17.427                Irkutsk          2178.375
        51   02 Jun 2027 05:04:18.591   02 Jun 2027 05:05:34.529            75.938              Murmansk1          9492.250
        52   02 Jun 2027 05:06:15.579   02 Jun 2027 05:08:36.177           140.598              Murmansk2         17574.750
        53   02 Jun 2027 05:11:26.867   02 Jun 2027 05:12:57.277            90.410              Murmansk1         11301.250
        54   02 Jun 2027 05:43:29.813   02 Jun 2027 05:43:42.750            12.937            RioGallegos          1617.125
        55   02 Jun 2027 06:14:10.992   02 Jun 2027 06:15:54.190           103.198                Sumatra         12899.750
        56   02 Jun 2027 06:18:03.610   02 Jun 2027 06:18:17.371            13.761                Sumatra          1720.125
        57   02 Jun 2027 06:20:30.485   02 Jun 2027 06:21:25.234            54.749                Sumatra          6843.625
        58   02 Jun 2027 06:27:24.695   02 Jun 2027 06:29:24.775           120.080                Irkutsk         15010.000
        59   02 Jun 2027 06:39:13.392   02 Jun 2027 06:40:06.282            52.890                Irkutsk          6611.250
        60   02 Jun 2027 06:40:25.638   02 Jun 2027 06:43:35.190           189.552              Murmansk1         23694.000
        61   02 Jun 2027 06:43:35.190   02 Jun 2027 06:47:35.289           240.099              Murmansk2         30012.375
        62   02 Jun 2027 07:16:50.717   02 Jun 2027 07:18:23.538            92.821            RioGallegos         11602.625
        63   02 Jun 2027 07:18:54.383   02 Jun 2027 07:20:01.629            67.246            RioGallegos          8405.750
        64   02 Jun 2027 07:20:31.524   02 Jun 2027 07:24:34.016           242.492            RioGallegos         30311.500
        65   02 Jun 2027 07:51:03.174   02 Jun 2027 08:00:10.023           546.849                Sumatra         68356.125
        66   02 Jun 2027 08:15:33.800   02 Jun 2027 08:17:31.735           117.935                Novosib         14741.875
        67   02 Jun 2027 08:17:32.001   02 Jun 2027 08:21:07.919           215.918                Norilsk         26989.750
        68   02 Jun 2027 08:22:23.301   02 Jun 2027 08:22:56.422            33.121              Murmansk2          4140.125
        69   02 Jun 2027 09:36:28.661   02 Jun 2027 09:44:22.697           474.036                  Delhi         59254.500
        70   02 Jun 2027 09:45:01.804   02 Jun 2027 09:45:41.458            39.654                Novosib          4956.750
        71   02 Jun 2027 09:51:10.535   02 Jun 2027 09:51:39.763            29.228              Murmansk1          3653.500
        72   02 Jun 2027 09:52:36.712   02 Jun 2027 09:55:19.842           163.130              Murmansk1         20391.250
        73   02 Jun 2027 09:55:23.330   02 Jun 2027 09:58:20.223           176.893              Murmansk2         22111.625
        74   02 Jun 2027 11:22:14.661   02 Jun 2027 11:29:06.631           411.970              Murmansk1         51496.250
        75   02 Jun 2027 11:29:38.378   02 Jun 2027 11:32:13.438           155.060              Murmansk1         19382.500
        76   02 Jun 2027 11:32:56.374   02 Jun 2027 11:33:29.706            33.332              Murmansk1          4166.500
        77   02 Jun 2027 11:37:23.434   02 Jun 2027 11:41:10.157           226.723                Anadyr2         28340.375
        78   02 Jun 2027 13:18:01.879   02 Jun 2027 13:19:50.300           108.421               Magadan1         13552.625
        79   02 Jun 2027 14:50:52.689   02 Jun 2027 14:52:50.949           118.260               Magadan2         14782.500
        80   02 Jun 2027 17:22:29.762   02 Jun 2027 17:24:44.091           134.329            RioGallegos         16791.125
        81   02 Jun 2027 18:08:25.159   02 Jun 2027 18:13:14.640           289.481                Novosib         36185.125
        82   02 Jun 2027 19:54:41.497   02 Jun 2027 19:56:16.463            94.966                  Delhi         11870.750
        83   02 Jun 2027 21:17:39.747   02 Jun 2027 21:18:36.522            56.775              Murmansk1          7096.875
        84   02 Jun 2027 21:19:00.347   02 Jun 2027 21:21:51.995           171.648              Murmansk2         21456.000
        85   02 Jun 2027 21:22:21.442   02 Jun 2027 21:26:55.292           273.850                 Moscow         34231.250
        86   03 Jun 2027 05:16:15.630   03 Jun 2027 05:17:21.924            66.294                Novosib          8286.750
        87   03 Jun 2027 05:17:26.609   03 Jun 2027 05:20:47.883           201.274                Norilsk         25159.250
        88   03 Jun 2027 05:20:50.568   03 Jun 2027 05:21:15.831            25.263                Norilsk          3157.875
        89   03 Jun 2027 05:21:22.362   03 Jun 2027 05:24:46.400           204.038              Murmansk2         25504.750
        90   03 Jun 2027 05:50:53.580   03 Jun 2027 05:55:58.393           304.813            RioGallegos         38101.625
        91   03 Jun 2027 05:58:23.328   03 Jun 2027 05:59:20.244            56.916            RioGallegos          7114.500
        92   03 Jun 2027 06:25:57.821   03 Jun 2027 06:27:30.436            92.615                Sumatra         11576.875
        93   03 Jun 2027 06:28:47.548   03 Jun 2027 06:30:20.039            92.491                Sumatra         11561.375
        94   03 Jun 2027 06:37:34.730   03 Jun 2027 06:38:30.687            55.957                  Delhi          6994.625
        95   03 Jun 2027 06:39:34.981   03 Jun 2027 06:44:29.053           294.072                Irkutsk         36759.000
        96   03 Jun 2027 06:52:07.060   03 Jun 2027 06:57:09.720           302.660                Norilsk         37832.500
        97   03 Jun 2027 06:57:28.118   03 Jun 2027 06:59:30.129           122.011              Murmansk2         15251.375
        98   03 Jun 2027 07:29:31.734   03 Jun 2027 07:38:26.199           534.465            RioGallegos         66808.125
        99   03 Jun 2027 08:03:53.067   03 Jun 2027 08:11:32.682           459.615                Sumatra         57451.875
       100   03 Jun 2027 08:19:48.178   03 Jun 2027 08:24:00.236           252.058                Irkutsk         31507.250
       101   03 Jun 2027 08:27:39.347   03 Jun 2027 08:29:28.806           109.459                Novosib         13682.375
       102   03 Jun 2027 08:29:31.223   03 Jun 2027 08:30:55.193            83.970                Norilsk         10496.250
       103   03 Jun 2027 08:30:55.270   03 Jun 2027 08:32:58.895           123.625              Murmansk1         15453.125
       104   03 Jun 2027 08:32:59.396   03 Jun 2027 08:33:09.582            10.186                Norilsk          1273.250
       105   03 Jun 2027 09:49:48.134   03 Jun 2027 09:55:15.950           327.816                  Delhi         40977.000
       106   03 Jun 2027 10:03:06.738   03 Jun 2027 10:03:12.983             6.245              Murmansk1           780.625
       107   03 Jun 2027 10:04:53.620   03 Jun 2027 10:10:45.563           351.943              Murmansk2         43992.875
       108   03 Jun 2027 11:10:05.191   03 Jun 2027 11:17:57.901           472.710               CapeTown         59088.750
       109   03 Jun 2027 11:31:04.643   03 Jun 2027 11:37:04.542           359.899                 Moscow         44987.375
       110   03 Jun 2027 11:37:07.842   03 Jun 2027 11:46:43.586           575.744              Murmansk2         71968.000
       111   03 Jun 2027 11:49:11.367   03 Jun 2027 11:53:17.250           245.883                Anadyr2         30735.375
       112   03 Jun 2027 11:53:43.351   03 Jun 2027 11:55:06.867            83.516                Anadyr1         10439.500
       113   03 Jun 2027 12:43:48.710   03 Jun 2027 12:44:53.807            65.097               CapeTown          8137.125
       114   03 Jun 2027 12:45:36.217   03 Jun 2027 12:46:26.719            50.502               CapeTown          6312.750
       115   03 Jun 2027 12:47:02.467   03 Jun 2027 12:48:34.925            92.458               CapeTown         11557.250
       116   03 Jun 2027 12:51:58.193   03 Jun 2027 12:53:24.727            86.534               CapeTown         10816.750
       117   03 Jun 2027 13:28:47.645   03 Jun 2027 13:31:59.481           191.836               Magadan2         23979.500
       118   03 Jun 2027 16:45:31.129   03 Jun 2027 16:48:31.081           179.952                Irkutsk         22494.000
       119   03 Jun 2027 18:19:43.888   03 Jun 2027 18:26:28.872           404.984                Novosib         50623.000
       120   03 Jun 2027 21:29:20.314   03 Jun 2027 21:30:05.724            45.410              Murmansk1          5676.250
       121   03 Jun 2027 21:31:14.621   03 Jun 2027 21:33:45.480           150.859              Murmansk2         18857.375
       122   03 Jun 2027 21:34:20.135   03 Jun 2027 21:40:40.861           380.726                 Moscow         47590.750
       123   04 Jun 2027 03:50:37.892   04 Jun 2027 03:52:00.791            82.899                Novosib         10362.375
       124   04 Jun 2027 03:52:01.032   04 Jun 2027 03:52:06.006             4.974                Anadyr2           621.750
       125   04 Jun 2027 03:52:09.410   04 Jun 2027 03:52:24.693            15.283               Magadan1          1910.375
       126   04 Jun 2027 03:52:25.212   04 Jun 2027 03:53:01.622            36.410              Murmansk2          4551.250
       127   04 Jun 2027 03:53:13.169   04 Jun 2027 03:55:09.405           116.236                Norilsk         14529.500
       128   04 Jun 2027 05:28:18.397   04 Jun 2027 05:29:28.379            69.982                Novosib          8747.750
       129   04 Jun 2027 05:29:29.934   04 Jun 2027 05:33:16.123           226.189                Norilsk         28273.625
       130   04 Jun 2027 05:33:21.224   04 Jun 2027 05:36:36.157           194.933              Murmansk2         24366.625
       131   04 Jun 2027 06:02:59.991   04 Jun 2027 06:08:18.340           318.349            RioGallegos         39793.625
       132   04 Jun 2027 06:10:04.545   04 Jun 2027 06:11:22.220            77.675            RioGallegos          9709.375
       133   04 Jun 2027 06:12:15.717   04 Jun 2027 06:12:42.234            26.517            RioGallegos          3314.625
       134   04 Jun 2027 06:37:50.671   04 Jun 2027 06:38:55.384            64.713                Sumatra          8089.125
       135   04 Jun 2027 06:40:56.010   04 Jun 2027 06:42:36.710           100.700                Sumatra         12587.500
       136   04 Jun 2027 06:48:38.565   04 Jun 2027 06:48:50.295            11.730                  Delhi          1466.250
       137   04 Jun 2027 06:50:44.838   04 Jun 2027 06:51:14.393            29.555                  Delhi          3694.375
       138   04 Jun 2027 06:51:49.000   04 Jun 2027 06:56:11.723           262.723                Irkutsk         32840.375
       139   04 Jun 2027 07:04:19.424   04 Jun 2027 07:11:25.647           426.223              Murmansk1         53277.875
       140   04 Jun 2027 07:42:22.626   04 Jun 2027 07:50:01.065           458.439            RioGallegos         57304.875
       141   04 Jun 2027 08:17:15.985   04 Jun 2027 08:22:03.033           287.048                Sumatra         35881.000
       142   04 Jun 2027 08:25:28.082   04 Jun 2027 08:27:22.542           114.460                  Delhi         14307.500
       143   04 Jun 2027 08:29:37.923   04 Jun 2027 08:31:34.193           116.270                Novosib         14533.750
       144   04 Jun 2027 08:31:53.536   04 Jun 2027 08:32:59.656            66.120                Novosib          8265.000
       145   04 Jun 2027 08:33:21.783   04 Jun 2027 08:36:07.801           166.018                Irkutsk         20752.250
       146   04 Jun 2027 08:39:44.352   04 Jun 2027 08:41:24.611           100.259                Novosib         12532.375
       147   04 Jun 2027 08:41:30.895   04 Jun 2027 08:43:03.817            92.922                 Moscow         11615.250
       148   04 Jun 2027 08:43:04.344   04 Jun 2027 08:44:51.090           106.746              Murmansk1         13343.250
       149   04 Jun 2027 08:44:51.090   04 Jun 2027 08:45:33.239            42.149              Murmansk2          5268.625
       150   04 Jun 2027 08:46:25.559   04 Jun 2027 08:46:55.266            29.707              Murmansk1          3713.375
       151   04 Jun 2027 10:16:24.202   04 Jun 2027 10:20:54.050           269.848                Norilsk         33731.000
       152   04 Jun 2027 10:21:18.271   04 Jun 2027 10:22:47.000            88.729              Murmansk2         11091.125
       153   04 Jun 2027 11:21:26.214   04 Jun 2027 11:30:38.116           551.902               CapeTown         68987.750
       154   04 Jun 2027 11:43:25.929   04 Jun 2027 11:53:20.560           594.631                 Moscow         74328.875
       155   04 Jun 2027 11:53:23.566   04 Jun 2027 11:58:44.992           321.426              Murmansk1         40178.250
       156   04 Jun 2027 12:01:02.713   04 Jun 2027 12:09:53.972           531.259                Anadyr1         66407.375
       157   04 Jun 2027 12:55:50.834   04 Jun 2027 12:57:18.536            87.702               CapeTown         10962.750
       158   04 Jun 2027 13:40:14.351   04 Jun 2027 13:43:05.525           171.174               Magadan1         21396.750
       159   04 Jun 2027 13:43:48.495   04 Jun 2027 13:43:49.686             1.191               Magadan1           148.875
       160   04 Jun 2027 13:46:00.971   04 Jun 2027 13:46:51.630            50.659               Magadan1          6332.375
       161   04 Jun 2027 16:56:21.611   04 Jun 2027 17:02:13.282           351.671                Irkutsk         43958.875
       162   04 Jun 2027 17:13:41.038   04 Jun 2027 17:15:47.986           126.948                Sumatra         15868.500
       163   04 Jun 2027 18:31:17.828   04 Jun 2027 18:37:33.641           375.813                Novosib         46976.625
       164   04 Jun 2027 18:39:10.635   04 Jun 2027 18:39:15.856             5.221                Novosib           652.625
       165   04 Jun 2027 20:07:30.170   04 Jun 2027 20:07:34.565             4.395              Murmansk1           549.375
       166   04 Jun 2027 21:40:33.620   04 Jun 2027 21:41:49.479            75.859              Murmansk1          9482.375
       167   04 Jun 2027 21:43:57.173   04 Jun 2027 21:46:13.684           136.511              Murmansk2         17063.875
       168   04 Jun 2027 21:46:16.048   04 Jun 2027 21:49:55.422           219.374                 Moscow         27421.750
       169   04 Jun 2027 22:12:25.137   04 Jun 2027 22:13:40.903            75.766               CapeTown          9013.250
       170   05 Jun 2027 04:03:04.271   05 Jun 2027 04:03:44.941            40.670                Anadyr2          5083.750
       171   05 Jun 2027 04:04:03.504   05 Jun 2027 04:04:30.317            26.813                Novosib          3351.625
       172   05 Jun 2027 04:04:40.860   05 Jun 2027 04:10:11.543           330.683              Murmansk1         41335.375
       173   05 Jun 2027 05:18:14.099   05 Jun 2027 05:18:24.743            10.644                Sumatra          1330.500
       174   05 Jun 2027 05:20:36.500   05 Jun 2027 05:23:05.938           149.438                Sumatra         18679.750
       175   05 Jun 2027 05:40:24.962   05 Jun 2027 05:48:26.600           481.638              Murmansk2         60204.750
       176   05 Jun 2027 06:15:10.011   05 Jun 2027 06:18:07.313           177.302            RioGallegos         22162.750
       177   05 Jun 2027 06:18:24.492   05 Jun 2027 06:18:40.158            15.666            RioGallegos          1958.250
       178   05 Jun 2027 06:19:03.414   05 Jun 2027 06:20:01.509            58.095            RioGallegos          7261.875
       179   05 Jun 2027 06:22:18.101   05 Jun 2027 06:22:50.271            32.170            RioGallegos          4021.250
       180   05 Jun 2027 06:24:21.457   05 Jun 2027 06:24:55.292            33.835            RioGallegos          4229.375
       181   05 Jun 2027 06:49:49.168   05 Jun 2027 06:51:51.213           122.045                Sumatra         15255.625
       182   05 Jun 2027 06:53:56.555   05 Jun 2027 06:54:56.393            59.838                Sumatra          7479.750
       183   05 Jun 2027 06:58:54.917   05 Jun 2027 06:59:26.516            31.599                Sumatra          3949.875
       184   05 Jun 2027 06:59:55.728   05 Jun 2027 07:00:09.018            13.290                  Delhi          1661.250
       185   05 Jun 2027 07:00:25.363   05 Jun 2027 07:00:52.427            27.064                  Delhi          3383.000
       186   05 Jun 2027 07:04:07.041   05 Jun 2027 07:09:48.536           341.495                Irkutsk         42686.875
       187   05 Jun 2027 07:15:30.820   05 Jun 2027 07:16:13.620            42.800                Novosib          5350.000
       188   05 Jun 2027 07:16:36.512   05 Jun 2027 07:21:13.298           276.786                Norilsk         34598.250
       189   05 Jun 2027 07:21:22.938   05 Jun 2027 07:23:21.815           118.877              Murmansk2         14859.625
       190   05 Jun 2027 07:55:28.926   05 Jun 2027 08:01:23.550           354.624            RioGallegos         44328.000
       191   05 Jun 2027 08:34:09.264   05 Jun 2027 08:35:34.449            85.185                  Delhi         10648.125
       192   05 Jun 2027 08:37:07.207   05 Jun 2027 08:37:59.158            51.951                  Delhi          6493.875
       193   05 Jun 2027 08:42:00.069   05 Jun 2027 08:47:08.484           308.415                Novosib         38551.875
       194   05 Jun 2027 08:51:55.459   05 Jun 2027 08:53:18.867            83.408                Novosib         10426.000
       195   05 Jun 2027 08:53:33.648   05 Jun 2027 08:57:08.921           215.273              Murmansk2         26909.125
       196   05 Jun 2027 08:58:26.915   05 Jun 2027 08:58:55.214            28.299              Murmansk1          3537.375
       197   05 Jun 2027 10:27:24.618   05 Jun 2027 10:32:49.323           324.705                Norilsk         40588.125
       198   05 Jun 2027 10:33:16.094   05 Jun 2027 10:34:48.529            92.435              Murmansk1         11554.375
       199   05 Jun 2027 11:32:58.739   05 Jun 2027 11:42:16.818           558.079               CapeTown         69759.875
       200   05 Jun 2027 11:55:51.553   05 Jun 2027 12:05:50.071           598.518                 Moscow         74814.750
       201   05 Jun 2027 12:05:58.388   05 Jun 2027 12:06:14.020            15.632                 Moscow          1954.000
       202   05 Jun 2027 12:06:21.329   05 Jun 2027 12:10:46.226           264.897              Murmansk2         33112.125
       203   05 Jun 2027 12:12:56.399   05 Jun 2027 12:22:29.831           573.432                Anadyr2         71679.000
       204   05 Jun 2027 13:07:55.694   05 Jun 2027 13:08:32.610            36.916               CapeTown          4614.500
       205   05 Jun 2027 13:51:52.919   05 Jun 2027 13:55:42.313           229.394               Magadan2         28674.250
       206   05 Jun 2027 13:56:23.187   05 Jun 2027 13:58:11.581           108.394               Magadan1         13549.250
       207   05 Jun 2027 16:22:06.959   05 Jun 2027 16:23:50.406           103.447            RioGallegos         12930.875
       208   05 Jun 2027 17:07:45.043   05 Jun 2027 17:12:06.916           261.873                Irkutsk         32734.125
       209   05 Jun 2027 17:13:41.085   05 Jun 2027 17:15:18.804            97.719                Irkutsk         12214.875
       210   05 Jun 2027 17:23:24.120   05 Jun 2027 17:25:13.728           109.608                Sumatra         13701.000
       211   05 Jun 2027 17:26:51.164   05 Jun 2027 17:29:04.671           133.507                Sumatra         16688.375
       212   05 Jun 2027 18:44:27.277   05 Jun 2027 18:46:19.309           112.032                Novosib         14004.000
       213   05 Jun 2027 20:18:54.878   05 Jun 2027 20:19:12.475            17.597              Murmansk2          2199.625
       214   05 Jun 2027 21:53:16.421   05 Jun 2027 21:54:24.898            68.477              Murmansk1          8559.625
       215   05 Jun 2027 21:56:19.187   05 Jun 2027 21:58:06.994           107.807                 Moscow         13475.875
       216   05 Jun 2027 21:59:06.415   05 Jun 2027 22:02:20.054           193.639                 Moscow         24204.875
       217   05 Jun 2027 22:23:08.479   05 Jun 2027 22:23:47.660            39.181               CapeTown          3197.625
       218   06 Jun 2027 04:15:12.329   06 Jun 2027 04:15:21.798             9.469                Irkutsk          1183.625
       219   06 Jun 2027 04:16:23.566   06 Jun 2027 04:21:34.164           310.598                Norilsk         38824.750
       220   06 Jun 2027 04:21:40.003   06 Jun 2027 04:22:53.042            73.039              Murmansk2          9129.875
       221   06 Jun 2027 05:28:46.800   06 Jun 2027 05:30:41.387           114.587                Sumatra         14323.375
       222   06 Jun 2027 05:52:27.016   06 Jun 2027 06:00:17.761           470.745              Murmansk1         58843.125
       223   06 Jun 2027 06:27:23.861   06 Jun 2027 06:31:06.370           222.509            RioGallegos         27813.625
       224   06 Jun 2027 06:31:45.919   06 Jun 2027 06:32:09.170            23.251            RioGallegos          2906.375
       225   06 Jun 2027 06:32:12.535   06 Jun 2027 06:32:43.806            31.271            RioGallegos          3908.875
       226   06 Jun 2027 06:33:36.676   06 Jun 2027 06:34:08.877            32.201            RioGallegos          4025.125
       227   06 Jun 2027 06:35:23.392   06 Jun 2027 06:36:41.141            77.749            RioGallegos          9718.625
       228   06 Jun 2027 07:01:53.256   06 Jun 2027 07:04:53.598           180.342                Sumatra         22542.750
       229   06 Jun 2027 07:10:06.918   06 Jun 2027 07:11:35.231            88.313                Sumatra         11039.125
       230   06 Jun 2027 07:13:51.212   06 Jun 2027 07:15:34.405           103.193                  Delhi         12899.125
       231   06 Jun 2027 07:16:29.504   06 Jun 2027 07:21:41.998           312.494                Irkutsk         39061.750
       232   06 Jun 2027 07:28:12.708   06 Jun 2027 07:33:15.167           302.459                Norilsk         37807.375
       233   06 Jun 2027 07:33:16.420   06 Jun 2027 07:35:18.593           122.173              Murmansk2         15271.625
       234   06 Jun 2027 08:09:12.373   06 Jun 2027 08:12:12.057           179.684            RioGallegos         22460.500
       235   06 Jun 2027 08:46:23.250   06 Jun 2027 08:52:39.395           376.145                  Delhi         47018.125
       236   06 Jun 2027 08:54:26.656   06 Jun 2027 08:59:08.107           281.451                Novosib         35181.375
       237   06 Jun 2027 09:03:51.807   06 Jun 2027 09:10:55.463           423.656              Murmansk2         52957.000
       238   06 Jun 2027 10:34:53.555   06 Jun 2027 10:35:41.236            47.681              Murmansk2          5960.125
       239   06 Jun 2027 10:38:54.607   06 Jun 2027 10:43:20.031           265.424                 Moscow         33178.000
       240   06 Jun 2027 10:43:22.467   06 Jun 2027 10:44:42.050            79.583                Norilsk          9947.875
       241   06 Jun 2027 10:45:14.419   06 Jun 2027 10:46:50.133            95.714              Murmansk1         11964.250
       242   06 Jun 2027 11:44:38.748   06 Jun 2027 11:55:44.669           665.921               CapeTown         83240.125
       243   06 Jun 2027 12:08:22.114   06 Jun 2027 12:18:25.180           603.066                 Moscow         75383.250
       244   06 Jun 2027 12:19:10.162   06 Jun 2027 12:21:27.808           137.646              Murmansk1         17205.750
       245   06 Jun 2027 12:24:51.791   06 Jun 2027 12:26:51.311           119.520                Anadyr2         14940.000
       246   06 Jun 2027 12:32:08.873   06 Jun 2027 12:33:44.549            95.676                Anadyr2         11959.500
       247   06 Jun 2027 14:03:37.772   06 Jun 2027 14:05:39.038           121.266               Magadan1         15158.250
       248   06 Jun 2027 14:05:39.038   06 Jun 2027 14:07:36.777           117.739               Magadan2         14717.375
       249   06 Jun 2027 16:32:39.844   06 Jun 2027 16:35:33.734           173.890            RioGallegos         21736.250
       250   06 Jun 2027 17:19:20.548   06 Jun 2027 17:23:03.266           222.718                Irkutsk         27839.750
       251   06 Jun 2027 17:25:44.254   06 Jun 2027 17:26:01.866            17.612                Irkutsk          2201.500
       252   06 Jun 2027 17:34:16.868   06 Jun 2027 17:38:43.436           266.568                Sumatra         33321.000
       253   06 Jun 2027 18:57:50.210   06 Jun 2027 18:58:20.539            30.329                Novosib          3791.125
       254   06 Jun 2027 18:58:47.311   06 Jun 2027 19:00:43.357           116.046                Novosib         14505.750
       255   06 Jun 2027 19:04:46.199   06 Jun 2027 19:06:45.592           119.393                  Delhi         14924.125
       256   06 Jun 2027 20:31:22.135   06 Jun 2027 20:31:50.444            28.309              Murmansk1          3538.625
       257   06 Jun 2027 22:06:29.454   06 Jun 2027 22:08:40.296           130.842              Murmansk2         16355.250
       258   06 Jun 2027 22:14:06.501   06 Jun 2027 22:14:40.445            33.944                 Moscow          2962.001
       259   07 Jun 2027 04:28:20.318   07 Jun 2027 04:29:01.051            40.733                Novosib          5091.625
       260   07 Jun 2027 04:29:18.639   07 Jun 2027 04:32:59.491           220.852                Norilsk         27606.500
       261   07 Jun 2027 04:33:10.451   07 Jun 2027 04:33:32.623            22.172                Norilsk          2771.500
       262   07 Jun 2027 04:33:57.626   07 Jun 2027 04:36:36.161           158.535              Murmansk1         19816.875
       263   07 Jun 2027 05:39:52.045   07 Jun 2027 05:41:22.440            90.395                Sumatra         11299.375
       264   07 Jun 2027 05:44:31.491   07 Jun 2027 05:45:22.063            50.572                Sumatra          6321.500
       265   07 Jun 2027 06:04:06.198   07 Jun 2027 06:09:18.535           312.337                Norilsk         39042.125
       266   07 Jun 2027 06:09:27.796   07 Jun 2027 06:12:09.660           161.864              Murmansk2         20233.000
       267   07 Jun 2027 06:39:41.847   07 Jun 2027 06:43:24.125           222.278            RioGallegos         27784.750
       268   07 Jun 2027 06:48:16.572   07 Jun 2027 06:48:30.266            13.694            RioGallegos          1711.750
       269   07 Jun 2027 06:48:51.279   07 Jun 2027 06:49:26.127            34.848            RioGallegos          4356.000
       270   07 Jun 2027 07:14:03.185   07 Jun 2027 07:20:05.172           361.987                Sumatra         45248.375
       271   07 Jun 2027 07:28:56.348   07 Jun 2027 07:30:22.598            86.250                Novosib         10781.250
       272   07 Jun 2027 07:30:59.041   07 Jun 2027 07:35:08.554           249.513                Irkutsk         31189.125
       273   07 Jun 2027 07:39:54.176   07 Jun 2027 07:41:49.308           115.132                Novosib         14391.500
       274   07 Jun 2027 07:42:03.950   07 Jun 2027 07:44:53.032           169.082              Murmansk2         21135.250
       275   07 Jun 2027 07:45:36.344   07 Jun 2027 07:46:10.934            34.590              Murmansk1          4323.750
       276   07 Jun 2027 07:46:34.933   07 Jun 2027 07:47:15.944            41.011              Murmansk2          5126.375
       277   07 Jun 2027 08:58:43.879   07 Jun 2027 09:05:41.844           417.965                  Delhi         52245.625
       278   07 Jun 2027 09:06:58.335   07 Jun 2027 09:11:10.613           252.278                Novosib         31534.750
       279   07 Jun 2027 09:15:42.228   07 Jun 2027 09:16:52.345            70.117                 Moscow          8764.625
       280   07 Jun 2027 09:16:56.377   07 Jun 2027 09:20:19.944           203.567              Murmansk2         25445.875
       281   07 Jun 2027 09:20:28.919   07 Jun 2027 09:21:14.236            45.317                Norilsk          5664.625
       282   07 Jun 2027 10:45:45.551   07 Jun 2027 10:46:33.864            48.313                 Moscow          6039.125
       283   07 Jun 2027 10:46:50.903   07 Jun 2027 10:47:39.659            48.756              Murmansk1          6094.500
       284   07 Jun 2027 10:48:42.650   07 Jun 2027 10:48:52.115             9.465              Murmansk1          1183.125
       285   07 Jun 2027 10:50:33.441   07 Jun 2027 10:53:39.664           186.223                 Moscow         23277.875
       286   07 Jun 2027 10:53:48.716   07 Jun 2027 10:57:22.083           213.367              Murmansk1         26670.875
       287   07 Jun 2027 10:57:45.139   07 Jun 2027 10:58:11.201            26.062              Murmansk2          3257.750
       288   07 Jun 2027 11:03:33.195   07 Jun 2027 11:04:48.820            75.625                Anadyr2          9453.125
       289   07 Jun 2027 11:58:24.903   07 Jun 2027 12:07:57.935           573.032               CapeTown         71629.000
       290   07 Jun 2027 12:20:58.476   07 Jun 2027 12:22:29.914            91.438                 Moscow         11429.750
       291   07 Jun 2027 12:36:48.475   07 Jun 2027 12:37:33.076            44.601                Anadyr1          5575.125
       292   07 Jun 2027 14:15:26.623   07 Jun 2027 14:19:06.346           219.723               Magadan1         27465.375
       293   07 Jun 2027 14:21:18.687   07 Jun 2027 14:22:24.624            65.937               Magadan2          8242.125
       294   07 Jun 2027 14:23:58.591   07 Jun 2027 14:24:54.291            55.700               Magadan2          6962.500
       295   07 Jun 2027 16:43:59.208   07 Jun 2027 16:47:21.255           202.047            RioGallegos         25255.875
       296   07 Jun 2027 17:33:30.042   07 Jun 2027 17:37:14.793           224.751                Irkutsk         28093.875
       297   07 Jun 2027 17:45:31.115   07 Jun 2027 17:48:39.991           188.876                Sumatra         23609.500
       298   07 Jun 2027 17:50:17.382   07 Jun 2027 17:51:28.754            71.372                Sumatra          8921.500
       299   07 Jun 2027 17:53:13.640   07 Jun 2027 17:53:26.129            12.489                Sumatra          1561.125
       300   07 Jun 2027 19:15:40.038   07 Jun 2027 19:18:27.175           167.137                  Delhi         20892.125
       301   07 Jun 2027 20:42:20.542   07 Jun 2027 20:44:44.164           143.622              Murmansk1         17952.750
       302   07 Jun 2027 22:19:26.632   07 Jun 2027 22:20:00.775            34.143              Murmansk1          4267.875
       303   07 Jun 2027 22:22:48.991   07 Jun 2027 22:23:07.905            18.914              Murmansk1          2364.250
       304   07 Jun 2027 22:48:51.019   07 Jun 2027 22:50:43.576           112.557               CapeTown         14069.625
       305   08 Jun 2027 04:40:31.811   08 Jun 2027 04:45:14.744           282.933              Murmansk2         35366.625
       306   08 Jun 2027 04:47:56.504   08 Jun 2027 04:48:16.201            19.697              Murmansk1          2462.125
       307   08 Jun 2027 04:48:28.260   08 Jun 2027 04:49:20.332            52.072              Murmansk1          6509.000
       308   08 Jun 2027 05:15:09.075   08 Jun 2027 05:15:09.172             0.097            RioGallegos            12.125
       309   08 Jun 2027 05:51:13.324   08 Jun 2027 05:52:35.209            81.885                Sumatra         10235.625
       310   08 Jun 2027 05:54:13.486   08 Jun 2027 05:54:35.566            22.080                Sumatra          2760.000
       311   08 Jun 2027 06:03:29.124   08 Jun 2027 06:04:17.193            48.069                Irkutsk          6008.625
       312   08 Jun 2027 06:04:50.226   08 Jun 2027 06:05:08.255            18.029                Irkutsk          2253.625
       313   08 Jun 2027 06:16:16.333   08 Jun 2027 06:20:39.349           263.016                Norilsk         32877.000
       314   08 Jun 2027 06:20:54.341   08 Jun 2027 06:24:02.315           187.974              Murmansk2         23496.750
       315   08 Jun 2027 06:52:04.386   08 Jun 2027 06:57:47.469           343.083            RioGallegos         42885.375
       316   08 Jun 2027 07:00:33.387   08 Jun 2027 07:00:35.765             2.378            RioGallegos           297.250
       317   08 Jun 2027 07:01:29.790   08 Jun 2027 07:02:00.591            30.801            RioGallegos          3850.125
       318   08 Jun 2027 07:26:19.613   08 Jun 2027 07:33:06.205           406.592                Sumatra         50824.000
       319   08 Jun 2027 07:41:01.137   08 Jun 2027 07:41:55.766            54.629                Novosib          6828.625
       320   08 Jun 2027 07:42:01.365   08 Jun 2027 07:47:36.322           334.957                Irkutsk         41869.625
       321   08 Jun 2027 07:52:06.307   08 Jun 2027 07:53:07.911            61.604              Murmansk1          7700.500
       322   08 Jun 2027 07:53:44.745   08 Jun 2027 07:56:45.279           180.534              Murmansk1         22566.750
       323   08 Jun 2027 07:56:54.827   08 Jun 2027 07:57:18.938            24.111                Norilsk          3013.875
       324   08 Jun 2027 07:58:36.576   08 Jun 2027 07:59:13.829            37.253              Murmansk2          4656.625
       325   08 Jun 2027 09:11:12.379   08 Jun 2027 09:14:10.491           178.112                  Delhi         22264.000
       326   08 Jun 2027 09:14:32.331   08 Jun 2027 09:19:27.875           295.544                  Delhi         36943.000
       327   08 Jun 2027 09:19:36.040   08 Jun 2027 09:22:24.804           168.764                Novosib         21095.500
       328   08 Jun 2027 09:27:41.985   08 Jun 2027 09:28:47.544            65.559                Novosib          8194.875
       329   08 Jun 2027 09:28:51.800   08 Jun 2027 09:32:02.254           190.454                Norilsk         23806.750
       330   08 Jun 2027 09:32:11.203   08 Jun 2027 09:32:38.673            27.470              Murmansk1          3433.750
       331   08 Jun 2027 09:34:31.602   08 Jun 2027 09:34:56.754            25.152              Murmansk2          3144.000
       332   08 Jun 2027 10:58:09.391   08 Jun 2027 11:00:08.489           119.098              Murmansk1         14887.250
       333   08 Jun 2027 11:04:43.763   08 Jun 2027 11:08:10.573           206.810                Norilsk         25851.250
       334   08 Jun 2027 11:14:23.467   08 Jun 2027 11:17:48.759           205.292                Anadyr2         25661.500
       335   08 Jun 2027 12:08:14.013   08 Jun 2027 12:10:20.423           126.410               CapeTown         15801.250
       336   08 Jun 2027 12:10:50.607   08 Jun 2027 12:11:38.418            47.811               CapeTown          5976.375
       337   08 Jun 2027 12:33:42.028   08 Jun 2027 12:34:27.676            45.648                 Moscow          5706.000
       338   08 Jun 2027 14:27:18.255   08 Jun 2027 14:31:07.454           229.199               Magadan2         28649.875
       339   08 Jun 2027 14:31:11.283   08 Jun 2027 14:32:58.695           107.412               Magadan2         13426.500
       340   08 Jun 2027 16:55:32.547   08 Jun 2027 17:00:44.594           312.047            RioGallegos         39005.875
       341   08 Jun 2027 17:01:51.428   08 Jun 2027 17:02:24.174            32.746            RioGallegos          4093.250
       342   08 Jun 2027 17:40:37.710   08 Jun 2027 17:41:33.067            55.357                Norilsk          6919.625
       343   08 Jun 2027 17:46:42.474   08 Jun 2027 17:46:52.010             9.536                Irkutsk          1192.000
       344   08 Jun 2027 18:01:13.451   08 Jun 2027 18:03:59.816           166.365                Sumatra         20795.625
       345   08 Jun 2027 19:26:58.194   08 Jun 2027 19:30:14.126           195.932                  Delhi         24491.500
       346   08 Jun 2027 19:34:33.828   08 Jun 2027 19:34:54.897            21.069                  Delhi          2633.625
       347   08 Jun 2027 20:52:48.888   08 Jun 2027 20:53:14.201            25.313              Murmansk1          3164.125
       348   08 Jun 2027 20:54:15.682   08 Jun 2027 20:54:56.402            40.720              Murmansk2          5090.000
       349   08 Jun 2027 20:56:36.150   08 Jun 2027 20:57:03.926            27.776              Murmansk2          3472.000
       350   08 Jun 2027 23:01:53.328   08 Jun 2027 23:03:52.157           118.829               CapeTown         14853.625
       351   09 Jun 2027 04:52:19.478   09 Jun 2027 04:53:21.308            61.830                Novosib          7728.750
       352   09 Jun 2027 04:53:24.863   09 Jun 2027 04:56:59.866           215.003                Norilsk         26875.375
       353   09 Jun 2027 04:57:02.603   09 Jun 2027 04:58:20.833            78.230              Murmansk2          9778.750
       354   09 Jun 2027 04:59:48.612   09 Jun 2027 05:00:04.365            15.753              Murmansk2          1969.125
       355   09 Jun 2027 05:00:06.139   09 Jun 2027 05:01:20.024            73.885              Murmansk2          9235.625
       356   09 Jun 2027 06:15:32.594   09 Jun 2027 06:18:47.816           195.222                Irkutsk         24402.750
       357   09 Jun 2027 06:19:55.598   09 Jun 2027 06:20:14.617            19.019                Novosib          2377.375
       358   09 Jun 2027 06:20:27.553   09 Jun 2027 06:20:38.426            10.873                Irkutsk          1359.125
       359   09 Jun 2027 06:28:14.395   09 Jun 2027 06:33:21.163           306.768                Norilsk         38346.000
       360   09 Jun 2027 06:33:27.717   09 Jun 2027 06:34:56.320            88.603              Murmansk2         11075.375
       361   09 Jun 2027 06:34:56.320   09 Jun 2027 06:35:55.714            59.394              Murmansk1          7424.250
       362   09 Jun 2027 07:04:32.071   09 Jun 2027 07:11:32.069           419.998            RioGallegos         52499.750
       363   09 Jun 2027 07:38:43.826   09 Jun 2027 07:40:43.515           119.689                Sumatra         14961.125
       364   09 Jun 2027 07:41:47.489   09 Jun 2027 07:47:15.460           327.971                Sumatra         40996.375
       365   09 Jun 2027 07:54:03.206   09 Jun 2027 07:54:48.597            45.391                Novosib          5673.875
       366   09 Jun 2027 07:55:31.189   09 Jun 2027 07:59:29.720           238.531                Irkutsk         29816.375
       367   09 Jun 2027 08:04:02.163   09 Jun 2027 08:04:58.826            56.663              Murmansk1          7082.875
       368   09 Jun 2027 08:05:03.581   09 Jun 2027 08:05:48.192            44.611                Novosib          5576.375
       369   09 Jun 2027 08:05:54.070   09 Jun 2027 08:06:58.615            64.545                 Moscow          8068.125
       370   09 Jun 2027 08:06:59.141   09 Jun 2027 08:08:38.277            99.136              Murmansk1         12392.000
       371   09 Jun 2027 08:10:38.223   09 Jun 2027 08:11:12.203            33.980              Murmansk2          4247.500
       372   09 Jun 2027 09:23:50.952   09 Jun 2027 09:33:18.981           568.029                  Delhi         71003.625
       373   09 Jun 2027 09:33:26.628   09 Jun 2027 09:35:56.645           150.017                Novosib         18752.125
       374   09 Jun 2027 09:40:17.213   09 Jun 2027 09:40:29.248            12.035                Novosib          1504.375
       375   09 Jun 2027 09:40:37.251   09 Jun 2027 09:43:25.458           168.207              Murmansk2         21025.875
       376   09 Jun 2027 09:43:27.897   09 Jun 2027 09:45:14.345           106.448                Norilsk         13306.000
       377   09 Jun 2027 11:10:18.505   09 Jun 2027 11:12:29.037           130.532              Murmansk1         16316.500
       378   09 Jun 2027 11:12:29.037   09 Jun 2027 11:20:01.615           452.578              Murmansk2         56572.250
       379   09 Jun 2027 11:20:25.399   09 Jun 2027 11:21:12.023            46.624              Murmansk1          5828.000
       380   09 Jun 2027 11:25:55.366   09 Jun 2027 11:29:41.282           225.916                Anadyr2         28239.500
       381   09 Jun 2027 12:20:07.403   09 Jun 2027 12:22:02.352           114.949               CapeTown         14368.625
       382   09 Jun 2027 12:23:04.905   09 Jun 2027 12:24:34.153            89.248               CapeTown         11156.000
       383   09 Jun 2027 12:46:35.319   09 Jun 2027 12:46:51.410            16.091                 Moscow          2011.375
       384   09 Jun 2027 14:39:11.958   09 Jun 2027 14:41:33.478           141.520               Magadan1         17690.000
       385   09 Jun 2027 14:43:58.451   09 Jun 2027 14:44:45.817            47.366               Magadan1          5920.750
       386   09 Jun 2027 14:47:13.691   09 Jun 2027 14:47:59.942            46.251               Magadan2          5781.375
       387   09 Jun 2027 17:09:27.756   09 Jun 2027 17:13:30.533           242.777            RioGallegos         30347.125
       388   09 Jun 2027 17:52:26.356   09 Jun 2027 17:53:13.035            46.679                Norilsk          5834.875
       389   09 Jun 2027 18:02:20.938   09 Jun 2027 18:05:27.172           186.234                Irkutsk         23279.250
       390   09 Jun 2027 18:14:24.051   09 Jun 2027 18:15:05.447            41.396                Sumatra          5174.500
       391   09 Jun 2027 19:41:24.601   09 Jun 2027 19:44:57.534           212.933                  Delhi         26616.625
       392   09 Jun 2027 21:05:47.840   09 Jun 2027 21:09:02.901           195.061              Murmansk1         24382.625
       393   09 Jun 2027 21:09:04.581   09 Jun 2027 21:10:10.890            66.309              Murmansk2          8288.625
       394   09 Jun 2027 21:10:22.133   09 Jun 2027 21:12:05.581           103.448                 Moscow         12931.000
       395   09 Jun 2027 23:14:31.559   09 Jun 2027 23:14:37.834             6.275               CapeTown           784.375
       396   10 Jun 2027 05:04:35.928   10 Jun 2027 05:08:50.926           254.998              Murmansk1         31874.750
       397   10 Jun 2027 05:08:50.926   10 Jun 2027 05:09:30.679            39.753              Murmansk2          4969.125
       398   10 Jun 2027 05:10:54.269   10 Jun 2027 05:11:36.088            41.819              Murmansk2          5227.375
       399   10 Jun 2027 05:11:41.475   10 Jun 2027 05:13:11.763            90.288              Murmansk2         11286.000
       400   10 Jun 2027 05:42:23.245   10 Jun 2027 05:43:04.194            40.949            RioGallegos          5118.625
       401   10 Jun 2027 06:14:25.414   10 Jun 2027 06:16:08.618           103.204                Sumatra         12900.500
       402   10 Jun 2027 06:18:17.159   10 Jun 2027 06:18:32.063            14.904                Sumatra          1863.000
       403   10 Jun 2027 06:27:39.416   10 Jun 2027 06:29:39.314           119.898                Irkutsk         14987.250
       404   10 Jun 2027 06:30:47.405   10 Jun 2027 06:31:34.686            47.281                Irkutsk          5910.125
       405   10 Jun 2027 06:31:55.849   10 Jun 2027 06:33:33.533            97.684                Novosib         12210.500
       406   10 Jun 2027 06:40:06.274   10 Jun 2027 06:47:49.843           463.569              Murmansk1         57946.125
       407   10 Jun 2027 07:17:05.782   10 Jun 2027 07:24:49.850           464.068            RioGallegos         58008.500
       408   10 Jun 2027 07:51:18.280   10 Jun 2027 08:00:42.385           564.105                Sumatra         70513.125
       409   10 Jun 2027 08:07:00.023   10 Jun 2027 08:12:07.979           307.956                Irkutsk         38494.500
       410   10 Jun 2027 08:15:49.177   10 Jun 2027 08:17:46.325           117.148                Novosib         14643.500
       411   10 Jun 2027 08:18:02.379   10 Jun 2027 08:20:32.020           149.641              Murmansk2         18705.125
       412   10 Jun 2027 08:20:55.712   10 Jun 2027 08:21:22.555            26.843                Norilsk          3355.375
       413   10 Jun 2027 09:36:44.034   10 Jun 2027 09:44:36.694           472.660                  Delhi         59082.500
       414   10 Jun 2027 09:45:17.184   10 Jun 2027 09:47:36.563           139.379                Novosib         17422.375
       415   10 Jun 2027 09:51:25.124   10 Jun 2027 09:51:54.719            29.595              Murmansk2          3699.375
       416   10 Jun 2027 09:52:52.951   10 Jun 2027 09:57:22.788           269.837              Murmansk2         33729.625
       417   10 Jun 2027 11:22:29.421   10 Jun 2027 11:24:54.814           145.393              Murmansk2         18174.125
       418   10 Jun 2027 11:24:54.814   10 Jun 2027 11:28:53.418           238.604              Murmansk1         29825.500
       419   10 Jun 2027 11:29:53.034   10 Jun 2027 11:31:32.693            99.659              Murmansk2         12457.375
       420   10 Jun 2027 11:33:11.976   10 Jun 2027 11:33:44.795            32.819              Murmansk2          4102.375
       421   10 Jun 2027 11:37:37.888   10 Jun 2027 11:39:29.570           111.682                Anadyr1         13960.250
       422   10 Jun 2027 11:41:25.239   10 Jun 2027 11:41:35.819            10.580                Anadyr2          1322.500
       423   10 Jun 2027 11:43:43.077   10 Jun 2027 11:44:42.161            59.084                Anadyr1          7385.500
       424   10 Jun 2027 12:32:03.934   10 Jun 2027 12:33:00.394            56.460               CapeTown          7057.500
       425   10 Jun 2027 12:33:38.478   10 Jun 2027 12:34:14.779            36.301               CapeTown          4537.625
       426   10 Jun 2027 12:35:13.604   10 Jun 2027 12:36:23.200            69.596               CapeTown          8699.500
       427   10 Jun 2027 12:39:04.858   10 Jun 2027 12:39:31.817            26.959               CapeTown          3369.875
       428   10 Jun 2027 12:39:55.805   10 Jun 2027 12:41:16.562            80.757               CapeTown         10094.625
       429   10 Jun 2027 12:59:44.327   10 Jun 2027 13:00:16.901            32.574                 Moscow          4071.750
       430   10 Jun 2027 13:18:14.660   10 Jun 2027 13:19:22.640            67.980               Magadan2          8497.500
       431   10 Jun 2027 14:51:07.261   10 Jun 2027 14:53:15.751           128.490               Magadan1         16061.250
       432   10 Jun 2027 17:22:45.217   10 Jun 2027 17:24:58.416           133.199            RioGallegos         16649.875
       433   10 Jun 2027 18:04:05.582   10 Jun 2027 18:06:20.131           134.549                Norilsk         16818.625
       434   10 Jun 2027 18:08:39.133   10 Jun 2027 18:13:30.323           291.190                Novosib         36398.750
       435   10 Jun 2027 19:54:57.024   10 Jun 2027 19:56:30.594            93.570                  Delhi         11696.250
       436   10 Jun 2027 21:17:56.181   10 Jun 2027 21:18:50.648            54.467              Murmansk1          6808.375
       437   10 Jun 2027 21:19:15.496   10 Jun 2027 21:22:06.559           171.063              Murmansk2         21382.875
       438   10 Jun 2027 21:22:36.427   10 Jun 2027 21:27:10.284           273.857                 Moscow         34232.125
       439   11 Jun 2027 05:15:11.481   11 Jun 2027 05:15:30.314            18.833                Irkutsk          2354.125
       440   11 Jun 2027 05:16:29.809   11 Jun 2027 05:17:36.626            66.817                Novosib          8352.125
       441   11 Jun 2027 05:17:37.668   11 Jun 2027 05:21:02.615           204.947                Norilsk         25618.375
       442   11 Jun 2027 05:21:18.256   11 Jun 2027 05:22:24.958            66.702              Murmansk2          8337.750
       443   11 Jun 2027 05:22:24.958   11 Jun 2027 05:25:00.894           155.936              Murmansk1         19492.000
       444   11 Jun 2027 05:51:08.253   11 Jun 2027 05:54:23.844           195.591            RioGallegos         24448.875
       445   11 Jun 2027 05:55:48.079   11 Jun 2027 05:56:13.254            25.175            RioGallegos          3146.875
       446   11 Jun 2027 05:59:34.919   11 Jun 2027 06:00:07.638            32.719            RioGallegos          4089.875
       447   11 Jun 2027 06:26:12.318   11 Jun 2027 06:27:44.748            92.430                Sumatra         11553.750
       448   11 Jun 2027 06:28:30.015   11 Jun 2027 06:29:02.303            32.288                Sumatra          4036.000
       449   11 Jun 2027 06:33:26.031   11 Jun 2027 06:35:40.739           134.708                Sumatra         16838.500
       450   11 Jun 2027 06:37:48.563   11 Jun 2027 06:38:45.701            57.138                  Delhi          7142.250
       451   11 Jun 2027 06:39:49.744   11 Jun 2027 06:43:30.232           220.488                Irkutsk         27561.000
       452   11 Jun 2027 06:44:44.224   11 Jun 2027 06:46:23.940            99.716                Irkutsk         12464.500
       453   11 Jun 2027 06:52:21.723   11 Jun 2027 06:57:24.357           302.634                Norilsk         37829.250
       454   11 Jun 2027 06:57:43.989   11 Jun 2027 06:59:44.691           120.702              Murmansk1         15087.750
       455   11 Jun 2027 07:31:06.826   11 Jun 2027 07:38:40.556           453.730            RioGallegos         56716.250
       456   11 Jun 2027 08:04:08.419   11 Jun 2027 08:11:46.486           458.067                Sumatra         57258.375
       457   11 Jun 2027 08:20:03.686   11 Jun 2027 08:24:16.611           252.925                Irkutsk         31615.625
       458   11 Jun 2027 08:27:54.702   11 Jun 2027 08:29:43.382           108.680                Novosib         13585.000
       459   11 Jun 2027 08:29:47.168   11 Jun 2027 08:31:10.043            82.875                Norilsk         10359.375
       460   11 Jun 2027 08:31:10.396   11 Jun 2027 08:32:51.629           101.233              Murmansk2         12654.125
       461   11 Jun 2027 08:32:51.629   11 Jun 2027 08:33:15.948            24.319              Murmansk1          3039.875
       462   11 Jun 2027 09:50:04.002   11 Jun 2027 09:55:29.476           325.474                  Delhi         40684.250
       463   11 Jun 2027 10:03:21.340   11 Jun 2027 10:03:52.456            31.116              Murmansk1          3889.500
       464   11 Jun 2027 10:05:01.193   11 Jun 2027 10:11:00.197           359.004              Murmansk2         44875.500
       465   11 Jun 2027 11:10:19.249   11 Jun 2027 11:17:19.397           420.148               CapeTown         52518.500
       466   11 Jun 2027 11:31:19.492   11 Jun 2027 11:37:19.632           360.140                 Moscow         45017.500
       467   11 Jun 2027 11:37:22.475   11 Jun 2027 11:41:30.609           248.134              Murmansk1         31016.750
       468   11 Jun 2027 11:41:40.897   11 Jun 2027 11:41:54.142            13.245              Murmansk1          1655.625
       469   11 Jun 2027 11:42:07.469   11 Jun 2027 11:42:25.779            18.310              Murmansk1          2288.750
       470   11 Jun 2027 11:43:00.220   11 Jun 2027 11:43:30.286            30.066              Murmansk1          3758.250
       471   11 Jun 2027 11:44:32.594   11 Jun 2027 11:45:47.823            75.229              Murmansk1          9403.625
       472   11 Jun 2027 11:46:13.207   11 Jun 2027 11:46:58.218            45.011              Murmansk1          5626.375
       473   11 Jun 2027 11:49:25.871   11 Jun 2027 11:53:31.846           245.975                Anadyr2         30746.875
       474   11 Jun 2027 12:44:03.336   11 Jun 2027 12:46:08.805           125.469               CapeTown         15683.625
       475   11 Jun 2027 12:46:41.984   11 Jun 2027 12:47:17.095            35.111               CapeTown          4388.875
       476   11 Jun 2027 12:49:24.425   11 Jun 2027 12:50:12.538            48.113               CapeTown          6014.125
       477   11 Jun 2027 13:29:01.757   11 Jun 2027 13:32:13.978           192.221               Magadan2         24027.625
       478   11 Jun 2027 16:45:44.395   11 Jun 2027 16:48:47.463           183.068                Irkutsk         22883.500
       479   11 Jun 2027 18:19:58.138   11 Jun 2027 18:26:44.237           406.099                Novosib         50762.375
       480   11 Jun 2027 21:29:35.538   11 Jun 2027 21:31:22.423           106.885              Murmansk1         13360.625
       481   11 Jun 2027 21:31:29.813   11 Jun 2027 21:34:00.079           150.266              Murmansk1         18783.250
       482   11 Jun 2027 21:34:35.060   11 Jun 2027 21:40:55.900           380.840                 Moscow         47605.000
