uniorb/output/strategy_4/Drop/Drop_KinoSat_111509.txt

KinoSat_111509
-------------------------
    Access    *     Start Time (UTCG)     *     Stop Time (UTCG)  *   Duration (s)        *       Station  *  Data (Mbytes)
         1   01 Jun 2027 04:19:51.911   01 Jun 2027 04:21:20.732            88.821                Novosib          2775.656
         2   01 Jun 2027 04:21:32.252   01 Jun 2027 04:21:42.107             9.855                Novosib           307.969
         3   01 Jun 2027 04:21:43.728   01 Jun 2027 04:23:09.819            86.091              Murmansk2          2690.344
         4   01 Jun 2027 04:23:29.032   01 Jun 2027 04:24:25.965            56.933              Murmansk2          1779.156
         5   01 Jun 2027 04:24:38.411   01 Jun 2027 04:27:56.639           198.228                 Moscow          6194.625
         6   01 Jun 2027 04:45:51.495   01 Jun 2027 04:46:52.043            60.548               CapeTown          1892.125
         7   01 Jun 2027 05:42:45.793   01 Jun 2027 05:43:02.277            16.484                Anadyr1           515.125
         8   01 Jun 2027 05:43:15.714   01 Jun 2027 05:44:51.892            96.178                Anadyr1          3005.563
         9   01 Jun 2027 05:45:46.569   01 Jun 2027 05:46:09.922            23.353               Magadan1           729.781
        10   01 Jun 2027 05:46:30.351   01 Jun 2027 05:46:35.698             5.347                Anadyr2           167.094
        11   01 Jun 2027 05:47:27.202   01 Jun 2027 05:47:47.502            20.300                Anadyr2           634.375
        12   01 Jun 2027 07:20:09.308   01 Jun 2027 07:23:04.474           175.166               Magadan2          5473.938
        13   01 Jun 2027 07:23:04.474   01 Jun 2027 07:23:17.047            12.573               Magadan1           392.906
        14   01 Jun 2027 08:53:47.742   01 Jun 2027 08:54:23.479            35.737                Irkutsk          1116.781
        15   01 Jun 2027 08:54:34.924   01 Jun 2027 08:59:58.120           323.196               Magadan2         10099.875
        16   01 Jun 2027 10:30:22.967   01 Jun 2027 10:33:56.325           213.358               Magadan1          6667.438
        17   01 Jun 2027 10:34:47.256   01 Jun 2027 10:35:23.307            36.051                Irkutsk          1126.594
        18   01 Jun 2027 10:35:55.046   01 Jun 2027 10:37:14.413            79.367                Novosib          2480.219
        19   01 Jun 2027 11:10:58.652   01 Jun 2027 11:12:37.190            98.538            RioGallegos          3079.313
        20   01 Jun 2027 11:45:29.295   01 Jun 2027 11:47:57.205           147.910                Sumatra          4622.187
        21   01 Jun 2027 12:03:05.946   01 Jun 2027 12:04:19.858            73.912                Irkutsk          2309.750
        22   01 Jun 2027 12:52:29.936   01 Jun 2027 12:53:39.339            69.403            RioGallegos          2168.844
        23   01 Jun 2027 13:36:03.227   01 Jun 2027 13:37:53.302           110.075                  Delhi          3439.844
        24   01 Jun 2027 13:39:21.476   01 Jun 2027 13:42:40.732           199.256                Novosib          6226.750
        25   01 Jun 2027 15:14:02.868   01 Jun 2027 15:15:09.506            66.638                 Moscow          2082.438
        26   01 Jun 2027 15:15:28.649   01 Jun 2027 15:16:05.250            36.601                 Moscow          1143.781
        27   01 Jun 2027 15:16:56.003   01 Jun 2027 15:17:21.616            25.613                 Moscow           800.406
        28   01 Jun 2027 15:18:59.991   01 Jun 2027 15:20:10.401            70.410              Murmansk2          2200.312
        29   01 Jun 2027 15:22:16.199   01 Jun 2027 15:25:46.039           209.840                Norilsk          6557.500
        30   01 Jun 2027 15:26:16.637   01 Jun 2027 15:28:13.198           116.561                Norilsk          3642.531
        31   01 Jun 2027 16:55:59.968   01 Jun 2027 16:57:03.574            63.606                 Moscow          1987.687
        32   01 Jun 2027 16:58:53.720   01 Jun 2027 16:59:17.824            24.104              Murmansk2           753.250
        33   01 Jun 2027 17:03:05.853   01 Jun 2027 17:04:15.238            69.385              Murmansk1          2168.281
        34   01 Jun 2027 17:08:27.001   01 Jun 2027 17:08:49.813            22.812                Anadyr2           712.875
        35   01 Jun 2027 17:09:40.871   01 Jun 2027 17:09:42.927             2.056                Anadyr2            64.250
        36   01 Jun 2027 17:09:42.927   01 Jun 2027 17:09:53.535            10.608                Anadyr1           331.500
        37   01 Jun 2027 17:12:00.744   01 Jun 2027 17:12:02.774             2.030                Anadyr1            63.437
        38   01 Jun 2027 17:13:02.540   01 Jun 2027 17:13:31.099            28.559                Anadyr1           892.469
        39   01 Jun 2027 17:15:43.424   01 Jun 2027 17:16:05.554            22.130                Anadyr2           691.562
        40   01 Jun 2027 17:17:25.260   01 Jun 2027 17:17:36.829            11.569                Anadyr2           361.531
        41   01 Jun 2027 18:08:10.359   01 Jun 2027 18:08:45.645            35.286               CapeTown          1102.688
        42   01 Jun 2027 18:13:57.752   01 Jun 2027 18:14:18.347            20.595               CapeTown           643.594
        43   01 Jun 2027 18:14:36.609   01 Jun 2027 18:15:09.741            33.132               CapeTown          1035.375
        44   01 Jun 2027 18:34:34.013   01 Jun 2027 18:40:04.622           330.609              Murmansk1         10331.531
        45   01 Jun 2027 18:50:22.972   01 Jun 2027 18:50:33.383            10.411               Magadan1           325.344
        46   01 Jun 2027 18:51:32.013   01 Jun 2027 18:51:46.416            14.403               Magadan1           450.094
        47   01 Jun 2027 18:54:31.067   01 Jun 2027 18:54:54.474            23.407               Magadan2           731.469
        48   01 Jun 2027 20:20:01.869   01 Jun 2027 20:21:39.996            98.127                Anadyr1          3066.469
        49   01 Jun 2027 20:22:06.377   01 Jun 2027 20:23:46.050            99.673                Anadyr2          3114.781
        50   01 Jun 2027 20:24:08.912   01 Jun 2027 20:26:16.350           127.438               Magadan2          3982.438
        51   01 Jun 2027 20:26:32.582   01 Jun 2027 20:27:54.438            81.856               Magadan1          2558.000
        52   01 Jun 2027 20:29:52.656   01 Jun 2027 20:30:25.042            32.386               Magadan1          1012.063
        53   01 Jun 2027 20:31:16.983   01 Jun 2027 20:32:05.544            48.561               Magadan2          1517.531
        54   01 Jun 2027 21:16:17.290   01 Jun 2027 21:18:34.921           137.631            RioGallegos          4300.969
        55   01 Jun 2027 21:21:14.231   01 Jun 2027 21:21:34.052            19.821            RioGallegos           619.406
        56   01 Jun 2027 21:55:51.405   01 Jun 2027 21:57:59.627           128.222                Anadyr2          4006.937
        57   01 Jun 2027 21:58:15.420   01 Jun 2027 21:59:02.777            47.357               Magadan1          1479.906
        58   01 Jun 2027 21:59:24.882   01 Jun 2027 21:59:31.869             6.987                Norilsk           218.344
        59   01 Jun 2027 22:00:05.365   01 Jun 2027 22:00:19.164            13.799               Magadan2           431.219
        60   01 Jun 2027 22:00:25.316   01 Jun 2027 22:00:39.279            13.963                Norilsk           436.344
        61   01 Jun 2027 22:00:51.558   01 Jun 2027 22:01:43.791            52.233                Norilsk          1632.281
        62   01 Jun 2027 22:04:10.970   01 Jun 2027 22:04:32.916            21.946               Magadan2           685.813
        63   01 Jun 2027 22:05:35.902   01 Jun 2027 22:05:36.826             0.924                Irkutsk            28.875
        64   01 Jun 2027 22:05:51.300   01 Jun 2027 22:06:03.989            12.689                Irkutsk           396.531
        65   01 Jun 2027 22:06:17.995   01 Jun 2027 22:06:52.012            34.017                Irkutsk          1063.031
        66   01 Jun 2027 22:17:58.129   01 Jun 2027 22:19:44.721           106.592                Sumatra          3331.000
        67   01 Jun 2027 22:23:57.155   01 Jun 2027 22:26:00.130           122.975                Sumatra          3842.969
        68   01 Jun 2027 23:31:08.630   01 Jun 2027 23:31:26.587            17.957                Anadyr2           561.156
        69   01 Jun 2027 23:33:16.463   01 Jun 2027 23:33:45.819            29.356                Anadyr2           917.375
        70   01 Jun 2027 23:34:06.225   01 Jun 2027 23:35:09.040            62.815                Norilsk          1962.969
        71   01 Jun 2027 23:35:09.884   01 Jun 2027 23:36:00.000            50.115               Magadan2          1566.094
        72   01 Jun 2027 23:36:40.170   01 Jun 2027 23:37:32.510            52.340               Magadan2          1635.625
        73   01 Jun 2027 23:38:21.914   01 Jun 2027 23:39:23.120            61.206                Novosib          1912.687
        74   01 Jun 2027 23:41:44.729   01 Jun 2027 23:42:05.276            20.547                Novosib           642.094
        75   01 Jun 2027 23:45:45.233   01 Jun 2027 23:46:27.925            42.692                Novosib          1334.125
        76   01 Jun 2027 23:48:28.533   01 Jun 2027 23:49:22.477            53.944                  Delhi          1685.750
        77   01 Jun 2027 23:49:45.452   01 Jun 2027 23:50:07.172            21.720                  Delhi           678.750
        78   01 Jun 2027 23:59:53.859   02 Jun 2027 00:00:09.436            15.577                Sumatra           486.781
        79   02 Jun 2027 00:25:45.722   02 Jun 2027 00:26:10.978            25.256            RioGallegos           789.250
        80   02 Jun 2027 00:27:40.970   02 Jun 2027 00:27:44.141             3.171            RioGallegos            99.094
        81   02 Jun 2027 00:27:48.288   02 Jun 2027 00:27:52.535             4.247            RioGallegos           132.719
        82   02 Jun 2027 00:28:09.513   02 Jun 2027 00:28:31.979            22.466            RioGallegos           702.062
        83   02 Jun 2027 00:32:29.554   02 Jun 2027 00:32:37.928             8.374            RioGallegos           261.687
        84   02 Jun 2027 00:34:38.595   02 Jun 2027 00:35:24.265            45.670            RioGallegos          1427.187
        85   02 Jun 2027 01:05:16.864   02 Jun 2027 01:05:46.363            29.499                Anadyr1           921.844
        86   02 Jun 2027 01:06:27.760   02 Jun 2027 01:07:29.788            62.028                Anadyr2          1938.375
        87   02 Jun 2027 01:07:49.168   02 Jun 2027 01:08:16.611            27.443                Anadyr2           857.594
        88   02 Jun 2027 01:09:46.004   02 Jun 2027 01:11:39.101           113.097                Norilsk          3534.281
        89   02 Jun 2027 01:12:00.608   02 Jun 2027 01:12:13.231            12.623               Magadan2           394.469
        90   02 Jun 2027 01:12:42.149   02 Jun 2027 01:15:44.388           182.239              Murmansk1          5694.969
        91   02 Jun 2027 01:24:05.124   02 Jun 2027 01:24:17.683            12.559                  Delhi           392.469
        92   02 Jun 2027 01:26:10.903   02 Jun 2027 01:26:53.462            42.559                  Delhi          1329.969
        93   02 Jun 2027 02:02:47.915   02 Jun 2027 02:05:20.147           152.232            RioGallegos          4757.250
        94   02 Jun 2027 02:38:34.224   02 Jun 2027 02:38:35.774             1.550                Anadyr2            48.438
        95   02 Jun 2027 02:40:41.149   02 Jun 2027 02:41:34.857            53.708                Anadyr1          1678.375
        96   02 Jun 2027 02:44:24.804   02 Jun 2027 02:44:43.716            18.912                Anadyr1           591.000
        97   02 Jun 2027 02:45:00.560   02 Jun 2027 02:45:20.819            20.259               Magadan2           633.094
        98   02 Jun 2027 02:45:41.764   02 Jun 2027 02:46:38.189            56.425                Norilsk          1763.281
        99   02 Jun 2027 02:47:56.016   02 Jun 2027 02:49:23.143            87.127              Murmansk1          2722.719
       100   02 Jun 2027 02:49:39.848   02 Jun 2027 02:50:42.374            62.526                Novosib          1953.937
       101   02 Jun 2027 02:51:07.276   02 Jun 2027 02:52:20.103            72.827                Irkutsk          2275.844
       102   02 Jun 2027 02:54:40.409   02 Jun 2027 02:55:29.128            48.719                Irkutsk          1522.469
       103   02 Jun 2027 02:58:38.739   02 Jun 2027 02:59:12.453            33.714                  Delhi          1053.563
       104   02 Jun 2027 04:32:01.170   02 Jun 2027 04:33:01.803            60.633                Novosib          1894.781
       105   02 Jun 2027 04:33:17.648   02 Jun 2027 04:33:56.877            39.229              Murmansk2          1225.906
       106   02 Jun 2027 04:34:04.934   02 Jun 2027 04:35:17.283            72.349              Murmansk1          2260.906
       107   02 Jun 2027 04:50:58.197   02 Jun 2027 04:53:40.137           161.940               CapeTown          5060.625
       108   02 Jun 2027 05:55:03.531   02 Jun 2027 05:58:23.045           199.514                Anadyr2          6234.813
       109   02 Jun 2027 07:35:29.840   02 Jun 2027 07:35:35.465             5.625               Magadan1           175.781
       110   02 Jun 2027 07:35:40.389   02 Jun 2027 07:36:09.456            29.067               Magadan1           908.344
       111   02 Jun 2027 09:06:14.203   02 Jun 2027 09:09:04.409           170.206               Magadan2          5318.938
       112   02 Jun 2027 09:09:04.409   02 Jun 2027 09:10:33.544            89.135               Magadan1          2785.469
       113   02 Jun 2027 09:11:20.815   02 Jun 2027 09:11:54.872            34.057               Magadan1          1064.281
       114   02 Jun 2027 10:42:27.235   02 Jun 2027 10:43:14.845            47.610                Norilsk          1487.813
       115   02 Jun 2027 10:43:27.100   02 Jun 2027 10:44:23.419            56.319               Magadan2          1759.969
       116   02 Jun 2027 10:45:01.646   02 Jun 2027 10:45:03.030             1.384                Norilsk            43.250
       117   02 Jun 2027 10:45:27.049   02 Jun 2027 10:45:45.647            18.598                Irkutsk           581.187
       118   02 Jun 2027 10:45:58.410   02 Jun 2027 10:46:02.553             4.143                Norilsk           129.469
       119   02 Jun 2027 10:46:06.666   02 Jun 2027 10:47:04.165            57.499                Norilsk          1796.844
       120   02 Jun 2027 10:47:10.735   02 Jun 2027 10:47:14.287             3.552                Irkutsk           111.000
       121   02 Jun 2027 10:47:15.224   02 Jun 2027 10:47:32.020            16.796                Norilsk           524.875
       122   02 Jun 2027 10:47:43.345   02 Jun 2027 10:47:54.189            10.844                Novosib           338.875
       123   02 Jun 2027 11:23:16.493   02 Jun 2027 11:23:32.277            15.784            RioGallegos           493.250
       124   02 Jun 2027 11:24:40.433   02 Jun 2027 11:25:38.377            57.944            RioGallegos          1810.750
       125   02 Jun 2027 11:57:39.086   02 Jun 2027 11:58:00.284            21.198                Sumatra           662.438
       126   02 Jun 2027 12:00:25.334   02 Jun 2027 12:02:10.005           104.671                Sumatra          3270.969
       127   02 Jun 2027 12:12:32.861   02 Jun 2027 12:13:38.415            65.554                Novosib          2048.562
       128   02 Jun 2027 12:23:04.210   02 Jun 2027 12:23:16.543            12.333                Norilsk           385.406
       129   02 Jun 2027 12:26:01.298   02 Jun 2027 12:26:46.528            45.230                Norilsk          1413.438
       130   02 Jun 2027 13:42:18.527   02 Jun 2027 13:43:10.790            52.263                  Delhi          1633.219
       131   02 Jun 2027 13:44:27.067   02 Jun 2027 13:46:33.164           126.097                  Delhi          3940.531
       132   02 Jun 2027 13:50:31.204   02 Jun 2027 13:53:44.558           193.354                Novosib          6042.312
       133   02 Jun 2027 13:57:24.623   02 Jun 2027 13:59:00.009            95.386                Norilsk          2980.813
       134   02 Jun 2027 15:26:06.967   02 Jun 2027 15:29:22.839           195.872                 Moscow          6121.000
       135   02 Jun 2027 15:29:38.127   02 Jun 2027 15:29:41.649             3.522              Murmansk2           110.063
       136   02 Jun 2027 15:30:48.863   02 Jun 2027 15:30:55.897             7.034              Murmansk1           219.812
       137   02 Jun 2027 15:31:09.036   02 Jun 2027 15:31:35.842            26.806              Murmansk1           837.688
       138   02 Jun 2027 15:34:33.994   02 Jun 2027 15:34:56.884            22.890              Murmansk1           715.313
       139   02 Jun 2027 15:35:07.811   02 Jun 2027 15:37:46.629           158.818                Norilsk          4963.063
       140   02 Jun 2027 15:39:04.787   02 Jun 2027 15:39:19.822            15.035                Norilsk           469.844
       141   02 Jun 2027 16:40:28.699   02 Jun 2027 16:40:43.034            14.335               CapeTown           447.969
       142   02 Jun 2027 16:41:22.557   02 Jun 2027 16:42:04.980            42.423               CapeTown          1325.719
       143   02 Jun 2027 16:50:51.838   02 Jun 2027 16:51:03.655            11.817               CapeTown           369.281
       144   02 Jun 2027 17:04:30.760   02 Jun 2027 17:04:51.225            20.465                 Moscow           639.531
       145   02 Jun 2027 17:05:24.209   02 Jun 2027 17:06:03.772            39.563                 Moscow          1236.344
       146   02 Jun 2027 17:07:12.690   02 Jun 2027 17:07:45.161            32.471              Murmansk2          1014.719
       147   02 Jun 2027 17:09:19.710   02 Jun 2027 17:09:31.238            11.528                 Moscow           360.250
       148   02 Jun 2027 17:09:34.856   02 Jun 2027 17:10:20.218            45.362              Murmansk2          1417.562
       149   02 Jun 2027 17:20:24.042   02 Jun 2027 17:22:41.379           137.337                Anadyr2          4291.781
       150   02 Jun 2027 17:26:54.296   02 Jun 2027 17:27:19.442            25.146                Anadyr1           785.812
       151   02 Jun 2027 18:15:50.816   02 Jun 2027 18:16:35.014            44.198               CapeTown          1381.188
       152   02 Jun 2027 18:22:40.303   02 Jun 2027 18:23:27.212            46.909               CapeTown          1465.906
       153   02 Jun 2027 18:47:19.113   02 Jun 2027 18:52:02.512           283.399              Murmansk1          8856.219
       154   02 Jun 2027 18:59:02.404   02 Jun 2027 18:59:42.632            40.228               Magadan1          1257.125
       155   02 Jun 2027 18:59:50.318   02 Jun 2027 19:00:09.785            19.467               Magadan1           608.344
       156   02 Jun 2027 19:05:21.297   02 Jun 2027 19:05:59.183            37.886               Magadan2          1183.938
       157   02 Jun 2027 20:32:03.394   02 Jun 2027 20:34:53.507           170.113                Anadyr2          5316.031
       158   02 Jun 2027 20:34:57.039   02 Jun 2027 20:37:26.437           149.398               Magadan1          4668.688
       159   02 Jun 2027 20:37:26.437   02 Jun 2027 20:38:17.777            51.340               Magadan2          1604.375
       160   02 Jun 2027 20:39:08.724   02 Jun 2027 20:39:35.084            26.360               Magadan1           823.750
       161   02 Jun 2027 20:46:41.281   02 Jun 2027 20:47:07.611            26.330               Magadan1           822.813
       162   02 Jun 2027 21:27:36.010   02 Jun 2027 21:30:26.473           170.463            RioGallegos          5326.969
       163   02 Jun 2027 21:32:49.645   02 Jun 2027 21:33:02.610            12.965            RioGallegos           405.156
       164   02 Jun 2027 21:33:25.905   02 Jun 2027 21:33:43.486            17.581            RioGallegos           549.406
       165   02 Jun 2027 22:08:05.009   02 Jun 2027 22:10:07.262           122.253                Anadyr2          3820.406
       166   02 Jun 2027 22:10:18.064   02 Jun 2027 22:11:48.200            90.136               Magadan1          2816.750
       167   02 Jun 2027 22:13:24.867   02 Jun 2027 22:13:37.552            12.685                Norilsk           396.406
       168   02 Jun 2027 22:14:19.746   02 Jun 2027 22:14:21.623             1.877               Magadan2            58.656
       169   02 Jun 2027 22:14:39.288   02 Jun 2027 22:16:50.739           131.451                Irkutsk          4107.844
       170   02 Jun 2027 22:29:10.948   02 Jun 2027 22:30:20.761            69.813                Sumatra          2181.656
       171   02 Jun 2027 22:34:00.984   02 Jun 2027 22:35:05.541            64.557                Sumatra          2017.406
       172   02 Jun 2027 23:43:01.036   02 Jun 2027 23:43:34.472            33.436                Anadyr2          1044.875
       173   02 Jun 2027 23:45:17.373   02 Jun 2027 23:45:29.124            11.751                Anadyr1           367.219
       174   02 Jun 2027 23:45:47.370   02 Jun 2027 23:47:33.361           105.991                Norilsk          3312.219
       175   02 Jun 2027 23:47:53.941   02 Jun 2027 23:48:09.120            15.179               Magadan1           474.344
       176   02 Jun 2027 23:49:40.858   02 Jun 2027 23:51:44.635           123.777                Irkutsk          3868.031
       177   02 Jun 2027 23:52:23.155   02 Jun 2027 23:53:21.354            58.199                Novosib          1818.719
       178   02 Jun 2027 23:59:19.542   03 Jun 2027 00:01:40.364           140.822                  Delhi          4400.688
       179   03 Jun 2027 00:14:47.598   03 Jun 2027 00:15:11.133            23.535                Sumatra           735.469
       180   03 Jun 2027 00:45:52.824   03 Jun 2027 00:45:57.909             5.085            RioGallegos           158.906
       181   03 Jun 2027 00:47:30.387   03 Jun 2027 00:47:34.726             4.339            RioGallegos           135.594
       182   03 Jun 2027 00:48:50.803   03 Jun 2027 00:49:07.520            16.717            RioGallegos           522.406
       183   03 Jun 2027 00:49:22.837   03 Jun 2027 00:49:41.028            18.191            RioGallegos           568.469
       184   03 Jun 2027 01:16:59.739   03 Jun 2027 01:17:47.593            47.854                Anadyr1          1495.438
       185   03 Jun 2027 01:18:08.674   03 Jun 2027 01:18:40.417            31.743                Anadyr1           991.969
       186   03 Jun 2027 01:18:44.509   03 Jun 2027 01:19:09.101            24.592                Anadyr1           768.500
       187   03 Jun 2027 01:21:48.092   03 Jun 2027 01:23:42.285           114.193                Norilsk          3568.531
       188   03 Jun 2027 01:24:30.705   03 Jun 2027 01:26:34.116           123.411              Murmansk2          3856.594
       189   03 Jun 2027 01:30:28.457   03 Jun 2027 01:30:52.288            23.831                Novosib           744.719
       190   03 Jun 2027 01:32:53.286   03 Jun 2027 01:33:29.216            35.930                Irkutsk          1122.813
       191   03 Jun 2027 01:36:00.093   03 Jun 2027 01:36:07.251             7.158                  Delhi           223.687
       192   03 Jun 2027 01:36:27.477   03 Jun 2027 01:36:50.000            22.523                  Delhi           703.844
       193   03 Jun 2027 01:42:32.095   03 Jun 2027 01:42:39.966             7.871                  Delhi           245.969
       194   03 Jun 2027 01:44:27.922   03 Jun 2027 01:44:37.373             9.451                  Delhi           295.344
       195   03 Jun 2027 02:15:09.462   03 Jun 2027 02:17:28.708           139.246            RioGallegos          4351.438
       196   03 Jun 2027 02:19:10.971   03 Jun 2027 02:19:43.899            32.928            RioGallegos          1029.000
       197   03 Jun 2027 02:50:16.448   03 Jun 2027 02:50:18.436             1.988                Anadyr2            62.125
       198   03 Jun 2027 02:50:40.696   03 Jun 2027 02:51:03.681            22.985                Anadyr1           718.281
       199   03 Jun 2027 02:52:51.511   03 Jun 2027 02:52:55.239             3.728                Anadyr1           116.500
       200   03 Jun 2027 02:56:12.236   03 Jun 2027 02:56:32.936            20.700               Magadan2           646.875
       201   03 Jun 2027 02:57:42.318   03 Jun 2027 02:57:47.862             5.544                Norilsk           173.250
       202   03 Jun 2027 02:58:06.799   03 Jun 2027 02:58:43.869            37.070               Magadan2          1158.437
       203   03 Jun 2027 02:58:44.331   03 Jun 2027 02:59:08.969            24.638                Norilsk           769.938
       204   03 Jun 2027 02:59:56.775   03 Jun 2027 03:00:14.780            18.005              Murmansk2           562.656
       205   03 Jun 2027 03:04:10.017   03 Jun 2027 03:04:48.165            38.148                Norilsk          1192.125
       206   03 Jun 2027 03:05:07.086   03 Jun 2027 03:06:49.283           102.197                Irkutsk          3193.656
       207   03 Jun 2027 03:07:06.422   03 Jun 2027 03:07:50.633            44.211                 Moscow          1381.594
       208   03 Jun 2027 03:08:00.145   03 Jun 2027 03:09:26.080            85.935              Murmansk1          2685.469
       209   03 Jun 2027 03:09:28.547   03 Jun 2027 03:10:44.032            75.485                 Moscow          2358.906
       210   03 Jun 2027 04:42:12.941   03 Jun 2027 04:43:02.511            49.570                Novosib          1549.063
       211   03 Jun 2027 04:44:58.016   03 Jun 2027 04:46:00.738            62.722                 Moscow          1960.062
       212   03 Jun 2027 04:46:07.056   03 Jun 2027 04:48:14.028           126.972                 Moscow          3967.875
       213   03 Jun 2027 05:03:02.619   03 Jun 2027 05:05:24.798           142.179               CapeTown          4443.094
       214   03 Jun 2027 06:06:48.176   03 Jun 2027 06:07:04.986            16.810                Anadyr2           525.312
       215   03 Jun 2027 06:07:05.800   03 Jun 2027 06:07:46.283            40.483               Magadan1          1265.094
       216   03 Jun 2027 06:07:46.283   03 Jun 2027 06:08:08.162            21.879               Magadan2           683.719
       217   03 Jun 2027 06:08:08.162   03 Jun 2027 06:08:18.024             9.862               Magadan1           308.187
       218   03 Jun 2027 07:42:33.970   03 Jun 2027 07:42:56.328            22.358                Anadyr1           698.687
       219   03 Jun 2027 07:43:01.616   03 Jun 2027 07:43:56.821            55.205                Anadyr1          1725.156
       220   03 Jun 2027 07:44:27.113   03 Jun 2027 07:44:32.527             5.414               Magadan1           169.188
       221   03 Jun 2027 07:44:45.658   03 Jun 2027 07:45:21.125            35.467                Anadyr2          1108.344
       222   03 Jun 2027 07:45:21.125   03 Jun 2027 07:45:50.628            29.503                Anadyr1           921.969
       223   03 Jun 2027 08:25:29.063   03 Jun 2027 08:25:52.696            23.633            RioGallegos           738.531
       224   03 Jun 2027 09:16:39.046   03 Jun 2027 09:17:46.222            67.176               Magadan2          2099.250
       225   03 Jun 2027 09:17:53.331   03 Jun 2027 09:18:12.640            19.309               Magadan2           603.406
       226   03 Jun 2027 09:18:38.953   03 Jun 2027 09:19:21.005            42.052               Magadan2          1314.125
       227   03 Jun 2027 09:19:35.504   03 Jun 2027 09:20:58.469            82.965               Magadan1          2592.656
       228   03 Jun 2027 09:22:00.195   03 Jun 2027 09:22:41.182            40.987                Norilsk          1280.844
       229   03 Jun 2027 09:22:53.879   03 Jun 2027 09:23:24.636            30.757               Magadan2           961.156
       230   03 Jun 2027 09:23:26.734   03 Jun 2027 09:23:47.062            20.328                Norilsk           635.250
       231   03 Jun 2027 09:23:55.406   03 Jun 2027 09:24:45.456            50.050                Novosib          1564.063
       232   03 Jun 2027 09:59:50.138   03 Jun 2027 10:00:34.034            43.896            RioGallegos          1371.750
       233   03 Jun 2027 10:34:52.711   03 Jun 2027 10:35:09.540            16.829                Sumatra           525.906
       234   03 Jun 2027 10:43:46.779   03 Jun 2027 10:44:03.569            16.790                Sumatra           524.688
       235   03 Jun 2027 10:55:05.340   03 Jun 2027 10:55:10.091             4.751                Irkutsk           148.469
       236   03 Jun 2027 10:55:44.758   03 Jun 2027 10:56:23.344            38.586                Norilsk          1205.813
       237   03 Jun 2027 10:56:42.822   03 Jun 2027 10:57:42.479            59.657                Irkutsk          1864.281
       238   03 Jun 2027 10:57:46.321   03 Jun 2027 10:57:52.890             6.569                Norilsk           205.281
       239   03 Jun 2027 10:57:55.682   03 Jun 2027 10:58:15.149            19.467                Norilsk           608.344
       240   03 Jun 2027 10:58:39.625   03 Jun 2027 10:59:05.923            26.298                Norilsk           821.813
       241   03 Jun 2027 10:59:10.791   03 Jun 2027 10:59:17.015             6.224                Novosib           194.500
       242   03 Jun 2027 10:59:26.189   03 Jun 2027 10:59:57.290            31.101                Irkutsk           971.906
       243   03 Jun 2027 11:35:38.884   03 Jun 2027 11:36:47.172            68.288            RioGallegos          2134.000
       244   03 Jun 2027 12:09:55.388   03 Jun 2027 12:10:26.709            31.321                Sumatra           978.781
       245   03 Jun 2027 12:14:43.242   03 Jun 2027 12:14:48.211             4.969                Sumatra           155.281
       246   03 Jun 2027 12:18:15.865   03 Jun 2027 12:18:46.497            30.632                  Delhi           957.250
       247   03 Jun 2027 12:24:37.598   03 Jun 2027 12:26:03.588            85.990                Novosib          2687.188
       248   03 Jun 2027 12:26:39.049   03 Jun 2027 12:27:03.106            24.057                Irkutsk           751.781
       249   03 Jun 2027 12:27:52.126   03 Jun 2027 12:27:58.372             6.246                Novosib           195.187
       250   03 Jun 2027 12:29:16.800   03 Jun 2027 12:29:34.070            17.270                Norilsk           539.687
       251   03 Jun 2027 12:32:52.970   03 Jun 2027 12:33:17.300            24.330              Murmansk1           760.313
       252   03 Jun 2027 13:54:46.655   03 Jun 2027 14:00:00.226           313.571                  Delhi          9799.094
       253   03 Jun 2027 14:03:08.559   03 Jun 2027 14:03:54.231            45.672                Novosib          1427.250
       254   03 Jun 2027 14:05:41.899   03 Jun 2027 14:06:05.115            23.216                Novosib           725.500
       255   03 Jun 2027 14:06:51.490   03 Jun 2027 14:08:12.884            81.394                Norilsk          2543.563
       256   03 Jun 2027 14:11:17.886   03 Jun 2027 14:11:45.966            28.080                Norilsk           877.500
       257   03 Jun 2027 15:38:14.135   03 Jun 2027 15:40:14.260           120.125                 Moscow          3753.906
       258   03 Jun 2027 15:41:22.922   03 Jun 2027 15:41:54.790            31.868                 Moscow           995.875
       259   03 Jun 2027 15:42:49.809   03 Jun 2027 15:44:43.009           113.200              Murmansk1          3537.500
       260   03 Jun 2027 15:48:08.286   03 Jun 2027 15:49:32.530            84.244                Norilsk          2632.625
       261   03 Jun 2027 15:50:51.773   03 Jun 2027 15:51:53.220            61.447                Norilsk          1920.219
       262   03 Jun 2027 15:57:57.529   03 Jun 2027 15:58:15.270            17.741                Anadyr2           554.406
       263   03 Jun 2027 16:51:51.249   03 Jun 2027 16:52:07.534            16.285               CapeTown           508.906
       264   03 Jun 2027 16:52:42.617   03 Jun 2027 16:52:53.655            11.038               CapeTown           344.938
       265   03 Jun 2027 16:53:41.719   03 Jun 2027 16:54:24.665            42.946               CapeTown          1342.063
       266   03 Jun 2027 17:02:10.963   03 Jun 2027 17:02:13.127             2.164               CapeTown            67.625
       267   03 Jun 2027 17:03:04.954   03 Jun 2027 17:03:14.920             9.966               CapeTown           311.438
       268   03 Jun 2027 17:17:13.785   03 Jun 2027 17:17:26.471            12.686                 Moscow           396.437
       269   03 Jun 2027 17:19:09.451   03 Jun 2027 17:21:20.249           130.798                 Moscow          4087.437
       270   03 Jun 2027 17:27:13.421   03 Jun 2027 17:28:12.660            59.239              Murmansk1          1851.219
       271   03 Jun 2027 17:32:22.084   03 Jun 2027 17:32:37.167            15.083                Anadyr1           471.344
       272   03 Jun 2027 17:32:45.181   03 Jun 2027 17:33:31.674            46.493                Anadyr1          1452.906
       273   03 Jun 2027 17:38:45.838   03 Jun 2027 17:39:16.409            30.571                Anadyr1           955.344
       274   03 Jun 2027 18:28:05.588   03 Jun 2027 18:28:58.526            52.938               CapeTown          1654.312
       275   03 Jun 2027 18:32:07.129   03 Jun 2027 18:32:40.967            33.838               CapeTown          1057.438
       276   03 Jun 2027 19:00:09.908   03 Jun 2027 19:04:35.341           265.433              Murmansk2          8294.781
       277   03 Jun 2027 19:04:38.476   03 Jun 2027 19:04:47.591             9.115              Murmansk1           284.844
       278   03 Jun 2027 19:10:54.330   03 Jun 2027 19:11:58.822            64.492               Magadan1          2015.375
       279   03 Jun 2027 19:13:35.361   03 Jun 2027 19:13:56.617            21.256               Magadan2           664.250
       280   03 Jun 2027 19:17:23.284   03 Jun 2027 19:17:27.193             3.909               Magadan2           122.156
       281   03 Jun 2027 19:18:13.489   03 Jun 2027 19:19:14.530            61.041               Magadan2          1907.531
       282   03 Jun 2027 20:44:04.786   03 Jun 2027 20:46:09.987           125.201                Anadyr2          3912.531
       283   03 Jun 2027 20:46:21.189   03 Jun 2027 20:49:44.428           203.239               Magadan2          6351.219
       284   03 Jun 2027 20:49:44.428   03 Jun 2027 20:50:07.015            22.587               Magadan1           705.844
       285   03 Jun 2027 20:53:23.418   03 Jun 2027 20:54:06.199            42.781               Magadan1          1336.906
       286   03 Jun 2027 21:39:09.248   03 Jun 2027 21:40:59.286           110.038            RioGallegos          3438.688
       287   03 Jun 2027 21:41:20.559   03 Jun 2027 21:42:13.682            53.123            RioGallegos          1660.094
       288   03 Jun 2027 21:45:37.110   03 Jun 2027 21:45:47.993            10.883            RioGallegos           340.094
       289   03 Jun 2027 22:19:49.250   03 Jun 2027 22:20:06.915            17.665                Anadyr2           552.031
       290   03 Jun 2027 22:21:23.605   03 Jun 2027 22:21:29.674             6.069                Anadyr2           189.656
       291   03 Jun 2027 22:21:38.565   03 Jun 2027 22:21:48.653            10.088                Anadyr2           315.250
       292   03 Jun 2027 22:21:48.653   03 Jun 2027 22:23:24.136            95.483                Anadyr1          2983.844
       293   03 Jun 2027 22:23:52.980   03 Jun 2027 22:25:13.437            80.457               Magadan2          2514.281
       294   03 Jun 2027 22:25:24.272   03 Jun 2027 22:25:38.042            13.770                Norilsk           430.312
       295   03 Jun 2027 22:25:48.192   03 Jun 2027 22:26:15.270            27.078               Magadan1           846.187
       296   03 Jun 2027 22:26:26.278   03 Jun 2027 22:26:59.717            33.439                Irkutsk          1044.969
       297   03 Jun 2027 22:28:46.133   03 Jun 2027 22:29:48.535            62.402                Irkutsk          1950.063
       298   03 Jun 2027 22:35:22.539   03 Jun 2027 22:35:52.692            30.153                Irkutsk           942.281
       299   03 Jun 2027 22:40:37.216   03 Jun 2027 22:41:37.152            59.936                Sumatra          1873.000
       300   03 Jun 2027 22:46:02.968   03 Jun 2027 22:46:31.422            28.454                Sumatra           889.187
       301   03 Jun 2027 23:25:41.886   03 Jun 2027 23:25:44.389             2.503            RioGallegos            78.219
       302   03 Jun 2027 23:54:52.204   03 Jun 2027 23:57:13.425           141.221                Anadyr2          4413.156
       303   03 Jun 2027 23:57:49.452   03 Jun 2027 23:59:17.157            87.705                Norilsk          2740.781
       304   03 Jun 2027 23:59:37.501   04 Jun 2027 00:00:39.457            61.956               Magadan1          1936.125
       305   04 Jun 2027 00:01:41.784   04 Jun 2027 00:02:32.520            50.736                Irkutsk          1585.500
       306   04 Jun 2027 00:02:33.634   04 Jun 2027 00:02:44.214            10.580                Novosib           330.625
       307   04 Jun 2027 00:03:26.720   04 Jun 2027 00:04:37.767            71.047                Novosib          2220.219
       308   04 Jun 2027 00:10:36.758   04 Jun 2027 00:11:22.019            45.261                  Delhi          1414.406
       309   04 Jun 2027 00:14:12.445   04 Jun 2027 00:14:39.169            26.724                  Delhi           835.125
       310   04 Jun 2027 00:20:28.903   04 Jun 2027 00:20:34.617             5.714                Sumatra           178.563
       311   04 Jun 2027 00:21:41.642   04 Jun 2027 00:23:35.521           113.879                Sumatra          3558.719
       312   04 Jun 2027 01:28:41.856   04 Jun 2027 01:29:48.896            67.040                Anadyr1          2095.000
       313   04 Jun 2027 01:29:48.896   04 Jun 2027 01:30:46.657            57.761                Anadyr2          1805.031
       314   04 Jun 2027 01:33:50.075   04 Jun 2027 01:35:37.171           107.096                Norilsk          3346.750
       315   04 Jun 2027 01:36:23.317   04 Jun 2027 01:38:01.265            97.948              Murmansk2          3060.875
       316   04 Jun 2027 01:38:15.827   04 Jun 2027 01:38:42.874            27.047              Murmansk2           845.219
       317   04 Jun 2027 01:39:24.096   04 Jun 2027 01:39:53.684            29.588              Murmansk2           924.625
       318   04 Jun 2027 01:44:56.184   04 Jun 2027 01:45:32.360            36.176                Irkutsk          1130.500
       319   04 Jun 2027 01:48:41.766   04 Jun 2027 01:49:02.138            20.372                  Delhi           636.625
       320   04 Jun 2027 01:51:16.247   04 Jun 2027 01:52:23.707            67.460                  Delhi          2108.125
       321   04 Jun 2027 02:27:39.978   04 Jun 2027 02:29:36.072           116.094            RioGallegos          3627.938
       322   04 Jun 2027 02:31:26.538   04 Jun 2027 02:31:35.715             9.177            RioGallegos           286.781
       323   04 Jun 2027 02:32:00.268   04 Jun 2027 02:32:04.320             4.052            RioGallegos           126.625
       324   04 Jun 2027 03:17:38.986   04 Jun 2027 03:18:21.360            42.374                Norilsk          1324.188
       325   04 Jun 2027 03:19:23.601   04 Jun 2027 03:19:35.694            12.093                Novosib           377.906
       326   04 Jun 2027 03:20:12.716   04 Jun 2027 03:20:29.997            17.281                 Moscow           540.031
       327   04 Jun 2027 03:20:45.489   04 Jun 2027 03:21:23.656            38.167                 Moscow          1192.719
       328   04 Jun 2027 03:21:27.264   04 Jun 2027 03:24:30.075           182.811                Novosib          5712.844
       329   04 Jun 2027 04:36:07.372   04 Jun 2027 04:39:09.696           182.324                Anadyr1          5697.625
       330   04 Jun 2027 04:39:19.191   04 Jun 2027 04:40:04.044            44.853               Magadan2          1401.656
       331   04 Jun 2027 04:56:59.121   04 Jun 2027 04:57:42.775            43.654                 Moscow          1364.188
       332   04 Jun 2027 04:57:53.669   04 Jun 2027 04:58:47.082            53.413                 Moscow          1669.156
       333   04 Jun 2027 05:15:12.344   04 Jun 2027 05:16:07.218            54.874               CapeTown          1714.813
       334   04 Jun 2027 05:18:33.540   04 Jun 2027 05:19:39.149            65.609               CapeTown          2050.281
       335   04 Jun 2027 06:17:52.610   04 Jun 2027 06:18:49.013            56.403                Anadyr1          1762.594
       336   04 Jun 2027 06:19:01.712   04 Jun 2027 06:19:17.851            16.139               Magadan1           504.344
       337   04 Jun 2027 06:19:38.246   04 Jun 2027 06:20:18.780            40.534               Magadan1          1266.687
       338   04 Jun 2027 06:20:19.997   04 Jun 2027 06:20:57.006            37.009                Anadyr1          1156.531
       339   04 Jun 2027 07:54:38.888   04 Jun 2027 07:55:28.252            49.364               Magadan2          1542.625
       340   04 Jun 2027 07:55:35.888   04 Jun 2027 07:55:43.709             7.821               Magadan1           244.406
       341   04 Jun 2027 07:56:10.189   04 Jun 2027 07:56:45.868            35.679                Anadyr1          1114.969
       342   04 Jun 2027 07:57:05.481   04 Jun 2027 07:57:47.731            42.250               Magadan1          1320.313
       343   04 Jun 2027 08:36:58.505   04 Jun 2027 08:37:20.553            22.048            RioGallegos           689.000
       344   04 Jun 2027 09:28:38.357   04 Jun 2027 09:29:36.316            57.959               Magadan2          1811.219
       345   04 Jun 2027 09:30:35.134   04 Jun 2027 09:30:40.467             5.333               Magadan1           166.656
       346   04 Jun 2027 09:31:31.642   04 Jun 2027 09:32:15.236            43.594               Magadan1          1362.312
       347   04 Jun 2027 09:32:36.793   04 Jun 2027 09:33:01.158            24.365               Magadan1           761.406
       348   04 Jun 2027 09:33:58.170   04 Jun 2027 09:34:29.101            30.931                Irkutsk           966.594
       349   04 Jun 2027 09:35:10.670   04 Jun 2027 09:35:46.144            35.474                Irkutsk          1108.562
       350   04 Jun 2027 09:37:30.321   04 Jun 2027 09:37:38.814             8.493                Norilsk           265.406
       351   04 Jun 2027 10:10:43.076   04 Jun 2027 10:11:49.104            66.028            RioGallegos          2063.375
       352   04 Jun 2027 10:46:24.079   04 Jun 2027 10:47:31.960            67.881                Sumatra          2121.281
       353   04 Jun 2027 11:08:16.788   04 Jun 2027 11:08:48.893            32.105                Irkutsk          1003.281
       354   04 Jun 2027 11:09:16.228   04 Jun 2027 11:09:37.778            21.550                Irkutsk           673.438
       355   04 Jun 2027 11:09:51.698   04 Jun 2027 11:09:54.199             2.501                Norilsk            78.156
       356   04 Jun 2027 11:10:09.613   04 Jun 2027 11:10:29.557            19.944                Norilsk           623.250
       357   04 Jun 2027 11:10:47.936   04 Jun 2027 11:10:54.902             6.966                Irkutsk           217.688
       358   04 Jun 2027 11:11:02.287   04 Jun 2027 11:11:15.359            13.072                Novosib           408.500
       359   04 Jun 2027 11:11:18.052   04 Jun 2027 11:11:30.432            12.380                Norilsk           386.875
       360   04 Jun 2027 11:11:36.394   04 Jun 2027 11:11:59.787            23.393                Irkutsk           731.031
       361   04 Jun 2027 11:48:06.399   04 Jun 2027 11:48:57.569            51.170            RioGallegos          1599.063
       362   04 Jun 2027 11:51:55.465   04 Jun 2027 11:52:36.929            41.464            RioGallegos          1295.750
       363   04 Jun 2027 12:22:19.439   04 Jun 2027 12:23:36.767            77.328                Sumatra          2416.500
       364   04 Jun 2027 12:36:45.428   04 Jun 2027 12:37:31.776            46.348                Novosib          1448.375
       365   04 Jun 2027 12:37:43.215   04 Jun 2027 12:37:54.543            11.328                Irkutsk           354.000
       366   04 Jun 2027 12:40:13.328   04 Jun 2027 12:40:17.806             4.478                Irkutsk           139.938
       367   04 Jun 2027 12:40:42.547   04 Jun 2027 12:42:12.602            90.055                Norilsk          2814.219
       368   04 Jun 2027 12:42:22.653   04 Jun 2027 12:43:17.059            54.406                Irkutsk          1700.187
       369   04 Jun 2027 14:07:24.688   04 Jun 2027 14:08:21.819            57.131                  Delhi          1785.344
       370   04 Jun 2027 14:09:56.432   04 Jun 2027 14:12:24.098           147.666                  Delhi          4614.562
       371   04 Jun 2027 14:17:34.661   04 Jun 2027 14:19:49.743           135.082                Novosib          4221.313
       372   04 Jun 2027 14:22:59.070   04 Jun 2027 14:23:08.977             9.907                Norilsk           309.594
       373   04 Jun 2027 14:23:20.339   04 Jun 2027 14:24:29.912            69.573                Norilsk          2174.156
       374   04 Jun 2027 15:50:24.512   04 Jun 2027 15:52:12.933           108.421                 Moscow          3388.156
       375   04 Jun 2027 15:53:22.430   04 Jun 2027 15:54:20.897            58.467                 Moscow          1827.094
       376   04 Jun 2027 15:54:40.706   04 Jun 2027 15:55:39.884            59.178              Murmansk1          1849.312
       377   04 Jun 2027 15:56:42.051   04 Jun 2027 15:57:08.841            26.790              Murmansk2           837.188
       378   04 Jun 2027 16:01:31.761   04 Jun 2027 16:03:04.253            92.492                Norilsk          2890.375
       379   04 Jun 2027 16:09:30.094   04 Jun 2027 16:10:12.457            42.363                Anadyr1          1323.844
       380   04 Jun 2027 16:10:40.481   04 Jun 2027 16:10:50.490            10.009                Anadyr2           312.781
       381   04 Jun 2027 16:12:39.480   04 Jun 2027 16:13:50.588            71.108                Anadyr2          2222.125
       382   04 Jun 2027 17:05:40.565   04 Jun 2027 17:05:43.217             2.652               CapeTown            82.875
       383   04 Jun 2027 17:06:41.477   04 Jun 2027 17:06:44.148             2.671               CapeTown            83.469
       384   04 Jun 2027 17:07:14.388   04 Jun 2027 17:07:22.430             8.042               CapeTown           251.313
       385   04 Jun 2027 17:12:09.361   04 Jun 2027 17:13:16.259            66.898               CapeTown          2090.562
       386   04 Jun 2027 17:31:04.226   04 Jun 2027 17:33:20.002           135.776                 Moscow          4243.000
       387   04 Jun 2027 17:34:59.640   04 Jun 2027 17:36:33.167            93.527              Murmansk1          2922.719
       388   04 Jun 2027 17:45:35.919   04 Jun 2027 17:46:01.511            25.592                Anadyr2           799.750
       389   04 Jun 2027 18:40:24.928   04 Jun 2027 18:41:43.942            79.014               CapeTown          2469.188
       390   04 Jun 2027 18:43:00.587   04 Jun 2027 18:43:18.405            17.818               CapeTown           556.813
       391   04 Jun 2027 19:13:09.290   04 Jun 2027 19:17:27.412           258.122              Murmansk1          8066.313
       392   04 Jun 2027 19:22:48.350   04 Jun 2027 19:25:34.482           166.132               Magadan1          5191.625
       393   04 Jun 2027 20:56:06.011   04 Jun 2027 20:58:11.764           125.753                Anadyr2          3929.781
       394   04 Jun 2027 20:58:22.225   04 Jun 2027 21:01:40.414           198.189               Magadan1          6193.406
       395   04 Jun 2027 21:01:40.414   04 Jun 2027 21:02:24.574            44.160               Magadan2          1380.000
       396   04 Jun 2027 21:02:44.874   04 Jun 2027 21:02:50.942             6.068               Magadan2           189.625
       397   04 Jun 2027 21:03:03.501   04 Jun 2027 21:03:14.498            10.997               Magadan2           343.656
       398   04 Jun 2027 21:08:36.089   04 Jun 2027 21:08:56.638            20.549               Magadan1           642.156
       399   04 Jun 2027 21:10:44.039   04 Jun 2027 21:10:52.442             8.403               Magadan2           262.594
       400   04 Jun 2027 21:50:50.259   04 Jun 2027 21:53:49.341           179.082            RioGallegos          5596.312
       401   04 Jun 2027 21:55:24.359   04 Jun 2027 21:55:37.694            13.335            RioGallegos           416.719
       402   04 Jun 2027 21:59:45.642   04 Jun 2027 22:00:07.204            21.562            RioGallegos           673.812
       403   04 Jun 2027 22:31:47.266   04 Jun 2027 22:32:08.746            21.480                Anadyr1           671.250
       404   04 Jun 2027 22:33:13.120   04 Jun 2027 22:33:38.823            25.703                Anadyr1           803.219
       405   04 Jun 2027 22:33:56.288   04 Jun 2027 22:35:24.920            88.632                Norilsk          2769.750
       406   04 Jun 2027 22:35:38.027   04 Jun 2027 22:36:13.901            35.874               Magadan1          1121.063
       407   04 Jun 2027 22:36:21.337   04 Jun 2027 22:36:43.282            21.945               Magadan2           685.781
       408   04 Jun 2027 22:38:16.577   04 Jun 2027 22:38:46.612            30.035                Irkutsk           938.594
       409   04 Jun 2027 22:40:24.446   04 Jun 2027 22:40:30.341             5.895                Irkutsk           184.219
       410   04 Jun 2027 22:40:38.462   04 Jun 2027 22:41:07.966            29.504                Irkutsk           922.000
       411   04 Jun 2027 22:41:22.191   04 Jun 2027 22:41:28.314             6.123                Irkutsk           191.344
       412   04 Jun 2027 22:43:58.338   04 Jun 2027 22:44:10.573            12.235                Irkutsk           382.344
       413   04 Jun 2027 22:46:33.584   04 Jun 2027 22:46:57.670            24.086                Irkutsk           752.688
       414   04 Jun 2027 22:52:13.031   04 Jun 2027 22:53:40.234            87.203                Sumatra          2725.094
       415   04 Jun 2027 22:54:13.036   04 Jun 2027 22:55:00.631            47.595                Sumatra          1487.344
       416   05 Jun 2027 00:06:42.078   05 Jun 2027 00:08:58.850           136.772                Anadyr1          4274.125
       417   05 Jun 2027 00:09:51.617   05 Jun 2027 00:10:02.676            11.059                Norilsk           345.594
       418   05 Jun 2027 00:10:31.057   05 Jun 2027 00:12:09.197            98.140               Magadan2          3066.875
       419   05 Jun 2027 00:13:43.567   05 Jun 2027 00:14:53.417            69.850                Irkutsk          2182.813
       420   05 Jun 2027 00:15:51.303   05 Jun 2027 00:17:02.722            71.419                Novosib          2231.844
       421   05 Jun 2027 00:19:49.480   05 Jun 2027 00:20:01.318            11.838                Novosib           369.937
       422   05 Jun 2027 00:20:30.127   05 Jun 2027 00:20:55.296            25.169                Irkutsk           786.531
       423   05 Jun 2027 00:21:30.954   05 Jun 2027 00:21:59.225            28.271                Novosib           883.469
       424   05 Jun 2027 00:22:06.966   05 Jun 2027 00:22:37.098            30.132                  Delhi           941.625
       425   05 Jun 2027 00:26:48.994   05 Jun 2027 00:27:29.589            40.595                  Delhi          1268.594
       426   05 Jun 2027 00:28:34.043   05 Jun 2027 00:28:50.325            16.282                  Delhi           508.813
       427   05 Jun 2027 01:02:40.025   05 Jun 2027 01:03:18.330            38.305            RioGallegos          1197.031
       428   05 Jun 2027 01:07:41.484   05 Jun 2027 01:08:47.724            66.240            RioGallegos          2070.000
       429   05 Jun 2027 01:40:23.412   05 Jun 2027 01:40:56.118            32.706                Anadyr1          1022.062
       430   05 Jun 2027 01:41:11.877   05 Jun 2027 01:41:50.246            38.369                Anadyr2          1199.031
       431   05 Jun 2027 01:42:43.226   05 Jun 2027 01:43:05.634            22.408                Anadyr2           700.250
       432   05 Jun 2027 01:43:10.510   05 Jun 2027 01:43:12.996             2.486                Anadyr1            77.687
       433   05 Jun 2027 01:46:14.538   05 Jun 2027 01:48:04.640           110.102               Magadan2          3440.687
       434   05 Jun 2027 01:48:18.471   05 Jun 2027 01:49:46.116            87.645              Murmansk2          2738.906
       435   05 Jun 2027 01:50:11.507   05 Jun 2027 01:50:37.840            26.333                Novosib           822.906
       436   05 Jun 2027 01:51:14.745   05 Jun 2027 01:51:34.603            19.858                Novosib           620.562
       437   05 Jun 2027 01:52:43.246   05 Jun 2027 01:52:53.799            10.553                Novosib           329.781
       438   05 Jun 2027 01:53:16.210   05 Jun 2027 01:53:43.303            27.093                Novosib           846.656
       439   05 Jun 2027 01:56:57.721   05 Jun 2027 01:57:20.151            22.430                Irkutsk           700.937
       440   05 Jun 2027 02:01:18.735   05 Jun 2027 02:01:51.264            32.529                  Delhi          1016.531
       441   05 Jun 2027 02:06:04.696   05 Jun 2027 02:06:31.495            26.799                  Delhi           837.469
       442   05 Jun 2027 02:40:39.355   05 Jun 2027 02:41:29.130            49.775            RioGallegos          1555.469
       443   05 Jun 2027 02:42:02.651   05 Jun 2027 02:42:31.583            28.932            RioGallegos           904.125
       444   05 Jun 2027 03:19:02.374   05 Jun 2027 03:19:05.791             3.417                Anadyr2           106.781
       445   05 Jun 2027 03:24:42.169   05 Jun 2027 03:24:55.470            13.301                Anadyr1           415.656
       446   05 Jun 2027 03:31:46.542   05 Jun 2027 03:33:18.617            92.075                Norilsk          2877.344
       447   05 Jun 2027 03:33:27.401   05 Jun 2027 03:34:02.018            34.617                Norilsk          1081.781
       448   05 Jun 2027 03:36:02.653   05 Jun 2027 03:36:05.158             2.505                Novosib            78.281
       449   05 Jun 2027 03:52:08.094   05 Jun 2027 03:52:53.564            45.470               CapeTown          1420.938
       450   05 Jun 2027 03:55:07.938   05 Jun 2027 03:55:37.576            29.638               CapeTown           926.187
       451   05 Jun 2027 03:55:58.845   05 Jun 2027 03:56:56.121            57.276               CapeTown          1789.875
       452   05 Jun 2027 03:59:18.654   05 Jun 2027 03:59:27.825             9.171               CapeTown           286.594
       453   05 Jun 2027 04:48:01.815   05 Jun 2027 04:49:05.869            64.054                Anadyr1          2001.687
       454   05 Jun 2027 04:49:14.818   05 Jun 2027 04:49:31.111            16.293                Anadyr1           509.156
       455   05 Jun 2027 04:50:33.547   05 Jun 2027 04:50:59.329            25.782                Anadyr1           805.688
       456   05 Jun 2027 04:51:29.312   05 Jun 2027 04:51:36.405             7.093                Anadyr1           221.656
       457   05 Jun 2027 04:52:53.118   05 Jun 2027 04:53:17.120            24.002                Anadyr2           750.063
       458   05 Jun 2027 04:53:41.264   05 Jun 2027 04:54:04.399            23.135                Anadyr2           722.969
       459   05 Jun 2027 04:54:53.074   05 Jun 2027 04:55:18.004            24.930                Anadyr2           779.062
       460   05 Jun 2027 05:08:29.941   05 Jun 2027 05:09:00.863            30.922                 Moscow           966.313
       461   05 Jun 2027 05:09:12.556   05 Jun 2027 05:09:38.647            26.091                 Moscow           815.344
       462   05 Jun 2027 05:09:43.895   05 Jun 2027 05:10:51.806            67.911                 Moscow          2122.219
       463   05 Jun 2027 05:27:27.813   05 Jun 2027 05:28:20.784            52.971               CapeTown          1655.344
       464   05 Jun 2027 06:30:32.070   05 Jun 2027 06:30:33.764             1.694               Magadan1            52.937
       465   05 Jun 2027 06:30:40.903   05 Jun 2027 06:32:19.085            98.182               Magadan1          3068.187
       466   05 Jun 2027 06:32:33.895   05 Jun 2027 06:33:31.213            57.318               Magadan1          1791.187
       467   05 Jun 2027 08:06:12.248   05 Jun 2027 08:07:04.667            52.419                Anadyr1          1638.094
       468   05 Jun 2027 08:07:29.147   05 Jun 2027 08:07:35.174             6.027               Magadan2           188.344
       469   05 Jun 2027 08:07:47.103   05 Jun 2027 08:08:26.013            38.910                Anadyr1          1215.938
       470   05 Jun 2027 08:08:35.931   05 Jun 2027 08:09:14.162            38.231               Magadan2          1194.719
       471   05 Jun 2027 08:09:22.731   05 Jun 2027 08:09:31.337             8.606                Anadyr2           268.938
       472   05 Jun 2027 08:09:31.337   05 Jun 2027 08:10:54.024            82.687                Anadyr1          2583.969
       473   05 Jun 2027 09:41:22.835   05 Jun 2027 09:42:41.583            78.748               Magadan2          2460.875
       474   05 Jun 2027 09:43:03.177   05 Jun 2027 09:43:24.628            21.451               Magadan2           670.344
       475   05 Jun 2027 09:43:45.213   05 Jun 2027 09:44:02.650            17.437               Magadan1           544.906
       476   05 Jun 2027 09:44:11.189   05 Jun 2027 09:45:03.212            52.023               Magadan1          1625.719
       477   05 Jun 2027 09:46:00.928   05 Jun 2027 09:46:32.007            31.079                Irkutsk           971.219
       478   05 Jun 2027 09:46:41.264   05 Jun 2027 09:47:02.392            21.128                Irkutsk           660.250
       479   05 Jun 2027 09:47:41.802   05 Jun 2027 09:47:57.262            15.460                Irkutsk           483.125
       480   05 Jun 2027 09:49:27.191   05 Jun 2027 09:49:40.450            13.259                Norilsk           414.344
       481   05 Jun 2027 10:22:42.711   05 Jun 2027 10:23:46.825            64.114            RioGallegos          2003.562
       482   05 Jun 2027 10:58:03.863   05 Jun 2027 10:59:46.989           103.126                Sumatra          3222.687
