uniorb/output/strategy_4/Drop/Drop_KinoSat_112001.txt

KinoSat_112001
-------------------------
    Access    *     Start Time (UTCG)     *     Stop Time (UTCG)  *   Duration (s)        *       Station  *  Data (Mbytes)
         1   01 Jun 2027 03:36:31.282   01 Jun 2027 03:36:47.461            16.179               Magadan2           505.594
         2   01 Jun 2027 03:37:09.537   01 Jun 2027 03:38:42.536            92.999                Irkutsk          2906.219
         3   01 Jun 2027 03:39:27.647   01 Jun 2027 03:39:50.379            22.732                Novosib           710.375
         4   01 Jun 2027 03:39:55.263   01 Jun 2027 03:40:31.843            36.580              Murmansk2          1143.125
         5   01 Jun 2027 03:40:32.438   01 Jun 2027 03:40:41.920             9.482                Norilsk           296.313
         6   01 Jun 2027 03:40:52.186   01 Jun 2027 03:41:57.982            65.796                Norilsk          2056.125
         7   01 Jun 2027 03:42:05.808   01 Jun 2027 03:44:28.877           143.069                Irkutsk          4470.906
         8   01 Jun 2027 03:44:42.004   01 Jun 2027 03:45:08.379            26.375                Novosib           824.219
         9   01 Jun 2027 03:45:38.451   01 Jun 2027 03:46:36.906            58.455                  Delhi          1826.719
        10   01 Jun 2027 03:51:57.381   01 Jun 2027 03:53:53.513           116.132                  Delhi          3629.125
        11   01 Jun 2027 04:24:47.755   01 Jun 2027 04:28:50.627           242.872            RioGallegos          7589.750
        12   01 Jun 2027 05:15:27.486   01 Jun 2027 05:15:56.305            28.819                Irkutsk           900.594
        13   01 Jun 2027 05:16:00.424   01 Jun 2027 05:16:24.873            24.449                Norilsk           764.031
        14   01 Jun 2027 05:16:35.288   01 Jun 2027 05:16:38.142             2.854                Irkutsk            89.187
        15   01 Jun 2027 05:16:55.298   01 Jun 2027 05:20:40.918           225.620              Murmansk1          7050.625
        16   01 Jun 2027 05:20:42.899   01 Jun 2027 05:22:04.191            81.292                Novosib          2540.375
        17   01 Jun 2027 05:22:31.367   01 Jun 2027 05:26:03.111           211.744                  Delhi          6617.000
        18   01 Jun 2027 06:53:38.357   01 Jun 2027 06:53:47.781             9.424              Murmansk1           294.500
        19   01 Jun 2027 06:53:51.607   01 Jun 2027 06:54:15.642            24.035                Norilsk           751.094
        20   01 Jun 2027 06:54:16.124   01 Jun 2027 06:55:19.550            63.426              Murmansk1          1982.063
        21   01 Jun 2027 06:55:21.199   01 Jun 2027 06:57:18.015           116.816                 Moscow          3650.500
        22   01 Jun 2027 07:12:35.217   01 Jun 2027 07:15:42.578           187.361               CapeTown          5855.031
        23   01 Jun 2027 08:15:31.178   01 Jun 2027 08:16:30.985            59.807                Anadyr1          1868.969
        24   01 Jun 2027 08:16:30.985   01 Jun 2027 08:17:35.685            64.700                Anadyr2          2021.875
        25   01 Jun 2027 09:52:29.949   01 Jun 2027 09:57:55.340           325.391                Anadyr2         10168.469
        26   01 Jun 2027 11:27:25.912   01 Jun 2027 11:27:50.883            24.971               Magadan2           780.344
        27   01 Jun 2027 11:30:08.043   01 Jun 2027 11:31:04.283            56.240                Anadyr1          1757.500
        28   01 Jun 2027 11:32:17.024   01 Jun 2027 11:33:16.345            59.321                Irkutsk          1853.781
        29   01 Jun 2027 13:46:01.558   01 Jun 2027 13:56:32.441           630.883            RioGallegos         19715.094
        30   01 Jun 2027 14:21:40.093   01 Jun 2027 14:29:24.423           464.330                Sumatra         14510.313
        31   01 Jun 2027 14:35:11.564   01 Jun 2027 14:40:37.976           326.412                Irkutsk         10200.375
        32   01 Jun 2027 16:04:23.581   01 Jun 2027 16:10:32.600           369.019                  Delhi         11531.844
        33   01 Jun 2027 16:12:46.021   01 Jun 2027 16:18:59.767           373.746                Novosib         11679.563
        34   01 Jun 2027 16:21:31.787   01 Jun 2027 16:22:25.848            54.061                Norilsk          1689.406
        35   01 Jun 2027 19:28:00.453   01 Jun 2027 19:33:41.814           341.361                 Moscow         10667.531
        36   01 Jun 2027 20:42:14.627   01 Jun 2027 20:42:39.220            24.593               CapeTown           768.531
        37   01 Jun 2027 20:45:53.585   01 Jun 2027 20:47:30.798            97.213               CapeTown          3037.906
        38   01 Jun 2027 21:09:47.689   01 Jun 2027 21:15:16.829           329.140              Murmansk2         10285.625
        39   02 Jun 2027 00:29:21.483   02 Jun 2027 00:30:02.334            40.851                Anadyr2          1276.594
        40   02 Jun 2027 00:30:06.478   02 Jun 2027 00:30:21.150            14.672                Anadyr1           458.500
        41   02 Jun 2027 00:31:26.364   02 Jun 2027 00:33:06.905           100.541                Norilsk          3141.906
        42   02 Jun 2027 00:34:43.256   02 Jun 2027 00:35:06.570            23.314               Magadan1           728.562
        43   02 Jun 2027 00:35:54.920   02 Jun 2027 00:37:17.810            82.890                Irkutsk          2590.313
        44   02 Jun 2027 00:42:40.889   02 Jun 2027 00:43:08.334            27.445                Irkutsk           857.656
        45   02 Jun 2027 00:44:19.376   02 Jun 2027 00:45:21.857            62.481                Irkutsk          1952.531
        46   02 Jun 2027 00:50:03.788   02 Jun 2027 00:51:21.676            77.888                Sumatra          2434.000
        47   02 Jun 2027 00:56:02.746   02 Jun 2027 00:56:49.038            46.292                Sumatra          1446.625
        48   02 Jun 2027 00:58:36.637   02 Jun 2027 00:59:19.421            42.784                Sumatra          1337.000
        49   02 Jun 2027 01:26:30.612   02 Jun 2027 01:26:54.035            23.423            RioGallegos           731.969
        50   02 Jun 2027 01:29:56.667   02 Jun 2027 01:30:30.845            34.178            RioGallegos          1068.063
        51   02 Jun 2027 01:35:08.876   02 Jun 2027 01:35:57.439            48.563            RioGallegos          1517.594
        52   02 Jun 2027 02:04:23.628   02 Jun 2027 02:04:51.140            27.512                Anadyr1           859.750
        53   02 Jun 2027 02:06:23.495   02 Jun 2027 02:06:47.629            24.134                Anadyr2           754.188
        54   02 Jun 2027 02:07:20.492   02 Jun 2027 02:07:29.802             9.310                Anadyr1           290.937
        55   02 Jun 2027 02:08:01.813   02 Jun 2027 02:08:47.613            45.800               Magadan1          1431.250
        56   02 Jun 2027 02:08:56.957   02 Jun 2027 02:09:42.459            45.502                Norilsk          1421.937
        57   02 Jun 2027 02:10:07.238   02 Jun 2027 02:10:25.693            18.455               Magadan2           576.719
        58   02 Jun 2027 02:11:13.529   02 Jun 2027 02:13:43.034           149.505                Irkutsk          4672.031
        59   02 Jun 2027 02:18:08.840   02 Jun 2027 02:18:16.446             7.606                Irkutsk           237.688
        60   02 Jun 2027 02:20:01.559   02 Jun 2027 02:20:52.336            50.777                  Delhi          1586.781
        61   02 Jun 2027 02:25:42.316   02 Jun 2027 02:31:22.057           339.741                Sumatra         10616.906
        62   02 Jun 2027 03:47:59.946   02 Jun 2027 03:48:15.893            15.947               Magadan1           498.344
        63   02 Jun 2027 03:48:34.985   02 Jun 2027 03:48:47.641            12.656                Irkutsk           395.500
        64   02 Jun 2027 03:50:19.711   02 Jun 2027 03:50:30.384            10.673                Norilsk           333.531
        65   02 Jun 2027 03:50:43.294   02 Jun 2027 03:51:58.620            75.326              Murmansk2          2353.937
        66   02 Jun 2027 03:52:07.904   02 Jun 2027 03:53:19.623            71.719              Murmansk2          2241.219
        67   02 Jun 2027 03:53:33.314   02 Jun 2027 03:58:02.146           268.832                Irkutsk          8401.000
        68   02 Jun 2027 03:58:10.249   02 Jun 2027 03:59:00.393            50.144                Novosib          1567.000
        69   02 Jun 2027 04:00:49.656   02 Jun 2027 04:03:20.371           150.715                  Delhi          4709.844
        70   02 Jun 2027 04:04:38.256   02 Jun 2027 04:07:01.647           143.391                  Delhi          4480.969
        71   02 Jun 2027 04:37:22.302   02 Jun 2027 04:41:19.976           237.674            RioGallegos          7427.313
        72   02 Jun 2027 05:29:47.328   02 Jun 2027 05:29:54.193             6.865                 Moscow           214.531
        73   02 Jun 2027 05:30:02.436   02 Jun 2027 05:30:13.651            11.215                 Moscow           350.469
        74   02 Jun 2027 05:30:19.290   02 Jun 2027 05:33:03.544           164.254                Novosib          5132.937
        75   02 Jun 2027 05:35:46.671   02 Jun 2027 05:36:46.763            60.092                 Moscow          1877.875
        76   02 Jun 2027 05:51:05.858   02 Jun 2027 05:51:45.093            39.235               CapeTown          1226.094
        77   02 Jun 2027 07:05:46.555   02 Jun 2027 07:06:10.334            23.779              Murmansk1           743.094
        78   02 Jun 2027 07:07:14.445   02 Jun 2027 07:07:31.782            17.337                 Moscow           541.781
        79   02 Jun 2027 07:11:43.496   02 Jun 2027 07:13:27.458           103.962                 Moscow          3248.813
        80   02 Jun 2027 07:24:46.059   02 Jun 2027 07:37:07.792           741.733               CapeTown         23179.156
        81   02 Jun 2027 08:28:38.308   02 Jun 2027 08:30:03.573            85.265               Magadan2          2664.531
        82   02 Jun 2027 08:30:16.109   02 Jun 2027 08:33:50.414           214.305               Magadan2          6697.031
        83   02 Jun 2027 10:05:09.781   02 Jun 2027 10:06:25.633            75.852                Anadyr2          2370.375
        84   02 Jun 2027 10:06:38.226   02 Jun 2027 10:06:51.575            13.349               Magadan2           417.156
        85   02 Jun 2027 10:07:21.712   02 Jun 2027 10:09:52.541           150.829                Anadyr2          4713.406
        86   02 Jun 2027 11:35:02.288   02 Jun 2027 11:35:24.779            22.491               Magadan1           702.844
        87   02 Jun 2027 11:35:46.508   02 Jun 2027 11:36:25.965            39.457               Magadan1          1233.031
        88   02 Jun 2027 11:38:42.378   02 Jun 2027 11:38:57.924            15.546               Magadan2           485.812
        89   02 Jun 2027 11:39:15.070   02 Jun 2027 11:45:03.895           348.825               Magadan2         10900.781
        90   02 Jun 2027 12:20:14.430   02 Jun 2027 12:21:36.370            81.940            RioGallegos          2560.625
        91   02 Jun 2027 12:29:48.617   02 Jun 2027 12:30:15.085            26.468            RioGallegos           827.125
        92   02 Jun 2027 12:55:51.442   02 Jun 2027 12:56:27.546            36.104                Sumatra          1128.250
        93   02 Jun 2027 12:58:06.221   02 Jun 2027 12:59:07.665            61.444                Sumatra          1920.125
        94   02 Jun 2027 13:07:22.341   02 Jun 2027 13:07:28.612             6.271                Sumatra           195.969
        95   02 Jun 2027 13:08:41.907   02 Jun 2027 13:11:57.151           195.244                Irkutsk          6101.375
        96   02 Jun 2027 13:57:42.766   02 Jun 2027 13:59:26.007           103.241            RioGallegos          3226.281
        97   02 Jun 2027 14:02:12.811   02 Jun 2027 14:03:19.049            66.238            RioGallegos          2069.938
        98   02 Jun 2027 14:07:27.575   02 Jun 2027 14:07:43.903            16.328            RioGallegos           510.250
        99   02 Jun 2027 14:31:56.416   02 Jun 2027 14:38:01.778           365.362                Sumatra         11417.562
       100   02 Jun 2027 14:47:21.583   02 Jun 2027 14:53:56.957           395.374                Irkutsk         12355.438
       101   02 Jun 2027 16:17:03.867   02 Jun 2027 16:24:45.353           461.486                  Delhi         14421.437
       102   02 Jun 2027 16:27:02.108   02 Jun 2027 16:32:37.639           335.531                Novosib         10485.344
       103   02 Jun 2027 19:39:46.513   02 Jun 2027 19:46:51.968           425.455                 Moscow         13295.469
       104   02 Jun 2027 20:52:16.361   02 Jun 2027 20:55:27.111           190.750               CapeTown          5960.937
       105   02 Jun 2027 21:22:48.300   02 Jun 2027 21:26:59.666           251.366              Murmansk1          7855.187
       106   02 Jun 2027 23:06:55.846   02 Jun 2027 23:07:08.093            12.247                Anadyr1           382.719
       107   02 Jun 2027 23:07:54.017   02 Jun 2027 23:09:11.645            77.628               Magadan2          2425.875
       108   02 Jun 2027 23:09:11.645   02 Jun 2027 23:09:23.168            11.523               Magadan1           360.094
       109   02 Jun 2027 23:10:36.937   02 Jun 2027 23:11:09.411            32.474                Norilsk          1014.812
       110   02 Jun 2027 23:11:32.060   02 Jun 2027 23:11:37.761             5.701               Magadan1           178.156
       111   02 Jun 2027 23:12:14.223   02 Jun 2027 23:12:34.479            20.256               Magadan1           633.000
       112   02 Jun 2027 23:14:06.526   02 Jun 2027 23:14:56.446            49.920               Magadan1          1560.000
       113   02 Jun 2027 23:20:01.303   02 Jun 2027 23:20:41.184            39.881               Magadan2          1246.281
       114   03 Jun 2027 00:00:17.973   03 Jun 2027 00:02:31.382           133.409            RioGallegos          4169.031
       115   03 Jun 2027 00:05:53.897   03 Jun 2027 00:06:04.530            10.633            RioGallegos           332.281
       116   03 Jun 2027 00:07:18.316   03 Jun 2027 00:08:02.259            43.943            RioGallegos          1373.219
       117   03 Jun 2027 00:41:19.620   03 Jun 2027 00:42:16.753            57.133                Anadyr1          1785.406
       118   03 Jun 2027 00:42:47.798   03 Jun 2027 00:43:03.411            15.613                Anadyr1           487.906
       119   03 Jun 2027 00:43:26.598   03 Jun 2027 00:45:08.440           101.842                Norilsk          3182.563
       120   03 Jun 2027 00:45:43.521   03 Jun 2027 00:46:06.246            22.725               Magadan2           710.156
       121   03 Jun 2027 00:46:35.062   03 Jun 2027 00:47:05.341            30.279               Magadan1           946.219
       122   03 Jun 2027 00:47:05.341   03 Jun 2027 00:47:22.104            16.763               Magadan2           523.844
       123   03 Jun 2027 00:47:40.037   03 Jun 2027 00:47:55.974            15.937               Magadan1           498.031
       124   03 Jun 2027 00:48:37.083   03 Jun 2027 00:49:40.333            63.250                Irkutsk          1976.563
       125   03 Jun 2027 00:50:53.084   03 Jun 2027 00:52:04.086            71.002                Novosib          2218.812
       126   03 Jun 2027 00:58:49.541   03 Jun 2027 00:58:54.405             4.864                Irkutsk           152.000
       127   03 Jun 2027 01:01:41.128   03 Jun 2027 01:03:40.920           119.792                Sumatra          3743.500
       128   03 Jun 2027 01:08:50.920   03 Jun 2027 01:09:03.592            12.672                Sumatra           396.000
       129   03 Jun 2027 01:11:54.754   03 Jun 2027 01:13:36.380           101.626                Sumatra          3175.813
       130   03 Jun 2027 02:16:13.426   03 Jun 2027 02:16:40.693            27.267                Anadyr1           852.094
       131   03 Jun 2027 02:16:48.628   03 Jun 2027 02:17:25.119            36.491                Anadyr1          1140.344
       132   03 Jun 2027 02:18:23.974   03 Jun 2027 02:18:33.670             9.696                Anadyr1           303.000
       133   03 Jun 2027 02:19:14.571   03 Jun 2027 02:19:19.785             5.214                Anadyr2           162.937
       134   03 Jun 2027 02:19:23.144   03 Jun 2027 02:20:39.002            75.858                Norilsk          2370.562
       135   03 Jun 2027 02:20:59.834   03 Jun 2027 02:21:26.959            27.125                Norilsk           847.656
       136   03 Jun 2027 02:23:15.743   03 Jun 2027 02:25:55.913           160.170                Irkutsk          5005.313
       137   03 Jun 2027 02:32:16.189   03 Jun 2027 02:32:35.419            19.230                  Delhi           600.938
       138   03 Jun 2027 02:35:41.793   03 Jun 2027 02:36:08.626            26.833                  Delhi           838.531
       139   03 Jun 2027 02:38:13.179   03 Jun 2027 02:45:00.403           407.224                Sumatra         12725.750
       140   03 Jun 2027 04:00:33.403   03 Jun 2027 04:02:00.468            87.065                Irkutsk          2720.781
       141   03 Jun 2027 04:04:06.392   03 Jun 2027 04:04:29.918            23.526                Irkutsk           735.188
       142   03 Jun 2027 04:04:50.973   03 Jun 2027 04:09:34.064           283.091                Irkutsk          8846.594
       143   03 Jun 2027 04:09:50.743   03 Jun 2027 04:11:06.731            75.988                Novosib          2374.625
       144   03 Jun 2027 04:12:24.499   03 Jun 2027 04:14:32.336           127.837                  Delhi          3994.906
       145   03 Jun 2027 05:41:12.151   03 Jun 2027 05:42:02.240            50.089                 Moscow          1565.281
       146   03 Jun 2027 05:42:24.876   03 Jun 2027 05:42:29.074             4.198                 Moscow           131.188
       147   03 Jun 2027 05:42:34.411   03 Jun 2027 05:43:04.129            29.718                 Moscow           928.688
       148   03 Jun 2027 05:43:08.193   03 Jun 2027 05:45:10.800           122.607                Novosib          3831.469
       149   03 Jun 2027 05:47:25.734   03 Jun 2027 05:47:31.577             5.843                 Moscow           182.594
       150   03 Jun 2027 05:48:35.835   03 Jun 2027 05:48:47.588            11.753                 Moscow           367.281
       151   03 Jun 2027 06:01:35.865   03 Jun 2027 06:02:48.098            72.233               CapeTown          2257.281
       152   03 Jun 2027 06:05:07.446   03 Jun 2027 06:05:45.716            38.270               CapeTown          1195.937
       153   03 Jun 2027 06:07:15.262   03 Jun 2027 06:07:42.845            27.583               CapeTown           861.969
       154   03 Jun 2027 07:15:59.451   03 Jun 2027 07:16:21.634            22.183                Norilsk           693.219
       155   03 Jun 2027 07:16:48.178   03 Jun 2027 07:16:54.661             6.483                Norilsk           202.594
       156   03 Jun 2027 07:17:13.587   03 Jun 2027 07:17:34.351            20.764                Norilsk           648.875
       157   03 Jun 2027 07:17:45.747   03 Jun 2027 07:18:03.428            17.681              Murmansk2           552.531
       158   03 Jun 2027 07:18:30.715   03 Jun 2027 07:18:51.895            21.180              Murmansk2           661.875
       159   03 Jun 2027 07:18:54.285   03 Jun 2027 07:18:54.989             0.704              Murmansk2            22.000
       160   03 Jun 2027 07:19:01.989   03 Jun 2027 07:20:35.175            93.186                 Moscow          2912.063
       161   03 Jun 2027 07:37:02.772   03 Jun 2027 07:37:55.500            52.728               CapeTown          1647.750
       162   03 Jun 2027 07:39:31.810   03 Jun 2027 07:42:10.208           158.398               CapeTown          4949.937
       163   03 Jun 2027 08:39:46.102   03 Jun 2027 08:40:15.154            29.052               Magadan1           907.875
       164   03 Jun 2027 08:40:17.280   03 Jun 2027 08:40:48.148            30.868               Magadan2           964.625
       165   03 Jun 2027 08:41:59.095   03 Jun 2027 08:42:24.050            24.955                Anadyr1           779.844
       166   03 Jun 2027 08:42:46.284   03 Jun 2027 08:42:48.883             2.599                Anadyr2            81.219
       167   03 Jun 2027 08:43:24.762   03 Jun 2027 08:44:19.203            54.441                Anadyr1          1701.281
       168   03 Jun 2027 10:11:00.991   03 Jun 2027 10:12:16.151            75.160               Magadan2          2348.750
       169   03 Jun 2027 10:12:18.419   03 Jun 2027 10:13:16.443            58.024                Anadyr2          1813.250
       170   03 Jun 2027 10:16:07.393   03 Jun 2027 10:17:16.481            69.088               Magadan1          2159.000
       171   03 Jun 2027 10:18:04.775   03 Jun 2027 10:18:09.326             4.551               Magadan2           142.219
       172   03 Jun 2027 10:18:47.533   03 Jun 2027 10:19:50.010            62.477               Magadan1          1952.406
       173   03 Jun 2027 10:20:18.441   03 Jun 2027 10:21:50.878            92.437               Magadan2          2888.656
       174   03 Jun 2027 11:47:37.495   03 Jun 2027 11:57:07.155           569.660               Magadan1         17801.875
       175   03 Jun 2027 13:13:47.191   03 Jun 2027 13:14:14.513            27.322                Sumatra           853.813
       176   03 Jun 2027 13:17:49.358   03 Jun 2027 13:19:44.764           115.406                Sumatra          3606.437
       177   03 Jun 2027 13:27:59.984   03 Jun 2027 13:30:05.877           125.893                Irkutsk          3934.156
       178   03 Jun 2027 14:10:17.551   03 Jun 2027 14:14:07.923           230.372            RioGallegos          7199.125
       179   03 Jun 2027 14:14:30.980   03 Jun 2027 14:16:19.570           108.590            RioGallegos          3393.438
       180   03 Jun 2027 14:45:56.506   03 Jun 2027 14:53:47.649           471.143                Sumatra         14723.219
       181   03 Jun 2027 15:00:54.090   03 Jun 2027 15:07:56.125           422.035                Irkutsk         13188.594
       182   03 Jun 2027 16:29:59.419   03 Jun 2027 16:37:43.759           464.340                  Delhi         14510.625
       183   03 Jun 2027 16:38:29.325   03 Jun 2027 16:45:15.113           405.788                Novosib         12680.875
       184   03 Jun 2027 19:52:56.804   03 Jun 2027 19:58:15.574           318.770                 Moscow          9961.563
       185   03 Jun 2027 21:03:18.740   03 Jun 2027 21:09:08.261           349.521               CapeTown         10922.531
       186   03 Jun 2027 21:36:09.698   03 Jun 2027 21:38:23.778           134.080              Murmansk1          4190.000
       187   04 Jun 2027 00:53:17.016   04 Jun 2027 00:53:58.231            41.215                Anadyr2          1287.969
       188   04 Jun 2027 00:54:19.959   04 Jun 2027 00:54:21.175             1.216                Anadyr1            38.000
       189   04 Jun 2027 00:54:43.071   04 Jun 2027 00:54:44.743             1.672                Anadyr1            52.250
       190   04 Jun 2027 00:55:04.430   04 Jun 2027 00:55:44.261            39.831                Anadyr2          1244.719
       191   04 Jun 2027 00:55:57.742   04 Jun 2027 00:57:28.333            90.591                Norilsk          2830.969
       192   04 Jun 2027 00:57:56.855   04 Jun 2027 00:59:22.634            85.779               Magadan2          2680.594
       193   04 Jun 2027 00:59:39.485   04 Jun 2027 01:00:46.062            66.577                Irkutsk          2080.531
       194   04 Jun 2027 01:01:08.259   04 Jun 2027 01:01:20.568            12.309                Irkutsk           384.656
       195   04 Jun 2027 01:02:21.719   04 Jun 2027 01:02:53.955            32.236                Novosib          1007.375
       196   04 Jun 2027 01:03:17.241   04 Jun 2027 01:04:34.395            77.154                Irkutsk          2411.062
       197   04 Jun 2027 01:13:25.877   04 Jun 2027 01:14:18.438            52.561                Sumatra          1642.531
       198   04 Jun 2027 01:20:14.870   04 Jun 2027 01:21:18.589            63.719                Sumatra          1991.219
       199   04 Jun 2027 01:50:49.937   04 Jun 2027 01:51:20.486            30.549            RioGallegos           954.656
       200   04 Jun 2027 01:55:20.377   04 Jun 2027 01:56:08.673            48.296            RioGallegos          1509.250
       201   04 Jun 2027 02:28:01.883   04 Jun 2027 02:28:42.038            40.155                Anadyr2          1254.844
       202   04 Jun 2027 02:31:25.634   04 Jun 2027 02:32:50.516            84.882                Norilsk          2652.562
       203   04 Jun 2027 02:34:37.977   04 Jun 2027 02:35:05.789            27.812                Norilsk           869.125
       204   04 Jun 2027 02:35:18.763   04 Jun 2027 02:37:46.780           148.017                Irkutsk          4625.531
       205   04 Jun 2027 02:42:05.921   04 Jun 2027 02:43:14.759            68.838                Irkutsk          2151.187
       206   04 Jun 2027 02:50:57.296   04 Jun 2027 02:59:21.289           503.993                Sumatra         15749.781
       207   04 Jun 2027 04:15:23.139   04 Jun 2027 04:15:43.890            20.751                Irkutsk           648.469
       208   04 Jun 2027 04:15:52.151   04 Jun 2027 04:16:14.730            22.579              Murmansk2           705.594
       209   04 Jun 2027 04:16:23.142   04 Jun 2027 04:21:02.206           279.064                Irkutsk          8720.750
       210   04 Jun 2027 04:21:56.785   04 Jun 2027 04:23:49.326           112.541                Novosib          3516.906
       211   04 Jun 2027 04:25:27.394   04 Jun 2027 04:30:27.705           300.311                  Delhi          9384.719
       212   04 Jun 2027 05:53:19.628   04 Jun 2027 05:56:12.416           172.788                Novosib          5399.625
       213   04 Jun 2027 05:56:34.368   04 Jun 2027 05:56:53.981            19.613                 Moscow           612.906
       214   04 Jun 2027 05:59:32.055   04 Jun 2027 05:59:52.833            20.778                 Moscow           649.313
       215   04 Jun 2027 06:00:24.844   04 Jun 2027 06:00:31.814             6.970                 Moscow           217.813
       216   04 Jun 2027 06:13:15.557   04 Jun 2027 06:15:02.975           107.418               CapeTown          3356.813
       217   04 Jun 2027 06:19:46.875   04 Jun 2027 06:20:32.044            45.169               CapeTown          1411.531
       218   04 Jun 2027 07:16:40.796   04 Jun 2027 07:17:02.387            21.591                Anadyr2           674.719
       219   04 Jun 2027 07:17:18.770   04 Jun 2027 07:19:02.232           103.462                Anadyr2          3233.188
       220   04 Jun 2027 07:28:23.488   04 Jun 2027 07:28:45.318            21.830                Norilsk           682.188
       221   04 Jun 2027 07:29:14.830   04 Jun 2027 07:29:22.819             7.989                Norilsk           249.656
       222   04 Jun 2027 07:29:45.318   04 Jun 2027 07:29:55.496            10.178              Murmansk1           318.063
       223   04 Jun 2027 07:30:18.436   04 Jun 2027 07:30:50.829            32.393              Murmansk1          1012.281
       224   04 Jun 2027 07:30:50.969   04 Jun 2027 07:32:31.115           100.146                 Moscow          3129.563
       225   04 Jun 2027 07:49:26.144   04 Jun 2027 07:51:31.971           125.827               CapeTown          3932.094
       226   04 Jun 2027 08:50:46.653   04 Jun 2027 08:51:16.699            30.046               Magadan1           938.937
       227   04 Jun 2027 08:51:44.658   04 Jun 2027 08:52:17.615            32.957               Magadan1          1029.906
       228   04 Jun 2027 08:52:50.337   04 Jun 2027 08:54:03.729            73.392               Magadan2          2293.500
       229   04 Jun 2027 08:54:53.793   04 Jun 2027 08:55:08.804            15.011               Magadan2           469.094
       230   04 Jun 2027 08:55:15.285   04 Jun 2027 08:55:28.640            13.355                Anadyr2           417.344
       231   04 Jun 2027 08:56:17.890   04 Jun 2027 08:57:03.940            46.050                Anadyr1          1439.063
       232   04 Jun 2027 10:24:16.750   04 Jun 2027 10:25:32.943            76.193               Magadan1          2381.031
       233   04 Jun 2027 10:26:42.771   04 Jun 2027 10:28:06.296            83.525               Magadan2          2610.156
       234   04 Jun 2027 10:29:03.543   04 Jun 2027 10:30:31.295            87.752               Magadan2          2742.250
       235   04 Jun 2027 10:30:58.082   04 Jun 2027 10:30:59.711             1.629               Magadan2            50.906
       236   04 Jun 2027 10:31:46.346   04 Jun 2027 10:33:51.043           124.697               Magadan2          3896.781
       237   04 Jun 2027 12:00:18.481   04 Jun 2027 12:06:36.555           378.074               Magadan2         11814.812
       238   04 Jun 2027 12:06:43.223   04 Jun 2027 12:08:55.569           132.346               Magadan1          4135.812
       239   04 Jun 2027 14:22:59.934   04 Jun 2027 14:29:44.688           404.754            RioGallegos         12648.563
       240   04 Jun 2027 14:57:27.027   04 Jun 2027 15:04:49.087           442.060                Sumatra         13814.375
       241   04 Jun 2027 15:13:17.731   04 Jun 2027 15:19:21.576           363.845                Irkutsk         11370.156
       242   04 Jun 2027 16:43:24.348   04 Jun 2027 16:48:33.114           308.766                  Delhi          9648.937
       243   04 Jun 2027 16:51:44.803   04 Jun 2027 16:56:34.205           289.402                Novosib          9043.813
       244   04 Jun 2027 20:06:53.148   04 Jun 2027 20:08:56.339           123.191                 Moscow          3849.719
       245   04 Jun 2027 20:10:12.687   04 Jun 2027 20:12:04.463           111.776              Murmansk2          3493.000
       246   04 Jun 2027 20:13:44.857   04 Jun 2027 20:13:51.298             6.441              Murmansk1           201.281
       247   04 Jun 2027 21:15:06.903   04 Jun 2027 21:22:02.819           415.916               CapeTown         12997.375
       248   04 Jun 2027 23:30:58.197   04 Jun 2027 23:31:22.687            24.490                Anadyr1           765.312
       249   04 Jun 2027 23:31:52.932   04 Jun 2027 23:32:13.943            21.011                Anadyr2           656.594
       250   04 Jun 2027 23:32:21.892   04 Jun 2027 23:32:40.638            18.746               Magadan2           585.813
       251   04 Jun 2027 23:32:40.638   04 Jun 2027 23:32:54.683            14.045               Magadan1           438.906
       252   04 Jun 2027 23:32:57.650   04 Jun 2027 23:33:48.215            50.565               Magadan1          1580.156
       253   04 Jun 2027 23:37:07.229   04 Jun 2027 23:37:37.930            30.701               Magadan2           959.406
       254   04 Jun 2027 23:38:31.218   04 Jun 2027 23:38:59.562            28.344                Irkutsk           885.750
       255   04 Jun 2027 23:41:32.019   04 Jun 2027 23:41:44.373            12.354                Irkutsk           386.062
       256   04 Jun 2027 23:43:17.399   04 Jun 2027 23:43:25.669             8.270               Magadan1           258.437
       257   04 Jun 2027 23:43:37.420   04 Jun 2027 23:44:36.313            58.893               Magadan2          1840.406
       258   05 Jun 2027 00:23:55.454   05 Jun 2027 00:26:16.535           141.081            RioGallegos          4408.781
       259   05 Jun 2027 00:30:09.837   05 Jun 2027 00:31:03.326            53.489            RioGallegos          1671.531
       260   05 Jun 2027 01:05:13.580   05 Jun 2027 01:06:02.389            48.809                Anadyr1          1525.281
       261   05 Jun 2027 01:06:40.844   05 Jun 2027 01:07:05.253            24.409                Anadyr2           762.781
       262   05 Jun 2027 01:07:28.664   05 Jun 2027 01:07:51.957            23.293                Norilsk           727.906
       263   05 Jun 2027 01:07:53.270   05 Jun 2027 01:07:55.977             2.707                Norilsk            84.594
       264   05 Jun 2027 01:08:03.248   05 Jun 2027 01:09:36.839            93.591               Magadan1          2924.719
       265   05 Jun 2027 01:10:03.492   05 Jun 2027 01:11:18.316            74.824               Magadan1          2338.250
       266   05 Jun 2027 01:12:32.107   05 Jun 2027 01:13:23.203            51.096                Irkutsk          1596.750
       267   05 Jun 2027 01:14:13.415   05 Jun 2027 01:14:27.212            13.797                Irkutsk           431.156
       268   05 Jun 2027 01:15:25.499   05 Jun 2027 01:15:38.963            13.464                Novosib           420.750
       269   05 Jun 2027 01:16:40.843   05 Jun 2027 01:18:22.196           101.353                Irkutsk          3167.281
       270   05 Jun 2027 01:25:17.026   05 Jun 2027 01:26:04.694            47.668                Sumatra          1489.625
       271   05 Jun 2027 01:28:18.020   05 Jun 2027 01:28:43.831            25.811                Sumatra           806.594
       272   05 Jun 2027 01:37:42.256   05 Jun 2027 01:37:56.982            14.726                Sumatra           460.188
       273   05 Jun 2027 01:59:24.126   05 Jun 2027 02:00:04.484            40.358            RioGallegos          1261.188
       274   05 Jun 2027 02:02:39.205   05 Jun 2027 02:03:00.261            21.056            RioGallegos           658.000
       275   05 Jun 2027 02:07:47.009   05 Jun 2027 02:08:14.343            27.334            RioGallegos           854.187
       276   05 Jun 2027 02:11:25.890   05 Jun 2027 02:11:31.997             6.107            RioGallegos           190.844
       277   05 Jun 2027 02:39:49.014   05 Jun 2027 02:40:43.429            54.415                Anadyr1          1700.469
       278   05 Jun 2027 02:43:28.136   05 Jun 2027 02:44:21.867            53.731                Norilsk          1679.094
       279   05 Jun 2027 02:44:40.121   05 Jun 2027 02:45:01.839            21.718                Norilsk           678.688
       280   05 Jun 2027 02:47:05.937   05 Jun 2027 02:47:22.193            16.256                Norilsk           508.000
       281   05 Jun 2027 02:47:22.575   05 Jun 2027 02:49:43.481           140.906                Irkutsk          4403.312
       282   05 Jun 2027 02:52:42.514   05 Jun 2027 02:52:47.971             5.457                Novosib           170.531
       283   05 Jun 2027 02:53:19.351   05 Jun 2027 02:53:41.187            21.836                Irkutsk           682.375
       284   05 Jun 2027 02:55:11.614   05 Jun 2027 02:55:59.322            47.708                  Delhi          1490.875
       285   05 Jun 2027 03:04:05.391   05 Jun 2027 03:10:07.995           362.604                Sumatra         11331.375
       286   05 Jun 2027 04:26:27.787   05 Jun 2027 04:32:26.184           358.397                Irkutsk         11199.906
       287   05 Jun 2027 04:35:42.915   05 Jun 2027 04:36:11.653            28.738                  Delhi           898.062
       288   05 Jun 2027 06:02:18.073   05 Jun 2027 06:02:32.406            14.333                Novosib           447.906
       289   05 Jun 2027 06:06:12.321   05 Jun 2027 06:06:33.154            20.833              Murmansk1           651.031
       290   05 Jun 2027 06:06:42.368   05 Jun 2027 06:07:30.852            48.484                 Moscow          1515.125
       291   05 Jun 2027 06:07:47.527   05 Jun 2027 06:08:39.639            52.112              Murmansk2          1628.500
       292   05 Jun 2027 06:11:37.753   05 Jun 2027 06:11:51.519            13.766                 Moscow           430.188
       293   05 Jun 2027 06:12:13.368   05 Jun 2027 06:12:21.221             7.853                 Moscow           245.406
       294   05 Jun 2027 06:25:00.894   05 Jun 2027 06:27:24.219           143.325               CapeTown          4478.906
       295   05 Jun 2027 07:28:11.166   05 Jun 2027 07:28:37.074            25.908                Anadyr1           809.625
       296   05 Jun 2027 07:28:37.074   05 Jun 2027 07:29:27.165            50.091                Anadyr2          1565.344
       297   05 Jun 2027 07:29:38.061   05 Jun 2027 07:29:41.072             3.011               Magadan2            94.094
       298   05 Jun 2027 07:30:28.653   05 Jun 2027 07:31:02.066            33.413                Anadyr2          1044.156
       299   05 Jun 2027 07:40:25.376   05 Jun 2027 07:40:42.998            17.622                Norilsk           550.687
       300   05 Jun 2027 07:42:49.288   05 Jun 2027 07:43:09.561            20.273              Murmansk1           633.531
       301   05 Jun 2027 07:43:20.890   05 Jun 2027 07:43:48.244            27.354                 Moscow           854.813
       302   05 Jun 2027 08:01:57.442   05 Jun 2027 08:08:08.019           370.577               CapeTown         11580.531
       303   05 Jun 2027 09:02:19.212   05 Jun 2027 09:04:32.598           133.386                Anadyr2          4168.313
       304   05 Jun 2027 09:04:55.077   05 Jun 2027 09:06:02.857            67.780               Magadan1          2118.125
       305   05 Jun 2027 09:06:48.254   05 Jun 2027 09:06:58.304            10.050               Magadan2           314.063
       306   05 Jun 2027 09:07:45.039   05 Jun 2027 09:07:48.515             3.476                Anadyr2           108.625
       307   05 Jun 2027 09:07:56.621   05 Jun 2027 09:08:15.700            19.079                Anadyr1           596.219
       308   05 Jun 2027 09:09:16.888   05 Jun 2027 09:10:16.098            59.210                Anadyr1          1850.312
       309   05 Jun 2027 10:38:06.552   05 Jun 2027 10:38:12.089             5.537               Magadan2           173.031
       310   05 Jun 2027 10:39:25.554   05 Jun 2027 10:41:09.486           103.932                Anadyr1          3247.875
       311   05 Jun 2027 10:41:29.143   05 Jun 2027 10:42:39.225            70.082               Magadan1          2190.063
       312   05 Jun 2027 10:42:39.225   05 Jun 2027 10:43:02.113            22.888               Magadan2           715.250
       313   05 Jun 2027 10:43:14.913   05 Jun 2027 10:43:57.546            42.633               Magadan2          1332.281
       314   05 Jun 2027 10:44:03.728   05 Jun 2027 10:45:50.561           106.833               Magadan2          3338.531
       315   05 Jun 2027 12:09:10.670   05 Jun 2027 12:11:02.502           111.832                Irkutsk          3494.750
       316   05 Jun 2027 12:12:43.354   05 Jun 2027 12:13:08.191            24.837                Novosib           776.156
       317   05 Jun 2027 12:14:04.170   05 Jun 2027 12:20:18.939           374.769               Magadan2         11711.531
       318   05 Jun 2027 13:43:13.665   05 Jun 2027 13:43:58.131            44.466                Sumatra          1389.562
       319   05 Jun 2027 13:55:22.961   05 Jun 2027 13:57:25.856           122.895                Irkutsk          3840.469
       320   05 Jun 2027 14:35:52.544   05 Jun 2027 14:43:26.451           453.907            RioGallegos         14184.594
       321   05 Jun 2027 15:11:00.646   05 Jun 2027 15:15:09.730           249.084                Sumatra          7783.875
       322   05 Jun 2027 15:26:55.332   05 Jun 2027 15:30:17.970           202.638                Irkutsk          6332.438
       323   05 Jun 2027 17:08:31.597   05 Jun 2027 17:09:32.084            60.487                Norilsk          1890.219
       324   05 Jun 2027 18:36:53.150   05 Jun 2027 18:37:30.493            37.343                 Moscow          1166.969
       325   05 Jun 2027 18:40:08.253   05 Jun 2027 18:40:12.074             3.821              Murmansk2           119.406
       326   05 Jun 2027 18:41:11.124   05 Jun 2027 18:42:02.974            51.850                 Moscow          1620.312
       327   05 Jun 2027 18:48:59.195   05 Jun 2027 18:49:44.820            45.625              Murmansk1          1425.781
       328   05 Jun 2027 19:02:58.693   05 Jun 2027 19:03:14.467            15.774                Anadyr2           492.937
       329   05 Jun 2027 19:49:16.579   05 Jun 2027 19:51:36.912           140.333               CapeTown          4385.406
       330   05 Jun 2027 20:19:12.475   05 Jun 2027 20:20:28.785            76.310              Murmansk2          2384.688
       331   05 Jun 2027 20:20:42.330   05 Jun 2027 20:24:48.652           246.322              Murmansk1          7697.562
       332   05 Jun 2027 20:25:29.820   05 Jun 2027 20:27:58.265           148.445              Murmansk2          4638.906
       333   05 Jun 2027 21:28:07.735   05 Jun 2027 21:32:38.368           270.633               CapeTown          8457.281
       334   05 Jun 2027 22:09:50.002   05 Jun 2027 22:10:07.121            17.119               Magadan2           534.969
       335   05 Jun 2027 22:10:37.606   05 Jun 2027 22:10:44.754             7.148               Magadan2           223.375
       336   05 Jun 2027 22:10:51.190   05 Jun 2027 22:11:19.997            28.807               Magadan2           900.219
       337   05 Jun 2027 22:17:39.924   05 Jun 2027 22:18:45.589            65.665               Magadan2          2052.031
       338   05 Jun 2027 23:41:41.131   05 Jun 2027 23:45:31.601           230.470                Anadyr2          7202.188
       339   05 Jun 2027 23:45:39.247   05 Jun 2027 23:47:24.358           105.111               Magadan2          3284.719
       340   05 Jun 2027 23:47:42.254   05 Jun 2027 23:47:50.451             8.197               Magadan2           256.156
       341   05 Jun 2027 23:48:38.437   05 Jun 2027 23:49:26.734            48.297               Magadan2          1509.281
       342   05 Jun 2027 23:49:34.169   05 Jun 2027 23:49:41.766             7.597                Irkutsk           237.406
       343   05 Jun 2027 23:50:37.951   05 Jun 2027 23:51:44.181            66.230                Irkutsk          2069.687
       344   05 Jun 2027 23:54:47.266   05 Jun 2027 23:54:56.415             9.149                Irkutsk           285.906
       345   06 Jun 2027 00:06:32.276   06 Jun 2027 00:08:46.517           134.241                Sumatra          4195.031
       346   06 Jun 2027 00:35:48.449   06 Jun 2027 00:36:54.537            66.088            RioGallegos          2065.250
       347   06 Jun 2027 00:39:00.923   06 Jun 2027 00:39:29.140            28.217            RioGallegos           881.781
       348   06 Jun 2027 00:46:33.137   06 Jun 2027 00:46:37.819             4.682            RioGallegos           146.313
       349   06 Jun 2027 00:47:26.608   06 Jun 2027 00:47:38.588            11.980            RioGallegos           374.375
       350   06 Jun 2027 01:17:09.219   06 Jun 2027 01:17:22.838            13.619                Anadyr1           425.594
       351   06 Jun 2027 01:17:25.829   06 Jun 2027 01:18:00.510            34.681                Anadyr2          1083.781
       352   06 Jun 2027 01:18:25.458   06 Jun 2027 01:19:05.844            40.386                Anadyr2          1262.063
       353   06 Jun 2027 01:19:30.269   06 Jun 2027 01:21:33.032           122.763                Norilsk          3836.344
       354   06 Jun 2027 01:21:53.794   06 Jun 2027 01:22:46.360            52.566               Magadan2          1642.687
       355   06 Jun 2027 01:23:31.875   06 Jun 2027 01:24:53.708            81.833                Irkutsk          2557.281
       356   06 Jun 2027 01:25:26.603   06 Jun 2027 01:25:26.630             0.027                Irkutsk             0.844
       357   06 Jun 2027 01:26:35.289   06 Jun 2027 01:27:34.874            59.585                Novosib          1862.031
       358   06 Jun 2027 01:30:44.708   06 Jun 2027 01:31:11.738            27.030                Irkutsk           844.687
       359   06 Jun 2027 01:37:14.052   06 Jun 2027 01:39:56.781           162.729                Sumatra          5085.281
       360   06 Jun 2027 02:15:30.535   06 Jun 2027 02:17:00.356            89.821            RioGallegos          2806.906
       361   06 Jun 2027 02:53:59.637   06 Jun 2027 02:54:23.284            23.647                Anadyr2           738.969
       362   06 Jun 2027 02:55:02.725   06 Jun 2027 02:55:22.196            19.471                Anadyr2           608.469
       363   06 Jun 2027 02:55:30.633   06 Jun 2027 02:56:12.399            41.766                Norilsk          1305.188
       364   06 Jun 2027 02:57:58.023   06 Jun 2027 02:58:19.935            21.912                Norilsk           684.750
       365   06 Jun 2027 02:59:10.265   06 Jun 2027 02:59:21.264            10.999              Murmansk2           343.719
       366   06 Jun 2027 02:59:22.655   06 Jun 2027 03:00:29.206            66.551                Novosib          2079.719
       367   06 Jun 2027 03:00:51.422   06 Jun 2027 03:01:52.346            60.924              Murmansk1          1903.875
       368   06 Jun 2027 03:01:53.191   06 Jun 2027 03:02:40.070            46.879               Magadan1          1464.969
       369   06 Jun 2027 03:02:45.323   06 Jun 2027 03:04:13.181            87.858                Norilsk          2745.563
       370   06 Jun 2027 03:04:29.867   06 Jun 2027 03:05:06.781            36.914                Norilsk          1153.562
       371   06 Jun 2027 03:05:18.374   06 Jun 2027 03:05:53.848            35.474                Norilsk          1108.563
       372   06 Jun 2027 03:06:03.065   06 Jun 2027 03:06:41.628            38.563                Norilsk          1205.094
       373   06 Jun 2027 03:06:50.321   06 Jun 2027 03:09:06.375           136.054                  Delhi          4251.688
       374   06 Jun 2027 03:48:10.767   06 Jun 2027 03:52:47.067           276.300            RioGallegos          8634.375
       375   06 Jun 2027 04:38:48.196   06 Jun 2027 04:39:08.271            20.075              Murmansk1           627.344
       376   06 Jun 2027 04:39:24.679   06 Jun 2027 04:40:02.112            37.433                Novosib          1169.781
       377   06 Jun 2027 04:40:07.435   06 Jun 2027 04:40:09.619             2.184                Norilsk            68.250
       378   06 Jun 2027 04:40:14.079   06 Jun 2027 04:40:31.158            17.079                Norilsk           533.719
       379   06 Jun 2027 04:41:04.284   06 Jun 2027 04:41:31.662            27.378                Norilsk           855.562
       380   06 Jun 2027 04:41:50.138   06 Jun 2027 04:43:44.226           114.088                 Moscow          3565.250
       381   06 Jun 2027 04:43:53.483   06 Jun 2027 04:44:24.513            31.030                 Moscow           969.688
       382   06 Jun 2027 04:44:52.584   06 Jun 2027 04:45:55.792            63.208                 Moscow          1975.250
       383   06 Jun 2027 04:46:07.146   06 Jun 2027 04:46:19.558            12.412                Novosib           387.875
       384   06 Jun 2027 04:46:33.952   06 Jun 2027 04:49:04.872           150.920                  Delhi          4716.250
       385   06 Jun 2027 04:53:05.795   06 Jun 2027 04:53:26.030            20.235                  Delhi           632.344
       386   06 Jun 2027 05:58:31.435   06 Jun 2027 06:00:15.768           104.333                Anadyr2          3260.406
       387   06 Jun 2027 06:16:45.087   06 Jun 2027 06:16:46.289             1.202                Norilsk            37.562
       388   06 Jun 2027 06:17:25.556   06 Jun 2027 06:17:27.058             1.502                Norilsk            46.937
       389   06 Jun 2027 06:17:34.454   06 Jun 2027 06:17:58.128            23.674                Novosib           739.812
       390   06 Jun 2027 06:18:24.550   06 Jun 2027 06:18:57.415            32.865                Norilsk          1027.031
       391   06 Jun 2027 06:19:14.257   06 Jun 2027 06:19:39.289            25.032              Murmansk1           782.250
       392   06 Jun 2027 06:19:50.834   06 Jun 2027 06:20:05.372            14.538                 Moscow           454.313
       393   06 Jun 2027 06:20:12.953   06 Jun 2027 06:20:38.282            25.329              Murmansk1           791.531
       394   06 Jun 2027 06:23:42.902   06 Jun 2027 06:23:47.383             4.481                 Moscow           140.031
       395   06 Jun 2027 06:36:51.510   06 Jun 2027 06:39:52.931           181.421               CapeTown          5669.406
       396   06 Jun 2027 07:39:44.087   06 Jun 2027 07:40:35.265            51.178                Anadyr2          1599.313
       397   06 Jun 2027 07:40:44.410   06 Jun 2027 07:41:37.795            53.385                Anadyr2          1668.281
       398   06 Jun 2027 07:41:56.573   06 Jun 2027 07:42:14.929            18.356               Magadan2           573.625
       399   06 Jun 2027 07:42:28.480   06 Jun 2027 07:43:03.815            35.335                Anadyr2          1104.219
       400   06 Jun 2027 07:50:15.802   06 Jun 2027 07:50:43.638            27.836                 Moscow           869.875
       401   06 Jun 2027 07:54:23.691   06 Jun 2027 07:54:47.228            23.537              Murmansk1           735.531
       402   06 Jun 2027 08:14:38.923   06 Jun 2027 08:16:29.903           110.980               CapeTown          3468.125
       403   06 Jun 2027 08:20:25.466   06 Jun 2027 08:22:14.878           109.412               CapeTown          3419.125
       404   06 Jun 2027 09:14:13.269   06 Jun 2027 09:15:15.385            62.116                Anadyr1          1941.125
       405   06 Jun 2027 09:15:51.740   06 Jun 2027 09:16:21.744            30.004               Magadan2           937.625
       406   06 Jun 2027 09:16:31.682   06 Jun 2027 09:17:29.257            57.575                Anadyr1          1799.219
       407   06 Jun 2027 09:18:01.180   06 Jun 2027 09:18:43.991            42.811               Magadan1          1337.844
       408   06 Jun 2027 09:19:49.539   06 Jun 2027 09:21:07.582            78.043                Anadyr1          2438.844
       409   06 Jun 2027 09:21:07.582   06 Jun 2027 09:22:16.267            68.685                Anadyr2          2146.406
       410   06 Jun 2027 10:50:25.924   06 Jun 2027 10:54:13.765           227.841                Anadyr1          7120.031
       411   06 Jun 2027 10:55:33.326   06 Jun 2027 10:57:42.530           129.204               Magadan2          4037.625
       412   06 Jun 2027 12:11:21.920   06 Jun 2027 12:12:22.831            60.911                Sumatra          1903.469
       413   06 Jun 2027 12:21:02.264   06 Jun 2027 12:22:18.737            76.473                Irkutsk          2389.781
       414   06 Jun 2027 12:24:18.519   06 Jun 2027 12:25:18.782            60.263                Novosib          1883.219
       415   06 Jun 2027 12:26:05.419   06 Jun 2027 12:32:15.822           370.403               Magadan2         11575.094
       416   06 Jun 2027 13:57:34.591   06 Jun 2027 13:57:58.629            24.038                Irkutsk           751.187
       417   06 Jun 2027 13:59:54.696   06 Jun 2027 14:02:36.493           161.797                Irkutsk          5056.156
       418   06 Jun 2027 14:49:01.348   06 Jun 2027 14:54:48.174           346.826            RioGallegos         10838.312
       419   06 Jun 2027 15:43:26.522   06 Jun 2027 15:43:54.235            27.713                Novosib           866.031
       420   06 Jun 2027 15:44:40.378   06 Jun 2027 15:44:59.501            19.123                Norilsk           597.594
       421   06 Jun 2027 15:45:38.342   06 Jun 2027 15:46:33.026            54.684                Novosib          1708.875
       422   06 Jun 2027 17:11:50.645   06 Jun 2027 17:13:15.290            84.645                 Moscow          2645.156
       423   06 Jun 2027 17:19:27.993   06 Jun 2027 17:22:13.080           165.087                Norilsk          5158.969
       424   06 Jun 2027 17:23:24.203   06 Jun 2027 17:23:58.008            33.805                Norilsk          1056.406
       425   06 Jun 2027 17:24:48.912   06 Jun 2027 17:25:32.982            44.070                Norilsk          1377.188
       426   06 Jun 2027 18:49:19.876   06 Jun 2027 18:50:29.039            69.163                 Moscow          2161.344
       427   06 Jun 2027 18:52:25.693   06 Jun 2027 18:53:23.343            57.650              Murmansk1          1801.563
       428   06 Jun 2027 18:54:02.521   06 Jun 2027 18:54:14.373            11.852              Murmansk2           370.375
       429   06 Jun 2027 18:54:21.809   06 Jun 2027 18:54:44.668            22.859                 Moscow           714.344
       430   06 Jun 2027 18:56:02.981   06 Jun 2027 18:57:08.107            65.126              Murmansk2          2035.187
       431   06 Jun 2027 19:01:32.949   06 Jun 2027 19:02:15.196            42.247              Murmansk1          1320.219
       432   06 Jun 2027 19:12:56.336   06 Jun 2027 19:13:21.037            24.701                Anadyr2           771.906
       433   06 Jun 2027 20:01:22.630   06 Jun 2027 20:02:39.917            77.287               CapeTown          2415.219
       434   06 Jun 2027 20:04:18.475   06 Jun 2027 20:05:43.300            84.825               CapeTown          2650.781
       435   06 Jun 2027 20:09:54.699   06 Jun 2027 20:10:27.702            33.003               CapeTown          1031.344
       436   06 Jun 2027 20:31:50.444   06 Jun 2027 20:39:55.523           485.079              Murmansk1         15158.719
       437   06 Jun 2027 22:17:49.771   06 Jun 2027 22:18:37.533            47.762                Anadyr2          1492.562
       438   06 Jun 2027 22:18:39.142   06 Jun 2027 22:19:05.277            26.135                Anadyr2           816.719
       439   06 Jun 2027 22:19:34.105   06 Jun 2027 22:21:02.253            88.148                Anadyr2          2754.625
       440   06 Jun 2027 22:21:04.679   06 Jun 2027 22:21:35.463            30.784               Magadan2           962.000
       441   06 Jun 2027 22:21:48.155   06 Jun 2027 22:21:57.729             9.574               Magadan1           299.188
       442   06 Jun 2027 22:22:18.043   06 Jun 2027 22:22:40.829            22.786               Magadan1           712.063
       443   06 Jun 2027 22:22:54.194   06 Jun 2027 22:23:21.675            27.481               Magadan1           858.781
       444   06 Jun 2027 22:23:30.567   06 Jun 2027 22:23:36.178             5.611               Magadan1           175.344
       445   06 Jun 2027 22:25:05.878   06 Jun 2027 22:25:19.931            14.053               Magadan1           439.156
       446   06 Jun 2027 22:28:19.139   06 Jun 2027 22:28:29.106             9.967               Magadan1           311.469
       447   06 Jun 2027 23:14:57.558   06 Jun 2027 23:16:52.275           114.717            RioGallegos          3584.906
       448   06 Jun 2027 23:53:41.375   06 Jun 2027 23:55:15.166            93.791                Anadyr1          2930.969
       449   06 Jun 2027 23:55:18.390   06 Jun 2027 23:56:35.844            77.454                Anadyr2          2420.437
       450   06 Jun 2027 23:56:39.404   06 Jun 2027 23:58:27.284           107.880               Magadan1          3371.250
       451   06 Jun 2027 23:58:27.284   06 Jun 2027 23:58:41.746            14.462               Magadan2           451.937
       452   06 Jun 2027 23:59:24.688   06 Jun 2027 23:59:44.456            19.768               Magadan2           617.750
       453   07 Jun 2027 00:00:10.945   07 Jun 2027 00:00:38.140            27.195               Magadan2           849.844
       454   07 Jun 2027 00:01:01.620   07 Jun 2027 00:02:42.234           100.614                Irkutsk          3144.187
       455   07 Jun 2027 00:06:20.434   07 Jun 2027 00:07:34.803            74.369                Irkutsk          2324.031
       456   07 Jun 2027 00:16:36.321   07 Jun 2027 00:18:19.327           103.006                Sumatra          3218.937
       457   07 Jun 2027 00:49:15.364   07 Jun 2027 00:49:31.537            16.173            RioGallegos           505.406
       458   07 Jun 2027 00:52:40.935   07 Jun 2027 00:53:23.418            42.483            RioGallegos          1327.594
       459   07 Jun 2027 01:29:03.826   07 Jun 2027 01:29:53.048            49.222                Anadyr2          1538.188
       460   07 Jun 2027 01:30:33.139   07 Jun 2027 01:31:06.127            32.988                Anadyr2          1030.875
       461   07 Jun 2027 01:31:32.151   07 Jun 2027 01:33:35.387           123.236                Norilsk          3851.125
       462   07 Jun 2027 01:33:53.093   07 Jun 2027 01:34:37.879            44.786               Magadan2          1399.562
       463   07 Jun 2027 01:35:30.203   07 Jun 2027 01:38:30.696           180.493                Irkutsk          5640.406
       464   07 Jun 2027 01:49:16.775   07 Jun 2027 01:50:46.424            89.649                Sumatra          2801.531
       465   07 Jun 2027 01:52:23.109   07 Jun 2027 01:53:42.552            79.443                Sumatra          2482.594
       466   07 Jun 2027 01:58:17.265   07 Jun 2027 01:58:57.257            39.992                Sumatra          1249.750
       467   07 Jun 2027 02:29:46.211   07 Jun 2027 02:29:59.027            12.816            RioGallegos           400.500
       468   07 Jun 2027 02:32:23.015   07 Jun 2027 02:32:40.827            17.812            RioGallegos           556.625
       469   07 Jun 2027 02:34:45.051   07 Jun 2027 02:35:12.570            27.519            RioGallegos           859.969
       470   07 Jun 2027 03:11:38.370   07 Jun 2027 03:13:41.875           123.505               Magadan2          3859.531
       471   07 Jun 2027 03:13:55.956   07 Jun 2027 03:14:07.551            11.595               Magadan2           362.344
       472   07 Jun 2027 03:15:45.070   07 Jun 2027 03:16:12.077            27.007                Novosib           843.969
       473   07 Jun 2027 03:16:22.857   07 Jun 2027 03:16:25.889             3.032                Norilsk            94.750
       474   07 Jun 2027 03:16:59.511   07 Jun 2027 03:17:08.777             9.266                Norilsk           289.563
       475   07 Jun 2027 03:17:17.554   07 Jun 2027 03:18:35.100            77.546                Novosib          2423.312
       476   07 Jun 2027 03:18:45.010   07 Jun 2027 03:23:16.016           271.006                  Delhi          8468.938
       477   07 Jun 2027 04:00:25.628   07 Jun 2027 04:01:06.269            40.641            RioGallegos          1270.031
       478   07 Jun 2027 04:03:23.949   07 Jun 2027 04:05:16.392           112.443            RioGallegos          3513.844
       479   07 Jun 2027 04:51:32.554   07 Jun 2027 04:54:58.543           205.989                Irkutsk          6437.156
       480   07 Jun 2027 04:56:52.912   07 Jun 2027 05:03:20.935           388.023                  Delhi         12125.719
       481   07 Jun 2027 05:04:07.754   07 Jun 2027 05:04:40.867            33.113                  Delhi          1034.781
       482   07 Jun 2027 06:28:36.471   07 Jun 2027 06:28:42.947             6.476                Norilsk           202.375
