uniorb/output/strategy_4/Drop/Drop_KinoSat_110207.txt

KinoSat_110207
-------------------------
    Access    *     Start Time (UTCG)     *     Stop Time (UTCG)  *   Duration (s)        *       Station  *  Data (Mbytes)
         1   01 Jun 2027 03:43:19.873   01 Jun 2027 03:44:04.111            44.238               Magadan1          5529.750
         2   01 Jun 2027 03:44:08.954   01 Jun 2027 03:44:27.866            18.912               Magadan2          2364.000
         3   01 Jun 2027 03:44:46.766   01 Jun 2027 03:45:35.443            48.677               Magadan2          6084.625
         4   01 Jun 2027 03:45:56.590   01 Jun 2027 03:47:02.080            65.490               Magadan2          8186.250
         5   01 Jun 2027 03:47:11.439   01 Jun 2027 03:47:22.828            11.389               Magadan1          1423.625
         6   01 Jun 2027 03:48:06.603   01 Jun 2027 03:48:12.319             5.716                Norilsk           714.500
         7   01 Jun 2027 03:48:35.030   01 Jun 2027 03:49:23.518            48.488                Irkutsk          6061.000
         8   01 Jun 2027 03:49:27.077   01 Jun 2027 03:49:36.889             9.812                Norilsk          1226.500
         9   01 Jun 2027 03:49:39.835   01 Jun 2027 03:50:34.305            54.470              Murmansk1          6808.750
        10   01 Jun 2027 03:50:44.730   01 Jun 2027 03:51:21.780            37.050              Murmansk2          4631.250
        11   01 Jun 2027 04:24:20.021   01 Jun 2027 04:24:47.755            27.734            RioGallegos          3466.750
        12   01 Jun 2027 04:30:09.702   01 Jun 2027 04:30:25.803            16.101            RioGallegos          2012.625
        13   01 Jun 2027 04:31:56.948   01 Jun 2027 04:32:20.424            23.476            RioGallegos          2934.500
        14   01 Jun 2027 04:58:54.938   01 Jun 2027 05:01:10.218           135.280                Sumatra         16910.000
        15   01 Jun 2027 05:09:25.057   01 Jun 2027 05:11:54.914           149.857                  Delhi         18732.125
        16   01 Jun 2027 05:22:04.191   01 Jun 2027 05:23:33.957            89.766                Novosib         11220.750
        17   01 Jun 2027 05:23:51.255   01 Jun 2027 05:24:57.087            65.832                Irkutsk          8229.000
        18   01 Jun 2027 05:25:07.053   01 Jun 2027 05:26:44.663            97.610                Novosib         12201.250
        19   01 Jun 2027 06:43:19.087   01 Jun 2027 06:44:10.978            51.891                  Delhi          6486.375
        20   01 Jun 2027 06:46:00.999   01 Jun 2027 06:47:58.545           117.546                  Delhi         14693.250
        21   01 Jun 2027 06:59:40.294   01 Jun 2027 07:00:29.869            49.575                 Moscow          6196.875
        22   01 Jun 2027 07:00:39.106   01 Jun 2027 07:01:30.647            51.541                 Moscow          6442.625
        23   01 Jun 2027 08:31:56.805   01 Jun 2027 08:32:16.988            20.183                 Moscow          2522.875
        24   01 Jun 2027 08:33:50.416   01 Jun 2027 08:34:57.344            66.928              Murmansk1          8366.000
        25   01 Jun 2027 08:35:22.310   01 Jun 2027 08:40:55.592           333.282              Murmansk1         41660.250
        26   01 Jun 2027 09:41:54.279   01 Jun 2027 09:45:56.858           242.579               CapeTown         30322.375
        27   01 Jun 2027 10:21:58.855   01 Jun 2027 10:22:56.399            57.544                Anadyr2          7193.000
        28   01 Jun 2027 10:26:29.093   01 Jun 2027 10:27:16.347            47.254                Anadyr1          5906.750
        29   01 Jun 2027 11:57:34.193   01 Jun 2027 11:58:39.058            64.865                Anadyr1          8108.125
        30   01 Jun 2027 12:01:45.907   01 Jun 2027 12:02:42.610            56.703               Magadan2          7087.875
        31   01 Jun 2027 12:04:50.963   01 Jun 2027 12:05:01.008            10.045               Magadan1          1255.625
        32   01 Jun 2027 13:35:49.491   01 Jun 2027 13:38:36.702           167.211               Magadan2         20901.375
        33   01 Jun 2027 13:38:56.218   01 Jun 2027 13:42:36.092           219.874               Magadan2         27484.250
        34   01 Jun 2027 15:31:57.124   01 Jun 2027 15:34:19.351           142.227                Sumatra         17778.375
        35   01 Jun 2027 15:36:35.182   01 Jun 2027 15:39:31.340           176.158                Sumatra         22019.750
        36   01 Jun 2027 16:53:05.664   01 Jun 2027 16:54:17.047            71.383                Novosib          8922.875
        37   01 Jun 2027 17:03:01.891   01 Jun 2027 17:05:06.295           124.404                  Delhi         15550.500
        38   01 Jun 2027 18:31:36.264   01 Jun 2027 18:31:52.669            16.405                Novosib          2050.625
        39   01 Jun 2027 18:34:23.759   01 Jun 2027 18:36:59.130           155.371                  Delhi         15393.000
        40   02 Jun 2027 04:01:18.719   02 Jun 2027 04:01:25.577             6.858                Irkutsk           857.250
        41   02 Jun 2027 04:01:40.337   02 Jun 2027 04:04:28.491           168.154                Norilsk         21019.250
        42   02 Jun 2027 04:44:39.322   02 Jun 2027 04:45:06.067            26.745            RioGallegos          3343.125
        43   02 Jun 2027 05:11:01.454   02 Jun 2027 05:12:29.411            87.957                Sumatra         10994.625
        44   02 Jun 2027 05:20:15.582   02 Jun 2027 05:21:47.372            91.790                  Delhi         11473.750
        45   02 Jun 2027 05:35:17.635   02 Jun 2027 05:35:42.820            25.185                Irkutsk          3148.125
        46   02 Jun 2027 05:36:36.150   02 Jun 2027 05:36:49.018            12.868                Irkutsk          1608.500
        47   02 Jun 2027 05:37:03.722   02 Jun 2027 05:38:53.865           110.143                Novosib         13767.875
        48   02 Jun 2027 05:38:54.012   02 Jun 2027 05:39:38.743            44.731                 Moscow          5591.375
        49   02 Jun 2027 05:39:56.326   02 Jun 2027 05:44:22.093           265.767              Murmansk2         33220.875
        50   02 Jun 2027 07:01:15.635   02 Jun 2027 07:07:24.610           368.975                  Delhi         46121.875
        51   02 Jun 2027 07:07:31.782   02 Jun 2027 07:08:00.999            29.217                 Moscow          3652.125
        52   02 Jun 2027 07:13:27.458   02 Jun 2027 07:16:20.538           173.080                 Moscow         21635.000
        53   02 Jun 2027 07:16:31.275   02 Jun 2027 07:20:00.393           209.118              Murmansk1         26139.750
        54   02 Jun 2027 08:42:50.108   02 Jun 2027 08:43:25.351            35.243                 Moscow          4405.375
        55   02 Jun 2027 08:48:04.682   02 Jun 2027 08:52:24.926           260.244                 Moscow         32530.500
        56   02 Jun 2027 08:52:32.896   02 Jun 2027 08:55:55.636           202.740              Murmansk1         25342.500
        57   02 Jun 2027 09:57:59.733   02 Jun 2027 10:05:14.406           434.673               CapeTown         54334.125
        58   02 Jun 2027 10:22:28.022   02 Jun 2027 10:23:25.200            57.178              Murmansk1          7147.250
        59   02 Jun 2027 10:24:02.245   02 Jun 2027 10:26:02.730           120.485                 Moscow         15060.625
        60   02 Jun 2027 10:27:07.681   02 Jun 2027 10:31:52.524           284.843              Murmansk1         35605.375
        61   02 Jun 2027 10:34:20.337   02 Jun 2027 10:38:22.396           242.059                Anadyr1         30257.375
        62   02 Jun 2027 12:09:35.013   02 Jun 2027 12:09:57.154            22.141                Anadyr1          2767.625
        63   02 Jun 2027 12:11:07.172   02 Jun 2027 12:11:22.486            15.314                Anadyr1          1914.250
        64   02 Jun 2027 12:13:32.846   02 Jun 2027 12:15:32.315           119.469               Magadan2         14933.625
        65   02 Jun 2027 13:47:48.929   02 Jun 2027 13:48:30.119            41.190               Magadan1          5148.750
        66   02 Jun 2027 13:50:49.053   02 Jun 2027 13:52:37.526           108.473               Magadan2         13559.125
        67   02 Jun 2027 13:57:23.405   02 Jun 2027 13:57:59.249            35.844               Magadan2          4480.500
        68   02 Jun 2027 14:45:38.224   02 Jun 2027 14:47:50.029           131.805            RioGallegos         16475.625
        69   02 Jun 2027 15:28:17.081   02 Jun 2027 15:29:36.678            79.597                Irkutsk          9949.625
        70   02 Jun 2027 15:32:16.146   02 Jun 2027 15:32:21.175             5.029                Irkutsk           628.625
        71   02 Jun 2027 15:43:00.589   02 Jun 2027 15:46:05.165           184.576                Sumatra         23072.000
        72   02 Jun 2027 15:48:51.161   02 Jun 2027 15:52:02.350           191.189                Sumatra         23898.625
        73   02 Jun 2027 17:06:30.914   02 Jun 2027 17:08:07.841            96.927                Novosib         12115.875
        74   02 Jun 2027 17:13:18.577   02 Jun 2027 17:15:52.873           154.296                  Delhi         19287.000
        75   02 Jun 2027 18:46:22.281   02 Jun 2027 18:47:14.518            52.237                  Delhi          6529.625
        76   02 Jun 2027 18:53:47.389   02 Jun 2027 18:55:57.986           130.597                  Delhi         16324.625
        77   02 Jun 2027 20:17:09.338   02 Jun 2027 20:18:02.950            53.612                 Moscow          6701.500
        78   02 Jun 2027 20:20:51.203   02 Jun 2027 20:21:36.520            45.317                 Moscow          5664.625
        79   02 Jun 2027 22:04:42.493   02 Jun 2027 22:05:27.898            45.405                 Moscow           278.249
        80   03 Jun 2027 04:13:15.406   03 Jun 2027 04:13:26.829            11.423                Irkutsk          1427.875
        81   03 Jun 2027 04:13:34.885   03 Jun 2027 04:14:50.676            75.791                Novosib          9473.875
        82   03 Jun 2027 04:14:54.668   03 Jun 2027 04:14:57.704             3.036              Murmansk1           379.500
        83   03 Jun 2027 05:23:14.033   03 Jun 2027 05:23:59.886            45.853                Sumatra          5731.625
        84   03 Jun 2027 05:25:31.935   03 Jun 2027 05:27:48.410           136.475                Sumatra         17059.375
        85   03 Jun 2027 05:31:52.624   03 Jun 2027 05:34:04.012           131.388                  Delhi         16423.500
        86   03 Jun 2027 05:48:25.614   03 Jun 2027 05:50:54.171           148.557                Novosib         18569.625
        87   03 Jun 2027 05:51:14.795   03 Jun 2027 05:51:49.375            34.580                 Moscow          4322.500
        88   03 Jun 2027 05:51:51.626   03 Jun 2027 05:56:19.707           268.081              Murmansk2         33510.125
        89   03 Jun 2027 07:17:25.303   03 Jun 2027 07:19:57.549           152.246                Novosib         19030.750
        90   03 Jun 2027 07:25:20.985   03 Jun 2027 07:28:24.704           183.719                 Moscow         22964.875
        91   03 Jun 2027 07:28:25.429   03 Jun 2027 07:32:01.061           215.632              Murmansk2         26954.000
        92   03 Jun 2027 08:54:50.418   03 Jun 2027 08:57:16.905           146.487                 Moscow         18310.875
        93   03 Jun 2027 08:59:29.657   03 Jun 2027 09:04:24.655           294.998                 Moscow         36874.750
        94   03 Jun 2027 09:04:33.185   03 Jun 2027 09:07:57.336           204.151              Murmansk2         25518.875
        95   03 Jun 2027 09:11:55.494   03 Jun 2027 09:14:53.865           178.371                Anadyr1         22296.375
        96   03 Jun 2027 10:10:59.208   03 Jun 2027 10:17:33.566           394.358               CapeTown         49294.750
        97   03 Jun 2027 10:34:29.694   03 Jun 2027 10:35:07.709            38.015              Murmansk1          4751.875
        98   03 Jun 2027 10:45:52.046   03 Jun 2027 10:47:09.561            77.515                Anadyr1          9689.375
        99   03 Jun 2027 10:50:12.914   03 Jun 2027 10:50:34.280            21.366                Anadyr2          2670.750
       100   03 Jun 2027 12:24:27.448   03 Jun 2027 12:26:55.000           147.552               Magadan2         18444.000
       101   03 Jun 2027 12:26:55.000   03 Jun 2027 12:28:53.815           118.815               Magadan1         14851.875
       102   03 Jun 2027 14:56:56.647   03 Jun 2027 15:00:51.530           234.883            RioGallegos         29360.375
       103   03 Jun 2027 15:42:09.602   03 Jun 2027 15:44:16.317           126.715                Irkutsk         15839.375
       104   03 Jun 2027 15:54:20.817   03 Jun 2027 15:57:57.112           216.295                Sumatra         27036.875
       105   03 Jun 2027 17:15:36.908   03 Jun 2027 17:16:38.732            61.824                Novosib          7728.000
       106   03 Jun 2027 17:19:31.812   03 Jun 2027 17:20:05.338            33.526                Novosib          4190.750
       107   03 Jun 2027 17:24:25.212   03 Jun 2027 17:27:39.300           194.088                  Delhi         24261.000
       108   03 Jun 2027 18:58:24.099   03 Jun 2027 18:58:45.096            20.997                  Delhi          2624.625
       109   03 Jun 2027 19:01:34.037   03 Jun 2027 19:03:22.847           108.810                  Delhi         13601.250
       110   03 Jun 2027 20:29:02.133   03 Jun 2027 20:31:43.849           161.716                 Moscow         18215.125
       111   04 Jun 2027 05:35:33.569   04 Jun 2027 05:37:29.246           115.677                Sumatra         14459.625
       112   04 Jun 2027 05:39:22.536   04 Jun 2027 05:39:49.465            26.929                Sumatra          3366.125
       113   04 Jun 2027 05:43:35.855   04 Jun 2027 05:46:16.165           160.310                  Delhi         20038.750
       114   04 Jun 2027 06:01:21.063   04 Jun 2027 06:03:58.484           157.421                 Moscow         19677.625
       115   04 Jun 2027 06:04:08.323   04 Jun 2027 06:08:17.832           249.509              Murmansk1         31188.625
       116   04 Jun 2027 07:29:24.314   04 Jun 2027 07:32:38.404           194.090                Novosib         24261.250
       117   04 Jun 2027 07:36:50.073   04 Jun 2027 07:40:28.400           218.327                 Moscow         27290.875
       118   04 Jun 2027 07:40:43.382   04 Jun 2027 07:44:01.950           198.568              Murmansk1         24821.000
       119   04 Jun 2027 09:06:49.983   04 Jun 2027 09:09:39.637           169.654                 Moscow         21206.750
       120   04 Jun 2027 09:10:33.947   04 Jun 2027 09:11:53.064            79.117              Murmansk1          9889.625
       121   04 Jun 2027 09:11:59.376   04 Jun 2027 09:16:23.556           264.180                 Moscow         33022.500
       122   04 Jun 2027 09:16:31.325   04 Jun 2027 09:19:59.037           207.712              Murmansk2         25964.000
       123   04 Jun 2027 09:23:14.037   04 Jun 2027 09:24:53.569            99.532                Anadyr1         12441.500
       124   04 Jun 2027 10:57:50.129   04 Jun 2027 10:58:50.894            60.765                Anadyr1          7595.625
       125   04 Jun 2027 12:36:20.065   04 Jun 2027 12:40:51.769           271.704               Magadan1         33963.000
       126   04 Jun 2027 15:04:28.437   04 Jun 2027 15:05:43.886            75.449            RioGallegos          9431.125
       127   04 Jun 2027 15:07:18.915   04 Jun 2027 15:08:29.409            70.494            RioGallegos          8811.750
       128   04 Jun 2027 15:51:49.882   04 Jun 2027 15:52:43.906            54.024                Irkutsk          6753.000
       129   04 Jun 2027 15:55:23.623   04 Jun 2027 15:57:31.777           128.154                Irkutsk         16019.250
       130   04 Jun 2027 16:05:52.048   04 Jun 2027 16:07:28.188            96.140                Sumatra         12017.500
       131   04 Jun 2027 16:09:52.358   04 Jun 2027 16:12:48.780           176.422                Sumatra         22052.750
       132   04 Jun 2027 17:27:30.120   04 Jun 2027 17:29:07.261            97.141                Novosib         12142.625
       133   04 Jun 2027 17:35:49.395   04 Jun 2027 17:39:30.224           220.829                  Delhi         27603.625
       134   04 Jun 2027 19:16:54.836   04 Jun 2027 19:17:48.685            53.849                  Delhi          6731.125
       135   04 Jun 2027 20:40:56.767   04 Jun 2027 20:42:52.126           115.359                 Moscow         14419.875
       136   04 Jun 2027 21:13:16.271   04 Jun 2027 21:15:02.916           106.645               CapeTown          2182.000
       137   05 Jun 2027 04:11:40.886   05 Jun 2027 04:15:55.676           254.790                Sumatra         31848.750
       138   05 Jun 2027 05:48:01.718   05 Jun 2027 05:48:39.763            38.045                Sumatra          4755.625
       139   05 Jun 2027 05:50:11.107   05 Jun 2027 05:51:56.187           105.080                Sumatra         13135.000
       140   05 Jun 2027 05:55:24.755   05 Jun 2027 05:55:56.659            31.904                  Delhi          3988.000
       141   05 Jun 2027 05:58:24.505   05 Jun 2027 05:59:09.965            45.460                  Delhi          5682.500
       142   05 Jun 2027 06:13:10.235   05 Jun 2027 06:16:06.456           176.221                 Moscow         22027.625
       143   05 Jun 2027 06:16:17.434   05 Jun 2027 06:20:16.429           238.995              Murmansk1         29874.375
       144   05 Jun 2027 07:38:54.305   05 Jun 2027 07:42:08.234           193.929                  Delhi         24241.125
       145   05 Jun 2027 07:42:09.362   05 Jun 2027 07:44:15.153           125.791                Novosib         15723.875
       146   05 Jun 2027 07:44:31.130   05 Jun 2027 07:44:56.009            24.879                 Moscow          3109.875
       147   05 Jun 2027 07:50:01.420   05 Jun 2027 07:50:55.607            54.187                Norilsk          6773.375
       148   05 Jun 2027 07:51:19.927   05 Jun 2027 07:56:03.045           283.118              Murmansk2         35389.750
       149   05 Jun 2027 08:59:44.662   05 Jun 2027 09:00:47.953            63.291               CapeTown          7911.375
       150   05 Jun 2027 09:18:48.708   05 Jun 2027 09:19:27.769            39.061                 Moscow          4882.625
       151   05 Jun 2027 09:22:35.115   05 Jun 2027 09:24:38.776           123.661              Murmansk2         15457.625
       152   05 Jun 2027 09:25:07.104   05 Jun 2027 09:28:21.516           194.412                 Moscow         24301.500
       153   05 Jun 2027 09:28:27.203   05 Jun 2027 09:31:02.492           155.289              Murmansk2         19411.125
       154   05 Jun 2027 09:31:02.492   05 Jun 2027 09:32:00.710            58.218              Murmansk1          7277.250
       155   05 Jun 2027 09:34:51.595   05 Jun 2027 09:38:45.353           233.758                Anadyr1         29219.750
       156   05 Jun 2027 11:10:29.467   05 Jun 2027 11:10:38.192             8.725                Anadyr1          1090.625
       157   05 Jun 2027 12:48:14.530   05 Jun 2027 12:52:50.516           275.986               Magadan1         34498.250
       158   05 Jun 2027 14:23:50.295   05 Jun 2027 14:26:11.391           141.096               Magadan2         17637.000
       159   05 Jun 2027 15:16:11.689   05 Jun 2027 15:20:24.187           252.498            RioGallegos         31562.250
       160   05 Jun 2027 16:05:14.168   05 Jun 2027 16:07:16.365           122.197                Irkutsk         15274.625
       161   05 Jun 2027 16:17:31.589   05 Jun 2027 16:19:50.967           139.378                Sumatra         17422.250
       162   05 Jun 2027 17:39:25.091   05 Jun 2027 17:41:31.111           126.020                Novosib         15752.500
       163   05 Jun 2027 17:47:23.792   05 Jun 2027 17:51:25.012           241.220                  Delhi         30152.500
       164   05 Jun 2027 20:49:28.195   05 Jun 2027 20:49:31.461             3.266              Murmansk1           408.250
       165   05 Jun 2027 20:52:52.885   05 Jun 2027 20:54:22.026            89.141                 Moscow         11142.625
       166   05 Jun 2027 21:02:02.610   05 Jun 2027 21:02:25.194            22.584                 Moscow          2823.000
       167   05 Jun 2027 21:17:23.961   05 Jun 2027 21:17:42.782            18.821               CapeTown          2352.625
       168   05 Jun 2027 21:24:40.191   05 Jun 2027 21:26:43.189           122.998               CapeTown          8344.875
       169   06 Jun 2027 03:13:48.313   06 Jun 2027 03:18:04.155           255.842                Norilsk         31980.250
       170   06 Jun 2027 04:23:24.002   06 Jun 2027 04:25:59.450           155.448                Sumatra         19431.000
       171   06 Jun 2027 04:49:12.499   06 Jun 2027 04:49:24.972            12.473                Irkutsk          1559.125
       172   06 Jun 2027 04:49:42.430   06 Jun 2027 04:50:10.472            28.042                 Moscow          3505.250
       173   06 Jun 2027 04:50:14.798   06 Jun 2027 04:54:28.290           253.492                Norilsk         31686.500
       174   06 Jun 2027 04:54:29.659   06 Jun 2027 04:56:52.346           142.687              Murmansk2         17835.875
       175   06 Jun 2027 06:14:30.598   06 Jun 2027 06:16:18.047           107.449                Novosib         13431.125
       176   06 Jun 2027 06:16:52.779   06 Jun 2027 06:20:05.466           192.687                  Delhi         24085.875
       177   06 Jun 2027 06:20:06.449   06 Jun 2027 06:21:05.967            59.518                Irkutsk          7439.750
       178   06 Jun 2027 06:25:08.527   06 Jun 2027 06:28:13.535           185.008                 Moscow         23126.000
       179   06 Jun 2027 06:28:15.614   06 Jun 2027 06:32:15.468           239.854              Murmansk1         29981.750
       180   06 Jun 2027 07:52:59.740   06 Jun 2027 07:54:32.103            92.363                 Moscow         11545.375
       181   06 Jun 2027 07:54:40.391   06 Jun 2027 07:55:32.763            52.372                 Moscow          6546.500
       182   06 Jun 2027 07:55:44.989   06 Jun 2027 07:56:18.026            33.037              Murmansk1          4129.625
       183   06 Jun 2027 08:00:47.064   06 Jun 2027 08:01:07.828            20.764                 Moscow          2595.500
       184   06 Jun 2027 08:02:03.290   06 Jun 2027 08:04:31.468           148.178                Norilsk         18522.250
       185   06 Jun 2027 08:04:42.952   06 Jun 2027 08:08:04.301           201.349              Murmansk2         25168.625
       186   06 Jun 2027 09:12:18.383   06 Jun 2027 09:14:37.877           139.494               CapeTown         17436.750
       187   06 Jun 2027 09:30:46.463   06 Jun 2027 09:31:33.062            46.599                 Moscow          5824.875
       188   06 Jun 2027 09:34:36.430   06 Jun 2027 09:36:36.603           120.173              Murmansk1         15021.625
       189   06 Jun 2027 09:36:40.799   06 Jun 2027 09:40:18.369           217.570                 Moscow         27196.250
       190   06 Jun 2027 09:40:21.546   06 Jun 2027 09:42:52.387           150.841              Murmansk1         18855.125
       191   06 Jun 2027 09:42:52.387   06 Jun 2027 09:44:02.322            69.935              Murmansk2          8741.875
       192   06 Jun 2027 09:46:36.862   06 Jun 2027 09:54:07.588           450.726                Anadyr2         56340.750
       193   06 Jun 2027 10:48:39.447   06 Jun 2027 10:53:56.618           317.171               CapeTown         39646.375
       194   06 Jun 2027 11:15:12.464   06 Jun 2027 11:16:29.555            77.091              Murmansk2          9636.375
       195   06 Jun 2027 11:16:29.555   06 Jun 2027 11:19:40.641           191.086              Murmansk1         23885.750
       196   06 Jun 2027 11:26:35.929   06 Jun 2027 11:26:46.376            10.447                Anadyr2          1305.875
       197   06 Jun 2027 11:31:13.649   06 Jun 2027 11:31:58.222            44.573                Anadyr1          5571.625
       198   06 Jun 2027 13:00:10.440   06 Jun 2027 13:04:49.938           279.498               Magadan2         34937.250
       199   06 Jun 2027 13:05:21.120   06 Jun 2027 13:07:49.244           148.124               Magadan1         18515.500
       200   06 Jun 2027 15:27:59.166   06 Jun 2027 15:31:26.218           207.052            RioGallegos         25881.500
       201   06 Jun 2027 16:17:39.087   06 Jun 2027 16:17:54.030            14.943                Irkutsk          1867.875
       202   06 Jun 2027 16:29:18.014   06 Jun 2027 16:32:06.241           168.227                Sumatra         21028.375
       203   06 Jun 2027 17:51:21.477   06 Jun 2027 17:52:46.384            84.907                Novosib         10613.375
       204   06 Jun 2027 17:59:05.262   06 Jun 2027 18:03:23.303           258.041                  Delhi         32255.125
       205   06 Jun 2027 21:01:29.542   06 Jun 2027 21:01:47.042            17.500              Murmansk2          2187.500
       206   06 Jun 2027 21:02:10.222   06 Jun 2027 21:03:08.147            57.925              Murmansk1          7240.625
       207   06 Jun 2027 21:04:50.229   06 Jun 2027 21:06:01.395            71.166                 Moscow          8895.750
       208   06 Jun 2027 21:29:05.365   06 Jun 2027 21:30:53.096           107.731               CapeTown         13466.375
       209   07 Jun 2027 03:25:37.185   07 Jun 2027 03:26:44.142            66.957                Novosib          8369.625
       210   07 Jun 2027 03:26:45.244   07 Jun 2027 03:30:33.450           228.206                Norilsk         28525.750
       211   07 Jun 2027 04:35:13.529   07 Jun 2027 04:38:11.447           177.918                Sumatra         22239.750
       212   07 Jun 2027 05:01:40.104   07 Jun 2027 05:03:01.036            80.932                 Moscow         10116.500
       213   07 Jun 2027 05:03:14.251   07 Jun 2027 05:06:30.026           195.775                Norilsk         24471.875
       214   07 Jun 2027 05:06:53.421   07 Jun 2027 05:08:47.507           114.086              Murmansk1         14260.750
       215   07 Jun 2027 06:26:49.316   07 Jun 2027 06:32:04.443           315.127                  Delhi         39390.875
       216   07 Jun 2027 06:32:05.419   07 Jun 2027 06:32:23.857            18.438                 Moscow          2304.750
       217   07 Jun 2027 06:37:24.833   07 Jun 2027 06:40:19.891           175.058                 Moscow         21882.250
       218   07 Jun 2027 06:40:36.916   07 Jun 2027 06:44:14.904           217.988              Murmansk1         27248.500
       219   07 Jun 2027 08:14:05.108   07 Jun 2027 08:16:42.227           157.119                Norilsk         19639.875
       220   07 Jun 2027 08:16:44.297   07 Jun 2027 08:20:05.708           201.411              Murmansk2         25176.375
       221   07 Jun 2027 09:24:43.676   07 Jun 2027 09:27:42.501           178.825               CapeTown         22353.125
       222   07 Jun 2027 09:46:37.879   07 Jun 2027 09:47:49.039            71.160              Murmansk2          8895.000
       223   07 Jun 2027 09:48:10.349   07 Jun 2027 09:52:13.891           243.542                 Moscow         30442.750
       224   07 Jun 2027 09:52:39.573   07 Jun 2027 09:54:41.575           122.002              Murmansk2         15250.250
       225   07 Jun 2027 09:54:41.575   07 Jun 2027 09:56:03.838            82.263              Murmansk1         10282.875
       226   07 Jun 2027 09:58:36.800   07 Jun 2027 10:06:51.317           494.517                Anadyr2         61814.625
       227   07 Jun 2027 11:00:57.045   07 Jun 2027 11:05:54.059           297.014               CapeTown         37126.750
       228   07 Jun 2027 11:27:13.007   07 Jun 2027 11:28:30.982            77.975              Murmansk2          9746.875
       229   07 Jun 2027 11:28:30.982   07 Jun 2027 11:31:50.745           199.763              Murmansk1         24970.375
       230   07 Jun 2027 11:33:48.204   07 Jun 2027 11:46:03.963           735.759                Anadyr1         91969.875
       231   07 Jun 2027 13:09:41.188   07 Jun 2027 13:11:28.438           107.250                Anadyr2         13406.250
       232   07 Jun 2027 13:12:07.498   07 Jun 2027 13:17:55.746           348.248               Magadan1         43531.000
       233   07 Jun 2027 15:39:49.747   07 Jun 2027 15:44:15.311           265.564            RioGallegos         33195.500
       234   07 Jun 2027 15:44:50.563   07 Jun 2027 15:45:22.121            31.558            RioGallegos          3944.750
       235   07 Jun 2027 16:36:36.121   07 Jun 2027 16:37:01.660            25.539                Irkutsk          3192.375
       236   07 Jun 2027 16:41:10.499   07 Jun 2027 16:44:15.155           184.656                Sumatra         23082.000
       237   07 Jun 2027 18:05:08.573   07 Jun 2027 18:06:06.690            58.117                Novosib          7264.625
       238   07 Jun 2027 18:08:04.236   07 Jun 2027 18:08:24.280            20.044                Novosib          2505.500
       239   07 Jun 2027 18:10:02.561   07 Jun 2027 18:10:47.321            44.760                Novosib          5595.000
       240   07 Jun 2027 18:10:52.134   07 Jun 2027 18:13:18.834           146.700                  Delhi         18337.500
       241   07 Jun 2027 18:16:37.048   07 Jun 2027 18:16:42.622             5.574                  Delhi           696.750
       242   07 Jun 2027 19:42:03.176   07 Jun 2027 19:42:37.360            34.184                 Moscow          4273.000
       243   07 Jun 2027 21:13:31.032   07 Jun 2027 21:13:46.295            15.263              Murmansk1          1907.875
       244   07 Jun 2027 21:20:00.913   07 Jun 2027 21:21:36.091            95.178                 Moscow         11897.250
       245   07 Jun 2027 21:40:52.139   07 Jun 2027 21:43:45.137           172.998               CapeTown         21624.750
       246   08 Jun 2027 03:17:25.713   08 Jun 2027 03:18:11.844            46.131                Sumatra          4839.624
       247   08 Jun 2027 03:37:43.808   08 Jun 2027 03:41:51.774           247.966              Murmansk1         30995.750
       248   08 Jun 2027 04:47:08.881   08 Jun 2027 04:50:17.420           188.539                Sumatra         23567.375
       249   08 Jun 2027 05:13:45.305   08 Jun 2027 05:18:31.850           286.545                Norilsk         35818.125
       250   08 Jun 2027 05:18:55.393   08 Jun 2027 05:20:43.336           107.943              Murmansk1         13492.875
       251   08 Jun 2027 06:39:19.092   08 Jun 2027 06:43:59.973           280.881                  Delhi         35110.125
       252   08 Jun 2027 06:44:02.610   08 Jun 2027 06:44:18.270            15.660                 Moscow          1957.500
       253   08 Jun 2027 06:44:34.074   08 Jun 2027 06:44:45.885            11.811              Murmansk2          1476.375
       254   08 Jun 2027 06:49:17.717   08 Jun 2027 06:50:42.015            84.298                Novosib         10537.250
       255   08 Jun 2027 06:50:46.519   08 Jun 2027 06:51:55.947            69.428                Norilsk          8678.500
       256   08 Jun 2027 06:52:08.033   08 Jun 2027 06:56:14.699           246.666              Murmansk1         30833.250
       257   08 Jun 2027 08:23:46.376   08 Jun 2027 08:24:00.213            13.837              Murmansk2          1729.625
       258   08 Jun 2027 08:26:06.846   08 Jun 2027 08:30:12.183           245.337                Norilsk         30667.125
       259   08 Jun 2027 08:30:35.516   08 Jun 2027 08:32:07.222            91.706              Murmansk1         11463.250
       260   08 Jun 2027 09:37:02.060   08 Jun 2027 09:40:28.818           206.758               CapeTown         25844.750
       261   08 Jun 2027 09:58:29.612   08 Jun 2027 10:00:21.665           112.053              Murmansk2         14006.625
       262   08 Jun 2027 10:00:42.348   08 Jun 2027 10:02:20.655            98.307                 Moscow         12288.375
       263   08 Jun 2027 10:03:19.206   08 Jun 2027 10:06:10.078           170.872              Murmansk1         21359.000
       264   08 Jun 2027 10:06:10.078   08 Jun 2027 10:08:05.221           115.143              Murmansk2         14392.875
       265   08 Jun 2027 10:10:19.038   08 Jun 2027 10:19:29.771           550.733                Anadyr2         68841.625
       266   08 Jun 2027 11:13:08.729   08 Jun 2027 11:17:46.549           277.820               CapeTown         34727.500
       267   08 Jun 2027 11:39:13.147   08 Jun 2027 11:43:48.055           274.908              Murmansk1         34363.500
       268   08 Jun 2027 11:48:32.288   08 Jun 2027 11:58:17.105           584.817                Anadyr2         73102.125
       269   08 Jun 2027 13:21:42.555   08 Jun 2027 13:26:32.837           290.282                Anadyr1         36285.250
       270   08 Jun 2027 13:26:36.461   08 Jun 2027 13:28:50.399           133.938               Magadan2         16742.250
       271   08 Jun 2027 13:30:25.547   08 Jun 2027 13:31:11.982            46.435               Magadan2          5804.375
       272   08 Jun 2027 15:21:41.926   08 Jun 2027 15:26:22.763           280.837                Sumatra         35104.625
       273   08 Jun 2027 15:51:42.734   08 Jun 2027 15:54:13.242           150.508            RioGallegos         18813.500
       274   08 Jun 2027 16:39:26.597   08 Jun 2027 16:40:48.961            82.364                Irkutsk         10295.500
       275   08 Jun 2027 16:53:08.657   08 Jun 2027 16:55:50.430           161.773                Sumatra         20221.625
       276   08 Jun 2027 18:18:46.366   08 Jun 2027 18:20:19.288            92.922                Novosib         11615.250
       277   08 Jun 2027 18:22:43.424   08 Jun 2027 18:26:25.430           222.006                  Delhi         27750.750
       278   08 Jun 2027 19:53:46.150   08 Jun 2027 19:55:54.025           127.875                 Moscow         15984.375
       279   08 Jun 2027 21:28:47.875   08 Jun 2027 21:29:35.111            47.236                 Moscow          5904.500
       280   08 Jun 2027 21:52:44.003   08 Jun 2027 21:54:18.828            94.825               CapeTown         11853.125
       281   08 Jun 2027 22:00:33.664   08 Jun 2027 22:02:15.588           101.924               CapeTown          3602.875
       282   09 Jun 2027 03:49:43.472   09 Jun 2027 03:54:36.561           293.089                Norilsk         36636.125
       283   09 Jun 2027 04:59:09.831   09 Jun 2027 05:01:24.259           134.428                Sumatra         16803.500
       284   09 Jun 2027 05:18:09.905   09 Jun 2027 05:19:33.066            83.161                  Delhi         10395.125
       285   09 Jun 2027 05:24:34.711   09 Jun 2027 05:25:08.885            34.174                 Moscow          4271.750
       286   09 Jun 2027 05:25:46.812   09 Jun 2027 05:30:33.736           286.924                Norilsk         35865.500
       287   09 Jun 2027 05:30:42.974   09 Jun 2027 05:32:39.806           116.832              Murmansk2         14604.000
       288   09 Jun 2027 06:51:23.831   09 Jun 2027 06:55:51.747           267.916                  Delhi         33489.500
       289   09 Jun 2027 06:55:55.271   09 Jun 2027 06:56:51.206            55.935                 Moscow          6991.875
       290   09 Jun 2027 07:01:16.816   09 Jun 2027 07:02:35.538            78.722                Novosib          9840.250
       291   09 Jun 2027 07:02:42.385   09 Jun 2027 07:06:32.669           230.284                Norilsk         28785.500
       292   09 Jun 2027 07:06:53.969   09 Jun 2027 07:08:14.818            80.849              Murmansk1         10106.125
       293   09 Jun 2027 08:32:36.386   09 Jun 2027 08:32:48.487            12.101                 Moscow          1512.625
       294   09 Jun 2027 08:37:21.329   09 Jun 2027 08:40:39.320           197.991                 Moscow         24748.875
       295   09 Jun 2027 08:40:50.245   09 Jun 2027 08:44:08.826           198.581              Murmansk1         24822.625
       296   09 Jun 2027 09:44:42.937   09 Jun 2027 09:53:03.533           500.596               CapeTown         62574.500
       297   09 Jun 2027 10:10:30.962   09 Jun 2027 10:11:53.182            82.220              Murmansk1         10277.500
       298   09 Jun 2027 10:12:00.850   09 Jun 2027 10:14:22.147           141.297                 Moscow         17662.125
       299   09 Jun 2027 10:15:20.847   09 Jun 2027 10:18:04.942           164.095              Murmansk1         20511.875
       300   09 Jun 2027 10:18:04.942   09 Jun 2027 10:20:06.414           121.472              Murmansk2         15184.000
       301   09 Jun 2027 10:22:13.584   09 Jun 2027 10:32:03.832           590.248                Anadyr2         73781.000
       302   09 Jun 2027 11:25:15.023   09 Jun 2027 11:26:59.833           104.810               CapeTown         13101.250
       303   09 Jun 2027 12:05:06.033   09 Jun 2027 12:05:15.873             9.840               Magadan2          1230.000
       304   09 Jun 2027 12:06:29.223   09 Jun 2027 12:07:29.404            60.181               Magadan2          7522.625
       305   09 Jun 2027 13:36:04.295   09 Jun 2027 13:38:51.765           167.470               Magadan1         20933.750
       306   09 Jun 2027 13:44:10.385   09 Jun 2027 13:45:38.326            87.941               Magadan1         10992.625
       307   09 Jun 2027 15:22:13.187   09 Jun 2027 15:25:02.679           169.492                Irkutsk         21186.500
       308   09 Jun 2027 15:32:10.782   09 Jun 2027 15:34:33.966           143.184                Sumatra         17898.000
       309   09 Jun 2027 16:52:12.463   09 Jun 2027 16:54:44.584           152.121                Novosib         19015.125
       310   09 Jun 2027 17:01:37.218   09 Jun 2027 17:01:47.214             9.996                Novosib          1249.500
       311   09 Jun 2027 17:03:13.601   09 Jun 2027 17:06:20.447           186.846                  Delhi         23355.750
       312   09 Jun 2027 17:14:54.076   09 Jun 2027 17:15:28.455            34.379                Sumatra          4297.375
       313   09 Jun 2027 18:31:51.557   09 Jun 2027 18:32:15.701            24.144                Novosib          3018.000
       314   09 Jun 2027 18:34:38.529   09 Jun 2027 18:37:13.085           154.556                  Delhi         19319.500
       315   09 Jun 2027 18:42:18.663   09 Jun 2027 18:44:11.645           112.982                  Delhi         14122.750
       316   09 Jun 2027 20:08:02.594   09 Jun 2027 20:09:54.160           111.566                 Moscow         13945.750
       317   09 Jun 2027 21:50:22.971   09 Jun 2027 21:50:55.897            32.926                 Moscow          4115.750
       318   09 Jun 2027 22:04:40.823   09 Jun 2027 22:06:33.868           113.045               CapeTown           683.874
       319   10 Jun 2027 04:01:37.577   10 Jun 2027 04:04:56.644           199.067              Murmansk1         24883.375
       320   10 Jun 2027 05:11:16.442   10 Jun 2027 05:12:43.623            87.181                Sumatra         10897.625
       321   10 Jun 2027 05:20:29.961   10 Jun 2027 05:22:02.517            92.556                  Delhi         11569.500
       322   10 Jun 2027 05:36:04.597   10 Jun 2027 05:36:36.668            32.071                 Moscow          4008.875
       323   10 Jun 2027 05:37:33.023   10 Jun 2027 05:39:08.702            95.679                Novosib         11959.875
       324   10 Jun 2027 05:40:10.958   10 Jun 2027 05:44:36.866           265.908              Murmansk1         33238.500
       325   10 Jun 2027 07:03:25.285   10 Jun 2027 07:07:39.187           253.902                  Delhi         31737.750
       326   10 Jun 2027 07:07:48.633   10 Jun 2027 07:08:56.080            67.447                 Moscow          8430.875
       327   10 Jun 2027 07:13:44.930   10 Jun 2027 07:16:35.431           170.501                 Moscow         21312.625
       328   10 Jun 2027 07:16:42.920   10 Jun 2027 07:20:15.228           212.308              Murmansk1         26538.500
       329   10 Jun 2027 08:43:04.946   10 Jun 2027 08:43:39.609            34.663                 Moscow          4332.875
       330   10 Jun 2027 08:48:22.728   10 Jun 2027 08:52:39.758           257.030                 Moscow         32128.750
       331   10 Jun 2027 08:53:00.722   10 Jun 2027 08:56:10.491           189.769              Murmansk1         23721.125
       332   10 Jun 2027 09:58:15.450   10 Jun 2027 10:05:29.610           434.160               CapeTown         54270.000
       333   10 Jun 2027 10:22:42.686   10 Jun 2027 10:23:40.583            57.897              Murmansk1          7237.125
       334   10 Jun 2027 10:24:16.879   10 Jun 2027 10:26:19.642           122.763                 Moscow         15345.375
       335   10 Jun 2027 10:27:22.416   10 Jun 2027 10:29:30.103           127.687              Murmansk2         15960.875
       336   10 Jun 2027 10:29:30.103   10 Jun 2027 10:32:07.373           157.270              Murmansk1         19658.750
       337   10 Jun 2027 10:34:35.705   10 Jun 2027 10:39:20.619           284.914                Anadyr2         35614.250
       338   10 Jun 2027 12:11:22.144   10 Jun 2027 12:11:36.962            14.818                Anadyr1          1852.250
       339   10 Jun 2027 12:13:49.250   10 Jun 2027 12:17:11.715           202.465               Magadan1         25308.125
       340   10 Jun 2027 13:48:03.746   10 Jun 2027 13:49:01.558            57.812               Magadan2          7226.500
       341   10 Jun 2027 13:51:04.065   10 Jun 2027 13:52:13.239            69.174               Magadan2          8646.750
       342   10 Jun 2027 14:45:52.995   10 Jun 2027 14:48:06.080           133.085            RioGallegos         16635.625
       343   10 Jun 2027 15:28:31.583   10 Jun 2027 15:30:12.330           100.747                Irkutsk         12593.375
       344   10 Jun 2027 15:43:14.615   10 Jun 2027 15:46:19.916           185.301                Sumatra         23162.625
       345   10 Jun 2027 15:49:06.404   10 Jun 2027 15:52:16.561           190.157                Sumatra         23769.625
       346   10 Jun 2027 17:06:46.623   10 Jun 2027 17:08:22.751            96.128                Novosib         12016.000
       347   10 Jun 2027 17:13:32.241   10 Jun 2027 17:16:07.512           155.271                  Delhi         19408.875
       348   10 Jun 2027 18:46:37.109   10 Jun 2027 18:48:28.754           111.645                  Delhi         13955.625
       349   10 Jun 2027 18:56:12.860   10 Jun 2027 18:57:31.975            79.115                  Delhi          9889.375
       350   10 Jun 2027 20:17:24.011   10 Jun 2027 20:18:18.330            54.319                 Moscow          6789.875
       351   10 Jun 2027 20:21:06.721   10 Jun 2027 20:21:51.450            44.729                 Moscow          5591.125
       352   10 Jun 2027 22:16:42.608   10 Jun 2027 22:18:25.633           103.025               CapeTown          2396.625
       353   11 Jun 2027 04:13:27.131   11 Jun 2027 04:15:17.535           110.404                Norilsk         13800.500
       354   11 Jun 2027 05:23:29.131   11 Jun 2027 05:24:14.209            45.078                Sumatra          5634.750
       355   11 Jun 2027 05:25:46.923   11 Jun 2027 05:26:01.352            14.429                Sumatra          1803.625
       356   11 Jun 2027 05:32:07.114   11 Jun 2027 05:34:19.074           131.960                  Delhi         16495.000
       357   11 Jun 2027 05:48:47.265   11 Jun 2027 05:51:08.997           141.732                Novosib         17716.500
       358   11 Jun 2027 05:51:28.784   11 Jun 2027 05:52:04.351            35.567                 Moscow          4445.875
       359   11 Jun 2027 05:52:06.265   11 Jun 2027 05:56:34.488           268.223              Murmansk1         33527.875
       360   11 Jun 2027 07:17:39.931   11 Jun 2027 07:20:13.057           153.126                Novosib         19140.750
       361   11 Jun 2027 07:25:09.863   11 Jun 2027 07:25:35.563            25.700                Novosib          3212.500
       362   11 Jun 2027 07:25:36.264   11 Jun 2027 07:28:39.590           183.326                 Moscow         22915.750
       363   11 Jun 2027 07:28:41.918   11 Jun 2027 07:32:15.898           213.980              Murmansk1         26747.500
       364   11 Jun 2027 08:55:05.244   11 Jun 2027 08:57:32.315           147.071                 Moscow         18383.875
       365   11 Jun 2027 08:59:44.569   11 Jun 2027 09:04:39.467           294.898                 Moscow         36862.250
       366   11 Jun 2027 09:04:58.518   11 Jun 2027 09:08:12.193           193.675              Murmansk1         24209.375
       367   11 Jun 2027 09:12:09.178   11 Jun 2027 09:15:10.548           181.370                Anadyr2         22671.250
       368   11 Jun 2027 10:11:14.628   11 Jun 2027 10:17:48.660           394.032               CapeTown         49254.000
       369   11 Jun 2027 10:34:44.354   11 Jun 2027 10:35:47.560            63.206              Murmansk1          7900.750
       370   11 Jun 2027 10:36:17.937   11 Jun 2027 10:37:25.962            68.025                 Moscow          8503.125
       371   11 Jun 2027 10:50:29.693   11 Jun 2027 10:50:49.255            19.562                Anadyr1          2445.250
       372   11 Jun 2027 12:24:42.115   11 Jun 2027 12:28:57.599           255.484               Magadan1         31935.500
       373   11 Jun 2027 14:00:03.758   11 Jun 2027 14:01:34.181            90.423               Magadan2         11302.875
       374   11 Jun 2027 14:57:09.231   11 Jun 2027 15:01:07.280           238.049            RioGallegos         29756.125
       375   11 Jun 2027 15:42:25.594   11 Jun 2027 15:44:31.207           125.613                Irkutsk         15701.625
       376   11 Jun 2027 15:54:35.066   11 Jun 2027 15:58:11.987           216.921                Sumatra         27115.125
       377   11 Jun 2027 17:16:54.094   11 Jun 2027 17:20:20.274           206.180                Novosib         25772.500
       378   11 Jun 2027 17:24:39.299   11 Jun 2027 17:27:54.040           194.741                  Delhi         24342.625
       379   11 Jun 2027 20:29:16.844   11 Jun 2027 20:30:47.815            90.971                 Moscow         11371.375
       380   11 Jun 2027 20:36:47.833   11 Jun 2027 20:38:46.973           119.140                 Moscow          8662.249
       381   12 Jun 2027 05:35:48.796   12 Jun 2027 05:37:43.709           114.913                Sumatra         14364.125
       382   12 Jun 2027 05:39:35.659   12 Jun 2027 05:40:04.230            28.571                Sumatra          3571.375
       383   12 Jun 2027 05:43:50.445   12 Jun 2027 05:46:31.160           160.715                  Delhi         20089.375
       384   12 Jun 2027 06:01:40.213   12 Jun 2027 06:04:13.437           153.224                 Moscow         19153.000
       385   12 Jun 2027 06:04:23.420   12 Jun 2027 06:08:32.624           249.204              Murmansk1         31150.500
       386   12 Jun 2027 07:29:38.935   12 Jun 2027 07:32:52.949           194.014                Novosib         24251.750
       387   12 Jun 2027 07:37:07.792   12 Jun 2027 07:40:43.280           215.488                 Moscow         26936.000
       388   12 Jun 2027 07:41:01.463   12 Jun 2027 07:44:16.790           195.327              Murmansk2         24415.875
       389   12 Jun 2027 09:07:04.797   12 Jun 2027 09:09:02.249           117.452                 Moscow         14681.500
       390   12 Jun 2027 09:10:48.599   12 Jun 2027 09:12:07.830            79.231              Murmansk2          9903.875
       391   12 Jun 2027 09:12:14.048   12 Jun 2027 09:16:38.359           264.311                 Moscow         33038.875
       392   12 Jun 2027 09:16:47.813   12 Jun 2027 09:19:28.866           161.053              Murmansk2         20131.625
       393   12 Jun 2027 09:19:28.866   12 Jun 2027 09:20:13.894            45.028              Murmansk1          5628.500
       394   12 Jun 2027 09:23:28.342   12 Jun 2027 09:25:10.591           102.249                Anadyr2         12781.125
       395   12 Jun 2027 10:58:04.919   12 Jun 2027 10:59:05.344            60.425                Anadyr1          7553.125
       396   12 Jun 2027 11:02:57.940   12 Jun 2027 11:03:07.781             9.841                Anadyr2          1230.125
       397   12 Jun 2027 11:05:32.425   12 Jun 2027 11:05:40.496             8.071                Anadyr1          1008.875
       398   12 Jun 2027 12:36:34.771   12 Jun 2027 12:40:15.509           220.738               Magadan2         27592.250
       399   12 Jun 2027 12:40:51.156   12 Jun 2027 12:42:23.312            92.156               Magadan2         11519.500
       400   12 Jun 2027 15:04:42.918   12 Jun 2027 15:08:44.254           241.336            RioGallegos         30167.000
       401   12 Jun 2027 15:55:39.227   12 Jun 2027 15:56:27.893            48.666                Irkutsk          6083.250
       402   12 Jun 2027 16:06:06.453   12 Jun 2027 16:10:09.752           243.299                Sumatra         30412.375
       403   12 Jun 2027 17:27:44.838   12 Jun 2027 17:32:18.810           273.972                Novosib         34246.500
       404   12 Jun 2027 17:36:03.702   12 Jun 2027 17:42:35.235           391.533                  Delhi         38019.000
       405   13 Jun 2027 04:11:55.362   13 Jun 2027 04:16:10.730           255.368                Sumatra         31921.000
       406   13 Jun 2027 04:37:12.638   13 Jun 2027 04:37:41.430            28.792                Irkutsk          3599.000
       407   13 Jun 2027 05:48:36.391   13 Jun 2027 05:49:18.419            42.028                Sumatra          5253.500
       408   13 Jun 2027 05:50:25.901   13 Jun 2027 05:52:11.035           105.134                Sumatra         13141.750
       409   13 Jun 2027 05:56:12.234   13 Jun 2027 05:58:39.440           147.206                  Delhi         18400.750
       410   13 Jun 2027 06:13:51.679   13 Jun 2027 06:16:21.392           149.713                 Moscow         18714.125
       411   13 Jun 2027 06:16:34.231   13 Jun 2027 06:20:31.230           236.999              Murmansk1         29624.875
       412   13 Jun 2027 07:39:08.856   13 Jun 2027 07:42:22.376           193.520                  Delhi         24190.000
       413   13 Jun 2027 07:42:24.030   13 Jun 2027 07:44:30.587           126.557                Novosib         15819.625
       414   13 Jun 2027 07:44:46.132   13 Jun 2027 07:45:13.978            27.846                 Moscow          3480.750
       415   13 Jun 2027 07:49:52.568   13 Jun 2027 07:52:37.439           164.871                Norilsk         20608.875
       416   13 Jun 2027 07:53:03.235   13 Jun 2027 07:56:17.890           194.655              Murmansk2         24331.875
       417   13 Jun 2027 09:00:00.457   13 Jun 2027 09:01:05.702            65.245               CapeTown          8155.625
       418   13 Jun 2027 09:19:03.508   13 Jun 2027 09:19:42.490            38.982                 Moscow          4872.750
       419   13 Jun 2027 09:22:49.770   13 Jun 2027 09:24:53.581           123.811              Murmansk2         15476.375
       420   13 Jun 2027 09:25:22.527   13 Jun 2027 09:28:36.302           193.775                 Moscow         24221.875
       421   13 Jun 2027 09:28:49.403   13 Jun 2027 09:31:19.499           150.096              Murmansk2         18762.000
       422   13 Jun 2027 09:31:19.499   13 Jun 2027 09:32:15.568            56.069              Murmansk1          7008.625
       423   13 Jun 2027 09:35:06.094   13 Jun 2027 09:37:51.292           165.198                Anadyr1         20649.750
       424   13 Jun 2027 12:48:29.266   13 Jun 2027 12:50:33.699           124.433               Magadan1         15554.125
       425   13 Jun 2027 12:52:56.080   13 Jun 2027 12:53:05.475             9.395               Magadan2          1174.375
       426   13 Jun 2027 12:55:11.766   13 Jun 2027 12:55:51.924            40.158               Magadan2          5019.750
       427   13 Jun 2027 14:24:05.139   13 Jun 2027 14:27:24.399           199.260               Magadan2         24907.500
       428   13 Jun 2027 15:16:26.262   13 Jun 2027 15:20:39.073           252.811            RioGallegos         31601.375
       429   13 Jun 2027 16:03:55.795   13 Jun 2027 16:07:29.019           213.224                Irkutsk         26653.000
       430   13 Jun 2027 16:17:46.127   13 Jun 2027 16:20:06.110           139.983                Sumatra         17497.875
       431   13 Jun 2027 17:39:39.838   13 Jun 2027 17:41:46.309           126.471                Novosib         15808.875
       432   13 Jun 2027 17:47:38.242   13 Jun 2027 17:48:39.268            61.026                  Delhi          7628.250
       433   13 Jun 2027 17:50:18.045   13 Jun 2027 17:51:39.923            81.878                  Delhi         10234.750
       434   13 Jun 2027 20:49:43.036   13 Jun 2027 20:49:53.704            10.668              Murmansk2          1333.500
       435   13 Jun 2027 20:50:46.465   13 Jun 2027 20:51:43.715            57.250              Murmansk1          7156.250
       436   13 Jun 2027 20:53:07.651   13 Jun 2027 20:54:36.362            88.711                 Moscow         11088.875
       437   13 Jun 2027 21:17:38.420   13 Jun 2027 21:18:05.471            27.051               CapeTown          3381.375
       438   13 Jun 2027 22:55:37.858   13 Jun 2027 22:57:25.642           107.784               CapeTown          6599.000
