uniorb/output/strategy_4/Drop/Drop_KinoSat_111002.txt

KinoSat_111002
-------------------------
    Access    *     Start Time (UTCG)     *     Stop Time (UTCG)  *   Duration (s)        *       Station  *  Data (Mbytes)
         1   01 Jun 2027 03:57:31.173   01 Jun 2027 03:57:50.818            19.645                Anadyr2           613.906
         2   01 Jun 2027 03:58:07.571   01 Jun 2027 03:58:34.989            27.418               Magadan2           856.813
         3   01 Jun 2027 03:59:02.396   01 Jun 2027 04:02:56.660           234.264                Anadyr1          7320.750
         4   01 Jun 2027 05:33:54.739   01 Jun 2027 05:34:14.751            20.012               Magadan1           625.375
         5   01 Jun 2027 05:34:19.890   01 Jun 2027 05:35:07.403            47.513                Irkutsk          1484.781
         6   01 Jun 2027 05:35:37.023   01 Jun 2027 05:35:56.655            19.632                Irkutsk           613.500
         7   01 Jun 2027 05:36:33.096   01 Jun 2027 05:38:40.003           126.907                Anadyr1          3965.844
         8   01 Jun 2027 06:18:56.028   01 Jun 2027 06:19:53.912            57.884            RioGallegos          1808.875
         9   01 Jun 2027 06:24:47.892   01 Jun 2027 06:25:02.150            14.258            RioGallegos           445.563
        10   01 Jun 2027 07:07:50.265   01 Jun 2027 07:08:01.626            11.361                Novosib           355.031
        11   01 Jun 2027 07:08:11.282   01 Jun 2027 07:08:47.744            36.462               Magadan2          1139.437
        12   01 Jun 2027 07:08:49.891   01 Jun 2027 07:10:11.416            81.525                Novosib          2547.656
        13   01 Jun 2027 07:10:26.195   01 Jun 2027 07:10:47.050            20.855               Magadan1           651.719
        14   01 Jun 2027 07:10:47.050   01 Jun 2027 07:10:51.679             4.629               Magadan2           144.656
        15   01 Jun 2027 07:10:58.613   01 Jun 2027 07:12:22.200            83.587                Norilsk          2612.094
        16   01 Jun 2027 07:12:26.159   01 Jun 2027 07:13:51.693            85.534                Irkutsk          2672.937
        17   01 Jun 2027 07:13:58.880   01 Jun 2027 07:14:07.802             8.922               Magadan1           278.813
        18   01 Jun 2027 07:14:08.278   01 Jun 2027 07:14:13.144             4.866              Murmansk2           152.062
        19   01 Jun 2027 07:14:27.106   01 Jun 2027 07:15:17.028            49.922              Murmansk1          1560.063
        20   01 Jun 2027 07:15:38.775   01 Jun 2027 07:15:53.140            14.365                Norilsk           448.906
        21   01 Jun 2027 07:16:39.990   01 Jun 2027 07:17:03.685            23.695                Norilsk           740.469
        22   01 Jun 2027 07:49:05.200   01 Jun 2027 07:50:39.836            94.636            RioGallegos          2957.375
        23   01 Jun 2027 07:52:13.140   01 Jun 2027 07:52:26.188            13.048            RioGallegos           407.750
        24   01 Jun 2027 08:25:18.291   01 Jun 2027 08:26:47.284            88.993                Sumatra          2781.031
        25   01 Jun 2027 08:46:04.472   01 Jun 2027 08:46:41.751            37.279                Norilsk          1164.969
        26   01 Jun 2027 08:46:57.374   01 Jun 2027 08:47:05.811             8.437                Norilsk           263.656
        27   01 Jun 2027 08:47:21.420   01 Jun 2027 08:50:16.553           175.133                Irkutsk          5472.906
        28   01 Jun 2027 08:50:18.054   01 Jun 2027 08:51:15.512            57.458                Novosib          1795.562
        29   01 Jun 2027 09:25:51.003   01 Jun 2027 09:26:46.264            55.261            RioGallegos          1726.906
        30   01 Jun 2027 09:28:56.140   01 Jun 2027 09:29:11.426            15.286            RioGallegos           477.688
        31   01 Jun 2027 09:29:48.715   01 Jun 2027 09:30:45.553            56.838            RioGallegos          1776.188
        32   01 Jun 2027 10:00:08.132   01 Jun 2027 10:01:44.412            96.280                Sumatra          3008.750
        33   01 Jun 2027 10:05:24.796   01 Jun 2027 10:05:25.218             0.422                Sumatra            13.187
        34   01 Jun 2027 10:08:37.049   01 Jun 2027 10:10:56.615           139.566                  Delhi          4361.438
        35   01 Jun 2027 10:22:50.172   01 Jun 2027 10:23:35.729            45.557              Murmansk1          1423.656
        36   01 Jun 2027 10:23:53.291   01 Jun 2027 10:24:09.860            16.569                Norilsk           517.781
        37   01 Jun 2027 10:24:10.499   01 Jun 2027 10:25:24.640            74.141                Irkutsk          2316.906
        38   01 Jun 2027 10:25:47.226   01 Jun 2027 10:25:59.849            12.623              Murmansk1           394.469
        39   01 Jun 2027 10:27:37.421   01 Jun 2027 10:27:45.728             8.307                 Moscow           259.594
        40   01 Jun 2027 10:28:20.361   01 Jun 2027 10:28:30.191             9.830              Murmansk1           307.188
        41   01 Jun 2027 10:29:38.094   01 Jun 2027 10:30:10.009            31.915              Murmansk2           997.344
        42   01 Jun 2027 11:44:56.824   01 Jun 2027 11:48:30.985           214.161                  Delhi          6692.531
        43   01 Jun 2027 11:49:01.959   01 Jun 2027 11:49:12.382            10.423                  Delhi           325.719
        44   01 Jun 2027 11:58:51.420   01 Jun 2027 11:58:53.892             2.472              Murmansk1            77.250
        45   01 Jun 2027 11:59:15.618   01 Jun 2027 12:08:50.753           575.135              Murmansk1         17972.969
        46   01 Jun 2027 13:28:29.604   01 Jun 2027 13:41:14.046           764.442                 Moscow         23888.813
        47   01 Jun 2027 13:41:15.437   01 Jun 2027 13:44:47.399           211.962              Murmansk1          6623.813
        48   01 Jun 2027 13:48:28.927   01 Jun 2027 13:52:10.635           221.708                Anadyr2          6928.375
        49   01 Jun 2027 14:49:37.109   01 Jun 2027 14:52:58.642           201.533               CapeTown          6297.906
        50   01 Jun 2027 14:54:13.441   01 Jun 2027 14:54:27.204            13.763               CapeTown           430.094
        51   01 Jun 2027 15:16:35.093   01 Jun 2027 15:16:46.897            11.804              Murmansk2           368.875
        52   01 Jun 2027 15:16:50.003   01 Jun 2027 15:17:05.661            15.658              Murmansk2           489.312
        53   01 Jun 2027 15:17:32.379   01 Jun 2027 15:18:47.012            74.633              Murmansk1          2332.281
        54   01 Jun 2027 15:18:59.991   01 Jun 2027 15:20:10.401            70.410              Murmansk2          2200.312
        55   01 Jun 2027 15:20:37.089   01 Jun 2027 15:20:43.077             5.988              Murmansk2           187.125
        56   01 Jun 2027 15:27:42.124   01 Jun 2027 15:28:22.081            39.957                Anadyr2          1248.656
        57   01 Jun 2027 15:28:26.223   01 Jun 2027 15:30:35.299           129.076                Anadyr1          4033.625
        58   01 Jun 2027 15:31:04.396   01 Jun 2027 15:31:35.368            30.972                Anadyr2           967.875
        59   01 Jun 2027 15:32:13.841   01 Jun 2027 15:32:48.114            34.273                Anadyr2          1071.031
        60   01 Jun 2027 16:51:12.011   01 Jun 2027 16:51:52.717            40.706              Murmansk1          1272.063
        61   01 Jun 2027 16:53:04.584   01 Jun 2027 16:54:15.231            70.647              Murmansk2          2207.719
        62   01 Jun 2027 16:54:51.643   01 Jun 2027 16:55:04.433            12.790              Murmansk1           399.687
        63   01 Jun 2027 16:56:00.796   01 Jun 2027 16:56:01.116             0.320              Murmansk1            10.000
        64   01 Jun 2027 17:00:06.861   01 Jun 2027 17:00:18.791            11.930                Anadyr1           372.812
        65   01 Jun 2027 17:00:35.299   01 Jun 2027 17:01:05.222            29.923                Anadyr1           935.094
        66   01 Jun 2027 17:01:23.127   01 Jun 2027 17:01:48.029            24.902               Magadan1           778.188
        67   01 Jun 2027 17:02:10.678   01 Jun 2027 17:02:19.643             8.965               Magadan1           280.156
        68   01 Jun 2027 17:02:19.643   01 Jun 2027 17:02:29.074             9.431               Magadan2           294.719
        69   01 Jun 2027 17:03:47.660   01 Jun 2027 17:04:19.444            31.784               Magadan1           993.250
        70   01 Jun 2027 17:05:21.168   01 Jun 2027 17:05:45.852            24.684                Anadyr1           771.375
        71   01 Jun 2027 17:05:55.012   01 Jun 2027 17:06:32.086            37.074               Magadan2          1158.563
        72   01 Jun 2027 17:07:00.919   01 Jun 2027 17:07:39.046            38.127               Magadan1          1191.469
        73   01 Jun 2027 17:09:32.766   01 Jun 2027 17:10:02.387            29.621               Magadan2           925.656
        74   01 Jun 2027 18:34:21.349   01 Jun 2027 18:36:12.172           110.823                Anadyr1          3463.219
        75   01 Jun 2027 18:36:38.483   01 Jun 2027 18:38:52.935           134.452               Magadan2          4201.625
        76   01 Jun 2027 18:39:31.708   01 Jun 2027 18:39:49.316            17.608               Magadan1           550.250
        77   01 Jun 2027 18:40:49.060   01 Jun 2027 18:41:04.717            15.657               Magadan1           489.281
        78   01 Jun 2027 18:41:04.717   01 Jun 2027 18:41:06.159             1.442               Magadan2            45.063
        79   01 Jun 2027 18:41:44.091   01 Jun 2027 18:42:04.200            20.109               Magadan1           628.406
        80   01 Jun 2027 18:42:34.084   01 Jun 2027 18:42:54.126            20.042               Magadan2           626.313
        81   01 Jun 2027 18:43:37.878   01 Jun 2027 18:44:05.994            28.116                Anadyr2           878.625
        82   01 Jun 2027 18:44:40.731   01 Jun 2027 18:44:58.005            17.274                Anadyr2           539.812
        83   01 Jun 2027 18:45:20.805   01 Jun 2027 18:45:47.822            27.017                Anadyr2           844.281
        84   01 Jun 2027 18:45:54.869   01 Jun 2027 18:46:02.266             7.397               Magadan2           231.156
        85   01 Jun 2027 18:47:12.767   01 Jun 2027 18:47:49.767            37.000               Magadan1          1156.250
        86   01 Jun 2027 18:48:56.858   01 Jun 2027 18:49:29.771            32.913               Magadan1          1028.531
        87   01 Jun 2027 19:29:57.387   01 Jun 2027 19:30:05.882             8.495            RioGallegos           265.469
        88   01 Jun 2027 19:30:27.833   01 Jun 2027 19:30:51.186            23.353            RioGallegos           729.781
        89   01 Jun 2027 19:32:44.780   01 Jun 2027 19:33:34.987            50.207            RioGallegos          1568.969
        90   01 Jun 2027 19:34:42.511   01 Jun 2027 19:35:45.535            63.024            RioGallegos          1969.500
        91   01 Jun 2027 20:12:01.215   01 Jun 2027 20:12:05.444             4.229                Anadyr2           132.156
        92   01 Jun 2027 20:12:15.577   01 Jun 2027 20:12:17.737             2.160                Norilsk            67.500
        93   01 Jun 2027 20:12:36.954   01 Jun 2027 20:13:54.823            77.869               Magadan2          2433.406
        94   01 Jun 2027 20:14:00.633   01 Jun 2027 20:16:10.794           130.161                Norilsk          4067.531
        95   01 Jun 2027 20:16:47.299   01 Jun 2027 20:18:42.909           115.610                Irkutsk          3612.813
        96   01 Jun 2027 20:19:19.688   01 Jun 2027 20:20:20.001            60.313                Irkutsk          1884.781
        97   01 Jun 2027 20:26:09.377   01 Jun 2027 20:26:13.005             3.628                Irkutsk           113.375
        98   01 Jun 2027 20:31:01.556   01 Jun 2027 20:31:55.080            53.524                Sumatra          1672.625
        99   01 Jun 2027 20:35:13.373   01 Jun 2027 20:36:08.964            55.591                Sumatra          1737.219
       100   01 Jun 2027 20:36:51.006   01 Jun 2027 20:37:50.506            59.500                Sumatra          1859.375
       101   01 Jun 2027 20:41:03.271   01 Jun 2027 20:41:54.004            50.733                Sumatra          1585.406
       102   01 Jun 2027 21:50:48.650   01 Jun 2027 21:50:50.787             2.137                Norilsk            66.781
       103   01 Jun 2027 21:51:08.710   01 Jun 2027 21:51:17.690             8.980               Magadan2           280.625
       104   01 Jun 2027 21:51:17.690   01 Jun 2027 21:51:24.932             7.242               Magadan1           226.312
       105   01 Jun 2027 21:51:46.323   01 Jun 2027 21:52:00.856            14.533               Magadan1           454.156
       106   01 Jun 2027 21:52:04.061   01 Jun 2027 21:52:06.908             2.847               Magadan1            88.969
       107   01 Jun 2027 21:52:24.178   01 Jun 2027 21:53:30.279            66.101                Novosib          2065.656
       108   01 Jun 2027 21:55:01.904   01 Jun 2027 21:55:20.363            18.459                Novosib           576.844
       109   01 Jun 2027 21:56:21.073   01 Jun 2027 21:57:56.002            94.929                Novosib          2966.531
       110   01 Jun 2027 22:01:03.499   01 Jun 2027 22:02:22.743            79.244                  Delhi          2476.375
       111   01 Jun 2027 22:05:08.019   01 Jun 2027 22:05:39.750            31.731                  Delhi           991.594
       112   01 Jun 2027 22:07:25.724   01 Jun 2027 22:08:31.027            65.303                  Delhi          2040.719
       113   01 Jun 2027 23:22:07.241   01 Jun 2027 23:22:22.582            15.341                Anadyr1           479.406
       114   01 Jun 2027 23:22:33.599   01 Jun 2027 23:23:41.091            67.492                Anadyr2          2109.125
       115   01 Jun 2027 23:24:06.943   01 Jun 2027 23:24:36.800            29.857                Norilsk           933.031
       116   01 Jun 2027 23:24:38.912   01 Jun 2027 23:24:50.858            11.946                Norilsk           373.312
       117   01 Jun 2027 23:25:09.137   01 Jun 2027 23:25:37.573            28.436               Magadan2           888.625
       118   01 Jun 2027 23:25:37.573   01 Jun 2027 23:25:43.695             6.122               Magadan1           191.312
       119   01 Jun 2027 23:25:49.697   01 Jun 2027 23:26:33.089            43.392               Magadan1          1356.000
       120   01 Jun 2027 23:26:44.400   01 Jun 2027 23:30:23.814           219.414              Murmansk1          6856.687
       121   01 Jun 2027 23:32:39.495   01 Jun 2027 23:32:46.123             6.628              Murmansk1           207.125
       122   01 Jun 2027 23:44:06.191   01 Jun 2027 23:44:22.127            15.936                  Delhi           498.000
       123   01 Jun 2027 23:44:39.581   01 Jun 2027 23:44:58.536            18.955                  Delhi           592.344
       124   01 Jun 2027 23:46:50.184   01 Jun 2027 23:47:51.404            61.220                  Delhi          1913.125
       125   02 Jun 2027 00:52:19.718   02 Jun 2027 00:52:35.443            15.725                Anadyr2           491.406
       126   02 Jun 2027 00:52:48.619   02 Jun 2027 00:53:12.270            23.651                Anadyr1           739.094
       127   02 Jun 2027 00:53:40.410   02 Jun 2027 00:54:25.606            45.196                Anadyr2          1412.375
       128   02 Jun 2027 00:55:03.385   02 Jun 2027 00:55:05.181             1.796                Anadyr1            56.125
       129   02 Jun 2027 00:55:14.351   02 Jun 2027 00:55:38.768            24.417                Anadyr2           763.031
       130   02 Jun 2027 00:57:58.479   02 Jun 2027 00:58:08.240             9.761                Anadyr2           305.031
       131   02 Jun 2027 00:58:20.371   02 Jun 2027 00:58:34.506            14.135                Anadyr1           441.719
       132   02 Jun 2027 00:59:08.131   02 Jun 2027 01:01:16.094           127.963               Magadan2          3998.844
       133   02 Jun 2027 01:02:15.686   02 Jun 2027 01:03:31.287            75.601              Murmansk2          2362.531
       134   02 Jun 2027 01:03:44.959   02 Jun 2027 01:04:04.131            19.172              Murmansk2           599.125
       135   02 Jun 2027 01:05:49.857   02 Jun 2027 01:05:57.295             7.438                 Moscow           232.438
       136   02 Jun 2027 01:06:37.824   02 Jun 2027 01:07:41.995            64.171                Irkutsk          2005.344
       137   02 Jun 2027 01:11:46.380   02 Jun 2027 01:12:10.373            23.993                 Moscow           749.781
       138   02 Jun 2027 01:15:25.361   02 Jun 2027 01:15:43.439            18.078                 Moscow           564.938
       139   02 Jun 2027 01:16:57.911   02 Jun 2027 01:17:03.332             5.421                 Moscow           169.406
       140   02 Jun 2027 01:31:00.037   02 Jun 2027 01:31:42.487            42.450               CapeTown          1326.562
       141   02 Jun 2027 01:36:21.082   02 Jun 2027 01:36:32.774            11.692               CapeTown           365.375
       142   02 Jun 2027 01:37:25.500   02 Jun 2027 01:37:55.604            30.104               CapeTown           940.750
       143   02 Jun 2027 01:40:10.654   02 Jun 2027 01:40:28.309            17.655               CapeTown           551.719
       144   02 Jun 2027 02:26:25.840   02 Jun 2027 02:28:55.031           149.191                Anadyr1          4662.219
       145   02 Jun 2027 02:29:41.522   02 Jun 2027 02:30:24.477            42.955               Magadan2          1342.344
       146   02 Jun 2027 02:32:55.600   02 Jun 2027 02:32:58.752             3.152               Magadan2            98.500
       147   02 Jun 2027 02:33:22.941   02 Jun 2027 02:33:36.737            13.796               Magadan1           431.125
       148   02 Jun 2027 02:35:30.135   02 Jun 2027 02:35:39.329             9.194                Norilsk           287.312
       149   02 Jun 2027 02:36:09.185   02 Jun 2027 02:36:44.041            34.856                Norilsk          1089.250
       150   02 Jun 2027 02:38:12.779   02 Jun 2027 02:39:49.842            97.063              Murmansk2          3033.219
       151   02 Jun 2027 02:41:41.088   02 Jun 2027 02:42:12.325            31.237                Novosib           976.156
       152   02 Jun 2027 02:44:02.160   02 Jun 2027 02:45:03.431            61.271                Novosib          1914.719
       153   02 Jun 2027 02:52:53.303   02 Jun 2027 02:53:51.078            57.775                 Moscow          1805.469
       154   02 Jun 2027 03:15:50.059   02 Jun 2027 03:16:20.706            30.647               CapeTown           957.719
       155   02 Jun 2027 04:08:40.500   02 Jun 2027 04:14:03.565           323.065               Magadan2         10095.781
       156   02 Jun 2027 05:46:15.216   02 Jun 2027 05:47:07.538            52.322                Irkutsk          1635.062
       157   02 Jun 2027 05:47:41.882   02 Jun 2027 05:48:00.286            18.404                Irkutsk           575.125
       158   02 Jun 2027 05:48:18.540   02 Jun 2027 05:49:19.035            60.495                Anadyr2          1890.469
       159   02 Jun 2027 07:23:59.534   02 Jun 2027 07:26:07.655           128.121                Irkutsk          4003.781
       160   02 Jun 2027 07:26:07.772   02 Jun 2027 07:26:41.916            34.144                Novosib          1067.000
       161   02 Jun 2027 08:42:41.356   02 Jun 2027 08:43:23.267            41.911                Sumatra          1309.719
       162   02 Jun 2027 08:43:33.727   02 Jun 2027 08:43:58.472            24.745                Sumatra           773.281
       163   02 Jun 2027 08:59:42.837   02 Jun 2027 09:01:02.159            79.322                Novosib          2478.812
       164   02 Jun 2027 09:01:12.559   02 Jun 2027 09:02:16.750            64.191                Irkutsk          2005.969
       165   02 Jun 2027 09:38:17.089   02 Jun 2027 09:40:35.336           138.247            RioGallegos          4320.219
       166   02 Jun 2027 09:43:04.896   02 Jun 2027 09:43:07.607             2.711            RioGallegos            84.719
       167   02 Jun 2027 09:43:17.750   02 Jun 2027 09:43:20.729             2.979            RioGallegos            93.094
       168   02 Jun 2027 09:43:40.967   02 Jun 2027 09:43:54.858            13.891            RioGallegos           434.094
       169   02 Jun 2027 09:45:38.885   02 Jun 2027 09:45:58.760            19.875            RioGallegos           621.094
       170   02 Jun 2027 09:47:19.037   02 Jun 2027 09:47:31.841            12.804            RioGallegos           400.125
       171   02 Jun 2027 09:47:50.077   02 Jun 2027 09:48:05.325            15.248            RioGallegos           476.500
       172   02 Jun 2027 10:12:29.884   02 Jun 2027 10:13:39.887            70.003                Sumatra          2187.594
       173   02 Jun 2027 10:14:12.872   02 Jun 2027 10:14:41.315            28.443                Sumatra           888.844
       174   02 Jun 2027 10:16:48.422   02 Jun 2027 10:17:39.973            51.551                Sumatra          1610.969
       175   02 Jun 2027 10:35:06.293   02 Jun 2027 10:35:27.018            20.725                Norilsk           647.656
       176   02 Jun 2027 10:35:35.269   02 Jun 2027 10:35:53.145            17.876                Norilsk           558.625
       177   02 Jun 2027 10:36:07.746   02 Jun 2027 10:36:18.704            10.958                Norilsk           342.437
       178   02 Jun 2027 10:36:38.891   02 Jun 2027 10:36:42.869             3.978                Novosib           124.313
       179   02 Jun 2027 10:37:18.396   02 Jun 2027 10:37:25.374             6.978                Novosib           218.062
       180   02 Jun 2027 10:37:39.388   02 Jun 2027 10:37:54.214            14.826                Norilsk           463.313
       181   02 Jun 2027 11:57:32.047   02 Jun 2027 11:58:11.523            39.476                  Delhi          1233.625
       182   02 Jun 2027 11:58:37.870   02 Jun 2027 12:01:00.452           142.582                  Delhi          4455.687
       183   02 Jun 2027 12:07:42.889   02 Jun 2027 12:07:58.674            15.785                Novosib           493.281
       184   02 Jun 2027 12:09:58.518   02 Jun 2027 12:10:32.776            34.258                Novosib          1070.562
       185   02 Jun 2027 12:17:14.868   02 Jun 2027 12:17:18.571             3.703                Norilsk           115.719
       186   02 Jun 2027 12:17:32.210   02 Jun 2027 12:17:51.422            19.212                Norilsk           600.375
       187   02 Jun 2027 13:40:39.066   02 Jun 2027 13:42:16.479            97.413                 Moscow          3044.156
       188   02 Jun 2027 13:44:09.804   02 Jun 2027 13:46:32.275           142.471              Murmansk1          4452.219
       189   02 Jun 2027 13:46:32.275   02 Jun 2027 13:47:22.588            50.313              Murmansk2          1572.281
       190   02 Jun 2027 13:48:02.234   02 Jun 2027 13:48:37.673            35.439              Murmansk2          1107.469
       191   02 Jun 2027 13:51:13.402   02 Jun 2027 13:51:29.640            16.238              Murmansk2           507.437
       192   02 Jun 2027 13:51:33.022   02 Jun 2027 13:53:06.722            93.700                Norilsk          2928.125
       193   02 Jun 2027 13:59:55.592   02 Jun 2027 14:02:11.363           135.771                Anadyr1          4242.844
       194   02 Jun 2027 14:02:48.998   02 Jun 2027 14:03:13.599            24.601                Anadyr1           768.781
       195   02 Jun 2027 15:02:05.849   02 Jun 2027 15:02:11.541             5.692               CapeTown           177.875
       196   02 Jun 2027 15:03:34.197   02 Jun 2027 15:03:53.298            19.101               CapeTown           596.906
       197   02 Jun 2027 15:22:13.448   02 Jun 2027 15:22:39.340            25.892              Murmansk1           809.125
       198   02 Jun 2027 15:23:08.677   02 Jun 2027 15:23:10.695             2.018              Murmansk2            63.063
       199   02 Jun 2027 15:23:17.048   02 Jun 2027 15:23:27.421            10.373              Murmansk1           324.156
       200   02 Jun 2027 15:25:01.039   02 Jun 2027 15:25:11.148            10.109              Murmansk2           315.906
       201   02 Jun 2027 15:25:11.148   02 Jun 2027 15:25:21.292            10.144              Murmansk1           317.000
       202   02 Jun 2027 15:27:02.529   02 Jun 2027 15:27:14.189            11.660              Murmansk2           364.375
       203   02 Jun 2027 15:27:14.189   02 Jun 2027 15:27:19.280             5.091              Murmansk1           159.094
       204   02 Jun 2027 15:28:51.163   02 Jun 2027 15:29:07.468            16.305              Murmansk1           509.531
       205   02 Jun 2027 15:29:38.127   02 Jun 2027 15:30:48.863            70.736              Murmansk1          2210.500
       206   02 Jun 2027 15:34:39.095   02 Jun 2027 15:35:43.711            64.616                Anadyr1          2019.250
       207   02 Jun 2027 15:35:56.630   02 Jun 2027 15:36:12.457            15.827                Anadyr2           494.594
       208   02 Jun 2027 15:40:24.501   02 Jun 2027 15:40:28.216             3.715                Anadyr1           116.094
       209   02 Jun 2027 15:40:36.140   02 Jun 2027 15:40:48.094            11.954                Anadyr1           373.562
       210   02 Jun 2027 15:41:01.889   02 Jun 2027 15:41:08.827             6.938                Anadyr1           216.812
       211   02 Jun 2027 15:45:22.378   02 Jun 2027 15:45:39.633            17.255                Anadyr2           539.219
       212   02 Jun 2027 15:45:39.633   02 Jun 2027 15:45:53.125            13.492                Anadyr1           421.625
       213   02 Jun 2027 15:46:01.421   02 Jun 2027 15:46:05.034             3.613                Anadyr1           112.906
       214   02 Jun 2027 16:40:28.699   02 Jun 2027 16:40:47.931            19.232               CapeTown           601.000
       215   02 Jun 2027 17:03:15.138   02 Jun 2027 17:06:40.721           205.583              Murmansk2          6424.469
       216   02 Jun 2027 17:10:27.068   02 Jun 2027 17:10:51.956            24.888                Anadyr2           777.750
       217   02 Jun 2027 17:11:09.407   02 Jun 2027 17:12:06.154            56.747                Anadyr1          1773.344
       218   02 Jun 2027 17:13:07.714   02 Jun 2027 17:13:56.260            48.546               Magadan2          1517.063
       219   02 Jun 2027 17:13:58.551   02 Jun 2027 17:14:03.400             4.849               Magadan1           151.531
       220   02 Jun 2027 17:14:13.384   02 Jun 2027 17:14:21.292             7.908               Magadan1           247.125
       221   02 Jun 2027 17:14:31.167   02 Jun 2027 17:15:28.185            57.018               Magadan1          1781.813
       222   02 Jun 2027 17:23:48.015   02 Jun 2027 17:23:56.376             8.361               Magadan2           261.281
       223   02 Jun 2027 18:46:22.361   02 Jun 2027 18:48:13.698           111.337                Anadyr2          3479.281
       224   02 Jun 2027 18:48:39.149   02 Jun 2027 18:52:57.747           258.598               Magadan2          8081.188
       225   02 Jun 2027 18:58:56.887   02 Jun 2027 18:59:02.404             5.517               Magadan1           172.406
       226   02 Jun 2027 18:59:31.397   02 Jun 2027 18:59:42.632            11.235               Magadan1           351.094
       227   02 Jun 2027 19:00:59.411   02 Jun 2027 19:01:33.824            34.413               Magadan2          1075.406
       228   02 Jun 2027 19:41:12.622   02 Jun 2027 19:42:50.175            97.553            RioGallegos          3048.531
       229   02 Jun 2027 19:43:54.280   02 Jun 2027 19:44:26.677            32.397            RioGallegos          1012.406
       230   02 Jun 2027 19:46:06.036   02 Jun 2027 19:47:07.046            61.010            RioGallegos          1906.563
       231   02 Jun 2027 20:24:14.820   02 Jun 2027 20:28:11.496           236.676                Norilsk          7396.125
       232   02 Jun 2027 20:28:36.598   02 Jun 2027 20:29:39.214            62.616                Irkutsk          1956.750
       233   02 Jun 2027 20:30:28.539   02 Jun 2027 20:30:43.855            15.316                Irkutsk           478.625
       234   02 Jun 2027 20:38:36.124   02 Jun 2027 20:39:20.881            44.757                Irkutsk          1398.656
       235   02 Jun 2027 20:42:35.263   02 Jun 2027 20:44:24.725           109.462                Sumatra          3420.687
       236   02 Jun 2027 20:46:52.502   02 Jun 2027 20:48:12.997            80.495                Sumatra          2515.469
       237   02 Jun 2027 22:00:53.661   02 Jun 2027 22:01:23.619            29.958               Magadan1           936.187
       238   02 Jun 2027 22:01:51.858   02 Jun 2027 22:01:57.408             5.550                Norilsk           173.438
       239   02 Jun 2027 22:03:03.024   02 Jun 2027 22:03:32.581            29.557               Magadan1           923.656
       240   02 Jun 2027 22:04:00.077   02 Jun 2027 22:05:03.061            62.984                Irkutsk          1968.250
       241   02 Jun 2027 22:05:22.927   02 Jun 2027 22:05:39.909            16.982                Novosib           530.688
       242   02 Jun 2027 22:05:55.285   02 Jun 2027 22:06:01.422             6.137                Novosib           191.781
       243   02 Jun 2027 22:06:03.870   02 Jun 2027 22:07:08.320            64.450                Novosib          2014.062
       244   02 Jun 2027 22:09:25.669   02 Jun 2027 22:09:56.207            30.538                Novosib           954.313
       245   02 Jun 2027 22:12:30.979   02 Jun 2027 22:14:02.785            91.806                  Delhi          2868.937
       246   02 Jun 2027 22:18:03.344   02 Jun 2027 22:19:21.631            78.287                  Delhi          2446.469
       247   02 Jun 2027 23:33:08.092   02 Jun 2027 23:33:31.026            22.934                Anadyr1           716.688
       248   02 Jun 2027 23:36:08.583   02 Jun 2027 23:36:11.472             2.889                Norilsk            90.281
       249   02 Jun 2027 23:36:28.954   02 Jun 2027 23:37:14.720            45.766               Magadan1          1430.188
       250   02 Jun 2027 23:37:14.720   02 Jun 2027 23:37:33.283            18.563               Magadan2           580.094
       251   02 Jun 2027 23:38:38.546   02 Jun 2027 23:41:00.928           142.382              Murmansk1          4449.437
       252   02 Jun 2027 23:41:57.421   02 Jun 2027 23:42:24.560            27.139              Murmansk2           848.094
       253   02 Jun 2027 23:42:45.912   02 Jun 2027 23:43:04.919            19.007              Murmansk2           593.969
       254   02 Jun 2027 23:44:27.683   02 Jun 2027 23:44:32.933             5.250              Murmansk2           164.062
       255   02 Jun 2027 23:44:32.933   02 Jun 2027 23:44:41.078             8.145              Murmansk1           254.531
       256   02 Jun 2027 23:44:53.577   02 Jun 2027 23:46:49.102           115.525                 Moscow          3610.156
       257   02 Jun 2027 23:47:54.424   02 Jun 2027 23:48:03.490             9.066                 Moscow           283.313
       258   03 Jun 2027 01:04:03.278   03 Jun 2027 01:04:10.961             7.683                Anadyr2           240.094
       259   03 Jun 2027 01:04:10.961   03 Jun 2027 01:04:37.890            26.929                Anadyr1           841.531
       260   03 Jun 2027 01:05:05.691   03 Jun 2027 01:05:39.337            33.646                Anadyr1          1051.438
       261   03 Jun 2027 01:06:18.429   03 Jun 2027 01:06:47.350            28.921                Anadyr1           903.781
       262   03 Jun 2027 01:06:47.350   03 Jun 2027 01:07:18.724            31.374                Anadyr2           980.438
       263   03 Jun 2027 01:09:32.010   03 Jun 2027 01:11:04.038            92.028               Magadan1          2875.875
       264   03 Jun 2027 01:11:19.621   03 Jun 2027 01:11:34.417            14.796               Magadan1           462.375
       265   03 Jun 2027 01:11:59.145   03 Jun 2027 01:12:12.103            12.958                Norilsk           404.937
       266   03 Jun 2027 01:12:53.092   03 Jun 2027 01:13:19.312            26.220               Magadan2           819.375
       267   03 Jun 2027 01:14:16.735   03 Jun 2027 01:16:10.884           114.149              Murmansk1          3567.156
       268   03 Jun 2027 01:17:14.104   03 Jun 2027 01:17:47.233            33.129                Novosib          1035.281
       269   03 Jun 2027 01:19:29.761   03 Jun 2027 01:19:39.761            10.000                 Moscow           312.500
       270   03 Jun 2027 01:19:58.619   03 Jun 2027 01:20:10.806            12.187                 Moscow           380.844
       271   03 Jun 2027 01:24:31.220   03 Jun 2027 01:24:33.461             2.241                 Moscow            70.031
       272   03 Jun 2027 01:25:21.377   03 Jun 2027 01:25:34.858            13.481                 Moscow           421.281
       273   03 Jun 2027 01:28:46.044   03 Jun 2027 01:28:53.336             7.292                 Moscow           227.875
       274   03 Jun 2027 01:42:30.799   03 Jun 2027 01:43:06.054            35.255               CapeTown          1101.719
       275   03 Jun 2027 01:43:17.103   03 Jun 2027 01:44:01.191            44.088               CapeTown          1377.750
       276   03 Jun 2027 01:48:30.115   03 Jun 2027 01:49:06.338            36.223               CapeTown          1131.969
       277   03 Jun 2027 02:38:19.799   03 Jun 2027 02:39:35.430            75.631                Anadyr2          2363.469
       278   03 Jun 2027 02:40:46.366   03 Jun 2027 02:40:52.838             6.472                Anadyr1           202.250
       279   03 Jun 2027 02:41:14.401   03 Jun 2027 02:42:43.091            88.690               Magadan2          2771.562
       280   03 Jun 2027 02:44:53.712   03 Jun 2027 02:44:57.717             4.005               Magadan1           125.156
       281   03 Jun 2027 02:46:06.378   03 Jun 2027 02:46:33.620            27.242               Magadan2           851.312
       282   03 Jun 2027 02:47:26.025   03 Jun 2027 02:47:36.547            10.522                Norilsk           328.812
       283   03 Jun 2027 02:47:42.097   03 Jun 2027 02:48:07.560            25.463                Norilsk           795.719
       284   03 Jun 2027 02:50:14.508   03 Jun 2027 02:50:21.801             7.293              Murmansk1           227.906
       285   03 Jun 2027 02:50:30.685   03 Jun 2027 02:51:17.436            46.751              Murmansk2          1460.969
       286   03 Jun 2027 02:51:25.438   03 Jun 2027 02:51:48.246            22.808              Murmansk1           712.750
       287   03 Jun 2027 02:52:01.470   03 Jun 2027 02:52:03.439             1.969              Murmansk2            61.531
       288   03 Jun 2027 02:52:19.005   03 Jun 2027 02:53:31.992            72.987              Murmansk1          2280.844
       289   03 Jun 2027 04:21:11.131   03 Jun 2027 04:21:16.605             5.474               Magadan2           171.063
       290   03 Jun 2027 04:21:17.098   03 Jun 2027 04:21:20.339             3.241                Anadyr2           101.281
       291   03 Jun 2027 04:21:21.642   03 Jun 2027 04:21:50.167            28.525               Magadan2           891.406
       292   03 Jun 2027 04:22:40.660   03 Jun 2027 04:26:10.573           209.913               Magadan2          6559.781
       293   03 Jun 2027 05:59:06.697   03 Jun 2027 05:59:33.046            26.349                Irkutsk           823.406
       294   03 Jun 2027 05:59:45.966   03 Jun 2027 06:00:22.779            36.813                Irkutsk          1150.406
       295   03 Jun 2027 06:00:31.421   03 Jun 2027 06:00:38.548             7.127               Magadan1           222.719
       296   03 Jun 2027 06:00:46.354   03 Jun 2027 06:01:20.697            34.343                Anadyr2          1073.219
       297   03 Jun 2027 06:01:20.697   03 Jun 2027 06:01:50.375            29.678                Anadyr1           927.437
       298   03 Jun 2027 07:32:48.083   03 Jun 2027 07:33:04.633            16.550                Irkutsk           517.188
       299   03 Jun 2027 07:33:40.768   03 Jun 2027 07:34:03.930            23.162               Magadan2           723.812
       300   03 Jun 2027 07:34:14.776   03 Jun 2027 07:34:19.266             4.490               Magadan2           140.313
       301   03 Jun 2027 07:34:19.824   03 Jun 2027 07:34:56.542            36.718               Magadan1          1147.438
       302   03 Jun 2027 07:35:22.245   03 Jun 2027 07:36:32.530            70.285               Magadan2          2196.406
       303   03 Jun 2027 07:36:52.303   03 Jun 2027 07:36:56.422             4.119                Irkutsk           128.719
       304   03 Jun 2027 07:36:59.012   03 Jun 2027 07:37:19.826            20.814              Murmansk2           650.438
       305   03 Jun 2027 07:37:23.999   03 Jun 2027 07:37:41.365            17.366               Magadan1           542.688
       306   03 Jun 2027 07:37:44.013   03 Jun 2027 07:37:58.671            14.658              Murmansk2           458.062
       307   03 Jun 2027 07:37:58.671   03 Jun 2027 07:38:17.193            18.522              Murmansk1           578.813
       308   03 Jun 2027 08:14:00.631   03 Jun 2027 08:14:34.543            33.912            RioGallegos          1059.750
       309   03 Jun 2027 08:18:21.175   03 Jun 2027 08:18:47.510            26.335            RioGallegos           822.969
       310   03 Jun 2027 08:48:25.159   03 Jun 2027 08:49:24.547            59.388                Sumatra          1855.875
       311   03 Jun 2027 08:59:42.570   03 Jun 2027 08:59:59.891            17.321                Sumatra           541.281
       312   03 Jun 2027 09:09:29.851   03 Jun 2027 09:10:00.253            30.402                Irkutsk           950.063
       313   03 Jun 2027 09:11:47.684   03 Jun 2027 09:12:53.843            66.159                Novosib          2067.469
       314   03 Jun 2027 09:12:58.350   03 Jun 2027 09:13:06.695             8.345                Novosib           260.781
       315   03 Jun 2027 09:13:27.337   03 Jun 2027 09:14:06.213            38.876                Novosib          1214.875
       316   03 Jun 2027 09:50:48.892   03 Jun 2027 09:51:06.100            17.208            RioGallegos           537.750
       317   03 Jun 2027 09:52:18.592   03 Jun 2027 09:52:49.005            30.413            RioGallegos           950.406
       318   03 Jun 2027 10:25:00.954   03 Jun 2027 10:25:04.191             3.237                Sumatra           101.156
       319   03 Jun 2027 10:25:16.900   03 Jun 2027 10:25:40.984            24.084                Sumatra           752.625
       320   03 Jun 2027 10:28:48.916   03 Jun 2027 10:29:55.995            67.079                Sumatra          2096.219
       321   03 Jun 2027 10:46:38.320   03 Jun 2027 10:46:41.383             3.063                Novosib            95.719
       322   03 Jun 2027 10:47:52.823   03 Jun 2027 10:48:55.677            62.854                Novosib          1964.187
       323   03 Jun 2027 10:49:11.791   03 Jun 2027 10:49:29.094            17.303                Novosib           540.719
       324   03 Jun 2027 10:49:30.384   03 Jun 2027 10:49:31.938             1.554              Murmansk1            48.562
       325   03 Jun 2027 10:49:34.863   03 Jun 2027 10:49:38.995             4.132                Novosib           129.125
       326   03 Jun 2027 10:49:41.046   03 Jun 2027 10:49:57.541            16.495                Norilsk           515.469
       327   03 Jun 2027 12:10:20.019   03 Jun 2027 12:12:03.634           103.615                  Delhi          3237.969
       328   03 Jun 2027 12:12:55.430   03 Jun 2027 12:13:34.941            39.511                  Delhi          1234.719
       329   03 Jun 2027 12:18:52.421   03 Jun 2027 12:19:37.972            45.551                Novosib          1423.469
       330   03 Jun 2027 12:20:19.608   03 Jun 2027 12:21:58.479            98.871                Novosib          3089.719
       331   03 Jun 2027 13:33:41.900   03 Jun 2027 13:34:19.433            37.533               CapeTown          1172.906
       332   03 Jun 2027 13:35:47.544   03 Jun 2027 13:36:59.897            72.353               CapeTown          2261.031
       333   03 Jun 2027 13:52:51.856   03 Jun 2027 13:53:25.344            33.488                 Moscow          1046.500
       334   03 Jun 2027 13:53:46.056   03 Jun 2027 13:54:12.182            26.126                 Moscow           816.437
       335   03 Jun 2027 13:56:20.228   03 Jun 2027 13:57:16.416            56.188              Murmansk1          1755.875
       336   03 Jun 2027 13:57:43.983   03 Jun 2027 13:57:51.225             7.242              Murmansk1           226.313
       337   03 Jun 2027 13:58:19.612   03 Jun 2027 13:59:15.035            55.423              Murmansk2          1731.969
       338   03 Jun 2027 14:01:16.667   03 Jun 2027 14:01:17.368             0.701              Murmansk2            21.906
       339   03 Jun 2027 14:01:33.357   03 Jun 2027 14:01:52.658            19.301              Murmansk1           603.156
       340   03 Jun 2027 14:03:41.304   03 Jun 2027 14:04:05.535            24.231              Murmansk2           757.219
       341   03 Jun 2027 14:07:24.510   03 Jun 2027 14:07:43.935            19.425              Murmansk2           607.031
       342   03 Jun 2027 14:11:36.013   03 Jun 2027 14:13:22.879           106.866                Anadyr2          3339.563
       343   03 Jun 2027 14:13:57.918   03 Jun 2027 14:15:04.453            66.535                Anadyr1          2079.219
       344   03 Jun 2027 14:16:41.974   03 Jun 2027 14:16:54.732            12.758                Anadyr2           398.688
       345   03 Jun 2027 15:11:52.449   03 Jun 2027 15:13:03.970            71.521               CapeTown          2235.031
       346   03 Jun 2027 15:33:52.679   03 Jun 2027 15:34:21.166            28.487                 Moscow           890.219
       347   03 Jun 2027 15:34:40.958   03 Jun 2027 15:34:57.091            16.133              Murmansk2           504.156
       348   03 Jun 2027 15:34:57.091   03 Jun 2027 15:35:08.808            11.717              Murmansk1           366.156
       349   03 Jun 2027 15:35:27.478   03 Jun 2027 15:35:53.508            26.030              Murmansk2           813.438
       350   03 Jun 2027 15:39:20.142   03 Jun 2027 15:39:37.380            17.238              Murmansk2           538.687
       351   03 Jun 2027 15:46:38.153   03 Jun 2027 15:49:06.407           148.254                Anadyr2          4632.937
       352   03 Jun 2027 15:57:48.260   03 Jun 2027 15:58:25.185            36.925                Anadyr1          1153.906
       353   03 Jun 2027 16:46:41.018   03 Jun 2027 16:48:05.772            84.754               CapeTown          2648.562
       354   03 Jun 2027 17:16:28.887   03 Jun 2027 17:18:39.707           130.820              Murmansk2          4088.125
       355   03 Jun 2027 17:22:28.436   03 Jun 2027 17:24:02.442            94.006                Anadyr2          2937.688
       356   03 Jun 2027 17:25:02.689   03 Jun 2027 17:26:15.756            73.067               Magadan1          2283.344
       357   03 Jun 2027 17:26:33.435   03 Jun 2027 17:27:06.875            33.440               Magadan1          1045.000
       358   03 Jun 2027 17:30:12.034   03 Jun 2027 17:30:43.237            31.203               Magadan2           975.094
       359   03 Jun 2027 18:58:23.167   03 Jun 2027 19:00:15.186           112.019                Anadyr1          3500.594
       360   03 Jun 2027 19:00:40.213   03 Jun 2027 19:03:59.852           199.639               Magadan2          6238.719
       361   03 Jun 2027 19:04:05.975   03 Jun 2027 19:04:47.623            41.648                Norilsk          1301.500
       362   03 Jun 2027 19:07:47.297   03 Jun 2027 19:07:52.825             5.528               Magadan1           172.750
       363   03 Jun 2027 19:10:17.365   03 Jun 2027 19:10:36.665            19.300               Magadan1           603.125
       364   03 Jun 2027 19:52:57.265   03 Jun 2027 19:56:28.227           210.962            RioGallegos          6592.563
       365   03 Jun 2027 20:02:15.177   03 Jun 2027 20:02:22.315             7.138            RioGallegos           223.063
       366   03 Jun 2027 20:36:14.748   03 Jun 2027 20:38:54.470           159.722                Norilsk          4991.313
       367   03 Jun 2027 20:39:54.419   03 Jun 2027 20:40:12.554            18.135                Norilsk           566.719
       368   03 Jun 2027 20:40:28.562   03 Jun 2027 20:41:29.487            60.925                Irkutsk          1903.906
       369   03 Jun 2027 20:42:45.630   03 Jun 2027 20:43:22.731            37.101                Irkutsk          1159.406
       370   03 Jun 2027 20:43:34.406   03 Jun 2027 20:46:24.205           169.799                Novosib          5306.219
       371   03 Jun 2027 20:55:41.321   03 Jun 2027 20:56:45.394            64.073                Sumatra          2002.281
       372   03 Jun 2027 21:04:43.536   03 Jun 2027 21:06:18.151            94.615                Sumatra          2956.719
       373   03 Jun 2027 22:15:26.782   03 Jun 2027 22:15:30.507             3.725               Magadan2           116.406
       374   03 Jun 2027 22:15:32.954   03 Jun 2027 22:15:36.579             3.625                Norilsk           113.281
       375   03 Jun 2027 22:15:47.243   03 Jun 2027 22:15:56.992             9.749                Norilsk           304.656
       376   03 Jun 2027 22:16:02.199   03 Jun 2027 22:16:38.884            36.685                Irkutsk          1146.406
       377   03 Jun 2027 22:16:53.852   03 Jun 2027 22:17:01.945             8.093                Irkutsk           252.906
       378   03 Jun 2027 22:17:45.922   03 Jun 2027 22:17:59.992            14.070                Novosib           439.688
       379   03 Jun 2027 22:18:11.123   03 Jun 2027 22:18:26.594            15.471                Novosib           483.469
       380   03 Jun 2027 22:19:48.509   03 Jun 2027 22:21:53.599           125.090                Novosib          3909.063
       381   03 Jun 2027 22:24:07.594   03 Jun 2027 22:27:28.987           201.393                  Delhi          6293.531
       382   03 Jun 2027 23:48:10.082   03 Jun 2027 23:48:13.449             3.367                Norilsk           105.219
       383   03 Jun 2027 23:48:21.667   03 Jun 2027 23:48:50.152            28.485               Magadan1           890.156
       384   03 Jun 2027 23:48:50.152   03 Jun 2027 23:50:15.944            85.792               Magadan2          2681.000
       385   03 Jun 2027 23:50:34.639   03 Jun 2027 23:53:02.043           147.404              Murmansk1          4606.375
       386   03 Jun 2027 23:54:15.607   03 Jun 2027 23:54:29.806            14.199              Murmansk1           443.719
       387   03 Jun 2027 23:55:40.590   03 Jun 2027 23:56:26.895            46.305                 Moscow          1447.031
       388   03 Jun 2027 23:57:44.960   03 Jun 2027 23:58:41.224            56.264                 Moscow          1758.250
       389   04 Jun 2027 00:00:35.241   04 Jun 2027 00:01:35.537            60.296                 Moscow          1884.250
       390   04 Jun 2027 01:15:47.792   04 Jun 2027 01:15:57.633             9.841                Anadyr1           307.531
       391   04 Jun 2027 01:17:38.744   04 Jun 2027 01:18:08.517            29.773                Anadyr1           930.406
       392   04 Jun 2027 01:18:42.827   04 Jun 2027 01:18:48.219             5.392                Anadyr1           168.500
       393   04 Jun 2027 01:18:48.219   04 Jun 2027 01:18:56.361             8.142                Anadyr2           254.438
       394   04 Jun 2027 01:21:00.229   04 Jun 2027 01:22:52.668           112.439               Magadan2          3513.719
       395   04 Jun 2027 01:23:04.201   04 Jun 2027 01:23:20.134            15.933               Magadan2           497.906
       396   04 Jun 2027 01:24:48.992   04 Jun 2027 01:25:46.517            57.525               Magadan2          1797.656
       397   04 Jun 2027 01:26:18.014   04 Jun 2027 01:26:59.491            41.477              Murmansk2          1296.156
       398   04 Jun 2027 01:27:30.477   04 Jun 2027 01:27:53.008            22.531              Murmansk1           704.094
       399   04 Jun 2027 01:28:05.903   04 Jun 2027 01:28:27.002            21.099              Murmansk2           659.344
       400   04 Jun 2027 01:28:41.626   04 Jun 2027 01:28:46.828             5.202              Murmansk2           162.563
       401   04 Jun 2027 01:29:41.554   04 Jun 2027 01:30:17.876            36.322                 Moscow          1135.062
       402   04 Jun 2027 01:35:20.344   04 Jun 2027 01:35:32.100            11.756                 Moscow           367.375
       403   04 Jun 2027 01:36:24.385   04 Jun 2027 01:36:37.356            12.971                 Moscow           405.344
       404   04 Jun 2027 01:39:14.128   04 Jun 2027 01:39:17.870             3.742                 Moscow           116.938
       405   04 Jun 2027 01:40:54.626   04 Jun 2027 01:41:09.027            14.401                 Moscow           450.031
       406   04 Jun 2027 01:54:08.000   04 Jun 2027 01:54:51.954            43.954               CapeTown          1373.562
       407   04 Jun 2027 01:58:57.404   04 Jun 2027 02:00:36.179            98.775               CapeTown          3086.719
       408   04 Jun 2027 02:50:15.431   04 Jun 2027 02:51:35.522            80.091                Anadyr1          2502.844
       409   04 Jun 2027 02:52:48.777   04 Jun 2027 02:53:11.543            22.766               Magadan2           711.438
       410   04 Jun 2027 02:53:50.110   04 Jun 2027 02:54:20.970            30.860               Magadan2           964.375
       411   04 Jun 2027 02:58:01.955   04 Jun 2027 02:58:31.846            29.891               Magadan1           934.094
       412   04 Jun 2027 02:59:21.290   04 Jun 2027 02:59:34.283            12.993                Norilsk           406.031
       413   04 Jun 2027 03:10:35.143   04 Jun 2027 03:10:40.915             5.772                 Moscow           180.375
       414   04 Jun 2027 03:11:02.613   04 Jun 2027 03:13:18.665           136.052              Murmansk1          4251.625
       415   04 Jun 2027 03:13:18.665   04 Jun 2027 03:13:30.441            11.776              Murmansk2           368.000
       416   04 Jun 2027 03:30:00.773   04 Jun 2027 03:31:12.043            71.270               CapeTown          2227.187
       417   04 Jun 2027 04:26:13.753   04 Jun 2027 04:26:58.263            44.510               Magadan1          1390.937
       418   04 Jun 2027 04:26:58.263   04 Jun 2027 04:27:18.827            20.564               Magadan2           642.625
       419   04 Jun 2027 04:27:28.631   04 Jun 2027 04:27:56.380            27.749                Anadyr1           867.156
       420   04 Jun 2027 04:28:15.947   04 Jun 2027 04:29:13.881            57.934                Anadyr2          1810.437
       421   04 Jun 2027 04:32:36.641   04 Jun 2027 04:33:43.807            67.166                Anadyr2          2098.937
       422   04 Jun 2027 04:33:49.158   04 Jun 2027 04:35:41.328           112.170               Magadan2          3505.312
       423   04 Jun 2027 04:35:41.328   04 Jun 2027 04:35:45.907             4.579               Magadan1           143.094
       424   04 Jun 2027 04:35:55.893   04 Jun 2027 04:36:35.017            39.124               Magadan2          1222.625
       425   04 Jun 2027 06:10:37.113   04 Jun 2027 06:11:16.041            38.928                Anadyr1          1216.500
       426   04 Jun 2027 06:11:21.393   04 Jun 2027 06:12:35.342            73.949                Anadyr2          2310.906
       427   04 Jun 2027 06:12:46.159   04 Jun 2027 06:13:09.513            23.354               Magadan1           729.812
       428   04 Jun 2027 07:43:11.231   04 Jun 2027 07:43:30.188            18.957               Magadan1           592.406
       429   04 Jun 2027 07:46:14.699   04 Jun 2027 07:46:58.624            43.925               Magadan1          1372.656
       430   04 Jun 2027 07:47:06.629   04 Jun 2027 07:47:26.168            19.539               Magadan2           610.594
       431   04 Jun 2027 07:47:36.186   04 Jun 2027 07:47:37.964             1.778                Irkutsk            55.562
       432   04 Jun 2027 07:48:19.913   04 Jun 2027 07:48:22.542             2.629                Irkutsk            82.156
       433   04 Jun 2027 07:48:26.210   04 Jun 2027 07:48:32.135             5.925                Norilsk           185.156
       434   04 Jun 2027 07:48:48.150   04 Jun 2027 07:49:19.516            31.366                Novosib           980.187
       435   04 Jun 2027 07:49:32.572   04 Jun 2027 07:49:56.830            24.258              Murmansk1           758.062
       436   04 Jun 2027 07:50:05.218   04 Jun 2027 07:50:18.454            13.236                Irkutsk           413.625
       437   04 Jun 2027 07:50:19.020   04 Jun 2027 07:50:56.319            37.299              Murmansk1          1165.594
       438   04 Jun 2027 08:25:01.490   04 Jun 2027 08:25:33.332            31.842            RioGallegos           995.063
       439   04 Jun 2027 08:26:29.652   04 Jun 2027 08:26:40.113            10.461            RioGallegos           326.906
       440   04 Jun 2027 09:00:10.151   04 Jun 2027 09:02:23.825           133.674                Sumatra          4177.313
       441   04 Jun 2027 09:23:21.277   04 Jun 2027 09:23:25.186             3.909                Irkutsk           122.156
       442   04 Jun 2027 09:23:33.374   04 Jun 2027 09:24:01.754            28.380                Norilsk           886.875
       443   04 Jun 2027 09:24:05.029   04 Jun 2027 09:24:21.024            15.995                Irkutsk           499.844
       444   04 Jun 2027 09:24:26.018   04 Jun 2027 09:24:48.097            22.079                Irkutsk           689.969
       445   04 Jun 2027 09:24:53.089   04 Jun 2027 09:25:05.305            12.216                Novosib           381.750
       446   04 Jun 2027 09:25:14.277   04 Jun 2027 09:25:56.072            41.795              Murmansk1          1306.094
       447   04 Jun 2027 09:26:10.764   04 Jun 2027 09:26:11.640             0.876                Irkutsk            27.375
       448   04 Jun 2027 10:03:27.604   04 Jun 2027 10:04:04.683            37.079            RioGallegos          1158.719
       449   04 Jun 2027 10:05:54.112   04 Jun 2027 10:06:11.817            17.705            RioGallegos           553.281
       450   04 Jun 2027 10:08:07.914   04 Jun 2027 10:08:49.014            41.100            RioGallegos          1284.375
       451   04 Jun 2027 10:37:45.545   04 Jun 2027 10:37:47.779             2.234                Sumatra            69.813
       452   04 Jun 2027 10:40:43.778   04 Jun 2027 10:42:19.698            95.920                Sumatra          2997.500
       453   04 Jun 2027 10:59:16.699   04 Jun 2027 10:59:31.061            14.362                Norilsk           448.813
       454   04 Jun 2027 10:59:42.513   04 Jun 2027 10:59:52.743            10.230                Novosib           319.688
       455   04 Jun 2027 10:59:53.899   04 Jun 2027 11:00:16.355            22.456                Norilsk           701.750
       456   04 Jun 2027 11:00:20.959   04 Jun 2027 11:00:43.473            22.514                Norilsk           703.562
       457   04 Jun 2027 11:01:12.034   04 Jun 2027 11:01:20.218             8.184                Novosib           255.750
       458   04 Jun 2027 11:01:27.632   04 Jun 2027 11:01:38.378            10.746                Novosib           335.813
       459   04 Jun 2027 11:01:42.529   04 Jun 2027 11:01:56.619            14.090                Norilsk           440.313
       460   04 Jun 2027 12:23:29.262   04 Jun 2027 12:24:46.540            77.278                  Delhi          2414.938
       461   04 Jun 2027 12:27:02.371   04 Jun 2027 12:27:25.246            22.875                  Delhi           714.844
       462   04 Jun 2027 12:31:57.990   04 Jun 2027 12:32:00.524             2.534              Murmansk1            79.187
       463   04 Jun 2027 12:32:07.329   04 Jun 2027 12:33:14.904            67.575              Murmansk2          2111.719
       464   04 Jun 2027 12:33:57.273   04 Jun 2027 12:35:36.718            99.445                Novosib          3107.656
       465   04 Jun 2027 12:35:49.318   04 Jun 2027 12:36:33.806            44.488                Norilsk          1390.250
       466   04 Jun 2027 13:44:28.577   04 Jun 2027 13:46:54.810           146.233               CapeTown          4569.781
       467   04 Jun 2027 13:49:06.206   04 Jun 2027 13:50:18.338            72.132               CapeTown          2254.125
       468   04 Jun 2027 14:08:32.505   04 Jun 2027 14:11:16.752           164.247              Murmansk1          5132.719
       469   04 Jun 2027 14:23:22.850   04 Jun 2027 14:25:22.231           119.381                Anadyr1          3730.656
       470   04 Jun 2027 14:25:43.310   04 Jun 2027 14:27:05.543            82.233                Anadyr2          2569.781
       471   04 Jun 2027 14:28:42.640   04 Jun 2027 14:29:33.465            50.825                Anadyr2          1588.281
       472   04 Jun 2027 15:47:11.143   04 Jun 2027 15:48:08.890            57.747              Murmansk2          1804.594
       473   04 Jun 2027 15:48:18.911   04 Jun 2027 15:48:27.221             8.310              Murmansk2           259.688
       474   04 Jun 2027 15:49:24.775   04 Jun 2027 15:49:55.094            30.319              Murmansk1           947.469
       475   04 Jun 2027 15:54:52.303   04 Jun 2027 15:55:12.076            19.773              Murmansk2           617.906
       476   04 Jun 2027 15:58:37.763   04 Jun 2027 16:00:54.456           136.693                Anadyr1          4271.656
       477   04 Jun 2027 16:03:09.386   04 Jun 2027 16:03:44.469            35.083               Magadan1          1096.344
       478   04 Jun 2027 16:03:55.867   04 Jun 2027 16:07:02.365           186.498               Magadan2          5828.062
       479   04 Jun 2027 17:34:29.862   04 Jun 2027 17:37:07.553           157.691                Anadyr2          4927.844
       480   04 Jun 2027 17:37:18.909   04 Jun 2027 17:38:18.717            59.808               Magadan2          1869.000
       481   04 Jun 2027 17:38:43.820   04 Jun 2027 17:38:52.132             8.312               Magadan2           259.750
       482   04 Jun 2027 17:41:43.337   04 Jun 2027 17:42:44.997            61.660               Magadan1          1926.875
