uniorb/output/strategy_4/Drop/Drop_KinoSat_111207.txt

KinoSat_111207
-------------------------
    Access    *     Start Time (UTCG)     *     Stop Time (UTCG)  *   Duration (s)        *       Station  *  Data (Mbytes)
         1   01 Jun 2027 03:13:55.010   01 Jun 2027 03:14:10.127            15.117              Murmansk1           472.406
         2   01 Jun 2027 03:14:18.940   01 Jun 2027 03:15:20.513            61.573                Norilsk          1924.156
         3   01 Jun 2027 03:15:21.896   01 Jun 2027 03:15:46.826            24.930                Novosib           779.063
         4   01 Jun 2027 03:15:56.727   01 Jun 2027 03:17:31.578            94.851              Murmansk1          2964.094
         5   01 Jun 2027 03:17:39.148   01 Jun 2027 03:18:00.200            21.052              Murmansk1           657.875
         6   01 Jun 2027 03:33:29.735   01 Jun 2027 03:34:25.529            55.794               CapeTown          1743.563
         7   01 Jun 2027 03:35:28.148   01 Jun 2027 03:36:16.379            48.231               CapeTown          1507.219
         8   01 Jun 2027 04:37:01.722   01 Jun 2027 04:37:57.811            56.089               Magadan1          1752.781
         9   01 Jun 2027 04:37:58.174   01 Jun 2027 04:38:39.359            41.185                Anadyr2          1287.031
        10   01 Jun 2027 04:39:22.195   01 Jun 2027 04:39:52.917            30.722                Anadyr2           960.063
        11   01 Jun 2027 06:14:16.271   01 Jun 2027 06:15:39.793            83.522                Anadyr1          2610.063
        12   01 Jun 2027 06:16:07.617   01 Jun 2027 06:17:23.410            75.793                Anadyr1          2368.531
        13   01 Jun 2027 06:17:48.633   01 Jun 2027 06:18:40.806            52.173               Magadan1          1630.406
        14   01 Jun 2027 06:18:45.797   01 Jun 2027 06:18:47.277             1.480               Magadan2            46.250
        15   01 Jun 2027 07:47:50.914   01 Jun 2027 07:48:16.008            25.094               Magadan2           784.187
        16   01 Jun 2027 07:48:24.004   01 Jun 2027 07:51:52.422           208.418               Magadan2          6513.063
        17   01 Jun 2027 07:51:58.036   01 Jun 2027 07:53:24.212            86.176               Magadan1          2693.000
        18   01 Jun 2027 07:53:45.997   01 Jun 2027 07:54:27.233            41.236               Magadan1          1288.625
        19   01 Jun 2027 07:54:33.379   01 Jun 2027 07:55:03.036            29.657                Novosib           926.781
        20   01 Jun 2027 08:29:27.880   01 Jun 2027 08:29:59.946            32.066            RioGallegos          1002.062
        21   01 Jun 2027 08:30:36.347   01 Jun 2027 08:30:58.762            22.415            RioGallegos           700.469
        22   01 Jun 2027 09:06:18.694   01 Jun 2027 09:08:38.591           139.897                Sumatra          4371.781
        23   01 Jun 2027 09:25:34.290   01 Jun 2027 09:27:11.965            97.675               Magadan1          3052.344
        24   01 Jun 2027 09:27:52.892   01 Jun 2027 09:28:38.941            46.049                Novosib          1439.031
        25   01 Jun 2027 09:29:22.961   01 Jun 2027 09:31:02.862            99.901                Norilsk          3121.906
        26   01 Jun 2027 09:31:25.306   01 Jun 2027 09:33:30.008           124.702              Murmansk2          3896.937
        27   01 Jun 2027 09:36:42.672   01 Jun 2027 09:37:07.766            25.094              Murmansk2           784.187
        28   01 Jun 2027 10:05:42.930   01 Jun 2027 10:07:08.443            85.513            RioGallegos          2672.281
        29   01 Jun 2027 10:08:32.560   01 Jun 2027 10:09:31.187            58.627            RioGallegos          1832.094
        30   01 Jun 2027 10:40:07.399   01 Jun 2027 10:42:17.862           130.463                Sumatra          4076.969
        31   01 Jun 2027 10:49:14.226   01 Jun 2027 10:49:38.135            23.909                  Delhi           747.156
        32   01 Jun 2027 10:50:10.018   01 Jun 2027 10:50:28.331            18.313                  Delhi           572.281
        33   01 Jun 2027 11:02:28.892   01 Jun 2027 11:02:50.122            21.230                Irkutsk           663.437
        34   01 Jun 2027 11:03:28.736   01 Jun 2027 11:07:45.814           257.078              Murmansk1          8033.687
        35   01 Jun 2027 11:07:53.941   01 Jun 2027 11:08:29.984            36.043                Norilsk          1126.344
        36   01 Jun 2027 12:24:43.810   01 Jun 2027 12:26:04.453            80.643                  Delhi          2520.094
        37   01 Jun 2027 12:26:51.128   01 Jun 2027 12:27:02.153            11.025                  Delhi           344.531
        38   01 Jun 2027 12:29:26.833   01 Jun 2027 12:29:51.508            24.675                  Delhi           771.094
        39   01 Jun 2027 12:32:53.846   01 Jun 2027 12:37:58.707           304.861                Novosib          9526.906
        40   01 Jun 2027 12:37:59.596   01 Jun 2027 12:38:17.367            17.771              Murmansk1           555.344
        41   01 Jun 2027 12:39:06.239   01 Jun 2027 12:41:36.706           150.467                Norilsk          4702.094
        42   01 Jun 2027 14:08:37.328   01 Jun 2027 14:11:54.134           196.806                 Moscow          6150.188
        43   01 Jun 2027 14:12:08.200   01 Jun 2027 14:15:24.074           195.874              Murmansk2          6121.062
        44   01 Jun 2027 14:17:38.436   01 Jun 2027 14:17:53.751            15.315                Norilsk           478.594
        45   01 Jun 2027 14:18:36.386   01 Jun 2027 14:19:19.645            43.259                Norilsk          1351.844
        46   01 Jun 2027 14:19:54.481   01 Jun 2027 14:21:36.733           102.252                Norilsk          3195.375
        47   01 Jun 2027 15:22:37.299   01 Jun 2027 15:23:29.442            52.143               CapeTown          1629.469
        48   01 Jun 2027 15:46:52.053   01 Jun 2027 15:48:12.915            80.862                 Moscow          2526.937
        49   01 Jun 2027 15:49:38.609   01 Jun 2027 15:51:21.817           103.208              Murmansk1          3225.250
        50   01 Jun 2027 15:54:08.668   01 Jun 2027 15:54:57.383            48.715              Murmansk2          1522.344
        51   01 Jun 2027 16:02:57.329   01 Jun 2027 16:05:28.663           151.334                Anadyr2          4729.187
        52   01 Jun 2027 16:58:18.777   01 Jun 2027 16:59:42.577            83.800               CapeTown          2618.750
        53   01 Jun 2027 17:29:38.787   01 Jun 2027 17:35:06.282           327.495              Murmansk1         10234.219
        54   01 Jun 2027 17:41:37.953   01 Jun 2027 17:43:55.732           137.779               Magadan1          4305.594
        55   01 Jun 2027 19:14:34.573   01 Jun 2027 19:18:19.039           224.466                Anadyr1          7014.562
        56   01 Jun 2027 19:18:30.939   01 Jun 2027 19:21:58.187           207.248               Magadan1          6476.500
        57   01 Jun 2027 19:23:59.567   01 Jun 2027 19:24:25.420            25.853               Magadan1           807.906
        58   01 Jun 2027 20:10:19.156   01 Jun 2027 20:13:06.943           167.787            RioGallegos          5243.344
        59   01 Jun 2027 20:50:22.101   01 Jun 2027 20:52:31.415           129.314                Anadyr1          4041.062
        60   01 Jun 2027 20:52:48.825   01 Jun 2027 20:55:06.443           137.618               Magadan2          4300.562
        61   01 Jun 2027 20:55:23.572   01 Jun 2027 20:55:57.089            33.517                Norilsk          1047.406
        62   01 Jun 2027 20:56:04.786   01 Jun 2027 20:56:08.065             3.279                Norilsk           102.469
        63   01 Jun 2027 20:57:16.489   01 Jun 2027 20:58:27.749            71.260                Irkutsk          2226.875
        64   01 Jun 2027 21:00:33.100   01 Jun 2027 21:00:34.292             1.192                Irkutsk            37.250
        65   01 Jun 2027 21:01:32.401   01 Jun 2027 21:01:56.574            24.173                Irkutsk           755.406
        66   01 Jun 2027 21:02:18.060   01 Jun 2027 21:02:29.365            11.305                Irkutsk           353.281
        67   01 Jun 2027 21:03:39.175   01 Jun 2027 21:03:52.142            12.967                Irkutsk           405.219
        68   01 Jun 2027 21:12:16.836   01 Jun 2027 21:13:09.989            53.153                Sumatra          1661.031
        69   01 Jun 2027 21:14:28.175   01 Jun 2027 21:16:35.679           127.504                Sumatra          3984.500
        70   01 Jun 2027 22:26:06.775   01 Jun 2027 22:26:22.236            15.461                Anadyr1           483.156
        71   01 Jun 2027 22:27:15.512   01 Jun 2027 22:27:59.534            44.022                Anadyr1          1375.688
        72   01 Jun 2027 22:28:55.520   01 Jun 2027 22:30:33.696            98.176               Magadan1          3068.000
        73   01 Jun 2027 22:30:57.404   01 Jun 2027 22:31:01.263             3.859               Magadan2           120.594
        74   01 Jun 2027 22:32:12.660   01 Jun 2027 22:33:26.925            74.265                Irkutsk          2320.781
        75   01 Jun 2027 22:33:42.167   01 Jun 2027 22:34:20.368            38.201                Novosib          1193.781
        76   01 Jun 2027 22:36:04.995   01 Jun 2027 22:36:09.081             4.086                Novosib           127.687
        77   01 Jun 2027 22:38:56.281   01 Jun 2027 22:38:56.647             0.366                Novosib            11.438
        78   01 Jun 2027 22:42:08.378   01 Jun 2027 22:44:21.684           133.306                  Delhi          4165.812
        79   01 Jun 2027 23:30:58.835   01 Jun 2027 23:31:22.576            23.741            RioGallegos           741.906
        80   02 Jun 2027 00:00:13.152   02 Jun 2027 00:01:50.787            97.635                Anadyr2          3051.094
        81   02 Jun 2027 00:04:19.385   02 Jun 2027 00:04:36.476            17.091                Norilsk           534.094
        82   02 Jun 2027 00:04:51.648   02 Jun 2027 00:06:20.672            89.024               Magadan2          2782.000
        83   02 Jun 2027 00:06:36.611   02 Jun 2027 00:06:47.619            11.008               Magadan2           344.000
        84   02 Jun 2027 00:07:07.175   02 Jun 2027 00:08:43.465            96.290              Murmansk1          3009.062
        85   02 Jun 2027 00:09:18.262   02 Jun 2027 00:11:23.965           125.703                Novosib          3928.219
        86   02 Jun 2027 00:18:32.928   02 Jun 2027 00:18:38.967             6.039                  Delhi           188.719
        87   02 Jun 2027 00:19:10.114   02 Jun 2027 00:19:25.926            15.812                  Delhi           494.125
        88   02 Jun 2027 00:21:19.259   02 Jun 2027 00:22:03.494            44.235                  Delhi          1382.344
        89   02 Jun 2027 00:24:20.033   02 Jun 2027 00:24:20.952             0.919                  Delhi            28.719
        90   02 Jun 2027 00:25:01.837   02 Jun 2027 00:27:15.929           134.092                  Delhi          4190.375
        91   02 Jun 2027 01:32:52.755   02 Jun 2027 01:33:39.232            46.477                Anadyr1          1452.406
        92   02 Jun 2027 01:33:56.197   02 Jun 2027 01:34:33.010            36.813                Anadyr1          1150.406
        93   02 Jun 2027 01:38:42.675   02 Jun 2027 01:38:50.753             8.078                Anadyr1           252.438
        94   02 Jun 2027 01:39:00.727   02 Jun 2027 01:40:54.487           113.760               Magadan1          3555.000
        95   02 Jun 2027 01:42:27.673   02 Jun 2027 01:42:55.720            28.047                Norilsk           876.469
        96   02 Jun 2027 01:43:05.593   02 Jun 2027 01:43:19.820            14.227              Murmansk2           444.594
        97   02 Jun 2027 01:43:36.132   02 Jun 2027 01:44:08.416            32.284              Murmansk1          1008.875
        98   02 Jun 2027 01:44:57.252   02 Jun 2027 01:45:00.237             2.985                Novosib            93.281
        99   02 Jun 2027 01:45:37.885   02 Jun 2027 01:45:51.313            13.428                Novosib           419.625
       100   02 Jun 2027 01:45:58.090   02 Jun 2027 01:46:29.991            31.901                Irkutsk           996.906
       101   02 Jun 2027 01:46:54.599   02 Jun 2027 01:47:13.741            19.142                 Moscow           598.188
       102   02 Jun 2027 01:47:51.328   02 Jun 2027 01:49:29.181            97.853                 Moscow          3057.906
       103   02 Jun 2027 01:58:22.882   02 Jun 2027 01:58:26.842             3.960                  Delhi           123.750
       104   02 Jun 2027 01:58:43.568   02 Jun 2027 01:59:49.593            66.025                  Delhi          2063.281
       105   02 Jun 2027 03:09:18.201   02 Jun 2027 03:09:19.485             1.284                Anadyr1            40.125
       106   02 Jun 2027 03:09:39.908   02 Jun 2027 03:09:56.325            16.417                Anadyr2           513.031
       107   02 Jun 2027 03:10:26.729   02 Jun 2027 03:11:04.252            37.523               Magadan2          1172.594
       108   02 Jun 2027 03:15:41.195   02 Jun 2027 03:15:48.804             7.609               Magadan1           237.781
       109   02 Jun 2027 03:15:55.142   02 Jun 2027 03:16:11.104            15.962               Magadan1           498.813
       110   02 Jun 2027 03:26:13.077   02 Jun 2027 03:26:16.900             3.823              Murmansk2           119.469
       111   02 Jun 2027 03:26:24.554   02 Jun 2027 03:26:54.756            30.202              Murmansk2           943.812
       112   02 Jun 2027 03:27:06.213   02 Jun 2027 03:28:35.753            89.540              Murmansk2          2798.125
       113   02 Jun 2027 03:28:35.753   02 Jun 2027 03:31:13.005           157.252              Murmansk1          4914.125
       114   02 Jun 2027 04:49:04.346   02 Jun 2027 04:53:17.033           252.687               Magadan1          7896.469
       115   02 Jun 2027 04:53:17.033   02 Jun 2027 04:53:41.781            24.748               Magadan2           773.375
       116   02 Jun 2027 04:53:45.871   02 Jun 2027 04:55:11.070            85.199                Anadyr1          2662.469
       117   02 Jun 2027 08:01:51.499   02 Jun 2027 08:02:47.427            55.928               Magadan2          1747.750
       118   02 Jun 2027 08:03:11.961   02 Jun 2027 08:05:15.450           123.489                Irkutsk          3859.031
       119   02 Jun 2027 08:05:17.325   02 Jun 2027 08:06:22.885            65.560               Magadan2          2048.750
       120   02 Jun 2027 09:38:22.094   02 Jun 2027 09:38:42.527            20.433                Irkutsk           638.531
       121   02 Jun 2027 09:38:58.142   02 Jun 2027 09:39:02.540             4.398                Novosib           137.438
       122   02 Jun 2027 09:39:13.435   02 Jun 2027 09:39:38.365            24.930                Irkutsk           779.063
       123   02 Jun 2027 09:39:57.463   02 Jun 2027 09:40:03.288             5.825                Norilsk           182.031
       124   02 Jun 2027 09:40:08.191   02 Jun 2027 09:40:38.349            30.158                Novosib           942.438
       125   02 Jun 2027 09:40:47.607   02 Jun 2027 09:41:36.729            49.122                Norilsk          1535.063
       126   02 Jun 2027 09:41:42.126   02 Jun 2027 09:42:12.719            30.593                Novosib           956.031
       127   02 Jun 2027 09:42:16.209   02 Jun 2027 09:42:30.949            14.740                Irkutsk           460.625
       128   02 Jun 2027 10:18:03.844   02 Jun 2027 10:18:04.061             0.217            RioGallegos             6.781
       129   02 Jun 2027 10:18:42.645   02 Jun 2027 10:19:01.504            18.859            RioGallegos           589.344
       130   02 Jun 2027 10:19:13.825   02 Jun 2027 10:19:23.171             9.346            RioGallegos           292.062
       131   02 Jun 2027 10:20:38.685   02 Jun 2027 10:21:23.866            45.181            RioGallegos          1411.906
       132   02 Jun 2027 10:52:21.529   02 Jun 2027 10:53:31.893            70.364                Sumatra          2198.875
       133   02 Jun 2027 11:01:38.295   02 Jun 2027 11:02:57.445            79.150                  Delhi          2473.438
       134   02 Jun 2027 11:13:32.972   02 Jun 2027 11:13:35.156             2.184                Irkutsk            68.250
       135   02 Jun 2027 11:14:55.407   02 Jun 2027 11:15:21.138            25.731                Irkutsk           804.094
       136   02 Jun 2027 11:15:26.979   02 Jun 2027 11:15:47.719            20.740                Novosib           648.125
       137   02 Jun 2027 11:15:51.686   02 Jun 2027 11:16:01.996            10.310                Norilsk           322.187
       138   02 Jun 2027 11:16:04.874   02 Jun 2027 11:16:12.284             7.410                Novosib           231.562
       139   02 Jun 2027 11:16:13.013   02 Jun 2027 11:16:14.138             1.125                Norilsk            35.156
       140   02 Jun 2027 11:16:22.450   02 Jun 2027 11:16:42.653            20.203                Irkutsk           631.344
       141   02 Jun 2027 11:16:47.279   02 Jun 2027 11:17:06.586            19.307                Novosib           603.344
       142   02 Jun 2027 11:17:16.736   02 Jun 2027 11:17:38.372            21.636                Novosib           676.125
       143   02 Jun 2027 12:37:09.361   02 Jun 2027 12:40:54.710           225.349                  Delhi          7042.156
       144   02 Jun 2027 12:45:29.276   02 Jun 2027 12:45:47.439            18.163                Novosib           567.594
       145   02 Jun 2027 12:46:42.829   02 Jun 2027 12:47:13.003            30.174                Novosib           942.938
       146   02 Jun 2027 12:48:19.278   02 Jun 2027 12:48:43.514            24.236              Murmansk2           757.375
       147   02 Jun 2027 12:49:15.609   02 Jun 2027 12:49:51.441            35.832                Norilsk          1119.750
       148   02 Jun 2027 12:51:03.902   02 Jun 2027 12:51:33.061            29.159                Norilsk           911.219
       149   02 Jun 2027 14:20:43.503   02 Jun 2027 14:23:54.470           190.967                 Moscow          5967.719
       150   02 Jun 2027 14:24:15.052   02 Jun 2027 14:27:25.911           190.859              Murmansk1          5964.344
       151   02 Jun 2027 14:30:23.853   02 Jun 2027 14:30:50.592            26.739                Norilsk           835.594
       152   02 Jun 2027 14:31:14.973   02 Jun 2027 14:31:56.707            41.734                Norilsk          1304.187
       153   02 Jun 2027 14:33:42.857   02 Jun 2027 14:34:31.923            49.066                Norilsk          1533.313
       154   02 Jun 2027 14:40:44.444   02 Jun 2027 14:41:43.897            59.453                Anadyr2          1857.906
       155   02 Jun 2027 14:42:11.589   02 Jun 2027 14:43:01.161            49.572                Anadyr2          1549.125
       156   02 Jun 2027 15:36:32.486   02 Jun 2027 15:36:52.532            20.046               CapeTown           626.437
       157   02 Jun 2027 16:00:14.968   02 Jun 2027 16:00:49.172            34.204                 Moscow          1068.875
       158   02 Jun 2027 16:02:01.158   02 Jun 2027 16:02:08.754             7.596              Murmansk2           237.375
       159   02 Jun 2027 16:03:22.835   02 Jun 2027 16:05:11.097           108.262              Murmansk1          3383.187
       160   02 Jun 2027 16:14:54.907   02 Jun 2027 16:17:19.145           144.238                Anadyr2          4507.438
       161   02 Jun 2027 17:10:32.164   02 Jun 2027 17:11:18.963            46.799               CapeTown          1462.469
       162   02 Jun 2027 17:19:41.104   02 Jun 2027 17:20:20.207            39.103               CapeTown          1221.969
       163   02 Jun 2027 17:42:27.849   02 Jun 2027 17:45:30.381           182.532              Murmansk1          5704.125
       164   02 Jun 2027 17:50:40.078   02 Jun 2027 17:51:22.442            42.364                Anadyr1          1323.875
       165   02 Jun 2027 17:52:07.825   02 Jun 2027 17:52:44.722            36.897                Anadyr1          1153.031
       166   02 Jun 2027 17:53:28.927   02 Jun 2027 17:55:13.508           104.581               Magadan2          3268.156
       167   02 Jun 2027 17:55:25.682   02 Jun 2027 17:56:37.263            71.581               Magadan2          2236.906
       168   02 Jun 2027 19:26:35.845   02 Jun 2027 19:29:56.115           200.270                Anadyr1          6258.437
       169   02 Jun 2027 19:30:13.431   02 Jun 2027 19:32:04.227           110.796               Magadan2          3462.375
       170   02 Jun 2027 19:32:04.227   02 Jun 2027 19:32:33.754            29.527               Magadan1           922.719
       171   02 Jun 2027 20:21:48.846   02 Jun 2027 20:24:53.396           184.550            RioGallegos          5767.187
       172   02 Jun 2027 20:28:10.612   02 Jun 2027 20:28:35.191            24.579            RioGallegos           768.094
       173   02 Jun 2027 21:02:20.757   02 Jun 2027 21:02:55.274            34.517                Anadyr2          1078.656
       174   02 Jun 2027 21:04:29.482   02 Jun 2027 21:06:50.930           141.448                Norilsk          4420.250
       175   02 Jun 2027 21:06:58.425   02 Jun 2027 21:08:07.736            69.311                Norilsk          2165.969
       176   02 Jun 2027 21:09:02.090   02 Jun 2027 21:11:54.423           172.333                Irkutsk          5385.406
       177   02 Jun 2027 21:23:17.797   02 Jun 2027 21:24:27.378            69.581                Sumatra          2174.406
       178   02 Jun 2027 21:28:37.551   02 Jun 2027 21:28:53.285            15.734                Sumatra           491.687
       179   02 Jun 2027 21:29:38.849   02 Jun 2027 21:29:51.272            12.423                Sumatra           388.219
       180   02 Jun 2027 21:30:07.751   02 Jun 2027 21:30:14.591             6.840                Sumatra           213.750
       181   02 Jun 2027 22:40:25.117   02 Jun 2027 22:40:54.397            29.280                Norilsk           915.000
       182   02 Jun 2027 22:40:58.246   02 Jun 2027 22:41:49.599            51.353               Magadan2          1604.781
       183   02 Jun 2027 22:42:13.155   02 Jun 2027 22:42:26.733            13.578               Magadan1           424.313
       184   02 Jun 2027 22:42:36.399   02 Jun 2027 22:42:54.938            18.539               Magadan1           579.344
       185   02 Jun 2027 22:43:22.120   02 Jun 2027 22:44:00.821            38.701               Magadan1          1209.406
       186   02 Jun 2027 22:44:38.725   02 Jun 2027 22:47:56.415           197.690                Novosib          6177.812
       187   02 Jun 2027 22:54:29.901   02 Jun 2027 22:56:01.285            91.384                  Delhi          2855.750
       188   03 Jun 2027 00:11:17.921   03 Jun 2027 00:11:32.711            14.790                Anadyr2           462.188
       189   03 Jun 2027 00:12:03.977   03 Jun 2027 00:13:36.680            92.703                Anadyr2          2896.969
       190   03 Jun 2027 00:16:21.243   03 Jun 2027 00:16:38.257            17.014                Norilsk           531.688
       191   03 Jun 2027 00:16:49.410   03 Jun 2027 00:17:03.034            13.624               Magadan2           425.750
       192   03 Jun 2027 00:17:29.949   03 Jun 2027 00:17:48.374            18.425                Norilsk           575.781
       193   03 Jun 2027 00:17:52.796   03 Jun 2027 00:18:37.869            45.073               Magadan1          1408.531
       194   03 Jun 2027 00:18:50.102   03 Jun 2027 00:19:07.999            17.897               Magadan1           559.281
       195   03 Jun 2027 00:19:23.233   03 Jun 2027 00:20:43.746            80.513              Murmansk1          2516.031
       196   03 Jun 2027 00:21:08.875   03 Jun 2027 00:21:21.574            12.699                Novosib           396.844
       197   03 Jun 2027 00:21:49.138   03 Jun 2027 00:23:41.943           112.805              Murmansk2          3525.156
       198   03 Jun 2027 00:30:37.177   03 Jun 2027 00:31:37.260            60.083                  Delhi          1877.594
       199   03 Jun 2027 00:38:07.520   03 Jun 2027 00:39:14.607            67.087                  Delhi          2096.469
       200   03 Jun 2027 01:14:41.921   03 Jun 2027 01:14:57.418            15.497            RioGallegos           484.281
       201   03 Jun 2027 01:44:35.460   03 Jun 2027 01:44:59.296            23.836                Anadyr1           744.875
       202   03 Jun 2027 01:45:02.690   03 Jun 2027 01:45:40.019            37.329                Anadyr2          1166.531
       203   03 Jun 2027 01:45:54.615   03 Jun 2027 01:46:34.366            39.751                Anadyr2          1242.219
       204   03 Jun 2027 01:47:19.040   03 Jun 2027 01:47:27.778             8.738                Anadyr1           273.063
       205   03 Jun 2027 01:47:27.778   03 Jun 2027 01:47:36.591             8.813                Anadyr2           275.406
       206   03 Jun 2027 01:50:20.442   03 Jun 2027 01:51:27.265            66.823               Magadan1          2088.219
       207   03 Jun 2027 01:52:13.960   03 Jun 2027 01:52:38.949            24.989                Norilsk           780.906
       208   03 Jun 2027 01:52:55.255   03 Jun 2027 01:54:05.144            69.889               Magadan1          2184.031
       209   03 Jun 2027 01:54:29.761   03 Jun 2027 01:55:20.327            50.566              Murmansk2          1580.188
       210   03 Jun 2027 01:55:20.327   03 Jun 2027 01:55:42.679            22.352              Murmansk1           698.500
       211   03 Jun 2027 01:57:11.512   03 Jun 2027 01:57:35.631            24.119                Novosib           753.719
       212   03 Jun 2027 01:58:03.638   03 Jun 2027 01:58:57.312            53.674                Novosib          1677.312
       213   03 Jun 2027 02:07:27.374   03 Jun 2027 02:07:34.405             7.031                  Delhi           219.719
       214   03 Jun 2027 02:09:37.208   03 Jun 2027 02:09:45.670             8.462                  Delhi           264.437
       215   03 Jun 2027 02:23:16.615   03 Jun 2027 02:23:46.703            30.088               CapeTown           940.250
       216   03 Jun 2027 02:26:01.763   03 Jun 2027 02:26:48.976            47.213               CapeTown          1475.406
       217   03 Jun 2027 03:19:50.541   03 Jun 2027 03:20:03.649            13.108                Anadyr2           409.625
       218   03 Jun 2027 03:22:26.820   03 Jun 2027 03:23:45.662            78.842                Anadyr2          2463.812
       219   03 Jun 2027 03:40:35.988   03 Jun 2027 03:41:14.407            38.419              Murmansk1          1200.594
       220   03 Jun 2027 05:00:39.808   03 Jun 2027 05:02:59.107           139.299               Magadan2          4353.094
       221   03 Jun 2027 05:03:09.049   03 Jun 2027 05:04:58.468           109.419               Magadan2          3419.344
       222   03 Jun 2027 05:05:16.988   03 Jun 2027 05:07:12.220           115.232                Anadyr1          3601.000
       223   03 Jun 2027 06:38:10.818   03 Jun 2027 06:38:31.343            20.525               Magadan1           641.406
       224   03 Jun 2027 06:38:33.444   03 Jun 2027 06:38:39.140             5.696                Anadyr1           178.000
       225   03 Jun 2027 06:38:39.140   03 Jun 2027 06:39:13.548            34.408                Anadyr2          1075.250
       226   03 Jun 2027 06:39:35.151   03 Jun 2027 06:40:50.601            75.450               Magadan2          2357.813
       227   03 Jun 2027 08:12:14.420   03 Jun 2027 08:12:56.271            41.851               Magadan2          1307.844
       228   03 Jun 2027 08:13:19.358   03 Jun 2027 08:14:01.240            41.882               Magadan1          1308.813
       229   03 Jun 2027 08:14:44.797   03 Jun 2027 08:15:19.560            34.763               Magadan2          1086.344
       230   03 Jun 2027 08:15:49.492   03 Jun 2027 08:17:01.854            72.362               Magadan2          2261.313
       231   03 Jun 2027 08:17:25.197   03 Jun 2027 08:17:51.777            26.580                Norilsk           830.625
       232   03 Jun 2027 08:17:54.302   03 Jun 2027 08:18:21.496            27.194                Irkutsk           849.813
       233   03 Jun 2027 08:20:13.208   03 Jun 2027 08:20:29.275            16.067              Murmansk2           502.094
       234   03 Jun 2027 08:53:15.380   03 Jun 2027 08:54:22.860            67.480            RioGallegos          2108.750
       235   03 Jun 2027 09:29:03.293   03 Jun 2027 09:30:23.736            80.443                Sumatra          2513.844
       236   03 Jun 2027 09:35:08.432   03 Jun 2027 09:35:20.680            12.248                Sumatra           382.750
       237   03 Jun 2027 09:50:56.316   03 Jun 2027 09:51:30.286            33.970                Novosib          1061.562
       238   03 Jun 2027 09:51:47.901   03 Jun 2027 09:52:23.091            35.190                Irkutsk          1099.688
       239   03 Jun 2027 09:52:42.328   03 Jun 2027 09:53:26.072            43.744                Irkutsk          1367.000
       240   03 Jun 2027 09:53:33.525   03 Jun 2027 09:54:26.061            52.536                Irkutsk          1641.750
       241   03 Jun 2027 10:30:29.674   03 Jun 2027 10:31:22.786            53.112            RioGallegos          1659.750
       242   03 Jun 2027 11:05:01.364   03 Jun 2027 11:06:05.785            64.421                Sumatra          2013.156
       243   03 Jun 2027 11:26:59.897   03 Jun 2027 11:27:34.118            34.221                Irkutsk          1069.406
       244   03 Jun 2027 11:28:02.889   03 Jun 2027 11:28:12.988            10.099                Norilsk           315.594
       245   03 Jun 2027 11:28:30.873   03 Jun 2027 11:28:41.481            10.608                Irkutsk           331.500
       246   03 Jun 2027 11:28:56.621   03 Jun 2027 11:29:29.850            33.229                Novosib          1038.406
       247   03 Jun 2027 11:29:45.039   03 Jun 2027 11:29:58.802            13.763                Norilsk           430.094
       248   03 Jun 2027 11:30:08.354   03 Jun 2027 11:30:15.415             7.061                Novosib           220.656
       249   03 Jun 2027 12:49:44.042   03 Jun 2027 12:51:12.258            88.216                  Delhi          2756.750
       250   03 Jun 2027 12:52:40.118   03 Jun 2027 12:54:43.432           123.314                  Delhi          3853.562
       251   03 Jun 2027 13:00:08.357   03 Jun 2027 13:01:16.705            68.348                Novosib          2135.875
       252   03 Jun 2027 13:01:39.897   03 Jun 2027 13:01:54.122            14.225              Murmansk2           444.531
       253   03 Jun 2027 13:02:11.404   03 Jun 2027 13:02:11.659             0.255                Norilsk             7.969
       254   03 Jun 2027 13:02:28.703   03 Jun 2027 13:02:57.482            28.779                Novosib           899.344
       255   03 Jun 2027 13:05:35.552   03 Jun 2027 13:05:58.836            23.284                Norilsk           727.625
       256   03 Jun 2027 13:06:23.805   03 Jun 2027 13:06:49.553            25.748                Norilsk           804.625
       257   03 Jun 2027 14:32:52.829   03 Jun 2027 14:34:42.344           109.515                 Moscow          3422.344
       258   03 Jun 2027 14:35:54.038   03 Jun 2027 14:36:07.213            13.175                 Moscow           411.719
       259   03 Jun 2027 14:36:23.635   03 Jun 2027 14:40:07.144           223.509              Murmansk1          6984.656
       260   03 Jun 2027 14:43:38.670   03 Jun 2027 14:45:36.166           117.496                Norilsk          3671.750
       261   03 Jun 2027 14:52:10.377   03 Jun 2027 14:53:07.262            56.885                Anadyr2          1777.656
       262   03 Jun 2027 14:55:17.090   03 Jun 2027 14:57:03.175           106.085                Anadyr1          3315.156
       263   03 Jun 2027 16:14:26.075   03 Jun 2027 16:15:09.203            43.128              Murmansk1          1347.750
       264   03 Jun 2027 16:15:46.219   03 Jun 2027 16:17:04.096            77.877              Murmansk1          2433.656
       265   03 Jun 2027 16:26:53.346   03 Jun 2027 16:28:54.406           121.060                Anadyr1          3783.125
       266   03 Jun 2027 16:32:07.915   03 Jun 2027 16:32:47.896            39.981                Anadyr2          1249.406
       267   03 Jun 2027 17:23:01.899   03 Jun 2027 17:23:36.023            34.124               CapeTown          1066.375
       268   03 Jun 2027 17:26:04.184   03 Jun 2027 17:26:21.796            17.612               CapeTown           550.375
       269   03 Jun 2027 17:32:42.050   03 Jun 2027 17:33:04.427            22.377               CapeTown           699.281
       270   03 Jun 2027 17:55:24.565   03 Jun 2027 17:59:10.136           225.571              Murmansk2          7049.094
       271   03 Jun 2027 18:02:41.430   03 Jun 2027 18:03:25.846            44.416                Anadyr1          1388.000
       272   03 Jun 2027 18:04:00.767   03 Jun 2027 18:04:45.338            44.571                Anadyr2          1392.844
       273   03 Jun 2027 18:05:22.180   03 Jun 2027 18:06:54.705            92.525               Magadan1          2891.406
       274   03 Jun 2027 18:14:36.307   03 Jun 2027 18:14:47.593            11.286               Magadan2           352.687
       275   03 Jun 2027 19:38:36.959   03 Jun 2027 19:40:40.289           123.330                Anadyr1          3854.063
       276   03 Jun 2027 19:40:53.544   03 Jun 2027 19:44:56.674           243.130               Magadan2          7597.812
       277   03 Jun 2027 19:49:19.622   03 Jun 2027 19:49:49.621            29.999               Magadan1           937.469
       278   03 Jun 2027 19:53:40.634   03 Jun 2027 19:53:48.161             7.527               Magadan2           235.219
       279   03 Jun 2027 20:33:27.694   03 Jun 2027 20:36:19.189           171.495            RioGallegos          5359.219
       280   03 Jun 2027 20:37:40.372   03 Jun 2027 20:37:56.432            16.060            RioGallegos           501.875
       281   03 Jun 2027 20:38:36.795   03 Jun 2027 20:39:55.195            78.400            RioGallegos          2450.000
       282   03 Jun 2027 21:14:18.811   03 Jun 2027 21:14:26.344             7.533                Anadyr2           235.406
       283   03 Jun 2027 21:14:43.162   03 Jun 2027 21:15:03.431            20.269                Anadyr2           633.406
       284   03 Jun 2027 21:16:28.809   03 Jun 2027 21:17:18.641            49.832                Norilsk          1557.250
       285   03 Jun 2027 21:17:42.629   03 Jun 2027 21:18:32.745            50.116               Magadan2          1566.125
       286   03 Jun 2027 21:18:59.691   03 Jun 2027 21:19:22.218            22.527               Magadan2           703.969
       287   03 Jun 2027 21:19:58.431   03 Jun 2027 21:20:47.217            48.786                Norilsk          1524.562
       288   03 Jun 2027 21:20:51.317   03 Jun 2027 21:21:55.209            63.892                Irkutsk          1996.625
       289   03 Jun 2027 21:23:10.573   03 Jun 2027 21:23:54.469            43.896                Irkutsk          1371.750
       290   03 Jun 2027 21:34:51.008   03 Jun 2027 21:36:37.629           106.621                Sumatra          3331.906
       291   03 Jun 2027 21:45:44.249   03 Jun 2027 21:46:29.622            45.373                Sumatra          1417.906
       292   03 Jun 2027 22:51:48.964   03 Jun 2027 22:51:50.240             1.276                Anadyr2            39.875
       293   03 Jun 2027 22:51:55.002   03 Jun 2027 22:52:12.687            17.685                Anadyr2           552.656
       294   03 Jun 2027 22:52:22.912   03 Jun 2027 22:52:51.783            28.871                Norilsk           902.219
       295   03 Jun 2027 22:53:00.817   03 Jun 2027 22:53:21.815            20.998               Magadan2           656.188
       296   03 Jun 2027 22:53:43.766   03 Jun 2027 22:54:35.472            51.706                Norilsk          1615.812
       297   03 Jun 2027 22:54:57.505   03 Jun 2027 22:55:38.054            40.549                Norilsk          1267.156
       298   03 Jun 2027 22:56:14.491   03 Jun 2027 22:57:06.130            51.639                Irkutsk          1613.719
       299   03 Jun 2027 22:57:31.438   03 Jun 2027 22:58:01.778            30.340                Novosib           948.125
       300   03 Jun 2027 22:59:28.030   03 Jun 2027 23:01:15.693           107.663                Novosib          3364.469
       301   03 Jun 2027 23:04:46.825   03 Jun 2027 23:05:42.964            56.139                  Delhi          1754.344
       302   03 Jun 2027 23:05:51.896   03 Jun 2027 23:07:06.789            74.893                  Delhi          2340.406
       303   04 Jun 2027 00:22:59.606   04 Jun 2027 00:23:50.264            50.658                Anadyr2          1583.063
       304   04 Jun 2027 00:25:45.050   04 Jun 2027 00:25:59.625            14.575                Anadyr1           455.469
       305   04 Jun 2027 00:28:22.978   04 Jun 2027 00:28:40.242            17.264                Norilsk           539.500
       306   04 Jun 2027 00:28:45.174   04 Jun 2027 00:29:35.661            50.487               Magadan1          1577.719
       307   04 Jun 2027 00:29:45.785   04 Jun 2027 00:30:15.513            29.728                Norilsk           929.000
       308   04 Jun 2027 00:30:38.768   04 Jun 2027 00:30:52.698            13.930               Magadan2           435.313
       309   04 Jun 2027 00:31:24.819   04 Jun 2027 00:33:49.781           144.962              Murmansk2          4530.063
       310   04 Jun 2027 00:36:07.004   04 Jun 2027 00:36:35.627            28.623                Novosib           894.469
       311   04 Jun 2027 00:36:55.924   04 Jun 2027 00:37:50.404            54.480                 Moscow          1702.500
       312   04 Jun 2027 00:38:27.974   04 Jun 2027 00:38:52.616            24.642                 Moscow           770.063
       313   04 Jun 2027 00:43:52.894   04 Jun 2027 00:44:35.254            42.360                  Delhi          1323.750
       314   04 Jun 2027 01:22:42.617   04 Jun 2027 01:23:07.766            25.149            RioGallegos           785.906
       315   04 Jun 2027 01:23:19.986   04 Jun 2027 01:24:30.100            70.114            RioGallegos          2191.062
       316   04 Jun 2027 01:56:18.978   04 Jun 2027 01:56:40.405            21.427                Anadyr1           669.594
       317   04 Jun 2027 01:56:41.505   04 Jun 2027 01:56:59.632            18.127                Anadyr2           566.469
       318   04 Jun 2027 01:57:40.560   04 Jun 2027 01:58:35.718            55.158                Anadyr1          1723.687
       319   04 Jun 2027 02:01:49.505   04 Jun 2027 02:02:46.224            56.719               Magadan1          1772.469
       320   04 Jun 2027 02:02:57.011   04 Jun 2027 02:03:18.316            21.305               Magadan2           665.781
       321   04 Jun 2027 02:04:13.819   04 Jun 2027 02:04:30.310            16.491                Norilsk           515.344
       322   04 Jun 2027 02:05:58.218   04 Jun 2027 02:06:05.187             6.969                Norilsk           217.781
       323   04 Jun 2027 02:06:30.897   04 Jun 2027 02:07:22.465            51.568              Murmansk1          1611.500
       324   04 Jun 2027 02:07:33.119   04 Jun 2027 02:08:21.772            48.653              Murmansk2          1520.406
       325   04 Jun 2027 02:08:25.858   04 Jun 2027 02:08:47.940            22.082                Novosib           690.063
       326   04 Jun 2027 02:09:29.770   04 Jun 2027 02:10:14.561            44.791                Novosib          1399.719
       327   04 Jun 2027 02:13:05.131   04 Jun 2027 02:13:40.090            34.959                 Moscow          1092.469
       328   04 Jun 2027 02:21:28.467   04 Jun 2027 02:21:56.810            28.343                 Moscow           885.719
       329   04 Jun 2027 02:35:54.439   04 Jun 2027 02:36:02.437             7.998               CapeTown           249.937
       330   04 Jun 2027 02:36:15.386   04 Jun 2027 02:36:48.379            32.993               CapeTown          1031.031
       331   04 Jun 2027 02:45:22.185   04 Jun 2027 02:45:39.049            16.864               CapeTown           527.000
       332   04 Jun 2027 03:30:34.693   04 Jun 2027 03:31:02.173            27.480                Anadyr2           858.750
       333   04 Jun 2027 03:34:35.899   04 Jun 2027 03:35:08.609            32.710               Magadan2          1022.188
       334   04 Jun 2027 05:12:40.620   04 Jun 2027 05:13:19.123            38.503                Anadyr1          1203.219
       335   04 Jun 2027 05:13:26.432   04 Jun 2027 05:15:22.253           115.821                Anadyr1          3619.406
       336   04 Jun 2027 05:15:26.673   04 Jun 2027 05:16:13.609            46.936                Anadyr1          1466.750
       337   04 Jun 2027 05:16:19.031   04 Jun 2027 05:16:24.740             5.709                Anadyr1           178.406
       338   04 Jun 2027 05:16:40.900   04 Jun 2027 05:17:16.205            35.305                Anadyr1          1103.281
       339   04 Jun 2027 05:17:29.499   04 Jun 2027 05:17:49.166            19.667               Magadan1           614.594
       340   04 Jun 2027 05:17:57.089   04 Jun 2027 05:19:13.159            76.070                Anadyr2          2377.188
       341   04 Jun 2027 06:50:03.386   04 Jun 2027 06:50:38.339            34.953               Magadan1          1092.281
       342   04 Jun 2027 06:50:38.339   04 Jun 2027 06:50:51.972            13.633               Magadan2           426.031
       343   04 Jun 2027 06:50:54.144   04 Jun 2027 06:51:12.052            17.908                Anadyr2           559.625
       344   04 Jun 2027 06:51:16.414   04 Jun 2027 06:51:42.937            26.523               Magadan1           828.844
       345   04 Jun 2027 06:51:45.338   04 Jun 2027 06:53:26.166           100.828                Anadyr1          3150.875
       346   04 Jun 2027 08:24:06.401   04 Jun 2027 08:25:20.366            73.965               Magadan1          2311.406
       347   04 Jun 2027 08:25:54.870   04 Jun 2027 08:26:13.861            18.991               Magadan1           593.469
       348   04 Jun 2027 08:26:41.038   04 Jun 2027 08:26:43.402             2.364               Magadan1            73.875
       349   04 Jun 2027 08:27:09.323   04 Jun 2027 08:27:15.372             6.049                Irkutsk           189.031
       350   04 Jun 2027 08:27:22.232   04 Jun 2027 08:27:51.701            29.469               Magadan1           920.906
       351   04 Jun 2027 08:27:56.752   04 Jun 2027 08:27:59.206             2.454                Irkutsk            76.687
       352   04 Jun 2027 08:28:12.710   04 Jun 2027 08:28:47.141            34.431                Irkutsk          1075.969
       353   04 Jun 2027 08:29:01.625   04 Jun 2027 08:29:06.628             5.003               Magadan2           156.344
       354   04 Jun 2027 08:29:14.427   04 Jun 2027 08:29:25.469            11.042                Irkutsk           345.062
       355   04 Jun 2027 08:29:32.412   04 Jun 2027 08:30:27.475            55.063                Irkutsk          1720.719
       356   04 Jun 2027 09:05:13.972   04 Jun 2027 09:06:31.022            77.050            RioGallegos          2407.813
       357   04 Jun 2027 09:41:23.751   04 Jun 2027 09:41:36.372            12.621                Sumatra           394.406
       358   04 Jun 2027 09:42:49.258   04 Jun 2027 09:42:55.962             6.704                Sumatra           209.500
       359   04 Jun 2027 09:47:00.554   04 Jun 2027 09:47:11.532            10.978                Sumatra           343.063
       360   04 Jun 2027 10:01:55.808   04 Jun 2027 10:02:27.497            31.689                Irkutsk           990.281
       361   04 Jun 2027 10:02:46.629   04 Jun 2027 10:02:49.787             3.158                Irkutsk            98.687
       362   04 Jun 2027 10:02:55.753   04 Jun 2027 10:02:57.336             1.583                Novosib            49.469
       363   04 Jun 2027 10:03:04.531   04 Jun 2027 10:03:26.862            22.331                Irkutsk           697.844
       364   04 Jun 2027 10:03:32.229   04 Jun 2027 10:04:09.277            37.048                Novosib          1157.750
       365   04 Jun 2027 10:04:16.239   04 Jun 2027 10:04:47.138            30.899                Irkutsk           965.594
       366   04 Jun 2027 10:05:00.370   04 Jun 2027 10:05:09.579             9.209                Irkutsk           287.781
       367   04 Jun 2027 10:05:21.632   04 Jun 2027 10:06:30.681            69.049                Irkutsk          2157.781
       368   04 Jun 2027 11:17:13.487   04 Jun 2027 11:18:00.255            46.768                Sumatra          1461.500
       369   04 Jun 2027 11:22:57.043   04 Jun 2027 11:23:43.044            46.001                Sumatra          1437.531
       370   04 Jun 2027 11:27:49.823   04 Jun 2027 11:27:56.724             6.901                  Delhi           215.656
       371   04 Jun 2027 11:39:58.162   04 Jun 2027 11:40:03.392             5.230                Norilsk           163.438
       372   04 Jun 2027 11:40:39.101   04 Jun 2027 11:41:04.923            25.822                Irkutsk           806.938
       373   04 Jun 2027 11:41:09.289   04 Jun 2027 11:41:39.791            30.502                Novosib           953.188
       374   04 Jun 2027 11:41:58.906   04 Jun 2027 11:42:19.631            20.725                Novosib           647.656
       375   04 Jun 2027 13:02:31.188   04 Jun 2027 13:04:31.146           119.958                  Delhi          3748.688
       376   04 Jun 2027 13:05:20.108   04 Jun 2027 13:05:49.268            29.160                  Delhi           911.250
       377   04 Jun 2027 13:10:39.718   04 Jun 2027 13:11:04.066            24.348                  Delhi           760.875
       378   04 Jun 2027 13:11:26.908   04 Jun 2027 13:12:39.886            72.978                Novosib          2280.563
       379   04 Jun 2027 13:13:41.537   04 Jun 2027 13:14:21.077            39.540              Murmansk1          1235.625
       380   04 Jun 2027 13:15:05.750   04 Jun 2027 13:15:55.828            50.078                Norilsk          1564.938
       381   04 Jun 2027 13:19:40.293   04 Jun 2027 13:20:00.200            19.907                Norilsk           622.094
       382   04 Jun 2027 14:26:01.846   04 Jun 2027 14:27:32.484            90.638               CapeTown          2832.437
       383   04 Jun 2027 14:29:09.876   04 Jun 2027 14:30:24.959            75.083               CapeTown          2346.344
       384   04 Jun 2027 14:45:05.480   04 Jun 2027 14:46:15.895            70.415                 Moscow          2200.469
       385   04 Jun 2027 14:48:34.015   04 Jun 2027 14:50:26.778           112.763              Murmansk2          3523.844
       386   04 Jun 2027 14:58:04.417   04 Jun 2027 14:58:14.116             9.699              Murmansk1           303.094
       387   04 Jun 2027 14:59:37.465   04 Jun 2027 14:59:50.176            12.711              Murmansk1           397.219
       388   04 Jun 2027 15:03:50.583   04 Jun 2027 15:05:08.020            77.437                Anadyr2          2419.906
       389   04 Jun 2027 15:06:04.262   04 Jun 2027 15:07:11.707            67.445                Anadyr2          2107.656
       390   04 Jun 2027 15:07:18.294   04 Jun 2027 15:07:57.803            39.509                Anadyr1          1234.656
       391   04 Jun 2027 16:05:11.313   04 Jun 2027 16:05:49.145            37.832               CapeTown          1182.250
       392   04 Jun 2027 16:25:24.003   04 Jun 2027 16:26:12.949            48.946                 Moscow          1529.562
       393   04 Jun 2027 16:26:53.494   04 Jun 2027 16:27:27.520            34.026              Murmansk1          1063.313
       394   04 Jun 2027 16:27:48.315   04 Jun 2027 16:28:40.419            52.104              Murmansk1          1628.250
       395   04 Jun 2027 16:29:43.186   04 Jun 2027 16:30:16.118            32.932              Murmansk1          1029.125
       396   04 Jun 2027 16:33:35.159   04 Jun 2027 16:34:16.653            41.494              Murmansk1          1296.688
       397   04 Jun 2027 16:38:52.471   04 Jun 2027 16:40:30.459            97.988                Anadyr1          3062.125
       398   04 Jun 2027 16:40:55.903   04 Jun 2027 16:41:09.032            13.129                Anadyr1           410.281
       399   04 Jun 2027 16:48:20.092   04 Jun 2027 16:49:11.461            51.369                Anadyr2          1605.281
       400   04 Jun 2027 17:35:12.873   04 Jun 2027 17:35:22.593             9.720               CapeTown           303.750
       401   04 Jun 2027 17:37:02.976   04 Jun 2027 17:37:10.993             8.017               CapeTown           250.531
       402   04 Jun 2027 17:39:04.547   04 Jun 2027 17:40:29.242            84.695               CapeTown          2646.719
       403   04 Jun 2027 18:08:36.053   04 Jun 2027 18:11:21.860           165.807              Murmansk1          5181.469
       404   04 Jun 2027 18:14:42.886   04 Jun 2027 18:15:25.333            42.447                Anadyr2          1326.469
       405   04 Jun 2027 18:15:32.156   04 Jun 2027 18:15:53.879            21.723                Anadyr1           678.844
       406   04 Jun 2027 18:16:01.087   04 Jun 2027 18:16:17.783            16.696                Anadyr1           521.750
       407   04 Jun 2027 18:16:36.292   04 Jun 2027 18:16:46.249             9.957                Anadyr1           311.156
       408   04 Jun 2027 18:17:17.176   04 Jun 2027 18:18:40.523            83.347               Magadan2          2604.594
       409   04 Jun 2027 18:21:53.337   04 Jun 2027 18:22:24.477            31.140               Magadan1           973.125
       410   04 Jun 2027 18:22:47.165   04 Jun 2027 18:23:22.547            35.382               Magadan2          1105.687
       411   04 Jun 2027 19:50:37.867   04 Jun 2027 19:52:41.869           124.002                Anadyr1          3875.062
       412   04 Jun 2027 19:52:54.680   04 Jun 2027 19:56:28.503           213.823               Magadan1          6681.969
       413   04 Jun 2027 19:56:51.082   04 Jun 2027 19:56:59.870             8.788                Norilsk           274.625
       414   04 Jun 2027 20:01:57.590   04 Jun 2027 20:02:30.259            32.669               Magadan1          1020.906
       415   04 Jun 2027 20:45:12.195   04 Jun 2027 20:47:42.703           150.508            RioGallegos          4703.375
       416   04 Jun 2027 20:48:10.501   04 Jun 2027 20:49:12.420            61.919            RioGallegos          1934.969
       417   04 Jun 2027 20:54:31.372   04 Jun 2027 20:54:37.145             5.773            RioGallegos           180.406
       418   04 Jun 2027 21:28:28.826   04 Jun 2027 21:30:44.494           135.668                Norilsk          4239.625
       419   04 Jun 2027 21:31:04.734   04 Jun 2027 21:31:14.086             9.352               Magadan1           292.250
       420   04 Jun 2027 21:31:14.086   04 Jun 2027 21:31:30.075            15.989               Magadan2           499.656
       421   04 Jun 2027 21:32:43.251   04 Jun 2027 21:33:30.636            47.385                Irkutsk          1480.781
       422   04 Jun 2027 21:33:55.833   04 Jun 2027 21:34:19.886            24.053                Irkutsk           751.656
       423   04 Jun 2027 21:35:08.150   04 Jun 2027 21:35:37.585            29.435                Novosib           919.844
       424   04 Jun 2027 21:35:40.419   04 Jun 2027 21:36:18.561            38.142                Irkutsk          1191.937
       425   04 Jun 2027 21:36:29.943   04 Jun 2027 21:36:58.173            28.230                Novosib           882.187
       426   04 Jun 2027 21:37:23.989   04 Jun 2027 21:37:28.540             4.551                Novosib           142.219
       427   04 Jun 2027 21:46:32.209   04 Jun 2027 21:48:28.757           116.548                Sumatra          3642.125
       428   04 Jun 2027 23:01:04.623   04 Jun 2027 23:02:24.094            79.471                Anadyr1          2483.469
       429   04 Jun 2027 23:03:10.283   04 Jun 2027 23:03:55.908            45.625                Anadyr1          1425.781
       430   04 Jun 2027 23:04:24.957   04 Jun 2027 23:04:50.422            25.465                Norilsk           795.781
       431   04 Jun 2027 23:05:03.154   04 Jun 2027 23:06:06.715            63.561               Magadan1          1986.281
       432   04 Jun 2027 23:07:00.919   04 Jun 2027 23:07:40.054            39.135               Magadan1          1222.969
       433   04 Jun 2027 23:08:16.674   04 Jun 2027 23:08:51.141            34.467                Irkutsk          1077.094
       434   04 Jun 2027 23:09:39.081   04 Jun 2027 23:10:40.085            61.004                Novosib          1906.375
       435   04 Jun 2027 23:10:48.450   04 Jun 2027 23:11:31.268            42.818                Novosib          1338.062
       436   04 Jun 2027 23:16:23.081   04 Jun 2027 23:16:55.718            32.637                  Delhi          1019.906
       437   04 Jun 2027 23:17:35.723   04 Jun 2027 23:17:58.458            22.735                  Delhi           710.469
       438   04 Jun 2027 23:20:44.629   04 Jun 2027 23:21:34.712            50.083                  Delhi          1565.094
       439   04 Jun 2027 23:27:30.275   04 Jun 2027 23:27:34.690             4.415                  Delhi           137.969
       440   05 Jun 2027 00:04:23.544   05 Jun 2027 00:05:03.660            40.116            RioGallegos          1253.625
       441   05 Jun 2027 00:34:40.873   05 Jun 2027 00:35:03.708            22.835                Anadyr2           713.594
       442   05 Jun 2027 00:35:50.274   05 Jun 2027 00:36:10.492            20.218                Anadyr2           631.813
       443   05 Jun 2027 00:37:12.269   05 Jun 2027 00:37:40.701            28.432                Anadyr1           888.500
       444   05 Jun 2027 00:40:02.773   05 Jun 2027 00:40:15.470            12.697                Anadyr1           396.781
       445   05 Jun 2027 00:40:24.576   05 Jun 2027 00:40:42.380            17.804                Norilsk           556.375
       446   05 Jun 2027 00:40:53.896   05 Jun 2027 00:41:06.698            12.802                Norilsk           400.063
       447   05 Jun 2027 00:41:10.568   05 Jun 2027 00:42:34.313            83.745               Magadan1          2617.031
       448   05 Jun 2027 00:42:34.313   05 Jun 2027 00:42:39.262             4.949               Magadan2           154.656
       449   05 Jun 2027 00:42:48.744   05 Jun 2027 00:44:45.393           116.649              Murmansk1          3645.281
       450   05 Jun 2027 00:45:03.755   05 Jun 2027 00:46:24.876            81.121              Murmansk2          2535.031
       451   05 Jun 2027 00:47:56.493   05 Jun 2027 00:48:14.178            17.685                 Moscow           552.656
       452   05 Jun 2027 00:48:36.953   05 Jun 2027 00:49:38.585            61.632                 Moscow          1926.000
       453   05 Jun 2027 01:01:44.248   05 Jun 2027 01:02:21.604            37.356                  Delhi          1167.375
       454   05 Jun 2027 02:08:03.446   05 Jun 2027 02:10:37.022           153.576                Anadyr2          4799.250
       455   05 Jun 2027 02:11:08.143   05 Jun 2027 02:11:16.622             8.479                Anadyr1           264.969
       456   05 Jun 2027 02:13:17.638   05 Jun 2027 02:14:38.044            80.406               Magadan1          2512.687
       457   05 Jun 2027 02:16:13.301   05 Jun 2027 02:16:20.141             6.840                Norilsk           213.750
       458   05 Jun 2027 02:17:53.630   05 Jun 2027 02:17:57.738             4.108                Norilsk           128.375
       459   05 Jun 2027 02:18:32.261   05 Jun 2027 02:19:27.578            55.317              Murmansk2          1728.656
       460   05 Jun 2027 02:19:44.039   05 Jun 2027 02:20:18.017            33.978              Murmansk2          1061.812
       461   05 Jun 2027 02:20:32.325   05 Jun 2027 02:21:22.796            50.471                Novosib          1577.219
       462   05 Jun 2027 02:22:21.606   05 Jun 2027 02:22:46.665            25.059                 Moscow           783.094
       463   05 Jun 2027 02:25:54.753   05 Jun 2027 02:26:12.971            18.218                Novosib           569.313
       464   05 Jun 2027 02:32:03.449   05 Jun 2027 02:32:25.086            21.637                 Moscow           676.156
       465   05 Jun 2027 02:34:04.332   05 Jun 2027 02:34:09.025             4.693                 Moscow           146.656
       466   05 Jun 2027 02:46:23.788   05 Jun 2027 02:47:02.490            38.702               CapeTown          1209.437
       467   05 Jun 2027 02:49:00.989   05 Jun 2027 02:49:37.304            36.315               CapeTown          1134.844
       468   05 Jun 2027 03:49:57.362   05 Jun 2027 03:53:28.845           211.483                Anadyr1          6608.844
       469   05 Jun 2027 04:03:20.785   05 Jun 2027 04:04:26.537            65.752              Murmansk1          2054.750
       470   05 Jun 2027 04:05:56.031   05 Jun 2027 04:06:07.751            11.720              Murmansk2           366.250
       471   05 Jun 2027 04:06:10.964   05 Jun 2027 04:06:26.043            15.079              Murmansk2           471.219
       472   05 Jun 2027 05:25:07.185   05 Jun 2027 05:26:36.333            89.148               Magadan2          2785.875
       473   05 Jun 2027 05:27:04.875   05 Jun 2027 05:30:55.106           230.231               Magadan1          7194.719
       474   05 Jun 2027 07:01:44.403   05 Jun 2027 07:02:22.841            38.438                Anadyr2          1201.187
       475   05 Jun 2027 07:02:35.091   05 Jun 2027 07:03:09.699            34.608                Anadyr1          1081.500
       476   05 Jun 2027 07:03:09.699   05 Jun 2027 07:03:37.532            27.833                Anadyr2           869.781
       477   05 Jun 2027 07:03:47.138   05 Jun 2027 07:04:28.623            41.485                Anadyr1          1296.406
       478   05 Jun 2027 07:04:38.119   05 Jun 2027 07:04:39.780             1.661               Magadan1            51.906
       479   05 Jun 2027 07:04:44.595   05 Jun 2027 07:05:01.445            16.850               Magadan2           526.563
       480   05 Jun 2027 07:05:26.430   05 Jun 2027 07:05:35.387             8.957                Anadyr2           279.906
       481   05 Jun 2027 07:06:10.511   05 Jun 2027 07:06:42.510            31.999                Anadyr1           999.969
       482   05 Jun 2027 08:36:05.203   05 Jun 2027 08:37:20.921            75.718               Magadan2          2366.187
