uniorb/output/strategy_4/Drop/Drop_KinoSat_111103.txt

KinoSat_111103
-------------------------
    Access    *     Start Time (UTCG)     *     Stop Time (UTCG)  *   Duration (s)        *       Station  *  Data (Mbytes)
         1   01 Jun 2027 03:44:27.866   01 Jun 2027 03:45:56.590            88.724               Magadan1          2772.625
         2   01 Jun 2027 03:55:47.754   01 Jun 2027 03:56:07.222            19.468                Norilsk           608.375
         3   01 Jun 2027 03:56:09.370   01 Jun 2027 03:56:23.616            14.246              Murmansk2           445.187
         4   01 Jun 2027 03:59:00.151   01 Jun 2027 03:59:23.223            23.072              Murmansk1           721.000
         5   01 Jun 2027 03:59:23.223   01 Jun 2027 03:59:33.022             9.799              Murmansk2           306.219
         6   01 Jun 2027 05:18:06.956   01 Jun 2027 05:18:56.787            49.831                Anadyr1          1557.219
         7   01 Jun 2027 05:19:19.434   01 Jun 2027 05:24:30.062           310.628               Magadan1          9707.125
         8   01 Jun 2027 06:53:32.272   01 Jun 2027 06:54:10.347            38.075                Irkutsk          1189.844
         9   01 Jun 2027 06:54:19.374   01 Jun 2027 06:54:38.629            19.255                Anadyr1           601.719
        10   01 Jun 2027 06:55:05.473   01 Jun 2027 06:58:28.189           202.716               Magadan2          6334.875
        11   01 Jun 2027 06:58:38.138   01 Jun 2027 06:58:53.664            15.526                Norilsk           485.188
        12   01 Jun 2027 06:59:07.863   01 Jun 2027 07:00:39.866            92.003                Novosib          2875.094
        13   01 Jun 2027 07:00:45.716   01 Jun 2027 07:02:10.590            84.874              Murmansk1          2652.313
        14   01 Jun 2027 07:02:10.590   01 Jun 2027 07:03:13.623            63.033              Murmansk2          1969.781
        15   01 Jun 2027 07:03:21.296   01 Jun 2027 07:03:45.937            24.641              Murmansk2           770.031
        16   01 Jun 2027 07:04:11.886   01 Jun 2027 07:04:19.346             7.460              Murmansk1           233.125
        17   01 Jun 2027 07:36:18.398   01 Jun 2027 07:37:54.003            95.605            RioGallegos          2987.656
        18   01 Jun 2027 08:31:05.452   01 Jun 2027 08:31:25.292            19.840                Irkutsk           620.000
        19   01 Jun 2027 08:31:48.887   01 Jun 2027 08:35:03.357           194.470                Irkutsk          6077.188
        20   01 Jun 2027 08:35:18.147   01 Jun 2027 08:35:31.268            13.121                Novosib           410.031
        21   01 Jun 2027 08:35:34.616   01 Jun 2027 08:36:12.703            38.087              Murmansk1          1190.219
        22   01 Jun 2027 08:36:20.207   01 Jun 2027 08:38:12.098           111.891              Murmansk1          3496.594
        23   01 Jun 2027 08:39:01.857   01 Jun 2027 08:39:10.836             8.979              Murmansk2           280.594
        24   01 Jun 2027 08:40:01.922   01 Jun 2027 08:40:08.273             6.351                Norilsk           198.469
        25   01 Jun 2027 09:11:31.300   01 Jun 2027 09:12:29.459            58.159            RioGallegos          1817.469
        26   01 Jun 2027 09:13:24.880   01 Jun 2027 09:13:25.083             0.203            RioGallegos             6.344
        27   01 Jun 2027 09:15:44.443   01 Jun 2027 09:15:59.298            14.855            RioGallegos           464.219
        28   01 Jun 2027 09:20:47.752   01 Jun 2027 09:21:06.263            18.511            RioGallegos           578.469
        29   01 Jun 2027 09:46:18.223   01 Jun 2027 09:47:31.459            73.236                Sumatra          2288.625
        30   01 Jun 2027 09:50:18.041   01 Jun 2027 09:50:21.617             3.576                Sumatra           111.750
        31   01 Jun 2027 09:56:52.877   01 Jun 2027 09:57:29.869            36.992                  Delhi          1156.000
        32   01 Jun 2027 10:08:34.116   01 Jun 2027 10:09:30.587            56.471                Novosib          1764.719
        33   01 Jun 2027 10:09:48.472   01 Jun 2027 10:09:52.257             3.785                Novosib           118.281
        34   01 Jun 2027 10:09:54.090   01 Jun 2027 10:10:53.180            59.090                Irkutsk          1846.563
        35   01 Jun 2027 10:10:58.509   01 Jun 2027 10:13:33.124           154.615                Novosib          4831.719
        36   01 Jun 2027 10:51:09.107   01 Jun 2027 10:52:48.819            99.712            RioGallegos          3116.000
        37   01 Jun 2027 10:53:18.748   01 Jun 2027 10:53:30.347            11.599            RioGallegos           362.469
        38   01 Jun 2027 10:54:13.150   01 Jun 2027 10:55:29.221            76.071            RioGallegos          2377.219
        39   01 Jun 2027 11:26:30.464   01 Jun 2027 11:29:17.576           167.112                Sumatra          5222.250
        40   01 Jun 2027 11:46:13.851   01 Jun 2027 11:47:38.938            85.087                Novosib          2658.969
        41   01 Jun 2027 11:47:44.049   01 Jun 2027 11:47:56.793            12.744              Murmansk2           398.250
        42   01 Jun 2027 11:47:59.267   01 Jun 2027 11:48:47.720            48.453                Norilsk          1514.156
        43   01 Jun 2027 11:49:00.383   01 Jun 2027 11:49:21.555            21.172                Novosib           661.625
        44   01 Jun 2027 11:50:07.542   01 Jun 2027 11:51:49.807           102.265                Norilsk          3195.781
        45   01 Jun 2027 11:51:55.908   01 Jun 2027 11:52:08.116            12.208                Norilsk           381.500
        46   01 Jun 2027 13:14:54.773   01 Jun 2027 13:16:08.440            73.667                 Moscow          2302.094
        47   01 Jun 2027 13:17:29.453   01 Jun 2027 13:18:49.839            80.386                 Moscow          2512.063
        48   01 Jun 2027 13:19:14.988   01 Jun 2027 13:22:31.125           196.137              Murmansk2          6129.281
        49   01 Jun 2027 13:23:20.957   01 Jun 2027 13:25:41.697           140.740                Norilsk          4398.125
        50   01 Jun 2027 13:26:20.717   01 Jun 2027 13:27:49.115            88.398                Norilsk          2762.438
        51   01 Jun 2027 14:29:44.716   01 Jun 2027 14:30:29.041            44.325               CapeTown          1385.156
        52   01 Jun 2027 14:31:22.039   01 Jun 2027 14:32:45.173            83.134               CapeTown          2597.938
        53   01 Jun 2027 14:35:13.480   01 Jun 2027 14:36:20.591            67.111               CapeTown          2097.219
        54   01 Jun 2027 14:55:15.538   01 Jun 2027 14:56:24.153            68.615              Murmansk2          2144.219
        55   01 Jun 2027 14:57:38.813   01 Jun 2027 14:57:54.460            15.647              Murmansk1           488.969
        56   01 Jun 2027 15:01:32.948   01 Jun 2027 15:01:54.139            21.191              Murmansk1           662.219
        57   01 Jun 2027 15:03:19.268   01 Jun 2027 15:04:09.273            50.005              Murmansk1          1562.656
        58   01 Jun 2027 15:05:03.746   01 Jun 2027 15:05:24.648            20.902              Murmansk2           653.188
        59   01 Jun 2027 15:05:24.648   01 Jun 2027 15:05:29.794             5.146              Murmansk1           160.812
        60   01 Jun 2027 15:05:44.286   01 Jun 2027 15:06:09.818            25.532              Murmansk1           797.875
        61   01 Jun 2027 15:06:33.835   01 Jun 2027 15:07:14.467            40.632              Murmansk1          1269.750
        62   01 Jun 2027 15:09:28.274   01 Jun 2027 15:10:16.184            47.910                Anadyr2          1497.188
        63   01 Jun 2027 15:11:03.570   01 Jun 2027 15:12:38.962            95.392                Anadyr2          2981.000
        64   01 Jun 2027 15:15:29.681   01 Jun 2027 15:15:34.532             4.851                Anadyr1           151.594
        65   01 Jun 2027 15:15:34.532   01 Jun 2027 15:16:38.787            64.255                Anadyr2          2007.969
        66   01 Jun 2027 16:14:30.320   01 Jun 2027 16:15:02.407            32.087               CapeTown          1002.719
        67   01 Jun 2027 16:34:24.864   01 Jun 2027 16:36:08.172           103.308              Murmansk2          3228.375
        68   01 Jun 2027 16:36:35.326   01 Jun 2027 16:37:06.427            31.101              Murmansk1           971.906
        69   01 Jun 2027 16:39:15.691   01 Jun 2027 16:40:03.167            47.476              Murmansk1          1483.625
        70   01 Jun 2027 16:41:22.649   01 Jun 2027 16:41:36.177            13.528              Murmansk2           422.750
        71   01 Jun 2027 16:42:12.813   01 Jun 2027 16:42:58.310            45.497              Murmansk1          1421.781
        72   01 Jun 2027 16:44:57.322   01 Jun 2027 16:45:23.209            25.887                Anadyr1           808.969
        73   01 Jun 2027 16:46:32.502   01 Jun 2027 16:46:46.634            14.132                Anadyr1           441.625
        74   01 Jun 2027 16:48:01.865   01 Jun 2027 16:48:23.567            21.702                Anadyr2           678.188
        75   01 Jun 2027 16:48:34.093   01 Jun 2027 16:51:19.986           165.893               Magadan2          5184.156
        76   01 Jun 2027 16:52:34.000   01 Jun 2027 16:52:43.557             9.557               Magadan2           298.656
        77   01 Jun 2027 16:53:48.263   01 Jun 2027 16:54:27.325            39.062               Magadan2          1220.687
        78   01 Jun 2027 18:20:51.572   01 Jun 2027 18:24:55.801           244.229                Anadyr1          7632.156
        79   01 Jun 2027 18:25:16.678   01 Jun 2027 18:26:36.903            80.225               Magadan1          2507.031
        80   01 Jun 2027 18:26:49.957   01 Jun 2027 18:28:20.646            90.689               Magadan2          2834.031
        81   01 Jun 2027 18:33:20.855   01 Jun 2027 18:33:33.675            12.820               Magadan1           400.625
        82   01 Jun 2027 18:34:05.279   01 Jun 2027 18:34:20.719            15.440               Magadan2           482.500
        83   01 Jun 2027 19:56:43.506   01 Jun 2027 19:58:44.724           121.218                Anadyr1          3788.062
        84   01 Jun 2027 19:58:51.438   01 Jun 2027 20:00:50.587           119.149                Anadyr2          3723.406
        85   01 Jun 2027 20:01:00.366   01 Jun 2027 20:03:04.099           123.733               Magadan2          3866.656
        86   01 Jun 2027 20:04:24.613   01 Jun 2027 20:05:15.012            50.399                Norilsk          1574.969
        87   01 Jun 2027 20:07:00.106   01 Jun 2027 20:08:19.497            79.391                Irkutsk          2480.969
        88   01 Jun 2027 20:09:08.269   01 Jun 2027 20:10:29.117            80.848                Irkutsk          2526.500
        89   01 Jun 2027 20:21:07.451   01 Jun 2027 20:21:55.126            47.675                Sumatra          1489.844
        90   01 Jun 2027 20:23:08.403   01 Jun 2027 20:24:39.703            91.300                Sumatra          2853.125
        91   01 Jun 2027 21:34:35.957   01 Jun 2027 21:36:36.797           120.840                Norilsk          3776.250
        92   01 Jun 2027 21:37:35.433   01 Jun 2027 21:37:38.397             2.964               Magadan2            92.625
        93   01 Jun 2027 21:38:35.871   01 Jun 2027 21:40:04.293            88.422                Irkutsk          2763.188
        94   01 Jun 2027 21:43:36.745   01 Jun 2027 21:44:12.473            35.728                Novosib          1116.500
        95   01 Jun 2027 21:45:47.234   01 Jun 2027 21:46:10.568            23.334                Novosib           729.188
        96   01 Jun 2027 21:46:56.600   01 Jun 2027 21:48:09.369            72.769                Novosib          2274.031
        97   01 Jun 2027 21:52:44.332   01 Jun 2027 21:52:59.508            15.176                Sumatra           474.250
        98   01 Jun 2027 21:56:28.661   01 Jun 2027 21:58:12.434           103.773                Sumatra          3242.906
        99   01 Jun 2027 23:06:33.172   01 Jun 2027 23:07:05.860            32.688                Anadyr1          1021.500
       100   01 Jun 2027 23:07:22.825   01 Jun 2027 23:08:45.547            82.722                Anadyr1          2585.063
       101   01 Jun 2027 23:10:35.196   01 Jun 2027 23:11:00.066            24.870                Norilsk           777.188
       102   01 Jun 2027 23:11:11.784   01 Jun 2027 23:12:36.399            84.615               Magadan1          2644.219
       103   01 Jun 2027 23:12:36.399   01 Jun 2027 23:12:44.103             7.704               Magadan2           240.750
       104   01 Jun 2027 23:14:19.010   01 Jun 2027 23:15:18.734            59.724              Murmansk1          1866.375
       105   01 Jun 2027 23:15:57.890   01 Jun 2027 23:16:58.117            60.227                Novosib          1882.094
       106   01 Jun 2027 23:21:36.019   01 Jun 2027 23:21:57.757            21.738                Novosib           679.313
       107   01 Jun 2027 23:23:00.681   01 Jun 2027 23:24:42.271           101.590                  Delhi          3174.687
       108   01 Jun 2027 23:28:50.134   01 Jun 2027 23:29:50.332            60.198                  Delhi          1881.188
       109   02 Jun 2027 00:07:35.503   02 Jun 2027 00:07:49.172            13.669            RioGallegos           427.156
       110   02 Jun 2027 00:08:34.204   02 Jun 2027 00:08:42.657             8.453            RioGallegos           264.156
       111   02 Jun 2027 00:09:37.033   02 Jun 2027 00:10:21.731            44.698            RioGallegos          1396.813
       112   02 Jun 2027 00:39:55.020   02 Jun 2027 00:40:15.440            20.420                Anadyr1           638.125
       113   02 Jun 2027 00:41:17.257   02 Jun 2027 00:42:21.078            63.821                Anadyr2          1994.406
       114   02 Jun 2027 00:42:26.535   02 Jun 2027 00:42:30.011             3.476                Anadyr1           108.625
       115   02 Jun 2027 00:42:33.491   02 Jun 2027 00:42:37.162             3.671                Anadyr1           114.719
       116   02 Jun 2027 00:42:44.605   02 Jun 2027 00:42:58.938            14.333                Anadyr1           447.906
       117   02 Jun 2027 00:45:45.465   02 Jun 2027 00:46:10.515            25.050                Anadyr2           782.812
       118   02 Jun 2027 00:46:23.440   02 Jun 2027 00:48:30.408           126.968               Magadan2          3967.750
       119   02 Jun 2027 00:48:49.259   02 Jun 2027 00:51:08.705           139.446              Murmansk2          4357.687
       120   02 Jun 2027 00:52:56.459   02 Jun 2027 00:53:24.101            27.642                 Moscow           863.813
       121   02 Jun 2027 00:54:24.663   02 Jun 2027 00:56:17.642           112.979                 Moscow          3530.594
       122   02 Jun 2027 01:20:27.161   02 Jun 2027 01:21:23.816            56.655               CapeTown          1770.469
       123   02 Jun 2027 02:13:32.216   02 Jun 2027 02:15:58.310           146.094                Anadyr1          4565.437
       124   02 Jun 2027 02:16:22.934   02 Jun 2027 02:16:34.089            11.155                Anadyr1           348.594
       125   02 Jun 2027 02:17:56.836   02 Jun 2027 02:18:05.661             8.825               Magadan1           275.781
       126   02 Jun 2027 02:18:05.661   02 Jun 2027 02:19:16.756            71.095               Magadan2          2221.719
       127   02 Jun 2027 02:22:06.349   02 Jun 2027 02:22:32.913            26.564               Magadan2           830.125
       128   02 Jun 2027 02:24:41.382   02 Jun 2027 02:26:19.096            97.714              Murmansk1          3053.562
       129   02 Jun 2027 02:26:57.877   02 Jun 2027 02:27:38.375            40.498                Novosib          1265.563
       130   02 Jun 2027 02:33:03.592   02 Jun 2027 02:34:23.524            79.932                 Moscow          2497.875
       131   02 Jun 2027 02:55:38.739   02 Jun 2027 02:55:45.300             6.561               CapeTown           205.031
       132   02 Jun 2027 02:58:37.436   02 Jun 2027 02:58:54.098            16.662               CapeTown           520.687
       133   02 Jun 2027 03:01:53.767   02 Jun 2027 03:02:32.250            38.483               CapeTown          1202.594
       134   02 Jun 2027 03:54:48.696   02 Jun 2027 03:55:18.445            29.749               Magadan2           929.656
       135   02 Jun 2027 03:55:31.776   02 Jun 2027 03:55:38.014             6.238               Magadan1           194.937
       136   02 Jun 2027 03:55:46.998   02 Jun 2027 03:59:26.092           219.094                Anadyr1          6846.687
       137   02 Jun 2027 03:59:45.181   02 Jun 2027 04:01:28.230           103.049                Anadyr1          3220.281
       138   02 Jun 2027 05:31:24.584   02 Jun 2027 05:31:47.507            22.923               Magadan1           716.344
       139   02 Jun 2027 05:32:15.567   02 Jun 2027 05:33:48.092            92.525               Magadan2          2891.406
       140   02 Jun 2027 05:33:52.595   02 Jun 2027 05:35:06.687            74.092               Magadan1          2315.375
       141   02 Jun 2027 05:35:06.687   02 Jun 2027 05:35:10.807             4.120               Magadan2           128.750
       142   02 Jun 2027 05:35:18.776   02 Jun 2027 05:36:22.258            63.482                Anadyr2          1983.813
       143   02 Jun 2027 05:36:22.258   02 Jun 2027 05:36:51.552            29.294                Anadyr1           915.438
       144   02 Jun 2027 07:06:04.452   02 Jun 2027 07:06:47.402            42.950                Anadyr2          1342.188
       145   02 Jun 2027 07:07:43.807   02 Jun 2027 07:09:52.332           128.525                Anadyr2          4016.406
       146   02 Jun 2027 07:09:52.332   02 Jun 2027 07:10:06.055            13.723                Anadyr1           428.844
       147   02 Jun 2027 07:10:09.707   02 Jun 2027 07:12:18.637           128.930                Anadyr1          4029.062
       148   02 Jun 2027 07:12:30.714   02 Jun 2027 07:13:03.206            32.492                Novosib          1015.375
       149   02 Jun 2027 08:43:27.026   02 Jun 2027 08:44:12.023            44.997               Magadan2          1406.156
       150   02 Jun 2027 08:44:12.023   02 Jun 2027 08:45:29.486            77.463               Magadan1          2420.719
       151   02 Jun 2027 08:45:35.137   02 Jun 2027 08:46:19.654            44.517               Magadan1          1391.156
       152   02 Jun 2027 08:47:02.437   02 Jun 2027 08:47:45.673            43.236                Irkutsk          1351.125
       153   02 Jun 2027 08:48:20.196   02 Jun 2027 08:48:30.934            10.738                Irkutsk           335.562
       154   02 Jun 2027 10:18:24.846   02 Jun 2027 10:18:39.490            14.644                  Delhi           457.625
       155   02 Jun 2027 10:19:09.172   02 Jun 2027 10:19:37.922            28.750                Irkutsk           898.437
       156   02 Jun 2027 10:20:46.234   02 Jun 2027 10:21:00.359            14.125                Irkutsk           441.406
       157   02 Jun 2027 10:21:06.403   02 Jun 2027 10:21:43.683            37.280                Novosib          1165.000
       158   02 Jun 2027 10:22:10.251   02 Jun 2027 10:22:25.266            15.015                Irkutsk           469.219
       159   02 Jun 2027 10:22:49.191   02 Jun 2027 10:22:56.133             6.942                Irkutsk           216.938
       160   02 Jun 2027 10:22:57.872   02 Jun 2027 10:22:58.686             0.814                Novosib            25.437
       161   02 Jun 2027 10:23:18.249   02 Jun 2027 10:24:17.374            59.125                Novosib          1847.656
       162   02 Jun 2027 10:24:28.055   02 Jun 2027 10:25:21.353            53.298                Novosib          1665.562
       163   02 Jun 2027 11:04:22.552   02 Jun 2027 11:04:53.588            31.036            RioGallegos           969.875
       164   02 Jun 2027 11:42:41.744   02 Jun 2027 11:43:11.899            30.155                  Delhi           942.344
       165   02 Jun 2027 11:45:34.226   02 Jun 2027 11:46:23.618            49.392                  Delhi          1543.500
       166   02 Jun 2027 11:51:27.494   02 Jun 2027 11:52:28.515            61.021                  Delhi          1906.906
       167   02 Jun 2027 11:57:52.675   02 Jun 2027 11:57:53.614             0.939              Murmansk1            29.344
       168   02 Jun 2027 11:58:38.487   02 Jun 2027 11:58:51.554            13.067                Novosib           408.344
       169   02 Jun 2027 11:59:03.961   02 Jun 2027 11:59:55.102            51.141              Murmansk1          1598.156
       170   02 Jun 2027 12:00:00.101   02 Jun 2027 12:00:06.001             5.900                Norilsk           184.375
       171   02 Jun 2027 12:00:19.270   02 Jun 2027 12:00:24.159             4.889                Novosib           152.781
       172   02 Jun 2027 12:00:52.900   02 Jun 2027 12:01:10.227            17.327              Murmansk1           541.469
       173   02 Jun 2027 12:02:03.399   02 Jun 2027 12:02:09.316             5.917                Norilsk           184.906
       174   02 Jun 2027 12:02:38.187   02 Jun 2027 12:03:51.998            73.811                Norilsk          2306.594
       175   02 Jun 2027 13:26:54.125   02 Jun 2027 13:30:56.784           242.659                 Moscow          7583.094
       176   02 Jun 2027 13:31:02.306   02 Jun 2027 13:32:40.784            98.478              Murmansk1          3077.438
       177   02 Jun 2027 13:33:42.070   02 Jun 2027 13:33:49.048             6.978              Murmansk1           218.063
       178   02 Jun 2027 13:34:07.051   02 Jun 2027 13:34:19.124            12.073              Murmansk2           377.281
       179   02 Jun 2027 13:34:42.803   02 Jun 2027 13:35:16.116            33.313                Norilsk          1041.031
       180   02 Jun 2027 13:37:08.138   02 Jun 2027 13:37:36.595            28.457              Murmansk2           889.281
       181   02 Jun 2027 13:39:11.939   02 Jun 2027 13:39:26.857            14.918              Murmansk1           466.188
       182   02 Jun 2027 13:40:26.636   02 Jun 2027 13:40:48.795            22.159              Murmansk2           692.469
       183   02 Jun 2027 13:43:14.250   02 Jun 2027 13:43:17.889             3.639              Murmansk2           113.719
       184   02 Jun 2027 14:41:20.056   02 Jun 2027 14:43:32.685           132.629               CapeTown          4144.656
       185   02 Jun 2027 14:44:34.646   02 Jun 2027 14:45:54.631            79.985               CapeTown          2499.531
       186   02 Jun 2027 15:07:33.011   02 Jun 2027 15:08:10.086            37.075              Murmansk1          1158.594
       187   02 Jun 2027 15:08:52.112   02 Jun 2027 15:09:08.681            16.569              Murmansk2           517.781
       188   02 Jun 2027 15:09:56.038   02 Jun 2027 15:11:37.087           101.049              Murmansk2          3157.781
       189   02 Jun 2027 15:21:22.770   02 Jun 2027 15:22:17.468            54.698                Anadyr2          1709.313
       190   02 Jun 2027 15:22:20.029   02 Jun 2027 15:23:25.930            65.901                Anadyr1          2059.406
       191   02 Jun 2027 15:26:17.958   02 Jun 2027 15:26:24.266             6.308                Anadyr1           197.125
       192   02 Jun 2027 15:26:42.120   02 Jun 2027 15:27:20.289            38.169                Anadyr2          1192.781
       193   02 Jun 2027 15:30:51.408   02 Jun 2027 15:31:09.587            18.179                Anadyr1           568.094
       194   02 Jun 2027 16:47:03.269   02 Jun 2027 16:49:39.917           156.648              Murmansk2          4895.250
       195   02 Jun 2027 16:53:23.782   02 Jun 2027 16:53:38.214            14.432              Murmansk1           451.000
       196   02 Jun 2027 16:54:20.127   02 Jun 2027 16:54:54.561            34.434              Murmansk1          1076.062
       197   02 Jun 2027 16:56:57.974   02 Jun 2027 16:57:54.553            56.579                Anadyr2          1768.094
       198   02 Jun 2027 16:58:11.817   02 Jun 2027 16:58:29.468            17.651                Anadyr1           551.594
       199   02 Jun 2027 16:59:52.881   02 Jun 2027 17:00:17.058            24.177                Anadyr2           755.531
       200   02 Jun 2027 17:00:29.206   02 Jun 2027 17:02:13.055           103.849               Magadan2          3245.281
       201   02 Jun 2027 17:03:11.240   02 Jun 2027 17:03:48.984            37.744               Magadan2          1179.500
       202   02 Jun 2027 18:32:53.019   02 Jun 2027 18:35:11.383           138.364                Anadyr2          4323.875
       203   02 Jun 2027 18:35:13.416   02 Jun 2027 18:37:28.988           135.572               Magadan1          4236.625
       204   02 Jun 2027 18:37:59.426   02 Jun 2027 18:39:04.104            64.678               Magadan2          2021.187
       205   02 Jun 2027 18:41:52.761   02 Jun 2027 18:42:17.179            24.418               Magadan1           763.063
       206   02 Jun 2027 18:44:54.035   02 Jun 2027 18:45:19.104            25.069               Magadan2           783.406
       207   02 Jun 2027 18:46:22.013   02 Jun 2027 18:46:58.077            36.064               Magadan1          1127.000
       208   02 Jun 2027 19:29:53.356   02 Jun 2027 19:31:54.235           120.879            RioGallegos          3777.469
       209   02 Jun 2027 20:08:43.234   02 Jun 2027 20:09:07.302            24.068                Anadyr1           752.125
       210   02 Jun 2027 20:09:57.487   02 Jun 2027 20:10:02.690             5.203                Anadyr2           162.594
       211   02 Jun 2027 20:10:04.495   02 Jun 2027 20:11:08.613            64.118                Anadyr2          2003.687
       212   02 Jun 2027 20:11:09.676   02 Jun 2027 20:14:40.884           211.208                Norilsk          6600.250
       213   02 Jun 2027 20:16:04.098   02 Jun 2027 20:19:03.469           179.371                Irkutsk          5605.344
       214   02 Jun 2027 20:31:28.117   02 Jun 2027 20:33:21.030           112.913                Sumatra          3528.531
       215   02 Jun 2027 20:35:25.431   02 Jun 2027 20:36:27.166            61.735                Sumatra          1929.219
       216   02 Jun 2027 21:46:37.361   02 Jun 2027 21:46:44.841             7.480                Norilsk           233.750
       217   02 Jun 2027 21:47:15.568   02 Jun 2027 21:47:39.136            23.568                Norilsk           736.500
       218   02 Jun 2027 21:48:07.299   02 Jun 2027 21:48:08.221             0.922                Norilsk            28.813
       219   02 Jun 2027 21:48:22.203   02 Jun 2027 21:48:36.617            14.414                Norilsk           450.437
       220   02 Jun 2027 21:50:33.887   02 Jun 2027 21:52:01.867            87.980                Irkutsk          2749.375
       221   02 Jun 2027 21:52:49.571   02 Jun 2027 21:54:48.294           118.723                Novosib          3710.094
       222   02 Jun 2027 22:02:45.627   02 Jun 2027 22:03:21.498            35.871                  Delhi          1120.969
       223   02 Jun 2027 22:04:50.977   02 Jun 2027 22:05:04.586            13.609                  Delhi           425.281
       224   02 Jun 2027 23:18:17.524   02 Jun 2027 23:19:06.321            48.797                Anadyr1          1524.906
       225   02 Jun 2027 23:20:28.806   02 Jun 2027 23:20:34.923             6.117                Anadyr2           191.156
       226   02 Jun 2027 23:22:37.189   02 Jun 2027 23:23:09.762            32.573                Norilsk          1017.906
       227   02 Jun 2027 23:23:12.233   02 Jun 2027 23:24:25.216            72.983               Magadan2          2280.719
       228   02 Jun 2027 23:25:47.853   02 Jun 2027 23:27:17.870            90.017              Murmansk1          2813.031
       229   02 Jun 2027 23:27:28.547   02 Jun 2027 23:29:08.543            99.996              Murmansk2          3124.875
       230   02 Jun 2027 23:30:05.061   02 Jun 2027 23:30:14.202             9.141              Murmansk1           285.656
       231   02 Jun 2027 23:33:48.068   02 Jun 2027 23:34:20.922            32.854                  Delhi          1026.687
       232   02 Jun 2027 23:36:53.525   02 Jun 2027 23:37:36.346            42.821                  Delhi          1338.156
       233   02 Jun 2027 23:37:41.209   02 Jun 2027 23:38:57.570            76.361                  Delhi          2386.281
       234   03 Jun 2027 00:51:36.421   03 Jun 2027 00:52:17.940            41.519                Anadyr1          1297.469
       235   03 Jun 2027 00:52:17.940   03 Jun 2027 00:52:38.771            20.831                Anadyr2           650.969
       236   03 Jun 2027 00:53:18.532   03 Jun 2027 00:54:15.133            56.601                Anadyr1          1768.781
       237   03 Jun 2027 00:57:43.231   03 Jun 2027 00:59:15.633            92.402               Magadan2          2887.562
       238   03 Jun 2027 00:59:23.754   03 Jun 2027 01:01:28.660           124.906               Magadan1          3903.313
       239   03 Jun 2027 01:02:28.823   03 Jun 2027 01:03:50.926            82.103                Novosib          2565.719
       240   03 Jun 2027 01:04:43.552   03 Jun 2027 01:04:48.275             4.723                 Moscow           147.594
       241   03 Jun 2027 01:04:57.677   03 Jun 2027 01:05:19.157            21.480                 Moscow           671.250
       242   03 Jun 2027 01:14:31.607   03 Jun 2027 01:16:08.255            96.648                  Delhi          3020.250
       243   03 Jun 2027 01:36:13.663   03 Jun 2027 01:36:31.739            18.076               CapeTown           564.875
       244   03 Jun 2027 02:25:21.088   03 Jun 2027 02:27:00.456            99.368                Anadyr2          3105.250
       245   03 Jun 2027 02:27:41.519   03 Jun 2027 02:27:57.754            16.235                Anadyr1           507.344
       246   03 Jun 2027 02:29:25.792   03 Jun 2027 02:30:45.491            79.699               Magadan1          2490.594
       247   03 Jun 2027 02:34:08.966   03 Jun 2027 02:34:38.487            29.521               Magadan1           922.531
       248   03 Jun 2027 02:35:50.854   03 Jun 2027 02:36:03.901            13.047                Norilsk           407.719
       249   03 Jun 2027 02:36:43.157   03 Jun 2027 02:37:57.248            74.091              Murmansk2          2315.344
       250   03 Jun 2027 02:38:23.323   03 Jun 2027 02:38:39.684            16.361              Murmansk1           511.281
       251   03 Jun 2027 02:39:07.928   03 Jun 2027 02:39:50.899            42.971                Novosib          1342.844
       252   03 Jun 2027 02:42:57.144   03 Jun 2027 02:43:29.520            32.376                Novosib          1011.750
       253   03 Jun 2027 02:48:46.450   03 Jun 2027 02:49:32.064            45.614                 Moscow          1425.437
       254   03 Jun 2027 03:08:00.110   03 Jun 2027 03:08:32.988            32.878               CapeTown          1027.437
       255   03 Jun 2027 03:13:55.955   03 Jun 2027 03:14:18.724            22.769               CapeTown           711.531
       256   03 Jun 2027 04:06:51.582   03 Jun 2027 04:06:57.678             6.096               Magadan2           190.500
       257   03 Jun 2027 04:06:59.314   03 Jun 2027 04:07:20.053            20.739               Magadan1           648.094
       258   03 Jun 2027 04:07:25.335   03 Jun 2027 04:07:43.254            17.919               Magadan1           559.969
       259   03 Jun 2027 04:07:48.141   03 Jun 2027 04:08:21.971            33.830                Anadyr2          1057.188
       260   03 Jun 2027 04:08:21.971   03 Jun 2027 04:11:31.361           189.390                Anadyr1          5918.437
       261   03 Jun 2027 04:11:45.676   03 Jun 2027 04:13:29.631           103.955                Anadyr2          3248.594
       262   03 Jun 2027 05:45:15.551   03 Jun 2027 05:48:27.691           192.140               Magadan1          6004.375
       263   03 Jun 2027 05:48:27.691   03 Jun 2027 05:49:07.131            39.440               Magadan2          1232.500
       264   03 Jun 2027 07:18:27.488   03 Jun 2027 07:18:45.954            18.466               Magadan2           577.063
       265   03 Jun 2027 07:18:50.087   03 Jun 2027 07:19:22.163            32.076               Magadan2          1002.375
       266   03 Jun 2027 07:19:30.431   03 Jun 2027 07:19:57.086            26.655               Magadan1           832.969
       267   03 Jun 2027 07:19:57.086   03 Jun 2027 07:20:15.403            18.317               Magadan2           572.406
       268   03 Jun 2027 07:20:30.065   03 Jun 2027 07:21:53.561            83.496                Anadyr1          2609.250
       269   03 Jun 2027 07:22:10.491   03 Jun 2027 07:22:27.800            17.309               Magadan1           540.906
       270   03 Jun 2027 07:22:27.800   03 Jun 2027 07:23:03.029            35.229               Magadan2          1100.906
       271   03 Jun 2027 07:23:15.018   03 Jun 2027 07:23:48.321            33.303               Magadan2          1040.719
       272   03 Jun 2027 07:23:50.344   03 Jun 2027 07:23:57.909             7.565                Anadyr2           236.406
       273   03 Jun 2027 07:26:20.288   03 Jun 2027 07:26:49.093            28.805                Norilsk           900.156
       274   03 Jun 2027 07:59:51.163   03 Jun 2027 08:00:28.714            37.551            RioGallegos          1173.469
       275   03 Jun 2027 08:10:39.487   03 Jun 2027 08:11:01.527            22.040            RioGallegos           688.750
       276   03 Jun 2027 08:37:45.791   03 Jun 2027 08:39:07.706            81.915                Sumatra          2559.844
       277   03 Jun 2027 08:55:16.037   03 Jun 2027 08:55:29.931            13.894               Magadan1           434.187
       278   03 Jun 2027 08:55:29.931   03 Jun 2027 08:55:58.517            28.586               Magadan2           893.313
       279   03 Jun 2027 08:56:09.628   03 Jun 2027 08:57:30.282            80.654               Magadan1          2520.438
       280   03 Jun 2027 08:58:42.082   03 Jun 2027 08:58:54.796            12.714                Irkutsk           397.313
       281   03 Jun 2027 08:59:00.401   03 Jun 2027 08:59:57.858            57.457                Irkutsk          1795.531
       282   03 Jun 2027 09:00:05.185   03 Jun 2027 09:00:16.128            10.943                Irkutsk           341.969
       283   03 Jun 2027 09:00:48.849   03 Jun 2027 09:00:49.463             0.614                Irkutsk            19.187
       284   03 Jun 2027 09:04:43.821   03 Jun 2027 09:04:50.529             6.708              Murmansk2           209.625
       285   03 Jun 2027 09:35:57.811   03 Jun 2027 09:36:42.266            44.455            RioGallegos          1389.219
       286   03 Jun 2027 09:38:16.191   03 Jun 2027 09:38:32.499            16.308            RioGallegos           509.625
       287   03 Jun 2027 09:42:40.786   03 Jun 2027 09:43:06.481            25.695            RioGallegos           802.969
       288   03 Jun 2027 10:10:24.660   03 Jun 2027 10:10:37.038            12.378                Sumatra           386.813
       289   03 Jun 2027 10:13:22.701   03 Jun 2027 10:14:51.772            89.071                Sumatra          2783.469
       290   03 Jun 2027 10:30:48.114   03 Jun 2027 10:30:57.879             9.765                  Delhi           305.156
       291   03 Jun 2027 10:32:42.989   03 Jun 2027 10:33:01.138            18.149                Irkutsk           567.156
       292   03 Jun 2027 10:34:04.587   03 Jun 2027 10:34:34.246            29.659                Norilsk           926.844
       293   03 Jun 2027 10:34:38.754   03 Jun 2027 10:35:22.278            43.524                Norilsk          1360.125
       294   03 Jun 2027 10:35:41.550   03 Jun 2027 10:36:14.396            32.846                Irkutsk          1026.437
       295   03 Jun 2027 10:36:22.040   03 Jun 2027 10:36:25.440             3.400                Novosib           106.250
       296   03 Jun 2027 10:36:32.979   03 Jun 2027 10:36:38.898             5.919                Norilsk           184.969
       297   03 Jun 2027 11:18:49.992   03 Jun 2027 11:19:43.490            53.498            RioGallegos          1671.812
       298   03 Jun 2027 11:54:57.863   03 Jun 2027 11:56:23.947            86.084                  Delhi          2690.125
       299   03 Jun 2027 12:03:25.290   03 Jun 2027 12:04:50.117            84.827                  Delhi          2650.844
       300   03 Jun 2027 12:16:36.778   03 Jun 2027 12:16:56.690            19.912                Norilsk           622.250
       301   03 Jun 2027 13:38:56.364   03 Jun 2027 13:42:06.889           190.525                 Moscow          5953.906
       302   03 Jun 2027 13:42:26.770   03 Jun 2027 13:43:56.164            89.394              Murmansk1          2793.563
       303   03 Jun 2027 13:44:37.209   03 Jun 2027 13:45:36.842            59.633              Murmansk2          1863.531
       304   03 Jun 2027 13:47:31.033   03 Jun 2027 13:47:50.920            19.887                Norilsk           621.469
       305   03 Jun 2027 13:48:07.930   03 Jun 2027 13:49:00.322            52.392                Norilsk          1637.250
       306   03 Jun 2027 14:53:02.117   03 Jun 2027 14:53:57.946            55.829               CapeTown          1744.656
       307   03 Jun 2027 14:54:02.362   03 Jun 2027 14:54:40.877            38.515               CapeTown          1203.594
       308   03 Jun 2027 14:55:27.171   03 Jun 2027 14:56:27.788            60.617               CapeTown          1894.281
       309   03 Jun 2027 15:02:25.944   03 Jun 2027 15:03:32.536            66.592               CapeTown          2081.000
       310   03 Jun 2027 15:19:52.609   03 Jun 2027 15:19:54.736             2.127              Murmansk1            66.469
       311   03 Jun 2027 15:19:54.736   03 Jun 2027 15:20:00.762             6.026              Murmansk2           188.313
       312   03 Jun 2027 15:20:47.893   03 Jun 2027 15:20:49.016             1.123              Murmansk1            35.094
       313   03 Jun 2027 15:20:57.811   03 Jun 2027 15:21:41.587            43.776              Murmansk1          1368.000
       314   03 Jun 2027 15:23:59.791   03 Jun 2027 15:24:44.338            44.547              Murmansk1          1392.094
       315   03 Jun 2027 15:29:45.207   03 Jun 2027 15:30:01.611            16.404              Murmansk2           512.625
       316   03 Jun 2027 15:33:18.805   03 Jun 2027 15:35:50.030           151.225                Anadyr2          4725.781
       317   03 Jun 2027 15:42:08.943   03 Jun 2027 15:42:49.564            40.621                Anadyr2          1269.406
       318   03 Jun 2027 16:38:31.713   03 Jun 2027 16:39:10.206            38.493               CapeTown          1202.906
       319   03 Jun 2027 16:59:45.656   03 Jun 2027 17:01:41.438           115.782              Murmansk1          3618.187
       320   03 Jun 2027 17:03:46.017   03 Jun 2027 17:04:24.075            38.058              Murmansk2          1189.312
       321   03 Jun 2027 17:08:58.888   03 Jun 2027 17:10:11.614            72.726                Anadyr2          2272.687
       322   03 Jun 2027 17:12:01.872   03 Jun 2027 17:12:30.558            28.686               Magadan2           896.437
       323   03 Jun 2027 17:14:18.307   03 Jun 2027 17:15:24.868            66.561               Magadan1          2080.031
       324   03 Jun 2027 17:15:49.465   03 Jun 2027 17:16:30.272            40.807               Magadan1          1275.219
       325   03 Jun 2027 17:20:59.481   03 Jun 2027 17:21:05.499             6.018               Magadan2           188.063
       326   03 Jun 2027 18:44:54.397   03 Jun 2027 18:46:51.954           117.557                Anadyr1          3673.656
       327   03 Jun 2027 18:47:10.358   03 Jun 2027 18:48:12.020            61.662                Anadyr2          1926.937
       328   03 Jun 2027 18:48:33.937   03 Jun 2027 18:50:18.106           104.169               Magadan1          3255.281
       329   03 Jun 2027 18:50:18.106   03 Jun 2027 18:51:04.857            46.751               Magadan2          1460.969
       330   03 Jun 2027 18:51:57.885   03 Jun 2027 18:51:59.728             1.843               Magadan1            57.594
       331   03 Jun 2027 18:52:40.583   03 Jun 2027 18:53:02.958            22.375               Magadan1           699.219
       332   03 Jun 2027 18:55:36.660   03 Jun 2027 18:55:42.509             5.849               Magadan1           182.781
       333   03 Jun 2027 18:56:15.238   03 Jun 2027 18:56:25.834            10.596               Magadan2           331.125
       334   03 Jun 2027 18:58:10.614   03 Jun 2027 18:58:14.557             3.943               Magadan1           123.219
       335   03 Jun 2027 18:59:35.451   03 Jun 2027 18:59:54.674            19.223               Magadan2           600.719
       336   03 Jun 2027 19:40:52.093   03 Jun 2027 19:43:34.659           162.566            RioGallegos          5080.187
       337   03 Jun 2027 19:46:59.190   03 Jun 2027 19:47:07.689             8.499            RioGallegos           265.594
       338   03 Jun 2027 20:21:55.303   03 Jun 2027 20:22:46.610            51.307                Anadyr1          1603.344
       339   03 Jun 2027 20:22:52.439   03 Jun 2027 20:25:06.340           133.901                Norilsk          4184.406
       340   03 Jun 2027 20:25:22.705   03 Jun 2027 20:26:11.617            48.912                Norilsk          1528.500
       341   03 Jun 2027 20:27:42.385   03 Jun 2027 20:28:32.392            50.007                Irkutsk          1562.719
       342   03 Jun 2027 20:29:01.790   03 Jun 2027 20:31:00.296           118.506                Irkutsk          3703.313
       343   03 Jun 2027 20:42:29.270   03 Jun 2027 20:44:56.465           147.195                Sumatra          4599.844
       344   03 Jun 2027 20:46:55.082   03 Jun 2027 20:48:20.617            85.535                Sumatra          2672.969
       345   03 Jun 2027 22:00:00.261   03 Jun 2027 22:00:29.435            29.174                Norilsk           911.688
       346   03 Jun 2027 22:02:33.028   03 Jun 2027 22:03:56.350            83.322                Irkutsk          2603.813
       347   03 Jun 2027 22:04:10.840   03 Jun 2027 22:06:42.467           151.627                Novosib          4738.344
       348   03 Jun 2027 22:12:48.885   03 Jun 2027 22:14:51.133           122.248                  Delhi          3820.250
       349   03 Jun 2027 23:34:39.120   03 Jun 2027 23:34:52.346            13.226                Norilsk           413.313
       350   03 Jun 2027 23:34:58.099   03 Jun 2027 23:35:04.291             6.192                Norilsk           193.500
       351   03 Jun 2027 23:35:11.715   03 Jun 2027 23:36:32.222            80.507               Magadan1          2515.844
       352   03 Jun 2027 23:36:33.846   03 Jun 2027 23:36:34.268             0.422                Norilsk            13.187
       353   03 Jun 2027 23:36:44.120   03 Jun 2027 23:37:12.985            28.865               Magadan1           902.031
       354   03 Jun 2027 23:37:31.611   03 Jun 2027 23:39:17.637           106.026              Murmansk2          3313.312
       355   03 Jun 2027 23:39:57.476   03 Jun 2027 23:42:04.633           127.157              Murmansk1          3973.656
       356   03 Jun 2027 23:52:38.321   03 Jun 2027 23:52:46.420             8.099                  Delhi           253.094
       357   03 Jun 2027 23:54:34.305   03 Jun 2027 23:54:57.221            22.916                  Delhi           716.125
       358   03 Jun 2027 23:55:42.300   03 Jun 2027 23:57:43.467           121.167                  Delhi          3786.469
       359   04 Jun 2027 01:03:18.284   04 Jun 2027 01:03:23.244             4.960                Anadyr2           155.000
       360   04 Jun 2027 01:06:01.474   04 Jun 2027 01:06:25.578            24.104                Anadyr2           753.250
       361   04 Jun 2027 01:09:17.609   04 Jun 2027 01:11:04.893           107.284               Magadan1          3352.625
       362   04 Jun 2027 01:11:04.893   04 Jun 2027 01:11:23.507            18.614               Magadan2           581.688
       363   04 Jun 2027 01:11:26.092   04 Jun 2027 01:13:02.646            96.554               Magadan2          3017.313
       364   04 Jun 2027 01:13:24.720   04 Jun 2027 01:15:05.254           100.534              Murmansk1          3141.688
       365   04 Jun 2027 01:23:44.854   04 Jun 2027 01:25:49.866           125.012                 Moscow          3906.625
       366   04 Jun 2027 02:37:11.387   04 Jun 2027 02:39:46.125           154.738                Anadyr2          4835.563
       367   04 Jun 2027 02:40:55.680   04 Jun 2027 02:41:23.726            28.046               Magadan2           876.437
       368   04 Jun 2027 02:43:21.437   04 Jun 2027 02:43:51.749            30.312               Magadan1           947.250
       369   04 Jun 2027 02:46:38.445   04 Jun 2027 02:47:05.128            26.683                Norilsk           833.844
       370   04 Jun 2027 02:48:44.964   04 Jun 2027 02:49:05.946            20.982              Murmansk2           655.687
       371   04 Jun 2027 02:49:09.930   04 Jun 2027 02:50:25.979            76.049              Murmansk1          2376.531
       372   04 Jun 2027 02:51:19.855   04 Jun 2027 02:51:38.458            18.603                Novosib           581.344
       373   04 Jun 2027 02:53:11.491   04 Jun 2027 02:53:17.811             6.320                 Moscow           197.500
       374   04 Jun 2027 02:55:30.368   04 Jun 2027 02:55:53.329            22.961                 Moscow           717.531
       375   04 Jun 2027 03:15:51.449   04 Jun 2027 03:16:26.215            34.766               CapeTown          1086.437
       376   04 Jun 2027 04:19:20.000   04 Jun 2027 04:20:56.045            96.045               Magadan2          3001.406
       377   04 Jun 2027 04:20:56.045   04 Jun 2027 04:21:02.474             6.429               Magadan1           200.906
       378   04 Jun 2027 04:21:12.659   04 Jun 2027 04:22:10.218            57.559               Magadan1          1798.719
       379   04 Jun 2027 05:57:31.797   04 Jun 2027 05:58:24.957            53.160                Anadyr1          1661.250
       380   04 Jun 2027 05:59:16.593   04 Jun 2027 06:00:00.485            43.892               Magadan1          1371.625
       381   04 Jun 2027 07:30:37.003   04 Jun 2027 07:30:42.222             5.219               Magadan1           163.094
       382   04 Jun 2027 07:30:44.629   04 Jun 2027 07:30:49.683             5.054               Magadan1           157.937
       383   04 Jun 2027 07:30:49.683   04 Jun 2027 07:31:25.566            35.883               Magadan2          1121.344
       384   04 Jun 2027 07:31:32.253   04 Jun 2027 07:32:02.880            30.627               Magadan1           957.094
       385   04 Jun 2027 07:32:02.880   04 Jun 2027 07:33:05.465            62.585               Magadan2          1955.781
       386   04 Jun 2027 07:33:29.940   04 Jun 2027 07:33:34.855             4.915               Magadan2           153.594
       387   04 Jun 2027 07:33:54.528   04 Jun 2027 07:35:05.018            70.490                Anadyr1          2202.813
       388   04 Jun 2027 07:35:15.958   04 Jun 2027 07:35:25.305             9.347               Magadan1           292.094
       389   04 Jun 2027 07:35:28.976   04 Jun 2027 07:36:09.113            40.137               Magadan2          1254.281
       390   04 Jun 2027 07:36:21.041   04 Jun 2027 07:36:40.934            19.893               Magadan1           621.656
       391   04 Jun 2027 07:36:42.602   04 Jun 2027 07:36:44.445             1.843               Magadan1            57.594
       392   04 Jun 2027 07:37:59.530   04 Jun 2027 07:38:17.858            18.328                Norilsk           572.750
       393   04 Jun 2027 08:11:42.331   04 Jun 2027 08:12:23.764            41.433            RioGallegos          1294.781
       394   04 Jun 2027 08:15:23.457   04 Jun 2027 08:15:25.116             1.659            RioGallegos            51.844
       395   04 Jun 2027 08:18:40.273   04 Jun 2027 08:19:35.847            55.574            RioGallegos          1736.688
       396   04 Jun 2027 08:48:07.042   04 Jun 2027 08:48:55.671            48.629                Sumatra          1519.656
       397   04 Jun 2027 09:10:48.893   04 Jun 2027 09:10:57.068             8.175                Irkutsk           255.469
       398   04 Jun 2027 09:11:00.510   04 Jun 2027 09:11:53.264            52.754                Irkutsk          1648.562
       399   04 Jun 2027 09:12:28.294   04 Jun 2027 09:12:29.356             1.062                Irkutsk            33.188
       400   04 Jun 2027 09:13:29.500   04 Jun 2027 09:14:14.153            44.653                Novosib          1395.406
       401   04 Jun 2027 09:48:17.305   04 Jun 2027 09:48:26.014             8.709            RioGallegos           272.156
       402   04 Jun 2027 09:51:58.379   04 Jun 2027 09:52:28.060            29.681            RioGallegos           927.531
       403   04 Jun 2027 10:22:36.741   04 Jun 2027 10:23:50.178            73.437                Sumatra          2294.906
       404   04 Jun 2027 10:44:38.213   04 Jun 2027 10:45:12.228            34.015                Irkutsk          1062.969
       405   04 Jun 2027 10:45:51.311   04 Jun 2027 10:45:54.177             2.866                Irkutsk            89.562
       406   04 Jun 2027 10:46:03.476   04 Jun 2027 10:46:15.591            12.115                Novosib           378.594
       407   04 Jun 2027 10:46:20.875   04 Jun 2027 10:46:20.893             0.018                Novosib             0.562
       408   04 Jun 2027 10:46:46.160   04 Jun 2027 10:47:13.490            27.330                Norilsk           854.063
       409   04 Jun 2027 10:47:36.717   04 Jun 2027 10:47:40.110             3.393                Novosib           106.031
       410   04 Jun 2027 10:47:55.847   04 Jun 2027 10:48:04.093             8.246                Irkutsk           257.688
       411   04 Jun 2027 12:07:20.979   04 Jun 2027 12:11:18.029           237.050                  Delhi          7407.812
       412   04 Jun 2027 12:19:59.220   04 Jun 2027 12:20:08.998             9.778                Norilsk           305.563
       413   04 Jun 2027 12:22:54.327   04 Jun 2027 12:24:00.373            66.046                Norilsk          2063.938
       414   04 Jun 2027 13:51:01.578   04 Jun 2027 13:54:14.671           193.093                 Moscow          6034.156
       415   04 Jun 2027 13:54:33.081   04 Jun 2027 13:55:57.228            84.147              Murmansk2          2629.594
       416   04 Jun 2027 13:56:05.033   04 Jun 2027 13:56:34.275            29.242              Murmansk1           913.813
       417   04 Jun 2027 13:57:45.564   04 Jun 2027 13:57:56.679            11.115              Murmansk2           347.344
       418   04 Jun 2027 13:58:06.785   04 Jun 2027 13:58:27.239            20.454              Murmansk2           639.187
       419   04 Jun 2027 14:00:26.103   04 Jun 2027 14:01:33.882            67.779                Norilsk          2118.094
       420   04 Jun 2027 14:03:51.298   04 Jun 2027 14:04:07.989            16.691                Norilsk           521.594
       421   04 Jun 2027 14:11:23.456   04 Jun 2027 14:12:18.732            55.276                Anadyr2          1727.375
       422   04 Jun 2027 14:13:03.042   04 Jun 2027 14:14:09.878            66.836                Anadyr2          2088.625
       423   04 Jun 2027 15:07:06.405   04 Jun 2027 15:08:17.854            71.449               CapeTown          2232.781
       424   04 Jun 2027 15:32:14.426   04 Jun 2027 15:32:34.101            19.675              Murmansk1           614.844
       425   04 Jun 2027 15:32:44.963   04 Jun 2027 15:33:42.641            57.678              Murmansk2          1802.438
       426   04 Jun 2027 15:37:45.092   04 Jun 2027 15:37:53.328             8.236              Murmansk1           257.375
       427   04 Jun 2027 15:39:28.404   04 Jun 2027 15:39:49.043            20.639              Murmansk1           644.969
       428   04 Jun 2027 15:41:30.518   04 Jun 2027 15:41:46.127            15.609              Murmansk1           487.781
       429   04 Jun 2027 15:45:16.020   04 Jun 2027 15:47:27.415           131.395                Anadyr2          4106.094
       430   04 Jun 2027 15:50:13.087   04 Jun 2027 15:50:17.746             4.659                Anadyr1           145.594
       431   04 Jun 2027 15:50:34.346   04 Jun 2027 15:50:44.488            10.142                Anadyr1           316.938
       432   04 Jun 2027 15:51:06.969   04 Jun 2027 15:51:08.629             1.660                Anadyr1            51.875
       433   04 Jun 2027 15:53:43.944   04 Jun 2027 15:54:14.992            31.048                Anadyr2           970.250
       434   04 Jun 2027 16:48:14.258   04 Jun 2027 16:48:22.855             8.597               CapeTown           268.656
       435   04 Jun 2027 16:51:02.517   04 Jun 2027 16:51:20.992            18.475               CapeTown           577.344
       436   04 Jun 2027 17:12:32.956   04 Jun 2027 17:15:09.965           157.009              Murmansk2          4906.531
       437   04 Jun 2027 17:20:59.997   04 Jun 2027 17:21:40.846            40.849                Anadyr1          1276.531
       438   04 Jun 2027 17:21:53.222   04 Jun 2027 17:22:36.650            43.428                Anadyr2          1357.125
       439   04 Jun 2027 17:23:18.194   04 Jun 2027 17:23:22.746             4.552                Anadyr2           142.250
       440   04 Jun 2027 17:23:51.925   04 Jun 2027 17:26:03.497           131.572               Magadan1          4111.625
       441   04 Jun 2027 17:28:58.241   04 Jun 2027 17:29:27.840            29.599               Magadan1           924.969
       442   04 Jun 2027 18:56:55.658   04 Jun 2027 18:58:53.538           117.880                Anadyr1          3683.750
       443   04 Jun 2027 18:58:58.373   04 Jun 2027 19:00:53.188           114.815                Anadyr2          3587.969
       444   04 Jun 2027 19:01:28.242   04 Jun 2027 19:03:26.764           118.522               Magadan1          3703.812
       445   04 Jun 2027 19:06:25.783   04 Jun 2027 19:07:04.345            38.562               Magadan2          1205.062
       446   04 Jun 2027 19:52:17.511   04 Jun 2027 19:55:20.185           182.674            RioGallegos          5708.563
       447   04 Jun 2027 19:58:52.549   04 Jun 2027 19:59:15.012            22.463            RioGallegos           701.969
       448   04 Jun 2027 20:32:41.304   04 Jun 2027 20:33:10.784            29.480                Anadyr1           921.250
       449   04 Jun 2027 20:35:09.578   04 Jun 2027 20:38:05.155           175.577                Norilsk          5486.781
       450   04 Jun 2027 20:38:08.613   04 Jun 2027 20:38:40.329            31.716                Norilsk           991.125
       451   04 Jun 2027 20:39:58.024   04 Jun 2027 20:40:04.715             6.691                Irkutsk           209.094
       452   04 Jun 2027 20:41:01.120   04 Jun 2027 20:42:25.744            84.624                Irkutsk          2644.500
       453   04 Jun 2027 20:47:37.049   04 Jun 2027 20:48:25.661            48.612                Irkutsk          1519.125
       454   04 Jun 2027 20:53:48.204   04 Jun 2027 20:56:39.453           171.249                Sumatra          5351.531
       455   04 Jun 2027 22:10:40.747   04 Jun 2027 22:11:12.746            31.999                Norilsk           999.969
       456   04 Jun 2027 22:11:17.412   04 Jun 2027 22:11:39.214            21.802               Magadan1           681.312
       457   04 Jun 2027 22:14:33.166   04 Jun 2027 22:15:27.976            54.810                Irkutsk          1712.812
       458   04 Jun 2027 22:15:34.465   04 Jun 2027 22:18:39.428           184.963                Novosib          5780.094
       459   04 Jun 2027 22:23:53.149   04 Jun 2027 22:25:00.525            67.376                  Delhi          2105.500
       460   04 Jun 2027 22:31:13.414   04 Jun 2027 22:31:38.491            25.077                  Delhi           783.656
       461   04 Jun 2027 23:45:50.243   04 Jun 2027 23:46:48.711            58.468                Anadyr2          1827.125
       462   04 Jun 2027 23:46:49.207   04 Jun 2027 23:47:20.535            31.328                Norilsk           979.000
       463   04 Jun 2027 23:47:35.772   04 Jun 2027 23:48:23.918            48.146               Magadan1          1504.562
       464   04 Jun 2027 23:49:21.473   04 Jun 2027 23:54:03.824           282.351              Murmansk1          8823.469
       465   05 Jun 2027 00:40:09.808   05 Jun 2027 00:40:50.281            40.473            RioGallegos          1264.781
       466   05 Jun 2027 00:45:04.267   05 Jun 2027 00:45:08.359             4.092            RioGallegos           127.875
       467   05 Jun 2027 01:15:00.767   05 Jun 2027 01:15:53.441            52.674                Anadyr2          1646.062
       468   05 Jun 2027 01:16:12.886   05 Jun 2027 01:16:40.284            27.398                Anadyr2           856.188
       469   05 Jun 2027 01:17:21.201   05 Jun 2027 01:18:10.300            49.099                Anadyr1          1534.344
       470   05 Jun 2027 01:20:49.124   05 Jun 2027 01:21:51.136            62.012               Magadan1          1937.875
       471   05 Jun 2027 01:21:51.136   05 Jun 2027 01:22:37.047            45.911               Magadan2          1434.719
       472   05 Jun 2027 01:24:49.906   05 Jun 2027 01:26:08.447            78.541              Murmansk2          2454.406
       473   05 Jun 2027 01:26:38.434   05 Jun 2027 01:27:51.764            73.330                Novosib          2291.563
       474   05 Jun 2027 01:28:18.223   05 Jun 2027 01:28:24.603             6.380                Novosib           199.375
       475   05 Jun 2027 01:29:01.630   05 Jun 2027 01:29:10.790             9.160                 Moscow           286.250
       476   05 Jun 2027 01:29:52.015   05 Jun 2027 01:30:23.447            31.432                Novosib           982.250
       477   05 Jun 2027 01:34:18.781   05 Jun 2027 01:34:41.425            22.644                 Moscow           707.625
       478   05 Jun 2027 01:38:21.534   05 Jun 2027 01:38:51.450            29.916                 Moscow           934.875
       479   05 Jun 2027 01:53:47.337   05 Jun 2027 01:54:20.870            33.533               CapeTown          1047.906
       480   05 Jun 2027 01:58:59.730   05 Jun 2027 01:59:07.915             8.185               CapeTown           255.781
       481   05 Jun 2027 01:59:53.985   05 Jun 2027 02:00:46.869            52.884               CapeTown          1652.625
       482   05 Jun 2027 02:49:03.186   05 Jun 2027 02:50:19.053            75.867                Anadyr1          2370.844
