uniorb/output/strategy_4/Drop/Drop_KinoSat_111406.txt

KinoSat_111406
-------------------------
    Access    *     Start Time (UTCG)     *     Stop Time (UTCG)  *   Duration (s)        *       Station  *  Data (Mbytes)
         1   01 Jun 2027 03:15:07.808   01 Jun 2027 03:15:36.266            28.458              Murmansk1           889.313
         2   01 Jun 2027 03:15:36.266   01 Jun 2027 03:15:46.102             9.836              Murmansk2           307.375
         3   01 Jun 2027 03:15:46.826   01 Jun 2027 03:15:56.264             9.438                Novosib           294.938
         4   01 Jun 2027 03:15:56.727   01 Jun 2027 03:16:23.561            26.834              Murmansk2           838.562
         5   01 Jun 2027 03:16:30.126   01 Jun 2027 03:18:00.797            90.671                Novosib          2833.469
         6   01 Jun 2027 03:18:09.326   01 Jun 2027 03:19:36.527            87.201              Murmansk1          2725.031
         7   01 Jun 2027 03:19:50.757   01 Jun 2027 03:20:22.396            31.639              Murmansk2           988.719
         8   01 Jun 2027 03:20:32.304   01 Jun 2027 03:20:51.323            19.019                 Moscow           594.344
         9   01 Jun 2027 03:21:21.013   01 Jun 2027 03:23:03.785           102.772                 Moscow          3211.625
        10   01 Jun 2027 03:36:16.379   01 Jun 2027 03:39:26.034           189.655               CapeTown          5926.719
        11   01 Jun 2027 03:42:20.058   01 Jun 2027 03:42:47.775            27.717               CapeTown           866.156
        12   01 Jun 2027 04:32:22.876   01 Jun 2027 04:33:33.445            70.569                Anadyr1          2205.281
        13   01 Jun 2027 04:39:52.917   01 Jun 2027 04:41:05.519            72.602                Anadyr2          2268.813
        14   01 Jun 2027 04:51:15.365   01 Jun 2027 04:51:55.037            39.672                Norilsk          1239.750
        15   01 Jun 2027 04:52:08.529   01 Jun 2027 04:52:39.951            31.422                Norilsk           981.938
        16   01 Jun 2027 04:52:49.608   01 Jun 2027 04:55:32.250           162.642              Murmansk2          5082.562
        17   01 Jun 2027 05:12:52.932   01 Jun 2027 05:13:34.234            41.302               CapeTown          1290.687
        18   01 Jun 2027 06:15:27.437   01 Jun 2027 06:17:48.633           141.196               Magadan2          4412.375
        19   01 Jun 2027 06:18:47.277   01 Jun 2027 06:18:54.318             7.041               Magadan2           220.031
        20   01 Jun 2027 06:18:58.770   01 Jun 2027 06:19:25.482            26.712               Magadan2           834.750
        21   01 Jun 2027 06:20:07.179   01 Jun 2027 06:21:06.628            59.449                Anadyr2          1857.781
        22   01 Jun 2027 07:52:32.162   01 Jun 2027 07:55:21.117           168.955                Anadyr2          5279.844
        23   01 Jun 2027 09:27:11.965   01 Jun 2027 09:30:55.302           223.337               Magadan1          6979.281
        24   01 Jun 2027 09:32:14.129   01 Jun 2027 09:32:25.022            10.893                Irkutsk           340.406
        25   01 Jun 2027 09:32:41.632   01 Jun 2027 09:33:01.173            19.541                Novosib           610.656
        26   01 Jun 2027 09:33:13.341   01 Jun 2027 09:33:34.295            20.954                Novosib           654.813
        27   01 Jun 2027 09:34:29.576   01 Jun 2027 09:34:45.420            15.844                Norilsk           495.125
        28   01 Jun 2027 09:37:07.766   01 Jun 2027 09:37:35.512            27.746              Murmansk2           867.063
        29   01 Jun 2027 10:07:08.443   01 Jun 2027 10:08:32.560            84.117            RioGallegos          2628.656
        30   01 Jun 2027 10:09:31.187   01 Jun 2027 10:10:30.890            59.703            RioGallegos          1865.719
        31   01 Jun 2027 10:42:17.862   01 Jun 2027 10:44:42.973           145.111                Sumatra          4534.719
        32   01 Jun 2027 11:04:10.368   01 Jun 2027 11:05:00.291            49.923                Novosib          1560.094
        33   01 Jun 2027 11:05:11.760   01 Jun 2027 11:05:29.215            17.455              Murmansk2           545.469
        34   01 Jun 2027 11:05:31.450   01 Jun 2027 11:08:21.722           170.272                Irkutsk          5321.000
        35   01 Jun 2027 11:08:35.497   01 Jun 2027 11:08:49.182            13.685                Novosib           427.656
        36   01 Jun 2027 11:45:31.861   01 Jun 2027 11:45:49.783            17.922            RioGallegos           560.063
        37   01 Jun 2027 11:46:36.683   01 Jun 2027 11:47:12.273            35.590            RioGallegos          1112.187
        38   01 Jun 2027 11:48:15.424   01 Jun 2027 11:49:20.383            64.959            RioGallegos          2029.969
        39   01 Jun 2027 11:50:29.117   01 Jun 2027 11:50:29.183             0.066            RioGallegos             2.062
        40   01 Jun 2027 12:19:50.241   01 Jun 2027 12:22:19.613           149.372                Sumatra          4667.875
        41   01 Jun 2027 12:26:03.266   01 Jun 2027 12:28:11.366           128.100                Sumatra          4003.125
        42   01 Jun 2027 12:35:51.824   01 Jun 2027 12:36:28.007            36.183                Irkutsk          1130.719
        43   01 Jun 2027 12:37:29.615   01 Jun 2027 12:38:52.203            82.588                Irkutsk          2580.875
        44   01 Jun 2027 12:41:36.706   01 Jun 2027 12:42:24.981            48.275                Norilsk          1508.594
        45   01 Jun 2027 14:05:31.388   01 Jun 2027 14:06:18.537            47.149                  Delhi          1473.406
        46   01 Jun 2027 14:07:05.327   01 Jun 2027 14:09:30.528           145.201                  Delhi          4537.531
        47   01 Jun 2027 14:11:54.134   01 Jun 2027 14:12:31.586            37.452                 Moscow          1170.375
        48   01 Jun 2027 14:14:05.238   01 Jun 2027 14:15:32.381            87.143              Murmansk1          2723.219
        49   01 Jun 2027 14:15:50.315   01 Jun 2027 14:16:10.050            19.735              Murmansk2           616.719
        50   01 Jun 2027 14:16:42.628   01 Jun 2027 14:17:38.436            55.808                Norilsk          1744.000
        51   01 Jun 2027 14:17:53.751   01 Jun 2027 14:18:36.386            42.635                Norilsk          1332.344
        52   01 Jun 2027 14:19:19.645   01 Jun 2027 14:19:54.481            34.836                Norilsk          1088.625
        53   01 Jun 2027 14:22:10.724   01 Jun 2027 14:22:46.841            36.117                Norilsk          1128.656
        54   01 Jun 2027 15:26:37.439   01 Jun 2027 15:28:56.401           138.962               CapeTown          4342.563
        55   01 Jun 2027 15:48:12.915   01 Jun 2027 15:48:42.429            29.514                 Moscow           922.313
        56   01 Jun 2027 15:50:38.740   01 Jun 2027 15:51:09.427            30.687              Murmansk2           958.969
        57   01 Jun 2027 15:51:21.817   01 Jun 2027 15:51:42.231            20.414              Murmansk1           637.937
        58   01 Jun 2027 15:52:13.418   01 Jun 2027 15:53:15.797            62.379              Murmansk1          1949.344
        59   01 Jun 2027 15:58:59.710   01 Jun 2027 15:59:14.714            15.004              Murmansk2           468.875
        60   01 Jun 2027 15:59:19.622   01 Jun 2027 15:59:57.385            37.763              Murmansk1          1180.094
        61   01 Jun 2027 16:05:29.001   01 Jun 2027 16:06:36.470            67.469                Anadyr2          2108.406
        62   01 Jun 2027 16:06:36.470   01 Jun 2027 16:06:52.700            16.230                Anadyr1           507.187
        63   01 Jun 2027 16:07:49.681   01 Jun 2027 16:08:23.659            33.978                Anadyr1          1061.812
        64   01 Jun 2027 16:08:27.389   01 Jun 2027 16:08:53.734            26.345                Anadyr1           823.281
        65   01 Jun 2027 17:00:04.923   01 Jun 2027 17:02:39.412           154.489               CapeTown          4827.781
        66   01 Jun 2027 17:28:42.829   01 Jun 2027 17:32:00.991           198.162                 Moscow          6192.563
        67   01 Jun 2027 17:32:54.919   01 Jun 2027 17:33:28.322            33.403              Murmansk2          1043.844
        68   01 Jun 2027 17:35:06.282   01 Jun 2027 17:35:15.085             8.803              Murmansk1           275.094
        69   01 Jun 2027 17:44:24.477   01 Jun 2027 17:44:51.731            27.254                Anadyr2           851.687
        70   01 Jun 2027 17:45:30.096   01 Jun 2027 17:46:12.615            42.519               Magadan1          1328.719
        71   01 Jun 2027 17:46:40.058   01 Jun 2027 17:46:59.238            19.180               Magadan2           599.375
        72   01 Jun 2027 17:46:59.238   01 Jun 2027 17:47:49.592            50.354               Magadan1          1573.562
        73   01 Jun 2027 18:37:37.424   01 Jun 2027 18:38:25.345            47.921               CapeTown          1497.531
        74   01 Jun 2027 18:42:29.126   01 Jun 2027 18:42:46.288            17.162               CapeTown           536.313
        75   01 Jun 2027 19:16:37.020   01 Jun 2027 19:20:33.931           236.911                Anadyr2          7403.469
        76   01 Jun 2027 19:20:52.961   01 Jun 2027 19:23:59.567           186.606               Magadan2          5831.437
        77   01 Jun 2027 20:52:31.415   01 Jun 2027 20:54:39.531           128.116                Anadyr1          4003.625
        78   01 Jun 2027 20:54:48.787   01 Jun 2027 20:58:06.854           198.067               Magadan1          6189.594
        79   01 Jun 2027 20:58:06.854   01 Jun 2027 20:59:08.210            61.356               Magadan2          1917.375
        80   01 Jun 2027 20:59:18.425   01 Jun 2027 20:59:57.339            38.914                Norilsk          1216.063
        81   01 Jun 2027 21:02:07.149   01 Jun 2027 21:02:16.452             9.303               Magadan1           290.719
        82   01 Jun 2027 21:02:42.712   01 Jun 2027 21:03:39.175            56.463                Irkutsk          1764.469
        83   01 Jun 2027 21:46:52.787   01 Jun 2027 21:49:21.936           149.149            RioGallegos          4660.906
        84   01 Jun 2027 21:52:51.105   01 Jun 2027 21:53:04.845            13.740            RioGallegos           429.375
        85   01 Jun 2027 22:28:05.896   01 Jun 2027 22:30:27.253           141.357                Anadyr1          4417.406
        86   01 Jun 2027 22:30:31.898   01 Jun 2027 22:30:49.724            17.826                Norilsk           557.062
        87   01 Jun 2027 22:30:52.733   01 Jun 2027 22:32:18.068            85.335               Magadan1          2666.719
        88   01 Jun 2027 22:32:18.068   01 Jun 2027 22:32:27.493             9.425               Magadan2           294.531
        89   01 Jun 2027 22:32:40.686   01 Jun 2027 22:33:05.348            24.662               Magadan1           770.688
        90   01 Jun 2027 22:34:29.639   01 Jun 2027 22:34:30.886             1.247                Irkutsk            38.969
        91   01 Jun 2027 22:35:26.363   01 Jun 2027 22:35:40.154            13.791                Irkutsk           430.969
        92   01 Jun 2027 22:36:09.081   01 Jun 2027 22:36:17.264             8.183                Novosib           255.719
        93   01 Jun 2027 22:36:41.199   01 Jun 2027 22:39:18.655           157.456                Irkutsk          4920.500
        94   01 Jun 2027 22:54:56.860   01 Jun 2027 22:55:28.117            31.257                Sumatra           976.781
        95   01 Jun 2027 22:56:34.336   01 Jun 2027 22:57:41.777            67.441                Sumatra          2107.531
        96   01 Jun 2027 23:33:59.531   01 Jun 2027 23:35:04.657            65.126            RioGallegos          2035.188
        97   02 Jun 2027 00:04:09.171   02 Jun 2027 00:05:01.888            52.717                Anadyr2          1647.406
        98   02 Jun 2027 00:06:19.476   02 Jun 2027 00:06:34.962            15.486                Norilsk           483.937
        99   02 Jun 2027 00:06:58.679   02 Jun 2027 00:07:39.618            40.939               Magadan1          1279.344
       100   02 Jun 2027 00:07:39.618   02 Jun 2027 00:08:09.761            30.143               Magadan2           941.969
       101   02 Jun 2027 00:09:09.443   02 Jun 2027 00:09:25.514            16.071               Magadan1           502.219
       102   02 Jun 2027 00:10:04.717   02 Jun 2027 00:10:42.421            37.704               Magadan2          1178.250
       103   02 Jun 2027 00:11:19.438   02 Jun 2027 00:11:48.872            29.434               Magadan2           919.812
       104   02 Jun 2027 00:11:52.846   02 Jun 2027 00:12:17.053            24.207                Irkutsk           756.469
       105   02 Jun 2027 00:12:42.680   02 Jun 2027 00:13:26.731            44.051                Novosib          1376.594
       106   02 Jun 2027 00:14:07.329   02 Jun 2027 00:15:11.791            64.462                Novosib          2014.438
       107   02 Jun 2027 00:18:38.967   02 Jun 2027 00:18:53.548            14.581                  Delhi           455.656
       108   02 Jun 2027 00:19:58.390   02 Jun 2027 00:21:19.259            80.869                  Delhi          2527.156
       109   02 Jun 2027 00:29:09.086   02 Jun 2027 00:29:20.997            11.911                  Delhi           372.219
       110   02 Jun 2027 00:59:39.145   02 Jun 2027 01:00:26.659            47.514            RioGallegos          1484.812
       111   02 Jun 2027 01:03:12.808   02 Jun 2027 01:03:54.431            41.623            RioGallegos          1300.719
       112   02 Jun 2027 01:08:26.759   02 Jun 2027 01:08:38.480            11.721            RioGallegos           366.281
       113   02 Jun 2027 01:36:14.977   02 Jun 2027 01:36:35.451            20.474                Anadyr1           639.813
       114   02 Jun 2027 01:37:31.358   02 Jun 2027 01:38:07.876            36.518                Anadyr2          1141.187
       115   02 Jun 2027 01:38:07.876   02 Jun 2027 01:38:24.479            16.603                Anadyr1           518.844
       116   02 Jun 2027 01:38:42.675   02 Jun 2027 01:38:50.753             8.078                Anadyr2           252.438
       117   02 Jun 2027 01:38:56.370   02 Jun 2027 01:39:12.450            16.080                Anadyr2           502.500
       118   02 Jun 2027 01:41:26.001   02 Jun 2027 01:41:31.146             5.145                Anadyr2           160.781
       119   02 Jun 2027 01:41:51.001   02 Jun 2027 01:42:19.233            28.232                Anadyr1           882.250
       120   02 Jun 2027 01:42:22.449   02 Jun 2027 01:42:53.741            31.292               Magadan2           977.875
       121   02 Jun 2027 01:42:53.741   02 Jun 2027 01:43:00.155             6.414               Magadan1           200.438
       122   02 Jun 2027 01:43:24.582   02 Jun 2027 01:44:13.665            49.083               Magadan2          1533.844
       123   02 Jun 2027 01:44:38.209   02 Jun 2027 01:46:15.125            96.916              Murmansk1          3028.625
       124   02 Jun 2027 01:46:41.185   02 Jun 2027 01:46:51.150             9.965              Murmansk1           311.406
       125   02 Jun 2027 01:46:59.164   02 Jun 2027 01:47:29.836            30.672                Novosib           958.500
       126   02 Jun 2027 01:48:43.734   02 Jun 2027 01:49:40.437            56.703                Irkutsk          1771.969
       127   02 Jun 2027 01:53:51.063   02 Jun 2027 01:54:45.535            54.472                  Delhi          1702.250
       128   02 Jun 2027 02:04:16.845   02 Jun 2027 02:04:28.721            11.876                  Delhi           371.125
       129   02 Jun 2027 03:09:41.793   02 Jun 2027 03:09:56.325            14.532                Anadyr1           454.125
       130   02 Jun 2027 03:09:56.325   02 Jun 2027 03:11:45.296           108.971                Anadyr2          3405.344
       131   02 Jun 2027 03:26:49.801   02 Jun 2027 03:27:22.111            32.310                Norilsk          1009.688
       132   02 Jun 2027 03:28:35.753   02 Jun 2027 03:31:13.005           157.252              Murmansk2          4914.125
       133   02 Jun 2027 03:31:30.550   02 Jun 2027 03:32:38.160            67.610              Murmansk1          2112.812
       134   02 Jun 2027 03:33:19.702   02 Jun 2027 03:36:19.433           179.731                 Moscow          5616.594
       135   02 Jun 2027 03:47:59.047   02 Jun 2027 03:51:20.881           201.834               CapeTown          6307.313
       136   02 Jun 2027 03:51:53.143   02 Jun 2027 03:52:17.632            24.489               CapeTown           765.281
       137   02 Jun 2027 03:59:41.851   02 Jun 2027 04:00:16.481            34.630               CapeTown          1082.188
       138   02 Jun 2027 04:44:20.242   02 Jun 2027 04:45:35.612            75.370                Anadyr1          2355.312
       139   02 Jun 2027 04:51:12.421   02 Jun 2027 04:51:23.757            11.336                Anadyr2           354.250
       140   02 Jun 2027 04:51:23.757   02 Jun 2027 04:52:47.502            83.745                Anadyr1          2617.031
       141   02 Jun 2027 04:52:53.785   02 Jun 2027 04:53:01.297             7.512               Magadan2           234.750
       142   02 Jun 2027 06:28:09.797   02 Jun 2027 06:28:35.032            25.235                Anadyr2           788.594
       143   02 Jun 2027 06:28:52.195   02 Jun 2027 06:32:32.703           220.508               Magadan1          6890.875
       144   02 Jun 2027 06:32:32.703   02 Jun 2027 06:32:49.974            17.271               Magadan2           539.719
       145   02 Jun 2027 08:03:36.399   02 Jun 2027 08:04:43.045            66.646                Anadyr2          2082.687
       146   02 Jun 2027 08:05:00.129   02 Jun 2027 08:05:17.325            17.196               Magadan1           537.375
       147   02 Jun 2027 08:05:26.841   02 Jun 2027 08:08:28.214           181.373                Anadyr1          5667.906
       148   02 Jun 2027 09:39:12.111   02 Jun 2027 09:40:24.061            71.950               Magadan1          2248.438
       149   02 Jun 2027 09:40:36.714   02 Jun 2027 09:40:37.881             1.167                Irkutsk            36.469
       150   02 Jun 2027 09:40:43.961   02 Jun 2027 09:41:47.833            63.872               Magadan2          1996.000
       151   02 Jun 2027 09:42:00.932   02 Jun 2027 09:42:16.209            15.277                Irkutsk           477.406
       152   02 Jun 2027 09:42:30.949   02 Jun 2027 09:43:06.370            35.421                Irkutsk          1106.906
       153   02 Jun 2027 09:43:12.606   02 Jun 2027 09:43:19.043             6.437                Irkutsk           201.156
       154   02 Jun 2027 09:43:55.123   02 Jun 2027 09:44:38.004            42.881                Novosib          1340.031
       155   02 Jun 2027 10:20:06.009   02 Jun 2027 10:20:38.685            32.676            RioGallegos          1021.125
       156   02 Jun 2027 10:54:08.919   02 Jun 2027 10:56:02.300           113.381                Sumatra          3543.156
       157   02 Jun 2027 11:15:21.138   02 Jun 2027 11:15:36.161            15.023                Irkutsk           469.469
       158   02 Jun 2027 11:16:42.653   02 Jun 2027 11:17:29.011            46.358                Irkutsk          1448.688
       159   02 Jun 2027 11:17:38.372   02 Jun 2027 11:17:52.574            14.202                Novosib           443.813
       160   02 Jun 2027 11:17:57.193   02 Jun 2027 11:18:20.808            23.615                Norilsk           737.969
       161   02 Jun 2027 11:18:33.436   02 Jun 2027 11:19:22.124            48.688                Norilsk          1521.500
       162   02 Jun 2027 11:19:38.412   02 Jun 2027 11:19:57.815            19.403                Norilsk           606.344
       163   02 Jun 2027 11:20:04.350   02 Jun 2027 11:20:24.841            20.491                Norilsk           640.344
       164   02 Jun 2027 11:58:19.051   02 Jun 2027 11:58:39.504            20.453            RioGallegos           639.156
       165   02 Jun 2027 12:00:10.344   02 Jun 2027 12:01:12.245            61.901            RioGallegos          1934.406
       166   02 Jun 2027 12:32:58.438   02 Jun 2027 12:34:11.622            73.184                Sumatra          2287.000
       167   02 Jun 2027 12:41:28.033   02 Jun 2027 12:42:22.437            54.404                  Delhi          1700.125
       168   02 Jun 2027 12:45:47.439   02 Jun 2027 12:46:42.829            55.390                Novosib          1730.938
       169   02 Jun 2027 12:48:12.021   02 Jun 2027 12:48:44.843            32.822                Novosib          1025.687
       170   02 Jun 2027 12:49:51.441   02 Jun 2027 12:51:03.902            72.461                Norilsk          2264.406
       171   02 Jun 2027 14:19:39.357   02 Jun 2027 14:22:08.726           149.369                  Delhi          4667.781
       172   02 Jun 2027 14:23:54.470   02 Jun 2027 14:24:59.636            65.166                 Moscow          2036.438
       173   02 Jun 2027 14:26:05.871   02 Jun 2027 14:27:52.514           106.643              Murmansk2          3332.594
       174   02 Jun 2027 14:28:09.165   02 Jun 2027 14:28:23.458            14.293              Murmansk1           446.656
       175   02 Jun 2027 14:29:20.050   02 Jun 2027 14:30:23.853            63.803                Norilsk          1993.844
       176   02 Jun 2027 14:30:50.592   02 Jun 2027 14:31:14.973            24.381                Norilsk           761.906
       177   02 Jun 2027 14:31:56.707   02 Jun 2027 14:33:36.805           100.098                Norilsk          3128.063
       178   02 Jun 2027 15:38:57.092   02 Jun 2027 15:40:36.768            99.676               CapeTown          3114.875
       179   02 Jun 2027 16:02:52.974   02 Jun 2027 16:04:06.285            73.311              Murmansk2          2290.969
       180   02 Jun 2027 16:05:26.101   02 Jun 2027 16:05:39.803            13.702              Murmansk1           428.187
       181   02 Jun 2027 16:10:57.703   02 Jun 2027 16:11:16.716            19.013              Murmansk1           594.156
       182   02 Jun 2027 16:11:55.934   02 Jun 2027 16:12:12.382            16.448              Murmansk1           514.000
       183   02 Jun 2027 16:17:19.875   02 Jun 2027 16:18:39.295            79.420                Anadyr1          2481.875
       184   02 Jun 2027 16:19:50.874   02 Jun 2027 16:20:38.489            47.615                Anadyr2          1487.969
       185   02 Jun 2027 16:20:44.904   02 Jun 2027 16:20:49.489             4.585                Anadyr1           143.281
       186   02 Jun 2027 16:24:14.008   02 Jun 2027 16:24:37.825            23.817                Anadyr2           744.281
       187   02 Jun 2027 17:12:06.469   02 Jun 2027 17:14:28.718           142.249               CapeTown          4445.281
       188   02 Jun 2027 17:41:48.840   02 Jun 2027 17:42:58.217            69.377              Murmansk2          2168.031
       189   02 Jun 2027 17:44:51.488   02 Jun 2027 17:47:01.849           130.361              Murmansk2          4073.781
       190   02 Jun 2027 17:52:44.722   02 Jun 2027 17:53:06.327            21.605                Anadyr1           675.156
       191   02 Jun 2027 17:56:09.191   02 Jun 2027 17:56:14.661             5.470                Anadyr1           170.938
       192   02 Jun 2027 17:56:37.263   02 Jun 2027 17:57:27.650            50.387               Magadan2          1574.594
       193   02 Jun 2027 17:57:27.650   02 Jun 2027 17:58:39.040            71.390               Magadan1          2230.937
       194   02 Jun 2027 18:01:45.686   02 Jun 2027 18:02:13.231            27.545               Magadan1           860.781
       195   02 Jun 2027 19:28:38.664   02 Jun 2027 19:32:31.309           232.645                Anadyr2          7270.156
       196   02 Jun 2027 19:32:33.754   02 Jun 2027 19:34:24.321           110.567               Magadan1          3455.219
       197   02 Jun 2027 19:34:24.321   02 Jun 2027 19:34:42.986            18.665               Magadan2           583.281
       198   02 Jun 2027 19:41:43.903   02 Jun 2027 19:42:01.227            17.324               Magadan1           541.375
       199   02 Jun 2027 21:04:31.892   02 Jun 2027 21:06:41.000           129.108                Anadyr1          4034.625
       200   02 Jun 2027 21:06:50.678   02 Jun 2027 21:10:37.855           227.177               Magadan2          7099.281
       201   02 Jun 2027 21:10:39.964   02 Jun 2027 21:12:09.630            89.666                Norilsk          2802.062
       202   02 Jun 2027 21:13:02.970   02 Jun 2027 21:13:40.425            37.455                Irkutsk          1170.469
       203   02 Jun 2027 21:14:23.159   02 Jun 2027 21:15:17.686            54.527                Irkutsk          1703.969
       204   02 Jun 2027 21:58:44.278   02 Jun 2027 21:59:35.073            50.795            RioGallegos          1587.344
       205   02 Jun 2027 22:03:26.204   02 Jun 2027 22:03:51.719            25.515            RioGallegos           797.344
       206   02 Jun 2027 22:07:04.571   02 Jun 2027 22:07:08.623             4.052            RioGallegos           126.625
       207   02 Jun 2027 22:07:31.475   02 Jun 2027 22:08:13.525            42.050            RioGallegos          1314.063
       208   02 Jun 2027 22:40:01.714   02 Jun 2027 22:42:26.034           144.320                Anadyr1          4510.000
       209   02 Jun 2027 22:42:55.759   02 Jun 2027 22:43:22.120            26.361               Magadan2           823.781
       210   02 Jun 2027 22:43:50.073   02 Jun 2027 22:44:12.924            22.851                Norilsk           714.094
       211   02 Jun 2027 22:44:44.277   02 Jun 2027 22:45:54.353            70.076               Magadan1          2189.875
       212   02 Jun 2027 22:47:24.891   02 Jun 2027 22:48:04.838            39.947                Irkutsk          1248.344
       213   02 Jun 2027 22:50:36.374   02 Jun 2027 22:51:26.200            49.826                Novosib          1557.063
       214   02 Jun 2027 22:54:10.106   02 Jun 2027 22:54:32.675            22.569                Novosib           705.281
       215   02 Jun 2027 23:00:06.643   02 Jun 2027 23:00:46.457            39.814                Sumatra          1244.188
       216   02 Jun 2027 23:03:12.600   02 Jun 2027 23:03:17.766             5.166                Sumatra           161.438
       217   02 Jun 2027 23:04:16.629   02 Jun 2027 23:06:11.557           114.928                Sumatra          3591.500
       218   03 Jun 2027 00:14:31.755   03 Jun 2027 00:14:56.672            24.917                Anadyr2           778.656
       219   03 Jun 2027 00:15:49.553   03 Jun 2027 00:16:48.714            59.161                Anadyr1          1848.781
       220   03 Jun 2027 00:18:21.677   03 Jun 2027 00:20:12.162           110.485                Norilsk          3452.656
       221   03 Jun 2027 00:21:36.079   03 Jun 2027 00:22:10.846            34.767               Magadan2          1086.469
       222   03 Jun 2027 00:22:15.344   03 Jun 2027 00:23:18.376            63.032                Novosib          1969.750
       223   03 Jun 2027 00:24:46.597   03 Jun 2027 00:25:07.112            20.515                Novosib           641.094
       224   03 Jun 2027 00:25:58.904   03 Jun 2027 00:26:19.834            20.930                Novosib           654.063
       225   03 Jun 2027 00:26:45.264   03 Jun 2027 00:27:07.230            21.966                Novosib           686.437
       226   03 Jun 2027 00:29:11.485   03 Jun 2027 00:30:06.375            54.890                Novosib          1715.313
       227   03 Jun 2027 00:31:58.068   03 Jun 2027 00:32:13.697            15.629                  Delhi           488.406
       228   03 Jun 2027 00:36:27.904   03 Jun 2027 00:36:38.121            10.217                  Delhi           319.281
       229   03 Jun 2027 00:37:37.071   03 Jun 2027 00:38:07.520            30.449                  Delhi           951.531
       230   03 Jun 2027 01:10:54.776   03 Jun 2027 01:11:31.177            36.401            RioGallegos          1137.531
       231   03 Jun 2027 01:13:46.042   03 Jun 2027 01:14:21.470            35.428            RioGallegos          1107.125
       232   03 Jun 2027 01:17:33.925   03 Jun 2027 01:18:15.889            41.964            RioGallegos          1311.375
       233   03 Jun 2027 01:47:56.007   03 Jun 2027 01:48:12.806            16.799                Anadyr2           524.969
       234   03 Jun 2027 01:48:46.146   03 Jun 2027 01:49:23.928            37.782                Anadyr2          1180.687
       235   03 Jun 2027 01:50:07.533   03 Jun 2027 01:50:26.064            18.531                Anadyr2           579.094
       236   03 Jun 2027 01:50:47.618   03 Jun 2027 01:50:51.944             4.326                Anadyr1           135.187
       237   03 Jun 2027 01:53:31.632   03 Jun 2027 01:53:56.699            25.067                Anadyr2           783.344
       238   03 Jun 2027 01:54:07.972   03 Jun 2027 01:54:24.807            16.835               Magadan1           526.094
       239   03 Jun 2027 01:54:32.224   03 Jun 2027 01:55:17.560            45.336               Magadan2          1416.750
       240   03 Jun 2027 01:55:42.332   03 Jun 2027 01:56:11.372            29.040               Magadan1           907.500
       241   03 Jun 2027 01:56:36.952   03 Jun 2027 01:58:42.607           125.655              Murmansk1          3926.719
       242   03 Jun 2027 01:58:57.312   03 Jun 2027 01:59:16.743            19.431                Novosib           607.219
       243   03 Jun 2027 02:00:54.263   03 Jun 2027 02:01:06.542            12.279                 Moscow           383.719
       244   03 Jun 2027 02:03:02.632   03 Jun 2027 02:03:05.755             3.123                 Moscow            97.594
       245   03 Jun 2027 02:06:09.642   03 Jun 2027 02:06:37.841            28.199                  Delhi           881.219
       246   03 Jun 2027 02:07:26.671   03 Jun 2027 02:07:27.374             0.703                  Delhi            21.969
       247   03 Jun 2027 02:09:45.670   03 Jun 2027 02:09:48.570             2.900                  Delhi            90.625
       248   03 Jun 2027 02:10:41.149   03 Jun 2027 02:11:05.343            24.194                  Delhi           756.062
       249   03 Jun 2027 02:13:22.671   03 Jun 2027 02:13:55.432            32.761                  Delhi          1023.781
       250   03 Jun 2027 02:29:20.929   03 Jun 2027 02:29:24.874             3.945               CapeTown           123.281
       251   03 Jun 2027 02:30:11.858   03 Jun 2027 02:30:42.634            30.776               CapeTown           961.750
       252   03 Jun 2027 03:22:15.640   03 Jun 2027 03:22:20.010             4.370                Anadyr2           136.562
       253   03 Jun 2027 03:25:24.248   03 Jun 2027 03:25:31.550             7.302                Anadyr1           228.187
       254   03 Jun 2027 03:26:06.846   03 Jun 2027 03:26:29.581            22.735               Magadan2           710.469
       255   03 Jun 2027 03:29:26.501   03 Jun 2027 03:30:00.360            33.859               Magadan1          1058.094
       256   03 Jun 2027 03:41:14.407   03 Jun 2027 03:44:09.250           174.843              Murmansk1          5463.844
       257   03 Jun 2027 03:44:20.279   03 Jun 2027 03:45:42.127            81.848                 Moscow          2557.750
       258   03 Jun 2027 03:46:59.690   03 Jun 2027 03:47:09.890            10.200                 Moscow           318.750
       259   03 Jun 2027 04:12:10.920   03 Jun 2027 04:12:22.678            11.758               CapeTown           367.437
       260   03 Jun 2027 04:59:27.378   03 Jun 2027 05:00:10.773            43.395               Magadan1          1356.094
       261   03 Jun 2027 05:02:59.107   03 Jun 2027 05:06:49.971           230.864               Magadan1          7214.500
       262   03 Jun 2027 05:06:49.971   03 Jun 2027 05:08:46.733           116.762               Magadan2          3648.812
       263   03 Jun 2027 05:09:08.787   03 Jun 2027 05:09:15.341             6.554                Anadyr1           204.813
       264   03 Jun 2027 06:37:02.435   03 Jun 2027 06:37:17.973            15.538               Magadan2           485.562
       265   03 Jun 2027 06:37:40.469   03 Jun 2027 06:38:33.444            52.975                Anadyr1          1655.469
       266   03 Jun 2027 06:38:49.109   03 Jun 2027 06:39:06.126            17.017               Magadan1           531.781
       267   03 Jun 2027 06:39:13.098   03 Jun 2027 06:39:35.151            22.053               Magadan2           689.156
       268   03 Jun 2027 06:39:43.492   03 Jun 2027 06:40:23.097            39.605                Anadyr2          1237.656
       269   03 Jun 2027 06:40:23.097   03 Jun 2027 06:41:25.534            62.437                Anadyr1          1951.156
       270   03 Jun 2027 06:41:31.796   03 Jun 2027 06:42:31.681            59.885                Anadyr2          1871.406
       271   03 Jun 2027 06:42:56.484   03 Jun 2027 06:43:31.895            35.411                Anadyr2          1106.594
       272   03 Jun 2027 08:12:56.271   03 Jun 2027 08:13:06.682            10.411               Magadan1           325.344
       273   03 Jun 2027 08:13:15.379   03 Jun 2027 08:13:25.325             9.946                Anadyr1           310.813
       274   03 Jun 2027 08:13:57.387   03 Jun 2027 08:15:36.969            99.582                Anadyr1          3111.938
       275   03 Jun 2027 08:15:49.492   03 Jun 2027 08:17:01.854            72.362               Magadan1          2261.313
       276   03 Jun 2027 08:17:28.551   03 Jun 2027 08:17:42.214            13.663                Anadyr2           426.969
       277   03 Jun 2027 08:17:42.214   03 Jun 2027 08:18:35.705            53.491                Anadyr1          1671.594
       278   03 Jun 2027 08:19:09.226   03 Jun 2027 08:19:25.810            16.584               Magadan2           518.250
       279   03 Jun 2027 08:19:40.753   03 Jun 2027 08:20:41.040            60.287               Magadan2          1883.969
       280   03 Jun 2027 08:56:01.003   03 Jun 2027 08:56:17.441            16.438            RioGallegos           513.687
       281   03 Jun 2027 09:06:05.851   03 Jun 2027 09:06:11.890             6.039            RioGallegos           188.719
       282   03 Jun 2027 09:35:20.680   03 Jun 2027 09:35:49.932            29.252                Sumatra           914.125
       283   03 Jun 2027 09:51:18.429   03 Jun 2027 09:51:47.901            29.472                Irkutsk           921.000
       284   03 Jun 2027 09:53:04.938   03 Jun 2027 09:53:05.836             0.898               Magadan2            28.063
       285   03 Jun 2027 09:53:06.653   03 Jun 2027 09:53:57.952            51.299               Magadan1          1603.094
       286   03 Jun 2027 09:54:08.254   03 Jun 2027 09:54:09.558             1.304                Norilsk            40.750
       287   03 Jun 2027 09:54:09.887   03 Jun 2027 09:54:32.179            22.292                Norilsk           696.625
       288   03 Jun 2027 09:54:34.907   03 Jun 2027 09:54:49.346            14.439                Norilsk           451.219
       289   03 Jun 2027 09:54:51.119   03 Jun 2027 09:55:17.245            26.126               Magadan1           816.437
       290   03 Jun 2027 09:55:32.854   03 Jun 2027 09:55:35.055             2.201                Irkutsk            68.781
       291   03 Jun 2027 09:55:42.186   03 Jun 2027 09:55:54.459            12.273                Irkutsk           383.531
       292   03 Jun 2027 09:56:19.224   03 Jun 2027 09:56:24.523             5.299                Irkutsk           165.594
       293   03 Jun 2027 09:56:32.959   03 Jun 2027 09:56:36.593             3.634                Novosib           113.563
       294   03 Jun 2027 10:31:22.786   03 Jun 2027 10:32:43.890            81.104            RioGallegos          2534.500
       295   03 Jun 2027 11:06:05.785   03 Jun 2027 11:06:51.859            46.074                Sumatra          1439.813
       296   03 Jun 2027 11:17:02.445   03 Jun 2027 11:18:55.388           112.943                  Delhi          3529.469
       297   03 Jun 2027 11:27:15.005   03 Jun 2027 11:27:21.935             6.930                Novosib           216.563
       298   03 Jun 2027 11:28:12.100   03 Jun 2027 11:28:13.605             1.505                Novosib            47.031
       299   03 Jun 2027 11:28:41.617   03 Jun 2027 11:28:54.684            13.067                Norilsk           408.344
       300   03 Jun 2027 11:29:25.323   03 Jun 2027 11:30:04.958            39.635                Irkutsk          1238.594
       301   03 Jun 2027 11:30:07.675   03 Jun 2027 11:30:12.988             5.313                Irkutsk           166.031
       302   03 Jun 2027 11:30:15.415   03 Jun 2027 11:30:16.596             1.181                Novosib            36.906
       303   03 Jun 2027 11:30:22.458   03 Jun 2027 11:30:24.417             1.959                Norilsk            61.219
       304   03 Jun 2027 11:30:46.068   03 Jun 2027 11:31:57.772            71.704                Novosib          2240.750
       305   03 Jun 2027 11:32:03.226   03 Jun 2027 11:32:14.487            11.261                Irkutsk           351.906
       306   03 Jun 2027 11:32:20.063   03 Jun 2027 11:32:29.527             9.464                Norilsk           295.750
       307   03 Jun 2027 11:32:56.009   03 Jun 2027 11:32:58.456             2.447                Norilsk            76.469
       308   03 Jun 2027 12:11:18.986   03 Jun 2027 12:12:03.236            44.250            RioGallegos          1382.813
       309   03 Jun 2027 12:14:28.829   03 Jun 2027 12:15:16.213            47.384            RioGallegos          1480.750
       310   03 Jun 2027 12:51:12.258   03 Jun 2027 12:52:40.118            87.860                  Delhi          2745.625
       311   03 Jun 2027 12:58:08.387   03 Jun 2027 12:59:20.406            72.019                Novosib          2250.594
       312   03 Jun 2027 13:02:11.659   03 Jun 2027 13:03:16.784            65.125                Norilsk          2035.156
       313   03 Jun 2027 13:04:05.326   03 Jun 2027 13:04:43.903            38.577                Norilsk          1205.531
       314   03 Jun 2027 13:10:21.372   03 Jun 2027 13:11:24.469            63.097                Norilsk          1971.781
       315   03 Jun 2027 14:34:42.344   03 Jun 2027 14:35:54.038            71.694                 Moscow          2240.437
       316   03 Jun 2027 14:36:07.213   03 Jun 2027 14:37:42.630            95.417                 Moscow          2981.781
       317   03 Jun 2027 14:38:08.008   03 Jun 2027 14:41:29.127           201.119              Murmansk2          6284.969
       318   03 Jun 2027 14:42:00.902   03 Jun 2027 14:42:47.424            46.522                Norilsk          1453.812
       319   03 Jun 2027 15:49:22.728   03 Jun 2027 15:50:37.205            74.477               CapeTown          2327.406
       320   03 Jun 2027 15:52:22.602   03 Jun 2027 15:53:06.495            43.893               CapeTown          1371.656
       321   03 Jun 2027 16:11:58.594   03 Jun 2027 16:12:59.102            60.508                 Moscow          1890.875
       322   03 Jun 2027 16:15:09.203   03 Jun 2027 16:15:46.219            37.016              Murmansk1          1156.750
       323   03 Jun 2027 16:17:04.096   03 Jun 2027 16:17:18.484            14.388              Murmansk1           449.625
       324   03 Jun 2027 16:22:54.498   03 Jun 2027 16:23:18.662            24.164              Murmansk1           755.125
       325   03 Jun 2027 16:29:13.325   03 Jun 2027 16:31:51.949           158.624                Anadyr2          4957.000
       326   03 Jun 2027 16:38:33.018   03 Jun 2027 16:38:36.249             3.231                Anadyr1           100.969
       327   03 Jun 2027 17:24:10.767   03 Jun 2027 17:26:04.184           113.417               CapeTown          3544.281
       328   03 Jun 2027 17:54:25.039   03 Jun 2027 17:55:24.565            59.526              Murmansk2          1860.187
       329   03 Jun 2027 17:55:29.301   03 Jun 2027 17:57:32.330           123.029              Murmansk1          3844.656
       330   03 Jun 2027 17:59:10.136   03 Jun 2027 17:59:24.188            14.052              Murmansk1           439.125
       331   03 Jun 2027 18:01:20.183   03 Jun 2027 18:02:46.433            86.250              Murmansk1          2695.312
       332   03 Jun 2027 18:08:13.589   03 Jun 2027 18:08:58.581            44.992               Magadan1          1406.000
       333   03 Jun 2027 18:08:58.581   03 Jun 2027 18:08:59.222             0.641               Magadan2            20.031
       334   03 Jun 2027 18:09:28.694   03 Jun 2027 18:09:35.944             7.250               Magadan1           226.563
       335   03 Jun 2027 18:10:07.536   03 Jun 2027 18:11:02.915            55.379               Magadan1          1730.594
       336   03 Jun 2027 18:14:09.815   03 Jun 2027 18:14:18.470             8.655               Magadan2           270.469
       337   03 Jun 2027 18:14:30.509   03 Jun 2027 18:14:36.307             5.798               Magadan2           181.188
       338   03 Jun 2027 19:06:02.579   03 Jun 2027 19:06:09.835             7.256               CapeTown           226.750
       339   03 Jun 2027 19:40:40.289   03 Jun 2027 19:42:25.509           105.220                Anadyr1          3288.125
       340   03 Jun 2027 19:42:40.041   03 Jun 2027 19:44:25.635           105.594                Anadyr2          3299.813
       341   03 Jun 2027 19:44:56.674   03 Jun 2027 19:47:27.537           150.863               Magadan1          4714.469
       342   03 Jun 2027 19:48:02.128   03 Jun 2027 19:48:07.881             5.753               Magadan1           179.781
       343   03 Jun 2027 19:49:07.612   03 Jun 2027 19:49:19.622            12.010               Magadan1           375.313
       344   03 Jun 2027 19:49:55.816   03 Jun 2027 19:50:40.398            44.582               Magadan1          1393.188
       345   03 Jun 2027 19:54:42.679   03 Jun 2027 19:55:08.087            25.408               Magadan2           794.000
       346   03 Jun 2027 21:16:32.027   03 Jun 2027 21:19:50.587           198.560                Anadyr2          6205.000
       347   03 Jun 2027 21:19:56.562   03 Jun 2027 21:22:26.920           150.358               Magadan2          4698.687
       348   03 Jun 2027 21:23:15.602   03 Jun 2027 21:23:18.632             3.030               Magadan1            94.688
       349   03 Jun 2027 21:24:09.850   03 Jun 2027 21:26:33.796           143.946                Irkutsk          4498.312
       350   03 Jun 2027 21:29:41.826   03 Jun 2027 21:30:37.650            55.824                Irkutsk          1744.500
       351   03 Jun 2027 21:40:12.285   03 Jun 2027 21:41:29.159            76.874                Sumatra          2402.312
       352   03 Jun 2027 21:42:27.247   03 Jun 2027 21:44:09.895           102.648                Sumatra          3207.750
       353   03 Jun 2027 22:53:19.942   03 Jun 2027 22:54:24.201            64.259                Anadyr2          2008.094
       354   03 Jun 2027 22:54:50.511   03 Jun 2027 22:54:57.505             6.994                Norilsk           218.562
       355   03 Jun 2027 22:54:58.803   03 Jun 2027 22:55:31.680            32.877               Magadan2          1027.406
       356   03 Jun 2027 22:56:05.479   03 Jun 2027 22:56:27.475            21.996               Magadan1           687.375
       357   03 Jun 2027 22:57:47.619   03 Jun 2027 22:58:08.590            20.971               Magadan2           655.344
       358   03 Jun 2027 22:58:22.928   03 Jun 2027 22:59:32.216            69.288                Irkutsk          2165.250
       359   03 Jun 2027 23:01:40.646   03 Jun 2027 23:02:20.590            39.944                Novosib          1248.250
       360   03 Jun 2027 23:12:06.325   03 Jun 2027 23:12:26.247            19.922                Sumatra           622.562
       361   03 Jun 2027 23:14:31.949   03 Jun 2027 23:14:52.361            20.412                Sumatra           637.875
       362   03 Jun 2027 23:16:10.278   03 Jun 2027 23:16:45.878            35.600                Sumatra          1112.500
       363   03 Jun 2027 23:49:23.881   03 Jun 2027 23:50:13.713            49.832            RioGallegos          1557.250
       364   04 Jun 2027 00:26:16.876   04 Jun 2027 00:27:59.936           103.060                Anadyr1          3220.625
       365   04 Jun 2027 00:27:59.936   04 Jun 2027 00:28:24.548            24.612                Anadyr2           769.125
       366   04 Jun 2027 00:28:49.674   04 Jun 2027 00:29:02.261            12.587                Anadyr1           393.344
       367   04 Jun 2027 00:30:23.846   04 Jun 2027 00:30:57.206            33.360                Norilsk          1042.500
       368   04 Jun 2027 00:31:01.673   04 Jun 2027 00:32:16.638            74.965               Magadan1          2342.656
       369   04 Jun 2027 00:32:16.638   04 Jun 2027 00:33:02.146            45.508               Magadan2          1422.125
       370   04 Jun 2027 00:33:49.781   04 Jun 2027 00:35:04.665            74.884              Murmansk2          2340.125
       371   04 Jun 2027 00:35:43.603   04 Jun 2027 00:36:48.855            65.252              Murmansk2          2039.125
       372   04 Jun 2027 00:41:39.012   04 Jun 2027 00:42:30.067            51.055                  Delhi          1595.469
       373   04 Jun 2027 00:47:56.147   04 Jun 2027 00:48:10.050            13.903                  Delhi           434.469
       374   04 Jun 2027 00:48:53.577   04 Jun 2027 00:49:16.730            23.153                  Delhi           723.531
       375   04 Jun 2027 00:54:02.860   04 Jun 2027 00:54:17.226            14.366                  Delhi           448.938
       376   04 Jun 2027 01:23:07.766   04 Jun 2027 01:23:19.986            12.220            RioGallegos           381.875
       377   04 Jun 2027 01:24:30.100   04 Jun 2027 01:25:41.213            71.113            RioGallegos          2222.281
       378   04 Jun 2027 01:31:25.267   04 Jun 2027 01:31:29.701             4.434            RioGallegos           138.563
       379   04 Jun 2027 01:59:37.211   04 Jun 2027 02:00:03.120            25.909                Anadyr2           809.656
       380   04 Jun 2027 02:00:09.198   04 Jun 2027 02:00:25.780            16.582                Anadyr1           518.187
       381   04 Jun 2027 02:01:13.667   04 Jun 2027 02:01:40.027            26.360                Anadyr1           823.750
       382   04 Jun 2027 02:01:40.027   04 Jun 2027 02:02:06.671            26.644                Anadyr2           832.625
       383   04 Jun 2027 02:04:42.574   04 Jun 2027 02:04:51.447             8.873                Anadyr1           277.281
       384   04 Jun 2027 02:05:24.558   04 Jun 2027 02:05:40.960            16.402                Anadyr2           512.563
       385   04 Jun 2027 02:05:48.900   04 Jun 2027 02:06:51.764            62.864               Magadan2          1964.500
       386   04 Jun 2027 02:07:39.492   04 Jun 2027 02:07:54.331            14.839                Norilsk           463.719
       387   04 Jun 2027 02:08:11.452   04 Jun 2027 02:08:29.610            18.158               Magadan1           567.438
       388   04 Jun 2027 02:08:36.468   04 Jun 2027 02:08:41.319             4.851              Murmansk1           151.594
       389   04 Jun 2027 02:08:44.001   04 Jun 2027 02:10:05.340            81.339              Murmansk2          2541.844
       390   04 Jun 2027 02:10:14.561   04 Jun 2027 02:11:20.836            66.275                Novosib          2071.094
       391   04 Jun 2027 02:15:48.906   04 Jun 2027 02:16:05.935            17.029                Irkutsk           532.156
       392   04 Jun 2027 02:16:33.290   04 Jun 2027 02:16:44.815            11.525                Novosib           360.156
       393   04 Jun 2027 02:18:34.535   04 Jun 2027 02:18:54.260            19.725                  Delhi           616.406
       394   04 Jun 2027 02:21:41.819   04 Jun 2027 02:22:33.350            51.531                  Delhi          1610.344
       395   04 Jun 2027 02:46:02.531   04 Jun 2027 02:46:25.768            23.237               CapeTown           726.156
       396   04 Jun 2027 03:33:16.561   04 Jun 2027 03:33:35.758            19.197                Anadyr2           599.906
       397   04 Jun 2027 03:36:56.391   04 Jun 2027 03:37:12.708            16.317                Anadyr2           509.906
       398   04 Jun 2027 03:39:28.922   04 Jun 2027 03:39:30.792             1.870                Anadyr1            58.438
       399   04 Jun 2027 03:39:54.089   04 Jun 2027 03:40:05.457            11.368                Anadyr1           355.250
       400   04 Jun 2027 03:54:15.491   04 Jun 2027 03:54:31.947            16.456                Novosib           514.250
       401   04 Jun 2027 03:54:47.765   04 Jun 2027 03:59:35.044           287.279                 Moscow          8977.469
       402   04 Jun 2027 04:11:40.195   04 Jun 2027 04:14:43.447           183.252               CapeTown          5726.625
       403   04 Jun 2027 04:18:25.192   04 Jun 2027 04:19:43.828            78.636               CapeTown          2457.375
       404   04 Jun 2027 04:20:52.829   04 Jun 2027 04:21:12.667            19.838               CapeTown           619.937
       405   04 Jun 2027 04:21:40.882   04 Jun 2027 04:22:02.018            21.136               CapeTown           660.500
       406   04 Jun 2027 05:08:20.488   04 Jun 2027 05:09:33.527            73.039                Anadyr1          2282.469
       407   04 Jun 2027 05:10:38.934   04 Jun 2027 05:10:46.293             7.359                Anadyr1           229.969
       408   04 Jun 2027 05:10:55.106   04 Jun 2027 05:11:33.776            38.670                Anadyr1          1208.437
       409   04 Jun 2027 05:12:00.750   04 Jun 2027 05:12:12.622            11.872                Anadyr1           371.000
       410   04 Jun 2027 05:12:33.894   04 Jun 2027 05:12:40.917             7.023               Magadan1           219.469
       411   04 Jun 2027 05:13:32.756   04 Jun 2027 05:13:45.925            13.169               Magadan1           411.531
       412   04 Jun 2027 05:15:02.032   04 Jun 2027 05:18:52.606           230.574               Magadan2          7205.437
       413   04 Jun 2027 05:18:52.606   04 Jun 2027 05:19:00.769             8.163               Magadan1           255.094
       414   04 Jun 2027 05:19:13.159   04 Jun 2027 05:21:16.941           123.782                Anadyr1          3868.187
       415   04 Jun 2027 06:49:20.934   04 Jun 2027 06:49:52.515            31.581               Magadan1           986.906
       416   04 Jun 2027 06:50:03.386   04 Jun 2027 06:50:38.339            34.953               Magadan2          1092.281
       417   04 Jun 2027 06:50:51.972   04 Jun 2027 06:51:04.181            12.209               Magadan1           381.531
       418   04 Jun 2027 06:51:12.052   04 Jun 2027 06:51:45.338            33.286                Anadyr1          1040.187
       419   04 Jun 2027 06:51:48.884   04 Jun 2027 06:52:48.130            59.246               Magadan2          1851.438
       420   04 Jun 2027 06:52:55.665   04 Jun 2027 06:52:58.200             2.535               Magadan1            79.219
       421   04 Jun 2027 06:53:08.219   04 Jun 2027 06:53:27.508            19.289               Magadan1           602.781
       422   04 Jun 2027 06:53:33.538   04 Jun 2027 06:54:48.101            74.563                Anadyr2          2330.094
       423   04 Jun 2027 08:23:28.743   04 Jun 2027 08:24:01.299            32.556               Magadan1          1017.375
       424   04 Jun 2027 08:24:06.401   04 Jun 2027 08:25:20.366            73.965               Magadan2          2311.406
       425   04 Jun 2027 08:26:13.861   04 Jun 2027 08:26:33.292            19.431               Magadan2           607.219
       426   04 Jun 2027 08:26:41.038   04 Jun 2027 08:26:43.402             2.364               Magadan2            73.875
       427   04 Jun 2027 08:27:22.232   04 Jun 2027 08:27:51.701            29.469               Magadan2           920.906
       428   04 Jun 2027 08:29:01.625   04 Jun 2027 08:29:06.628             5.003               Magadan1           156.344
       429   04 Jun 2027 08:29:30.109   04 Jun 2027 08:30:17.219            47.110                Anadyr2          1472.188
       430   04 Jun 2027 08:30:25.710   04 Jun 2027 08:30:36.133            10.423               Magadan2           325.719
       431   04 Jun 2027 08:30:50.804   04 Jun 2027 08:31:07.137            16.333                Anadyr1           510.406
       432   04 Jun 2027 08:31:10.882   04 Jun 2027 08:31:49.069            38.187               Magadan2          1193.344
       433   04 Jun 2027 08:41:48.324   04 Jun 2027 08:42:07.212            18.888              Murmansk1           590.250
       434   04 Jun 2027 09:07:46.928   04 Jun 2027 09:08:42.978            56.050            RioGallegos          1751.562
       435   04 Jun 2027 09:45:27.270   04 Jun 2027 09:47:00.554            93.284                Sumatra          2915.125
       436   04 Jun 2027 10:01:57.845   04 Jun 2027 10:02:05.771             7.926                Novosib           247.687
       437   04 Jun 2027 10:02:28.778   04 Jun 2027 10:02:46.629            17.851                Irkutsk           557.844
       438   04 Jun 2027 10:02:49.787   04 Jun 2027 10:03:04.531            14.744                Irkutsk           460.750
       439   04 Jun 2027 10:04:47.138   04 Jun 2027 10:05:00.370            13.232                Irkutsk           413.500
       440   04 Jun 2027 10:05:07.158   04 Jun 2027 10:05:33.211            26.053               Magadan2           814.156
       441   04 Jun 2027 10:06:30.681   04 Jun 2027 10:06:34.607             3.926                Irkutsk           122.687
       442   04 Jun 2027 10:06:44.055   04 Jun 2027 10:07:03.998            19.943                Norilsk           623.219
       443   04 Jun 2027 10:07:10.470   04 Jun 2027 10:07:24.233            13.763                Novosib           430.094
       444   04 Jun 2027 10:07:33.107   04 Jun 2027 10:07:43.289            10.182                Novosib           318.188
       445   04 Jun 2027 10:07:50.677   04 Jun 2027 10:07:52.275             1.598                Irkutsk            49.937
       446   04 Jun 2027 10:08:08.186   04 Jun 2027 10:08:25.759            17.573                Irkutsk           549.156
       447   04 Jun 2027 10:08:41.113   04 Jun 2027 10:09:43.363            62.250                Novosib          1945.312
       448   04 Jun 2027 10:44:41.683   04 Jun 2027 10:44:48.215             6.532            RioGallegos           204.125
       449   04 Jun 2027 11:18:08.285   04 Jun 2027 11:19:45.439            97.154                Sumatra          3036.062
       450   04 Jun 2027 11:39:35.281   04 Jun 2027 11:39:47.065            11.784                Irkutsk           368.250
       451   04 Jun 2027 11:40:38.235   04 Jun 2027 11:40:39.101             0.866                Irkutsk            27.063
       452   04 Jun 2027 11:40:49.825   04 Jun 2027 11:41:09.289            19.464                Novosib           608.250
       453   04 Jun 2027 11:41:39.791   04 Jun 2027 11:41:40.856             1.065                Novosib            33.281
       454   04 Jun 2027 11:42:00.594   04 Jun 2027 11:42:03.632             3.038                Norilsk            94.938
       455   04 Jun 2027 11:42:19.631   04 Jun 2027 11:42:46.508            26.877                Novosib           839.906
       456   04 Jun 2027 11:42:52.379   04 Jun 2027 11:43:35.810            43.431                Novosib          1357.219
       457   04 Jun 2027 11:43:42.676   04 Jun 2027 11:44:02.423            19.747                Norilsk           617.094
       458   04 Jun 2027 11:44:16.046   04 Jun 2027 11:45:00.970            44.924                Novosib          1403.875
       459   04 Jun 2027 12:24:43.183   04 Jun 2027 12:25:05.740            22.557            RioGallegos           704.906
       460   04 Jun 2027 12:26:26.891   04 Jun 2027 12:26:56.680            29.789            RioGallegos           930.906
       461   04 Jun 2027 13:04:31.146   04 Jun 2027 13:05:20.108            48.962                  Delhi          1530.062
       462   04 Jun 2027 13:05:49.268   04 Jun 2027 13:07:12.384            83.116                  Delhi          2597.375
       463   04 Jun 2027 13:10:33.635   04 Jun 2027 13:11:26.908            53.273                Novosib          1664.781
       464   04 Jun 2027 13:14:28.217   04 Jun 2027 13:15:24.339            56.122                Novosib          1753.812
       465   04 Jun 2027 13:16:07.469   04 Jun 2027 13:17:33.633            86.164                Norilsk          2692.625
       466   04 Jun 2027 14:46:42.770   04 Jun 2027 14:49:50.472           187.702                 Moscow          5865.688
       467   04 Jun 2027 14:50:01.714   04 Jun 2027 14:50:34.753            33.039                 Moscow          1032.469
       468   04 Jun 2027 14:51:29.625   04 Jun 2027 14:53:30.943           121.318              Murmansk1          3791.188
       469   04 Jun 2027 14:54:45.814   04 Jun 2027 14:56:00.692            74.878                Norilsk          2339.937
       470   04 Jun 2027 14:57:34.575   04 Jun 2027 14:57:47.835            13.260                Norilsk           414.375
       471   04 Jun 2027 14:59:28.345   04 Jun 2027 14:59:44.908            16.563                Norilsk           517.594
       472   04 Jun 2027 16:01:00.838   04 Jun 2027 16:02:02.182            61.344               CapeTown          1917.000
       473   04 Jun 2027 16:05:49.145   04 Jun 2027 16:06:12.726            23.581               CapeTown           736.906
       474   04 Jun 2027 16:06:50.430   04 Jun 2027 16:07:30.687            40.257               CapeTown          1258.031
       475   04 Jun 2027 16:24:27.632   04 Jun 2027 16:25:12.405            44.773                 Moscow          1399.156
       476   04 Jun 2027 16:27:27.520   04 Jun 2027 16:27:48.315            20.795              Murmansk1           649.844
       477   04 Jun 2027 16:28:40.419   04 Jun 2027 16:29:29.427            49.008              Murmansk1          1531.500
       478   04 Jun 2027 16:31:08.377   04 Jun 2027 16:31:35.189            26.812              Murmansk1           837.875
       479   04 Jun 2027 16:35:23.384   04 Jun 2027 16:35:57.358            33.974              Murmansk1          1061.687
       480   04 Jun 2027 16:41:08.630   04 Jun 2027 16:43:05.322           116.692                Anadyr2          3646.625
       481   04 Jun 2027 16:48:14.458   04 Jun 2027 16:48:20.092             5.634                Anadyr2           176.062
       482   04 Jun 2027 16:49:39.982   04 Jun 2027 16:50:14.507            34.525                Anadyr2          1078.906
