uniorb/output/strategy_4/Drop/Drop_KinoSat_111604.txt

KinoSat_111604
-------------------------
    Access    *     Start Time (UTCG)     *     Stop Time (UTCG)  *   Duration (s)        *       Station  *  Data (Mbytes)
         1   01 Jun 2027 03:26:23.589   01 Jun 2027 03:29:04.518           160.929              Murmansk1          5029.031
         2   01 Jun 2027 03:29:21.104   01 Jun 2027 03:30:34.774            73.670                Novosib          2302.187
         3   01 Jun 2027 03:30:47.189   01 Jun 2027 03:31:00.066            12.877              Murmansk1           402.406
         4   01 Jun 2027 03:31:00.066   01 Jun 2027 03:31:07.748             7.682              Murmansk2           240.063
         5   01 Jun 2027 03:31:23.312   01 Jun 2027 03:32:51.201            87.889                  Delhi          2746.531
         6   01 Jun 2027 03:36:03.576   01 Jun 2027 03:36:07.368             3.792                  Delhi           118.500
         7   01 Jun 2027 03:49:36.084   01 Jun 2027 03:52:00.543           144.459               CapeTown          4514.344
         8   01 Jun 2027 05:03:09.118   01 Jun 2027 05:03:15.516             6.398                Novosib           199.938
         9   01 Jun 2027 05:03:32.302   01 Jun 2027 05:05:01.159            88.857                Norilsk          2776.781
        10   01 Jun 2027 05:05:19.188   01 Jun 2027 05:08:14.968           175.780              Murmansk2          5493.125
        11   01 Jun 2027 05:08:14.968   01 Jun 2027 05:08:51.497            36.529              Murmansk1          1141.531
        12   01 Jun 2027 05:08:52.352   01 Jun 2027 05:09:04.734            12.382                 Moscow           386.938
        13   01 Jun 2027 05:23:11.054   01 Jun 2027 05:25:37.985           146.931               CapeTown          4591.594
        14   01 Jun 2027 06:26:58.713   01 Jun 2027 06:30:59.431           240.718                Anadyr1          7522.438
        15   01 Jun 2027 08:04:41.093   01 Jun 2027 08:05:08.597            27.504               Magadan2           859.500
        16   01 Jun 2027 08:05:08.597   01 Jun 2027 08:08:27.446           198.849               Magadan1          6214.031
        17   01 Jun 2027 09:37:50.736   01 Jun 2027 09:42:53.739           303.003               Magadan2          9468.844
        18   01 Jun 2027 09:43:15.036   01 Jun 2027 09:43:35.876            20.840               Magadan2           651.250
        19   01 Jun 2027 09:43:51.649   01 Jun 2027 09:43:52.257             0.608                Irkutsk            19.000
        20   01 Jun 2027 09:43:55.723   01 Jun 2027 09:44:02.923             7.200               Magadan2           225.000
        21   01 Jun 2027 11:14:17.102   01 Jun 2027 11:14:55.497            38.395                Irkutsk          1199.844
        22   01 Jun 2027 11:15:57.395   01 Jun 2027 11:18:05.906           128.511                Irkutsk          4015.969
        23   01 Jun 2027 11:18:19.147   01 Jun 2027 11:19:52.976            93.829                Irkutsk          2932.156
        24   01 Jun 2027 12:29:59.468   01 Jun 2027 12:30:15.646            16.178                Sumatra           505.563
        25   01 Jun 2027 12:45:01.450   01 Jun 2027 12:45:36.476            35.026                Irkutsk          1094.562
        26   01 Jun 2027 12:48:25.166   01 Jun 2027 12:49:03.389            38.223                Irkutsk          1194.469
        27   01 Jun 2027 12:51:30.373   01 Jun 2027 12:51:46.819            16.446                Norilsk           513.937
        28   01 Jun 2027 12:54:14.120   01 Jun 2027 12:55:04.724            50.604                Irkutsk          1581.375
        29   01 Jun 2027 14:14:46.295   01 Jun 2027 14:16:34.245           107.950                  Delhi          3373.438
        30   01 Jun 2027 14:19:05.870   01 Jun 2027 14:20:02.419            56.549                  Delhi          1767.156
        31   01 Jun 2027 14:22:39.889   01 Jun 2027 14:24:46.920           127.031                  Delhi          3969.719
        32   01 Jun 2027 14:25:50.498   01 Jun 2027 14:27:48.875           118.377                Novosib          3699.281
        33   01 Jun 2027 14:28:50.517   01 Jun 2027 14:29:30.512            39.995                Norilsk          1249.844
        34   01 Jun 2027 15:58:21.834   01 Jun 2027 16:01:48.654           206.820                 Moscow          6463.125
        35   01 Jun 2027 16:01:53.321   01 Jun 2027 16:02:46.705            53.384              Murmansk2          1668.250
        36   01 Jun 2027 16:04:44.922   01 Jun 2027 16:05:04.925            20.003              Murmansk2           625.094
        37   01 Jun 2027 16:07:55.178   01 Jun 2027 16:12:15.948           260.770                Norilsk          8149.063
        38   01 Jun 2027 17:12:04.908   01 Jun 2027 17:12:33.684            28.776               CapeTown           899.250
        39   01 Jun 2027 17:15:32.634   01 Jun 2027 17:15:33.247             0.613               CapeTown            19.156
        40   01 Jun 2027 17:22:42.070   01 Jun 2027 17:22:51.731             9.661               CapeTown           301.906
        41   01 Jun 2027 17:37:08.038   01 Jun 2027 17:42:00.143           292.105                 Moscow          9128.281
        42   01 Jun 2027 17:48:41.255   01 Jun 2027 17:48:47.792             6.537              Murmansk1           204.281
        43   01 Jun 2027 17:53:51.044   01 Jun 2027 17:54:02.774            11.730                Anadyr1           366.563
        44   01 Jun 2027 17:55:33.466   01 Jun 2027 17:56:12.119            38.653                Anadyr2          1207.906
        45   01 Jun 2027 18:48:10.662   01 Jun 2027 18:49:44.078            93.416               CapeTown          2919.250
        46   01 Jun 2027 18:52:32.349   01 Jun 2027 18:52:41.279             8.930               CapeTown           279.063
        47   01 Jun 2027 18:55:30.016   01 Jun 2027 18:56:22.505            52.489               CapeTown          1640.281
        48   01 Jun 2027 19:20:01.185   01 Jun 2027 19:24:39.759           278.574              Murmansk2          8705.437
        49   01 Jun 2027 19:31:07.256   01 Jun 2027 19:32:03.781            56.525               Magadan1          1766.406
        50   01 Jun 2027 19:33:36.221   01 Jun 2027 19:34:05.032            28.811               Magadan1           900.344
        51   01 Jun 2027 21:04:15.022   01 Jun 2027 21:07:58.704           223.682                Anadyr2          6990.062
        52   01 Jun 2027 21:08:04.675   01 Jun 2027 21:09:28.548            83.873                Anadyr1          2621.031
        53   01 Jun 2027 21:09:42.788   01 Jun 2027 21:13:02.312           199.524               Magadan1          6235.125
        54   01 Jun 2027 21:59:27.843   01 Jun 2027 22:01:39.244           131.401            RioGallegos          4106.281
        55   01 Jun 2027 22:02:27.913   01 Jun 2027 22:02:28.336             0.423            RioGallegos            13.219
        56   01 Jun 2027 22:04:45.820   01 Jun 2027 22:05:03.443            17.623            RioGallegos           550.719
        57   01 Jun 2027 22:40:00.648   01 Jun 2027 22:42:54.476           173.828                Anadyr2          5432.125
        58   01 Jun 2027 22:43:04.374   01 Jun 2027 22:43:42.331            37.957                Norilsk          1186.156
        59   01 Jun 2027 22:43:46.311   01 Jun 2027 22:45:10.753            84.442               Magadan1          2638.813
        60   01 Jun 2027 22:45:54.952   01 Jun 2027 22:46:17.662            22.710               Magadan2           709.687
        61   01 Jun 2027 22:46:40.818   01 Jun 2027 22:47:37.762            56.944                Irkutsk          1779.500
        62   01 Jun 2027 22:49:10.537   01 Jun 2027 22:50:01.272            50.735                Irkutsk          1585.469
        63   01 Jun 2027 23:00:58.471   01 Jun 2027 23:03:48.534           170.063                Sumatra          5314.469
        64   02 Jun 2027 00:15:06.447   02 Jun 2027 00:16:55.078           108.631                Anadyr1          3394.719
        65   02 Jun 2027 00:17:29.304   02 Jun 2027 00:17:47.482            18.178                Anadyr2           568.062
        66   02 Jun 2027 00:17:59.177   02 Jun 2027 00:19:42.609           103.432                Norilsk          3232.250
        67   02 Jun 2027 00:19:51.690   02 Jun 2027 00:20:17.796            26.106               Magadan1           815.812
        68   02 Jun 2027 00:21:51.969   02 Jun 2027 00:22:46.055            54.086                Irkutsk          1690.187
        69   02 Jun 2027 00:23:23.446   02 Jun 2027 00:24:03.184            39.738                Irkutsk          1241.812
        70   02 Jun 2027 00:24:18.497   02 Jun 2027 00:25:06.078            47.581                Novosib          1486.906
        71   02 Jun 2027 00:30:35.400   02 Jun 2027 00:30:58.768            23.368                Novosib           730.250
        72   02 Jun 2027 00:31:24.064   02 Jun 2027 00:32:04.155            40.091                Novosib          1252.844
        73   02 Jun 2027 00:32:06.690   02 Jun 2027 00:33:48.433           101.743                  Delhi          3179.469
        74   02 Jun 2027 01:10:05.851   02 Jun 2027 01:10:57.990            52.139            RioGallegos          1629.344
        75   02 Jun 2027 01:11:19.391   02 Jun 2027 01:11:55.055            35.664            RioGallegos          1114.500
        76   02 Jun 2027 01:48:59.200   02 Jun 2027 01:49:22.562            23.362                Anadyr2           730.062
        77   02 Jun 2027 01:49:33.085   02 Jun 2027 01:50:00.040            26.955                Anadyr2           842.344
        78   02 Jun 2027 01:50:23.437   02 Jun 2027 01:51:05.993            42.556                Anadyr2          1329.875
        79   02 Jun 2027 01:51:48.693   02 Jun 2027 01:52:07.147            18.454                Anadyr1           576.687
        80   02 Jun 2027 01:53:59.995   02 Jun 2027 01:55:38.292            98.297                Norilsk          3071.781
        81   02 Jun 2027 01:56:35.653   02 Jun 2027 01:57:12.470            36.817              Murmansk2          1150.531
        82   02 Jun 2027 01:57:18.724   02 Jun 2027 01:57:53.160            34.436              Murmansk1          1076.125
        83   02 Jun 2027 01:57:55.335   02 Jun 2027 01:58:11.243            15.908                Novosib           497.125
        84   02 Jun 2027 01:58:19.526   02 Jun 2027 01:58:37.034            17.508                Novosib           547.125
        85   02 Jun 2027 01:58:53.050   02 Jun 2027 01:59:56.389            63.339                Irkutsk          1979.344
        86   02 Jun 2027 02:05:07.733   02 Jun 2027 02:07:21.961           134.228                  Delhi          4194.625
        87   02 Jun 2027 02:47:39.016   02 Jun 2027 02:49:51.119           132.103            RioGallegos          4128.219
        88   02 Jun 2027 02:50:55.145   02 Jun 2027 02:52:09.769            74.624            RioGallegos          2332.000
        89   02 Jun 2027 03:38:55.309   02 Jun 2027 03:39:43.309            48.000                Novosib          1500.000
        90   02 Jun 2027 03:39:45.422   02 Jun 2027 03:41:43.257           117.835              Murmansk1          3682.344
        91   02 Jun 2027 03:41:43.257   02 Jun 2027 03:42:23.638            40.381              Murmansk2          1261.906
        92   02 Jun 2027 03:43:09.938   02 Jun 2027 03:43:24.374            14.436              Murmansk1           451.125
        93   02 Jun 2027 03:44:58.770   02 Jun 2027 03:47:18.172           139.402                  Delhi          4356.312
        94   02 Jun 2027 06:38:25.471   02 Jun 2027 06:38:39.450            13.979               Magadan1           436.844
        95   02 Jun 2027 06:38:49.129   02 Jun 2027 06:40:59.572           130.443               Magadan2          4076.344
        96   02 Jun 2027 08:17:13.683   02 Jun 2027 08:18:15.725            62.042               Magadan1          1938.813
        97   02 Jun 2027 08:18:56.985   02 Jun 2027 08:20:32.383            95.398                Anadyr2          2981.188
        98   02 Jun 2027 09:50:30.323   02 Jun 2027 09:50:39.717             9.394               Magadan1           293.562
        99   02 Jun 2027 09:51:29.899   02 Jun 2027 09:52:56.420            86.521               Magadan1          2703.781
       100   02 Jun 2027 09:53:02.738   02 Jun 2027 09:54:33.374            90.636               Magadan2          2832.375
       101   02 Jun 2027 09:54:33.374   02 Jun 2027 09:54:36.864             3.490               Magadan1           109.063
       102   02 Jun 2027 09:55:25.209   02 Jun 2027 09:55:52.420            27.211               Magadan1           850.344
       103   02 Jun 2027 09:56:58.848   02 Jun 2027 09:57:03.614             4.766                Norilsk           148.938
       104   02 Jun 2027 10:03:55.958   02 Jun 2027 10:04:55.264            59.306              Murmansk2          1853.312
       105   02 Jun 2027 10:42:13.907   02 Jun 2027 10:43:02.772            48.865            RioGallegos          1527.031
       106   02 Jun 2027 11:06:43.718   02 Jun 2027 11:07:33.620            49.902                Sumatra          1559.437
       107   02 Jun 2027 11:27:03.178   02 Jun 2027 11:27:37.535            34.357                Irkutsk          1073.656
       108   02 Jun 2027 11:27:42.006   02 Jun 2027 11:28:25.390            43.384                Irkutsk          1355.750
       109   02 Jun 2027 11:28:56.988   02 Jun 2027 11:29:46.411            49.423                Irkutsk          1544.469
       110   02 Jun 2027 11:29:49.888   02 Jun 2027 11:30:11.982            22.094                Irkutsk           690.438
       111   02 Jun 2027 11:30:27.452   02 Jun 2027 11:31:14.136            46.684                Norilsk          1458.875
       112   02 Jun 2027 11:31:18.015   02 Jun 2027 11:31:30.760            12.745                Norilsk           398.281
       113   02 Jun 2027 11:31:34.399   02 Jun 2027 11:31:37.679             3.280                Novosib           102.500
       114   02 Jun 2027 11:31:52.419   02 Jun 2027 11:32:22.205            29.786                Norilsk           930.813
       115   02 Jun 2027 12:08:06.597   02 Jun 2027 12:08:39.671            33.074            RioGallegos          1033.563
       116   02 Jun 2027 12:12:03.324   02 Jun 2027 12:12:53.872            50.548            RioGallegos          1579.625
       117   02 Jun 2027 12:42:20.663   02 Jun 2027 12:43:43.684            83.021                Sumatra          2594.406
       118   02 Jun 2027 12:56:52.927   02 Jun 2027 12:57:57.235            64.308                Novosib          2009.625
       119   02 Jun 2027 12:58:09.600   02 Jun 2027 13:00:03.009           113.409                Novosib          3544.031
       120   02 Jun 2027 14:27:20.555   02 Jun 2027 14:30:07.332           166.777                  Delhi          5211.781
       121   02 Jun 2027 14:35:33.940   02 Jun 2027 14:36:03.130            29.190                 Moscow           912.188
       122   02 Jun 2027 14:36:37.348   02 Jun 2027 14:37:58.304            80.956                Novosib          2529.875
       123   02 Jun 2027 14:39:03.139   02 Jun 2027 14:39:28.035            24.896              Murmansk1           778.000
       124   02 Jun 2027 14:39:30.025   02 Jun 2027 14:40:22.452            52.427                Norilsk          1638.344
       125   02 Jun 2027 14:43:10.713   02 Jun 2027 14:44:28.880            78.167                Norilsk          2442.719
       126   02 Jun 2027 16:10:31.090   02 Jun 2027 16:12:20.384           109.294                 Moscow          3415.438
       127   02 Jun 2027 16:14:01.932   02 Jun 2027 16:16:44.426           162.494              Murmansk1          5077.937
       128   02 Jun 2027 16:20:52.608   02 Jun 2027 16:20:55.821             3.213              Murmansk2           100.406
       129   02 Jun 2027 16:21:06.007   02 Jun 2027 16:23:09.088           123.081                Norilsk          3846.281
       130   02 Jun 2027 16:29:48.015   02 Jun 2027 16:30:33.356            45.341                Anadyr2          1416.906
       131   02 Jun 2027 17:23:57.258   02 Jun 2027 17:25:46.026           108.768               CapeTown          3399.000
       132   02 Jun 2027 17:49:56.747   02 Jun 2027 17:51:14.088            77.341                 Moscow          2416.906
       133   02 Jun 2027 17:52:02.875   02 Jun 2027 17:53:03.466            60.591              Murmansk1          1893.469
       134   02 Jun 2027 17:53:20.418   02 Jun 2027 17:54:36.783            76.365                 Moscow          2386.406
       135   02 Jun 2027 17:56:44.612   02 Jun 2027 17:57:17.223            32.611              Murmansk2          1019.094
       136   02 Jun 2027 18:00:49.963   02 Jun 2027 18:01:56.742            66.779              Murmansk2          2086.844
       137   02 Jun 2027 18:13:06.756   02 Jun 2027 18:13:10.979             4.223                Anadyr2           131.969
       138   02 Jun 2027 18:13:29.108   02 Jun 2027 18:13:41.783            12.675                Anadyr2           396.094
       139   02 Jun 2027 19:00:28.348   02 Jun 2027 19:01:48.445            80.097               CapeTown          2503.031
       140   02 Jun 2027 19:03:45.350   02 Jun 2027 19:04:28.964            43.614               CapeTown          1362.937
       141   02 Jun 2027 19:32:56.889   02 Jun 2027 19:37:25.284           268.395              Murmansk1          8387.344
       142   02 Jun 2027 19:43:00.676   02 Jun 2027 19:44:47.667           106.991               Magadan2          3343.469
       143   02 Jun 2027 19:49:05.752   02 Jun 2027 19:49:18.199            12.447               Magadan2           388.969
       144   02 Jun 2027 19:51:21.931   02 Jun 2027 19:51:48.619            26.688               Magadan1           834.000
       145   02 Jun 2027 21:16:16.368   02 Jun 2027 21:20:06.409           230.041                Anadyr1          7188.781
       146   02 Jun 2027 21:20:10.618   02 Jun 2027 21:21:26.200            75.582                Anadyr1          2361.938
       147   02 Jun 2027 21:21:32.261   02 Jun 2027 21:22:48.077            75.816               Magadan1          2369.250
       148   02 Jun 2027 21:23:14.852   02 Jun 2027 21:23:27.779            12.927               Magadan2           403.969
       149   02 Jun 2027 21:25:35.787   02 Jun 2027 21:25:52.920            17.133               Magadan1           535.406
       150   02 Jun 2027 21:30:25.432   02 Jun 2027 21:30:28.597             3.165               Magadan1            98.906
       151   02 Jun 2027 22:11:06.631   02 Jun 2027 22:14:17.830           191.199            RioGallegos          5974.969
       152   02 Jun 2027 22:16:10.710   02 Jun 2027 22:17:17.177            66.467            RioGallegos          2077.094
       153   02 Jun 2027 22:51:58.951   02 Jun 2027 22:52:49.688            50.737                Anadyr1          1585.531
       154   02 Jun 2027 22:52:52.397   02 Jun 2027 22:52:57.823             5.426                Anadyr1           169.563
       155   02 Jun 2027 22:54:06.608   02 Jun 2027 22:55:44.142            97.534                Norilsk          3047.937
       156   02 Jun 2027 22:55:49.556   02 Jun 2027 22:56:53.142            63.586               Magadan1          1987.063
       157   02 Jun 2027 22:58:30.128   02 Jun 2027 22:59:32.888            62.760                Irkutsk          1961.250
       158   02 Jun 2027 23:07:09.890   02 Jun 2027 23:07:57.954            48.064                Irkutsk          1502.000
       159   02 Jun 2027 23:12:31.231   02 Jun 2027 23:14:07.230            95.999                Sumatra          2999.969
       160   02 Jun 2027 23:23:30.322   02 Jun 2027 23:24:07.394            37.072                Sumatra          1158.500
       161   02 Jun 2027 23:58:15.945   02 Jun 2027 23:58:51.269            35.324            RioGallegos          1103.875
       162   03 Jun 2027 00:26:56.818   03 Jun 2027 00:26:57.454             0.636                Anadyr1            19.875
       163   03 Jun 2027 00:27:14.008   03 Jun 2027 00:27:26.900            12.892                Anadyr1           402.875
       164   03 Jun 2027 00:27:40.628   03 Jun 2027 00:28:17.193            36.565                Anadyr2          1142.656
       165   03 Jun 2027 00:28:56.393   03 Jun 2027 00:29:14.339            17.946                Anadyr1           560.813
       166   03 Jun 2027 00:29:14.339   03 Jun 2027 00:29:28.520            14.181                Anadyr2           443.156
       167   03 Jun 2027 00:30:01.377   03 Jun 2027 00:31:44.597           103.220                Norilsk          3225.625
       168   03 Jun 2027 00:32:30.397   03 Jun 2027 00:32:45.623            15.226               Magadan1           475.812
       169   03 Jun 2027 00:33:53.518   03 Jun 2027 00:36:00.690           127.172                Irkutsk          3974.125
       170   03 Jun 2027 00:36:06.695   03 Jun 2027 00:38:49.557           162.862                Novosib          5089.438
       171   03 Jun 2027 00:52:28.120   03 Jun 2027 00:52:39.910            11.790                  Delhi           368.437
       172   03 Jun 2027 00:58:32.702   03 Jun 2027 00:59:07.917            35.215                Sumatra          1100.469
       173   03 Jun 2027 01:25:02.600   03 Jun 2027 01:25:45.699            43.099            RioGallegos          1346.844
       174   03 Jun 2027 01:29:11.972   03 Jun 2027 01:29:40.234            28.262            RioGallegos           883.188
       175   03 Jun 2027 01:32:56.381   03 Jun 2027 01:33:19.002            22.621            RioGallegos           706.906
       176   03 Jun 2027 02:00:40.937   03 Jun 2027 02:01:19.821            38.884                Anadyr2          1215.125
       177   03 Jun 2027 02:03:01.320   03 Jun 2027 02:03:18.518            17.198                Anadyr1           537.437
       178   03 Jun 2027 02:05:45.556   03 Jun 2027 02:05:59.534            13.978                Anadyr1           436.813
       179   03 Jun 2027 02:06:01.948   03 Jun 2027 02:07:34.083            92.135                Norilsk          2879.219
       180   03 Jun 2027 02:08:30.146   03 Jun 2027 02:09:09.509            39.363              Murmansk1          1230.094
       181   03 Jun 2027 02:09:09.509   03 Jun 2027 02:09:13.137             3.628              Murmansk2           113.375
       182   03 Jun 2027 02:09:26.963   03 Jun 2027 02:10:21.182            54.219              Murmansk1          1694.344
       183   03 Jun 2027 02:11:11.277   03 Jun 2027 02:12:18.426            67.149                Irkutsk          2098.406
       184   03 Jun 2027 02:17:13.850   03 Jun 2027 02:17:33.575            19.725                  Delhi           616.406
       185   03 Jun 2027 02:21:23.381   03 Jun 2027 02:21:24.936             1.555                  Delhi            48.594
       186   03 Jun 2027 02:22:05.173   03 Jun 2027 02:22:12.384             7.211                  Delhi           225.344
       187   03 Jun 2027 02:25:19.274   03 Jun 2027 02:25:39.685            20.411                  Delhi           637.844
       188   03 Jun 2027 02:26:09.981   03 Jun 2027 02:26:55.530            45.549                  Delhi          1423.406
       189   03 Jun 2027 03:00:22.915   03 Jun 2027 03:01:04.876            41.961            RioGallegos          1311.281
       190   03 Jun 2027 03:01:58.146   03 Jun 2027 03:02:49.482            51.336            RioGallegos          1604.250
       191   03 Jun 2027 03:03:14.081   03 Jun 2027 03:03:21.472             7.391            RioGallegos           230.969
       192   03 Jun 2027 03:51:48.610   03 Jun 2027 03:56:24.763           276.153                Novosib          8629.781
       193   03 Jun 2027 05:28:34.070   03 Jun 2027 05:29:09.580            35.510                 Moscow          1109.688
       194   03 Jun 2027 05:29:14.557   03 Jun 2027 05:29:25.421            10.864                 Moscow           339.500
       195   03 Jun 2027 05:29:34.508   03 Jun 2027 05:29:58.450            23.942                 Moscow           748.188
       196   03 Jun 2027 05:32:57.486   03 Jun 2027 05:33:08.578            11.092                 Moscow           346.625
       197   03 Jun 2027 05:33:45.708   03 Jun 2027 05:34:03.283            17.575                 Moscow           549.219
       198   03 Jun 2027 05:47:32.328   03 Jun 2027 05:48:50.759            78.431               CapeTown          2450.969
       199   03 Jun 2027 05:52:22.103   03 Jun 2027 05:52:26.808             4.705               CapeTown           147.031
       200   03 Jun 2027 05:55:02.201   03 Jun 2027 05:55:20.519            18.318               CapeTown           572.437
       201   03 Jun 2027 06:50:23.190   03 Jun 2027 06:50:31.740             8.550               Magadan1           267.188
       202   03 Jun 2027 06:50:33.032   03 Jun 2027 06:50:42.047             9.015               Magadan2           281.719
       203   03 Jun 2027 06:51:00.407   03 Jun 2027 06:52:23.466            83.059                Anadyr2          2595.594
       204   03 Jun 2027 06:52:24.360   03 Jun 2027 06:52:42.031            17.671               Magadan2           552.219
       205   03 Jun 2027 06:52:49.765   03 Jun 2027 06:53:07.461            17.696                Anadyr1           553.000
       206   03 Jun 2027 06:53:57.260   03 Jun 2027 06:54:00.739             3.479                Anadyr1           108.719
       207   03 Jun 2027 06:54:28.189   03 Jun 2027 06:54:31.308             3.119               Magadan2            97.469
       208   03 Jun 2027 06:54:41.230   03 Jun 2027 06:55:03.162            21.932                Anadyr2           685.375
       209   03 Jun 2027 06:55:03.162   03 Jun 2027 06:55:34.802            31.640                Anadyr1           988.750
       210   03 Jun 2027 08:26:26.296   03 Jun 2027 08:27:45.752            79.456                Anadyr1          2483.000
       211   03 Jun 2027 08:27:52.183   03 Jun 2027 08:28:06.130            13.947               Magadan2           435.844
       212   03 Jun 2027 08:28:21.674   03 Jun 2027 08:28:53.589            31.915                Anadyr1           997.344
       213   03 Jun 2027 08:29:21.439   03 Jun 2027 08:30:13.878            52.439               Magadan1          1638.719
       214   03 Jun 2027 08:31:51.968   03 Jun 2027 08:32:28.732            36.764                Anadyr2          1148.875
       215   03 Jun 2027 10:01:39.335   03 Jun 2027 10:03:01.643            82.308               Magadan2          2572.125
       216   03 Jun 2027 10:03:16.857   03 Jun 2027 10:03:41.989            25.132               Magadan2           785.375
       217   03 Jun 2027 10:03:41.989   03 Jun 2027 10:04:22.546            40.557               Magadan1          1267.406
       218   03 Jun 2027 10:04:28.306   03 Jun 2027 10:06:33.507           125.201               Magadan1          3912.531
       219   03 Jun 2027 10:07:46.138   03 Jun 2027 10:08:00.116            13.978                Irkutsk           436.812
       220   03 Jun 2027 10:08:57.057   03 Jun 2027 10:09:05.265             8.208                Norilsk           256.500
       221   03 Jun 2027 10:42:53.155   03 Jun 2027 10:43:57.972            64.817            RioGallegos          2025.531
       222   03 Jun 2027 10:51:58.902   03 Jun 2027 10:52:28.631            29.729            RioGallegos           929.031
       223   03 Jun 2027 11:18:20.771   03 Jun 2027 11:18:49.460            28.689                Sumatra           896.531
       224   03 Jun 2027 11:20:26.985   03 Jun 2027 11:20:52.692            25.707                Sumatra           803.344
       225   03 Jun 2027 11:38:44.079   03 Jun 2027 11:39:29.755            45.676                Irkutsk          1427.375
       226   03 Jun 2027 11:40:29.908   03 Jun 2027 11:40:49.778            19.870                Irkutsk           620.938
       227   03 Jun 2027 11:41:05.346   03 Jun 2027 11:41:44.138            38.792                Irkutsk          1212.250
       228   03 Jun 2027 11:42:13.839   03 Jun 2027 11:42:42.850            29.011                Norilsk           906.594
       229   03 Jun 2027 11:42:48.905   03 Jun 2027 11:43:06.085            17.180                Novosib           536.875
       230   03 Jun 2027 11:43:12.985   03 Jun 2027 11:43:26.867            13.882                Novosib           433.812
       231   03 Jun 2027 11:43:30.388   03 Jun 2027 11:44:00.903            30.515                Norilsk           953.594
       232   03 Jun 2027 12:20:37.883   03 Jun 2027 12:21:12.375            34.492            RioGallegos          1077.875
       233   03 Jun 2027 12:24:01.663   03 Jun 2027 12:24:35.586            33.923            RioGallegos          1060.094
       234   03 Jun 2027 12:54:50.966   03 Jun 2027 12:55:46.002            55.036                Sumatra          1719.875
       235   03 Jun 2027 12:57:34.383   03 Jun 2027 12:58:12.681            38.298                Sumatra          1196.812
       236   03 Jun 2027 13:00:00.212   03 Jun 2027 13:00:07.375             7.163                Sumatra           223.844
       237   03 Jun 2027 13:08:17.213   03 Jun 2027 13:08:47.093            29.880                  Delhi           933.750
       238   03 Jun 2027 13:09:14.260   03 Jun 2027 13:09:38.763            24.503                Novosib           765.719
       239   03 Jun 2027 13:10:24.108   03 Jun 2027 13:12:04.514           100.406                Irkutsk          3137.688
       240   03 Jun 2027 13:17:14.536   03 Jun 2027 13:17:33.966            19.430                Norilsk           607.188
       241   03 Jun 2027 13:18:11.574   03 Jun 2027 13:18:46.971            35.397                Irkutsk          1106.156
       242   03 Jun 2027 14:40:07.042   03 Jun 2027 14:41:55.803           108.761                  Delhi          3398.781
       243   03 Jun 2027 14:42:58.951   03 Jun 2027 14:44:52.529           113.578                  Delhi          3549.312
       244   03 Jun 2027 14:48:37.803   03 Jun 2027 14:48:46.547             8.744                Novosib           273.250
       245   03 Jun 2027 14:49:16.296   03 Jun 2027 14:51:49.870           153.574                Novosib          4799.187
       246   03 Jun 2027 14:55:36.763   03 Jun 2027 14:56:07.165            30.402                Novosib           950.063
       247   03 Jun 2027 16:03:45.109   03 Jun 2027 16:04:16.131            31.022               CapeTown           969.438
       248   03 Jun 2027 16:22:43.684   03 Jun 2027 16:23:46.540            62.856                 Moscow          1964.250
       249   03 Jun 2027 16:25:32.424   03 Jun 2027 16:26:21.692            49.268                 Moscow          1539.625
       250   03 Jun 2027 16:26:30.546   03 Jun 2027 16:27:03.493            32.947              Murmansk1          1029.594
       251   03 Jun 2027 16:27:17.033   03 Jun 2027 16:27:49.399            32.366              Murmansk1          1011.437
       252   03 Jun 2027 16:32:25.279   03 Jun 2027 16:32:54.492            29.213              Murmansk1           912.906
       253   03 Jun 2027 16:33:31.157   03 Jun 2027 16:34:32.566            61.409              Murmansk1          1919.031
       254   03 Jun 2027 16:41:28.455   03 Jun 2027 16:42:34.729            66.274                Anadyr1          2071.062
       255   03 Jun 2027 16:43:24.816   03 Jun 2027 16:43:30.285             5.469                Anadyr2           170.906
       256   03 Jun 2027 16:44:10.336   03 Jun 2027 16:44:45.330            34.994                Anadyr1          1093.562
       257   03 Jun 2027 16:47:12.653   03 Jun 2027 16:47:55.289            42.636                Anadyr2          1332.375
       258   03 Jun 2027 17:36:04.096   03 Jun 2027 17:36:41.301            37.205               CapeTown          1162.656
       259   03 Jun 2027 17:42:45.717   03 Jun 2027 17:43:23.981            38.264               CapeTown          1195.750
       260   03 Jun 2027 18:02:57.599   03 Jun 2027 18:06:26.447           208.848                 Moscow          6526.500
       261   03 Jun 2027 18:09:16.540   03 Jun 2027 18:09:25.669             9.129              Murmansk2           285.281
       262   03 Jun 2027 18:13:31.184   03 Jun 2027 18:14:38.418            67.234              Murmansk2          2101.063
       263   03 Jun 2027 18:27:26.569   03 Jun 2027 18:27:45.895            19.326                Anadyr1           603.937
       264   03 Jun 2027 19:12:51.543   03 Jun 2027 19:13:55.676            64.133               CapeTown          2004.156
       265   03 Jun 2027 19:15:40.399   03 Jun 2027 19:16:43.374            62.975               CapeTown          1967.969
       266   03 Jun 2027 19:46:05.584   03 Jun 2027 19:49:21.123           195.539              Murmansk1          6110.594
       267   03 Jun 2027 19:54:55.850   03 Jun 2027 19:56:37.133           101.283               Magadan1          3165.094
       268   03 Jun 2027 19:57:30.837   03 Jun 2027 19:57:56.099            25.262               Magadan2           789.438
       269   03 Jun 2027 19:57:56.099   03 Jun 2027 19:58:27.994            31.895               Magadan1           996.719
       270   03 Jun 2027 20:00:33.845   03 Jun 2027 20:00:52.859            19.014               Magadan2           594.187
       271   03 Jun 2027 20:01:32.386   03 Jun 2027 20:01:51.220            18.834               Magadan2           588.563
       272   03 Jun 2027 21:28:17.506   03 Jun 2027 21:30:20.050           122.544                Anadyr2          3829.500
       273   03 Jun 2027 21:30:33.790   03 Jun 2027 21:35:58.654           324.864               Magadan1         10152.000
       274   03 Jun 2027 21:40:49.983   03 Jun 2027 21:42:27.125            97.142               Magadan2          3035.687
       275   03 Jun 2027 22:22:51.175   03 Jun 2027 22:24:45.334           114.159            RioGallegos          3567.469
       276   03 Jun 2027 23:03:56.560   03 Jun 2027 23:06:02.786           126.226                Anadyr1          3944.563
       277   03 Jun 2027 23:06:06.883   03 Jun 2027 23:07:46.095            99.212                Norilsk          3100.375
       278   03 Jun 2027 23:07:58.402   03 Jun 2027 23:08:06.787             8.385               Magadan2           262.031
       279   03 Jun 2027 23:10:22.193   03 Jun 2027 23:11:16.271            54.078                Irkutsk          1689.938
       280   03 Jun 2027 23:12:47.629   03 Jun 2027 23:15:01.308           133.679                Novosib          4177.469
       281   03 Jun 2027 23:26:00.307   03 Jun 2027 23:26:36.982            36.675                Sumatra          1146.094
       282   03 Jun 2027 23:28:10.614   03 Jun 2027 23:28:34.733            24.119                Sumatra           753.719
       283   03 Jun 2027 23:35:55.951   03 Jun 2027 23:36:23.470            27.519                Sumatra           859.969
       284   04 Jun 2027 00:07:57.375   04 Jun 2027 00:08:10.567            13.192            RioGallegos           412.250
       285   04 Jun 2027 00:09:00.489   04 Jun 2027 00:09:29.309            28.820            RioGallegos           900.625
       286   04 Jun 2027 00:38:45.872   04 Jun 2027 00:39:24.512            38.640                Anadyr2          1207.500
       287   04 Jun 2027 00:40:12.722   04 Jun 2027 00:40:57.734            45.012                Anadyr1          1406.625
       288   04 Jun 2027 00:41:00.582   04 Jun 2027 00:41:09.701             9.119                Anadyr2           284.969
       289   04 Jun 2027 00:41:33.035   04 Jun 2027 00:41:38.528             5.493                Anadyr2           171.656
       290   04 Jun 2027 00:42:03.644   04 Jun 2027 00:44:02.857           119.213                Norilsk          3725.406
       291   04 Jun 2027 00:45:37.146   04 Jun 2027 00:46:26.498            49.352               Magadan2          1542.250
       292   04 Jun 2027 00:46:36.113   04 Jun 2027 00:48:22.251           106.138                Irkutsk          3316.812
       293   04 Jun 2027 00:54:02.860   04 Jun 2027 00:54:54.786            51.926                  Delhi          1622.688
       294   04 Jun 2027 00:55:13.157   04 Jun 2027 00:56:48.177            95.020                  Delhi          2969.375
       295   04 Jun 2027 01:08:12.062   04 Jun 2027 01:10:27.584           135.522                Sumatra          4235.062
       296   04 Jun 2027 02:13:19.114   04 Jun 2027 02:13:35.785            16.671                Anadyr2           520.969
       297   04 Jun 2027 02:14:30.442   04 Jun 2027 02:14:49.791            19.349                Anadyr2           604.656
       298   04 Jun 2027 02:18:03.762   04 Jun 2027 02:20:01.438           117.676                Norilsk          3677.375
       299   04 Jun 2027 02:20:26.577   04 Jun 2027 02:21:33.486            66.909              Murmansk2          2090.906
       300   04 Jun 2027 02:21:50.865   04 Jun 2027 02:22:50.108            59.243                Novosib          1851.344
       301   04 Jun 2027 02:25:27.773   04 Jun 2027 02:25:42.097            14.324                Irkutsk           447.625
       302   04 Jun 2027 02:28:57.210   04 Jun 2027 02:29:21.060            23.850                Irkutsk           745.313
       303   04 Jun 2027 02:29:23.524   04 Jun 2027 02:29:59.913            36.389                  Delhi          1137.156
       304   04 Jun 2027 02:37:08.878   04 Jun 2027 02:38:06.306            57.428                  Delhi          1794.625
       305   04 Jun 2027 03:49:28.790   04 Jun 2027 03:49:43.754            14.964                Anadyr1           467.625
       306   04 Jun 2027 03:53:24.466   04 Jun 2027 03:53:33.977             9.511                Anadyr2           297.219
       307   04 Jun 2027 03:54:52.325   04 Jun 2027 03:55:09.261            16.936               Magadan1           529.250
       308   04 Jun 2027 03:56:16.638   04 Jun 2027 03:56:27.128            10.490               Magadan1           327.813
       309   04 Jun 2027 03:56:44.296   04 Jun 2027 03:57:06.038            21.742                Anadyr2           679.438
       310   04 Jun 2027 04:04:59.862   04 Jun 2027 04:06:09.023            69.161              Murmansk2          2161.281
       311   04 Jun 2027 04:06:17.658   04 Jun 2027 04:06:36.164            18.506                Novosib           578.313
       312   04 Jun 2027 04:06:45.779   04 Jun 2027 04:07:28.159            42.380              Murmansk1          1324.375
       313   04 Jun 2027 04:07:38.981   04 Jun 2027 04:07:58.029            19.048                Novosib           595.250
       314   04 Jun 2027 04:08:13.266   04 Jun 2027 04:11:52.198           218.932                 Moscow          6841.625
       315   04 Jun 2027 04:24:04.315   04 Jun 2027 04:26:08.976           124.661               CapeTown          3895.656
       316   04 Jun 2027 04:27:12.556   04 Jun 2027 04:29:37.832           145.276               CapeTown          4539.875
       317   04 Jun 2027 04:30:13.149   04 Jun 2027 04:33:24.194           191.045               CapeTown          5970.156
       318   04 Jun 2027 05:26:33.575   04 Jun 2027 05:28:11.429            97.854                Anadyr1          3057.937
       319   04 Jun 2027 05:29:04.956   04 Jun 2027 05:30:26.548            81.592               Magadan1          2549.750
       320   04 Jun 2027 05:40:12.624   04 Jun 2027 05:40:40.436            27.812                 Moscow           869.125
       321   04 Jun 2027 05:41:06.049   04 Jun 2027 05:41:46.785            40.736                 Moscow          1273.000
       322   04 Jun 2027 05:46:15.109   04 Jun 2027 05:46:58.681            43.572                 Moscow          1361.625
       323   04 Jun 2027 05:59:51.916   04 Jun 2027 06:01:16.433            84.517               CapeTown          2641.156
       324   04 Jun 2027 07:02:31.068   04 Jun 2027 07:02:34.961             3.893               Magadan1           121.656
       325   04 Jun 2027 07:02:40.986   04 Jun 2027 07:02:44.455             3.469               Magadan1           108.406
       326   04 Jun 2027 07:03:00.755   04 Jun 2027 07:04:18.238            77.483                Anadyr1          2421.344
       327   04 Jun 2027 07:04:24.456   04 Jun 2027 07:04:45.124            20.668               Magadan2           645.875
       328   04 Jun 2027 07:05:08.960   04 Jun 2027 07:05:13.154             4.194                Anadyr1           131.063
       329   04 Jun 2027 07:05:59.194   04 Jun 2027 07:06:05.366             6.172               Magadan2           192.875
       330   04 Jun 2027 07:06:10.522   04 Jun 2027 07:06:40.333            29.811                Anadyr2           931.594
       331   04 Jun 2027 07:17:30.066   04 Jun 2027 07:18:14.636            44.570                 Moscow          1392.813
       332   04 Jun 2027 08:38:17.545   04 Jun 2027 08:40:09.767           112.222                Anadyr2          3506.937
       333   04 Jun 2027 08:40:28.904   04 Jun 2027 08:40:33.772             4.868               Magadan2           152.125
       334   04 Jun 2027 08:40:38.787   04 Jun 2027 08:40:51.516            12.729                Anadyr1           397.781
       335   04 Jun 2027 08:41:18.740   04 Jun 2027 08:42:58.491            99.751                Anadyr1          3117.219
       336   04 Jun 2027 10:13:22.736   04 Jun 2027 10:14:42.110            79.374               Magadan2          2480.438
       337   04 Jun 2027 10:15:31.568   04 Jun 2027 10:15:36.685             5.117               Magadan2           159.906
       338   04 Jun 2027 10:15:57.097   04 Jun 2027 10:16:12.994            15.897               Magadan1           496.781
       339   04 Jun 2027 10:16:12.994   04 Jun 2027 10:16:17.660             4.666               Magadan2           145.813
       340   04 Jun 2027 10:17:31.759   04 Jun 2027 10:17:37.793             6.034                Irkutsk           188.562
       341   04 Jun 2027 10:17:42.460   04 Jun 2027 10:18:12.340            29.880                Irkutsk           933.750
       342   04 Jun 2027 10:18:18.995   04 Jun 2027 10:18:42.442            23.447                Irkutsk           732.719
       343   04 Jun 2027 10:18:44.640   04 Jun 2027 10:18:44.697             0.057                Irkutsk             1.781
       344   04 Jun 2027 10:19:41.163   04 Jun 2027 10:20:11.288            30.125                Irkutsk           941.406
       345   04 Jun 2027 10:20:54.050   04 Jun 2027 10:20:56.629             2.579                Norilsk            80.594
       346   04 Jun 2027 10:54:54.973   04 Jun 2027 10:55:54.881            59.908            RioGallegos          1872.125
       347   04 Jun 2027 10:56:07.625   04 Jun 2027 10:57:15.024            67.399            RioGallegos          2106.219
       348   04 Jun 2027 11:32:39.082   04 Jun 2027 11:33:33.712            54.630                Sumatra          1707.188
       349   04 Jun 2027 11:50:10.563   04 Jun 2027 11:50:17.121             6.558                Irkutsk           204.937
       350   04 Jun 2027 11:50:17.604   04 Jun 2027 11:51:20.611            63.007                Irkutsk          1968.969
       351   04 Jun 2027 11:52:28.338   04 Jun 2027 11:52:30.496             2.158                Irkutsk            67.438
       352   04 Jun 2027 11:53:17.331   04 Jun 2027 11:53:36.278            18.947                Irkutsk           592.094
       353   04 Jun 2027 11:53:37.841   04 Jun 2027 11:54:04.093            26.252                Norilsk           820.375
       354   04 Jun 2027 11:54:18.444   04 Jun 2027 11:54:40.613            22.169                Novosib           692.781
       355   04 Jun 2027 11:54:58.520   04 Jun 2027 11:56:08.764            70.244                Irkutsk          2195.125
       356   04 Jun 2027 12:33:15.917   04 Jun 2027 12:33:29.025            13.108            RioGallegos           409.625
       357   04 Jun 2027 12:34:41.036   04 Jun 2027 12:35:58.607            77.571            RioGallegos          2424.094
       358   04 Jun 2027 13:07:34.271   04 Jun 2027 13:09:55.408           141.137                Sumatra          4410.531
       359   04 Jun 2027 13:23:20.885   04 Jun 2027 13:26:23.010           182.125                Irkutsk          5691.406
       360   04 Jun 2027 14:53:13.282   04 Jun 2027 14:56:59.273           225.991                  Delhi          7062.219
       361   04 Jun 2027 15:01:42.146   04 Jun 2027 15:03:49.123           126.977                Novosib          3968.031
       362   04 Jun 2027 15:04:52.612   04 Jun 2027 15:05:38.975            46.363                Novosib          1448.844
       363   04 Jun 2027 15:09:26.734   04 Jun 2027 15:10:32.874            66.140                Norilsk          2066.875
       364   04 Jun 2027 16:20:23.977   04 Jun 2027 16:20:35.298            11.321               CapeTown           353.781
       365   04 Jun 2027 16:21:21.065   04 Jun 2027 16:21:22.879             1.814               CapeTown            56.688
       366   04 Jun 2027 16:34:59.814   04 Jun 2027 16:36:04.324            64.510                 Moscow          2015.938
       367   04 Jun 2027 16:38:04.838   04 Jun 2027 16:39:33.585            88.747                 Moscow          2773.344
       368   04 Jun 2027 16:46:31.915   04 Jun 2027 16:47:00.261            28.346              Murmansk2           885.813
       369   04 Jun 2027 16:49:34.411   04 Jun 2027 16:50:12.833            38.422              Murmansk2          1200.687
       370   04 Jun 2027 16:53:15.459   04 Jun 2027 16:54:17.895            62.436                Anadyr1          1951.125
       371   04 Jun 2027 16:55:04.711   04 Jun 2027 16:55:08.707             3.996                Anadyr2           124.875
       372   04 Jun 2027 16:55:55.394   04 Jun 2027 16:56:07.661            12.267                Anadyr2           383.344
       373   04 Jun 2027 16:56:10.743   04 Jun 2027 16:56:39.415            28.672                Anadyr1           896.000
       374   04 Jun 2027 16:58:46.900   04 Jun 2027 16:59:20.706            33.806                Anadyr1          1056.437
       375   04 Jun 2027 17:47:51.648   04 Jun 2027 17:48:27.607            35.959               CapeTown          1123.719
       376   04 Jun 2027 17:53:19.584   04 Jun 2027 17:53:47.138            27.554               CapeTown           861.062
       377   04 Jun 2027 17:56:45.552   04 Jun 2027 17:57:04.132            18.580               CapeTown           580.625
       378   04 Jun 2027 18:00:22.279   04 Jun 2027 18:00:40.156            17.877               CapeTown           558.656
       379   04 Jun 2027 18:16:21.920   04 Jun 2027 18:19:30.044           188.124                 Moscow          5878.875
       380   04 Jun 2027 18:20:41.786   04 Jun 2027 18:22:02.792            81.006              Murmansk1          2531.437
       381   04 Jun 2027 18:33:04.104   04 Jun 2027 18:33:57.571            53.467               Magadan2          1670.844
       382   04 Jun 2027 18:33:57.571   04 Jun 2027 18:35:31.869            94.298               Magadan1          2946.812
       383   04 Jun 2027 19:29:48.586   04 Jun 2027 19:30:30.389            41.803               CapeTown          1306.344
       384   04 Jun 2027 20:04:23.702   04 Jun 2027 20:07:48.266           204.564                Anadyr2          6392.625
       385   04 Jun 2027 20:07:52.155   04 Jun 2027 20:09:19.986            87.831               Magadan1          2744.719
       386   04 Jun 2027 20:09:30.734   04 Jun 2027 20:10:08.585            37.851               Magadan1          1182.844
       387   04 Jun 2027 20:17:18.745   04 Jun 2027 20:17:28.156             9.411               Magadan1           294.094
       388   04 Jun 2027 21:40:18.408   04 Jun 2027 21:44:10.168           231.760                Anadyr1          7242.500
       389   04 Jun 2027 21:44:15.971   04 Jun 2027 21:46:11.491           115.520                Norilsk          3610.000
       390   04 Jun 2027 21:46:15.272   04 Jun 2027 21:47:35.057            79.785               Magadan1          2493.281
       391   04 Jun 2027 21:48:25.229   04 Jun 2027 21:48:56.392            31.163               Magadan1           973.844
       392   04 Jun 2027 21:49:43.737   04 Jun 2027 21:49:48.378             4.641               Magadan1           145.031
       393   04 Jun 2027 21:49:51.953   04 Jun 2027 21:50:26.222            34.269               Magadan1          1070.906
       394   04 Jun 2027 22:34:39.700   04 Jun 2027 22:36:37.433           117.733            RioGallegos          3679.156
       395   04 Jun 2027 22:36:50.462   04 Jun 2027 22:37:53.380            62.918            RioGallegos          1966.188
       396   04 Jun 2027 23:15:53.400   04 Jun 2027 23:16:47.380            53.980                Anadyr2          1686.875
       397   04 Jun 2027 23:17:04.686   04 Jun 2027 23:18:07.711            63.025                Anadyr2          1969.531
       398   04 Jun 2027 23:18:39.676   04 Jun 2027 23:19:36.357            56.681               Magadan2          1771.281
       399   04 Jun 2027 23:19:36.357   04 Jun 2027 23:19:56.281            19.924               Magadan1           622.625
       400   04 Jun 2027 23:22:10.112   04 Jun 2027 23:22:21.952            11.840               Magadan2           370.000
       401   04 Jun 2027 23:22:36.340   04 Jun 2027 23:23:05.355            29.015                Norilsk           906.719
       402   04 Jun 2027 23:23:08.347   04 Jun 2027 23:23:39.812            31.465                Irkutsk           983.281
       403   04 Jun 2027 23:23:56.725   04 Jun 2027 23:24:49.807            53.082                Novosib          1658.812
       404   04 Jun 2027 23:25:43.269   04 Jun 2027 23:25:46.882             3.613                Novosib           112.906
       405   04 Jun 2027 23:26:40.817   04 Jun 2027 23:26:43.150             2.333                Novosib            72.906
       406   04 Jun 2027 23:27:29.758   04 Jun 2027 23:27:30.609             0.851                Irkutsk            26.594
       407   04 Jun 2027 23:28:07.257   04 Jun 2027 23:28:45.323            38.066                Novosib          1189.563
       408   04 Jun 2027 23:35:59.867   04 Jun 2027 23:38:27.986           148.119                Sumatra          4628.719
       409   05 Jun 2027 00:15:49.405   05 Jun 2027 00:16:05.716            16.311            RioGallegos           509.719
       410   05 Jun 2027 00:16:49.626   05 Jun 2027 00:17:42.184            52.558            RioGallegos          1642.437
       411   05 Jun 2027 00:50:33.607   05 Jun 2027 00:50:55.619            22.012                Anadyr2           687.875
       412   05 Jun 2027 00:51:22.764   05 Jun 2027 00:52:08.745            45.981                Anadyr2          1436.906
       413   05 Jun 2027 00:52:48.099   05 Jun 2027 00:53:18.058            29.959                Anadyr1           936.219
       414   05 Jun 2027 00:53:18.058   05 Jun 2027 00:53:23.034             4.976                Anadyr2           155.500
       415   05 Jun 2027 00:54:05.947   05 Jun 2027 00:55:48.243           102.296                Norilsk          3196.750
       416   05 Jun 2027 00:57:13.137   05 Jun 2027 00:57:39.678            26.541               Magadan2           829.406
       417   05 Jun 2027 00:57:59.072   05 Jun 2027 00:59:59.299           120.227                Irkutsk          3757.094
       418   05 Jun 2027 01:02:50.559   05 Jun 2027 01:03:09.217            18.658                Novosib           583.063
       419   05 Jun 2027 01:04:49.361   05 Jun 2027 01:05:22.515            33.154                Novosib          1036.063
       420   05 Jun 2027 01:06:21.743   05 Jun 2027 01:07:01.551            39.808                  Delhi          1244.000
       421   05 Jun 2027 01:12:44.171   05 Jun 2027 01:12:45.026             0.855                  Delhi            26.719
       422   05 Jun 2027 01:12:54.030   05 Jun 2027 01:15:10.133           136.103                  Delhi          4253.219
       423   05 Jun 2027 01:52:59.421   05 Jun 2027 01:53:05.705             6.284            RioGallegos           196.375
       424   05 Jun 2027 01:53:17.635   05 Jun 2027 01:53:44.452            26.817            RioGallegos           838.031
       425   05 Jun 2027 02:24:03.306   05 Jun 2027 02:24:09.248             5.942                Anadyr1           185.688
       426   05 Jun 2027 02:24:29.005   05 Jun 2027 02:25:18.247            49.242                Anadyr2          1538.812
       427   05 Jun 2027 02:26:39.602   05 Jun 2027 02:26:49.493             9.891                Anadyr1           309.094
       428   05 Jun 2027 02:29:47.969   05 Jun 2027 02:30:04.755            16.786                Anadyr2           524.563
       429   05 Jun 2027 02:30:05.397   05 Jun 2027 02:31:10.386            64.989                Norilsk          2030.906
       430   05 Jun 2027 02:31:51.510   05 Jun 2027 02:32:06.017            14.507                Norilsk           453.344
       431   05 Jun 2027 02:32:24.398   05 Jun 2027 02:33:13.677            49.279              Murmansk1          1539.969
       432   05 Jun 2027 02:33:53.914   05 Jun 2027 02:34:20.433            26.519                Novosib           828.719
       433   05 Jun 2027 02:34:38.506   05 Jun 2027 02:34:55.567            17.061                Irkutsk           533.156
       434   05 Jun 2027 02:35:03.927   05 Jun 2027 02:35:46.037            42.110                Novosib          1315.938
       435   05 Jun 2027 02:37:32.530   05 Jun 2027 02:38:06.133            33.603                Irkutsk          1050.094
       436   05 Jun 2027 02:41:37.206   05 Jun 2027 02:42:18.746            41.540                  Delhi          1298.125
       437   05 Jun 2027 02:47:44.868   05 Jun 2027 02:49:02.630            77.762                  Delhi          2430.063
       438   05 Jun 2027 04:16:51.155   05 Jun 2027 04:18:19.416            88.261                Novosib          2758.156
       439   05 Jun 2027 04:18:26.306   05 Jun 2027 04:20:52.837           146.531                 Moscow          4579.094
       440   05 Jun 2027 04:21:47.588   05 Jun 2027 04:24:05.669           138.081                 Moscow          4315.031
       441   05 Jun 2027 04:45:10.885   05 Jun 2027 04:48:02.731           171.846               CapeTown          5370.188
       442   05 Jun 2027 05:39:09.590   05 Jun 2027 05:39:18.137             8.547                Anadyr1           267.094
       443   05 Jun 2027 05:39:22.418   05 Jun 2027 05:40:39.303            76.885                Anadyr1          2402.656
       444   05 Jun 2027 05:41:40.655   05 Jun 2027 05:42:31.831            51.176                Anadyr1          1599.250
       445   05 Jun 2027 05:42:53.965   05 Jun 2027 05:43:11.178            17.213                Anadyr2           537.906
       446   05 Jun 2027 05:43:23.657   05 Jun 2027 05:43:46.318            22.661                Anadyr1           708.156
       447   05 Jun 2027 05:44:34.442   05 Jun 2027 05:45:00.387            25.945                Anadyr1           810.781
       448   05 Jun 2027 05:59:08.234   05 Jun 2027 05:59:13.880             5.646                 Moscow           176.438
       449   05 Jun 2027 06:12:37.166   05 Jun 2027 06:13:19.392            42.226               CapeTown          1319.563
       450   05 Jun 2027 06:22:15.301   05 Jun 2027 06:22:59.707            44.406               CapeTown          1387.687
       451   05 Jun 2027 07:13:01.864   05 Jun 2027 07:13:22.752            20.888                Anadyr1           652.750
       452   05 Jun 2027 07:13:32.956   05 Jun 2027 07:14:11.147            38.191                Anadyr1          1193.469
       453   05 Jun 2027 07:14:38.287   05 Jun 2027 07:14:46.640             8.353               Magadan1           261.031
       454   05 Jun 2027 07:14:46.640   05 Jun 2027 07:15:03.374            16.734               Magadan2           522.938
       455   05 Jun 2027 07:15:11.110   05 Jun 2027 07:16:10.999            59.889                Anadyr1          1871.531
       456   05 Jun 2027 07:16:23.979   05 Jun 2027 07:16:48.117            24.138               Magadan2           754.313
       457   05 Jun 2027 07:16:48.117   05 Jun 2027 07:17:11.764            23.647               Magadan1           738.969
       458   05 Jun 2027 07:17:29.546   05 Jun 2027 07:18:10.589            41.043               Magadan2          1282.594
       459   05 Jun 2027 07:18:26.231   05 Jun 2027 07:18:38.709            12.478                Anadyr1           389.938
       460   05 Jun 2027 07:18:38.709   05 Jun 2027 07:19:06.956            28.247                Anadyr2           882.719
       461   05 Jun 2027 08:48:04.888   05 Jun 2027 08:48:18.596            13.708               Magadan2           428.375
       462   05 Jun 2027 08:48:22.182   05 Jun 2027 08:50:05.127           102.945                Anadyr1          3217.031
       463   05 Jun 2027 08:50:33.812   05 Jun 2027 08:50:46.248            12.436               Magadan2           388.625
       464   05 Jun 2027 08:51:06.540   05 Jun 2027 08:51:46.460            39.920                Anadyr2          1247.500
       465   05 Jun 2027 08:52:47.184   05 Jun 2027 08:52:55.554             8.370               Magadan2           261.563
       466   05 Jun 2027 08:52:58.552   05 Jun 2027 08:54:58.625           120.073                Anadyr1          3752.281
       467   05 Jun 2027 10:24:58.517   05 Jun 2027 10:26:42.597           104.080               Magadan2          3252.500
       468   05 Jun 2027 10:28:06.296   05 Jun 2027 10:28:15.407             9.111               Magadan1           284.719
       469   05 Jun 2027 10:28:31.503   05 Jun 2027 10:29:21.000            49.497                Irkutsk          1546.781
       470   05 Jun 2027 10:29:25.382   05 Jun 2027 10:30:31.732            66.350               Magadan1          2073.438
       471   05 Jun 2027 10:31:34.309   05 Jun 2027 10:31:49.759            15.450                Irkutsk           482.812
       472   05 Jun 2027 10:32:32.251   05 Jun 2027 10:32:44.989            12.738                Novosib           398.063
       473   05 Jun 2027 11:07:00.226   05 Jun 2027 11:07:50.201            49.975            RioGallegos          1561.719
       474   05 Jun 2027 11:10:12.774   05 Jun 2027 11:10:32.869            20.095            RioGallegos           627.969
       475   05 Jun 2027 11:41:56.029   05 Jun 2027 11:42:33.120            37.091                Sumatra          1159.094
       476   05 Jun 2027 11:45:20.602   05 Jun 2027 11:45:21.860             1.258                Sumatra            39.312
       477   05 Jun 2027 11:48:41.217   05 Jun 2027 11:49:30.484            49.267                Sumatra          1539.594
       478   05 Jun 2027 12:05:58.196   05 Jun 2027 12:06:17.922            19.726                Novosib           616.438
       479   05 Jun 2027 12:09:20.591   05 Jun 2027 12:09:48.058            27.467                Novosib           858.344
       480   05 Jun 2027 12:12:39.949   05 Jun 2027 12:12:59.479            19.530                Norilsk           610.312
       481   05 Jun 2027 12:50:46.164   05 Jun 2027 12:51:17.608            31.444            RioGallegos           982.625
       482   05 Jun 2027 12:53:48.059   05 Jun 2027 12:54:18.378            30.319            RioGallegos           947.469
