uniorb/output/strategy_4/Drop/Drop_KinoSat_111603.txt

KinoSat_111603
-------------------------
    Access    *     Start Time (UTCG)     *     Stop Time (UTCG)  *   Duration (s)        *       Station  *  Data (Mbytes)
         1   01 Jun 2027 03:35:04.107   01 Jun 2027 03:35:21.319            17.212                Irkutsk           537.875
         2   01 Jun 2027 03:36:20.440   01 Jun 2027 03:36:41.932            21.492              Murmansk2           671.625
         3   01 Jun 2027 03:36:41.932   01 Jun 2027 03:37:11.808            29.876              Murmansk1           933.625
         4   01 Jun 2027 03:37:16.565   01 Jun 2027 03:39:03.334           106.769                Novosib          3336.531
         5   01 Jun 2027 03:39:07.148   01 Jun 2027 03:39:36.291            29.143                Norilsk           910.719
         6   01 Jun 2027 03:39:50.379   01 Jun 2027 03:42:27.642           157.263                Novosib          4914.469
         7   01 Jun 2027 03:42:35.578   01 Jun 2027 03:44:48.185           132.607                  Delhi          4143.969
         8   01 Jun 2027 05:12:31.209   01 Jun 2027 05:13:01.377            30.168                Novosib           942.750
         9   01 Jun 2027 05:14:29.664   01 Jun 2027 05:14:53.571            23.907              Murmansk2           747.094
        10   01 Jun 2027 05:15:11.946   01 Jun 2027 05:16:55.298           103.352              Murmansk2          3229.750
        11   01 Jun 2027 06:36:13.232   01 Jun 2027 06:37:15.501            62.269               Magadan1          1945.906
        12   01 Jun 2027 06:37:21.746   01 Jun 2027 06:38:02.262            40.516                Anadyr1          1266.125
        13   01 Jun 2027 08:14:04.854   01 Jun 2027 08:16:51.127           166.273               Magadan1          5196.031
        14   01 Jun 2027 08:17:35.685   01 Jun 2027 08:18:05.116            29.431                Anadyr2           919.719
        15   01 Jun 2027 09:47:55.996   01 Jun 2027 09:49:01.971            65.975               Magadan2          2061.719
        16   01 Jun 2027 09:50:00.886   01 Jun 2027 09:52:52.622           171.736               Magadan1          5366.750
        17   01 Jun 2027 09:53:20.318   01 Jun 2027 09:53:32.392            12.074                Irkutsk           377.312
        18   01 Jun 2027 11:04:23.838   01 Jun 2027 11:05:06.538            42.700                Sumatra          1334.375
        19   01 Jun 2027 11:25:23.879   01 Jun 2027 11:25:31.627             7.748                Novosib           242.125
        20   01 Jun 2027 11:25:55.461   01 Jun 2027 11:31:11.089           315.628                Novosib          9863.375
        21   01 Jun 2027 12:05:35.174   01 Jun 2027 12:06:01.153            25.979            RioGallegos           811.844
        22   01 Jun 2027 12:07:15.080   01 Jun 2027 12:08:17.419            62.339            RioGallegos          1948.094
        23   01 Jun 2027 12:09:37.770   01 Jun 2027 12:10:31.336            53.566            RioGallegos          1673.938
        24   01 Jun 2027 12:39:49.927   01 Jun 2027 12:41:16.724            86.797                Sumatra          2712.406
        25   01 Jun 2027 12:44:16.727   01 Jun 2027 12:44:55.627            38.900                Sumatra          1215.625
        26   01 Jun 2027 12:48:35.916   01 Jun 2027 12:49:42.770            66.854                  Delhi          2089.188
        27   01 Jun 2027 12:55:04.724   01 Jun 2027 12:57:57.315           172.591                Irkutsk          5393.469
        28   01 Jun 2027 12:58:19.697   01 Jun 2027 12:59:56.023            96.326                Irkutsk          3010.188
        29   01 Jun 2027 14:24:46.920   01 Jun 2027 14:28:39.093           232.173                  Delhi          7255.406
        30   01 Jun 2027 14:33:11.953   01 Jun 2027 14:37:23.838           251.885                Novosib          7871.406
        31   01 Jun 2027 16:08:03.224   01 Jun 2027 16:11:07.838           184.614                 Moscow          5769.188
        32   01 Jun 2027 16:12:35.889   01 Jun 2027 16:12:49.179            13.290              Murmansk1           415.313
        33   01 Jun 2027 16:14:19.035   01 Jun 2027 16:14:37.463            18.428              Murmansk1           575.875
        34   01 Jun 2027 16:18:23.590   01 Jun 2027 16:21:31.787           188.197                Norilsk          5881.156
        35   01 Jun 2027 17:21:32.861   01 Jun 2027 17:22:25.329            52.468               CapeTown          1639.625
        36   01 Jun 2027 17:22:51.731   01 Jun 2027 17:23:17.982            26.251               CapeTown           820.344
        37   01 Jun 2027 17:47:20.162   01 Jun 2027 17:52:02.933           282.771                 Moscow          8836.594
        38   01 Jun 2027 17:54:19.054   01 Jun 2027 17:54:46.894            27.840              Murmansk1           870.000
        39   01 Jun 2027 18:57:58.608   01 Jun 2027 19:01:21.019           202.411               CapeTown          6325.344
        40   01 Jun 2027 19:02:29.385   01 Jun 2027 19:02:42.071            12.686               CapeTown           396.438
        41   01 Jun 2027 19:30:18.908   01 Jun 2027 19:35:23.727           304.819              Murmansk1          9525.594
        42   01 Jun 2027 19:41:16.897   01 Jun 2027 19:41:38.053            21.156               Magadan2           661.125
        43   01 Jun 2027 21:13:50.414   01 Jun 2027 21:17:33.676           223.262                Anadyr2          6976.938
        44   01 Jun 2027 21:17:40.247   01 Jun 2027 21:19:01.172            80.925                Anadyr1          2528.906
        45   01 Jun 2027 21:19:09.124   01 Jun 2027 21:22:13.862           184.738               Magadan1          5773.062
        46   01 Jun 2027 21:22:37.171   01 Jun 2027 21:23:10.194            33.023               Magadan2          1031.969
        47   01 Jun 2027 22:08:44.775   01 Jun 2027 22:11:15.386           150.611            RioGallegos          4706.594
        48   01 Jun 2027 22:14:12.606   01 Jun 2027 22:14:48.719            36.113            RioGallegos          1128.531
        49   01 Jun 2027 22:49:33.668   01 Jun 2027 22:51:08.347            94.679                Anadyr2          2958.719
        50   01 Jun 2027 22:51:33.734   01 Jun 2027 22:51:47.581            13.847                Anadyr1           432.719
        51   01 Jun 2027 22:52:07.227   01 Jun 2027 22:55:24.421           197.194               Magadan2          6162.312
        52   01 Jun 2027 22:55:52.647   01 Jun 2027 22:55:53.736             1.089               Magadan2            34.031
        53   01 Jun 2027 22:56:06.397   01 Jun 2027 22:57:00.341            53.944                Irkutsk          1685.750
        54   01 Jun 2027 22:58:20.680   01 Jun 2027 22:58:48.537            27.857                Irkutsk           870.531
        55   01 Jun 2027 23:01:58.776   01 Jun 2027 23:04:15.147           136.371                Irkutsk          4261.594
        56   01 Jun 2027 23:13:54.069   01 Jun 2027 23:15:52.816           118.747                Sumatra          3710.844
        57   02 Jun 2027 00:24:33.233   02 Jun 2027 00:24:50.710            17.477                Anadyr2           546.156
        58   02 Jun 2027 00:25:52.270   02 Jun 2027 00:26:30.663            38.393                Anadyr1          1199.781
        59   02 Jun 2027 00:26:30.663   02 Jun 2027 00:26:51.666            21.003                Anadyr2           656.344
        60   02 Jun 2027 00:27:18.114   02 Jun 2027 00:27:25.279             7.165                Anadyr2           223.906
        61   02 Jun 2027 00:27:35.226   02 Jun 2027 00:29:18.598           103.372                Norilsk          3230.375
        62   02 Jun 2027 00:30:10.990   02 Jun 2027 00:30:36.978            25.988               Magadan2           812.125
        63   02 Jun 2027 00:31:27.440   02 Jun 2027 00:33:27.845           120.405                Irkutsk          3762.656
        64   02 Jun 2027 00:33:37.874   02 Jun 2027 00:33:58.259            20.385                Novosib           637.031
        65   02 Jun 2027 00:35:05.615   02 Jun 2027 00:35:14.736             9.121                Irkutsk           285.031
        66   02 Jun 2027 00:38:59.211   02 Jun 2027 00:40:08.393            69.182                Novosib          2161.938
        67   02 Jun 2027 00:40:25.509   02 Jun 2027 00:40:53.432            27.923                  Delhi           872.594
        68   02 Jun 2027 00:49:22.500   02 Jun 2027 00:50:01.805            39.305                  Delhi          1228.281
        69   02 Jun 2027 01:19:45.673   02 Jun 2027 01:20:56.181            70.508            RioGallegos          2203.375
        70   02 Jun 2027 01:26:22.897   02 Jun 2027 01:26:30.612             7.715            RioGallegos           241.094
        71   02 Jun 2027 01:27:13.946   02 Jun 2027 01:27:49.165            35.219            RioGallegos          1100.594
        72   02 Jun 2027 01:58:19.070   02 Jun 2027 01:58:44.202            25.132                Anadyr2           785.375
        73   02 Jun 2027 01:58:59.327   02 Jun 2027 01:59:08.658             9.331                Anadyr1           291.594
        74   02 Jun 2027 01:59:45.541   02 Jun 2027 02:00:38.138            52.597                Anadyr2          1643.656
        75   02 Jun 2027 02:03:19.821   02 Jun 2027 02:03:37.325            17.504                Anadyr2           547.000
        76   02 Jun 2027 02:03:52.701   02 Jun 2027 02:05:35.162           102.461                Norilsk          3201.906
        77   02 Jun 2027 02:06:05.406   02 Jun 2027 02:07:27.991            82.585              Murmansk2          2580.781
        78   02 Jun 2027 02:07:31.799   02 Jun 2027 02:07:35.578             3.779                Novosib           118.094
        79   02 Jun 2027 02:07:50.346   02 Jun 2027 02:08:46.424            56.078                Irkutsk          1752.437
        80   02 Jun 2027 02:12:38.998   02 Jun 2027 02:14:10.482            91.484                 Moscow          2858.875
        81   02 Jun 2027 02:24:49.724   02 Jun 2027 02:24:58.373             8.649                  Delhi           270.281
        82   02 Jun 2027 02:57:45.393   02 Jun 2027 02:59:30.803           105.410            RioGallegos          3294.062
        83   02 Jun 2027 03:00:25.978   02 Jun 2027 03:00:58.992            33.014            RioGallegos          1031.688
        84   02 Jun 2027 03:48:04.696   02 Jun 2027 03:48:32.926            28.230                Novosib           882.187
        85   02 Jun 2027 03:48:41.027   02 Jun 2027 03:50:19.711            98.684                Norilsk          3083.875
        86   02 Jun 2027 03:50:31.489   02 Jun 2027 03:50:43.294            11.805              Murmansk2           368.906
        87   02 Jun 2027 03:51:06.601   02 Jun 2027 03:54:04.252           177.651                Novosib          5551.594
        88   02 Jun 2027 03:55:42.323   02 Jun 2027 03:56:38.761            56.438                 Moscow          1763.687
        89   02 Jun 2027 04:15:37.683   02 Jun 2027 04:16:21.997            44.314               CapeTown          1384.812
        90   02 Jun 2027 04:19:41.401   02 Jun 2027 04:20:12.117            30.716               CapeTown           959.875
        91   02 Jun 2027 06:48:05.290   02 Jun 2027 06:50:15.659           130.369               Magadan1          4074.031
        92   02 Jun 2027 06:50:41.415   02 Jun 2027 06:53:08.361           146.946                Anadyr1          4592.063
        93   02 Jun 2027 06:53:44.194   02 Jun 2027 06:54:04.954            20.760               Magadan1           648.750
        94   02 Jun 2027 08:26:28.193   02 Jun 2027 08:26:46.015            17.822                Anadyr2           556.937
        95   02 Jun 2027 08:27:28.820   02 Jun 2027 08:28:38.308            69.488               Magadan2          2171.500
        96   02 Jun 2027 08:28:47.030   02 Jun 2027 08:29:44.785            57.755                Anadyr2          1804.844
        97   02 Jun 2027 10:00:15.071   02 Jun 2027 10:00:30.262            15.191               Magadan2           474.719
        98   02 Jun 2027 10:00:40.939   02 Jun 2027 10:01:13.451            32.512               Magadan1          1016.000
        99   02 Jun 2027 10:01:39.921   02 Jun 2027 10:02:50.257            70.336                Irkutsk          2198.000
       100   02 Jun 2027 10:04:07.760   02 Jun 2027 10:05:25.976            78.216               Magadan2          2444.250
       101   02 Jun 2027 10:06:32.041   02 Jun 2027 10:06:39.347             7.306                Norilsk           228.313
       102   02 Jun 2027 10:40:27.508   02 Jun 2027 10:41:32.569            65.061            RioGallegos          2033.156
       103   02 Jun 2027 11:15:59.176   02 Jun 2027 11:17:20.640            81.464                Sumatra          2545.750
       104   02 Jun 2027 11:35:45.937   02 Jun 2027 11:36:12.566            26.629                Novosib           832.156
       105   02 Jun 2027 11:36:22.920   02 Jun 2027 11:37:06.284            43.364                Irkutsk          1355.125
       106   02 Jun 2027 11:37:30.493   02 Jun 2027 11:37:52.682            22.189                Irkutsk           693.406
       107   02 Jun 2027 11:37:54.722   02 Jun 2027 11:38:04.469             9.747                Novosib           304.594
       108   02 Jun 2027 11:38:15.295   02 Jun 2027 11:39:05.980            50.685                Novosib          1583.906
       109   02 Jun 2027 11:39:10.624   02 Jun 2027 11:39:12.125             1.501                Norilsk            46.906
       110   02 Jun 2027 11:39:19.849   02 Jun 2027 11:39:50.432            30.583                Irkutsk           955.719
       111   02 Jun 2027 11:40:25.225   02 Jun 2027 11:40:42.820            17.595                Novosib           549.844
       112   02 Jun 2027 11:40:49.651   02 Jun 2027 11:40:53.955             4.304                Norilsk           134.500
       113   02 Jun 2027 11:40:57.857   02 Jun 2027 11:41:24.975            27.118              Murmansk2           847.438
       114   02 Jun 2027 11:41:26.794   02 Jun 2027 11:41:46.452            19.658                Novosib           614.312
       115   02 Jun 2027 12:18:05.216   02 Jun 2027 12:18:43.681            38.465            RioGallegos          1202.031
       116   02 Jun 2027 12:21:36.370   02 Jun 2027 12:22:14.187            37.817            RioGallegos          1181.781
       117   02 Jun 2027 12:52:18.122   02 Jun 2027 12:53:19.302            61.180                Sumatra          1911.875
       118   02 Jun 2027 13:01:24.524   02 Jun 2027 13:02:08.269            43.745                  Delhi          1367.031
       119   02 Jun 2027 13:06:34.857   02 Jun 2027 13:06:59.684            24.827                Novosib           775.844
       120   02 Jun 2027 13:07:14.262   02 Jun 2027 13:09:37.144           142.882                Novosib          4465.063
       121   02 Jun 2027 13:18:57.502   02 Jun 2027 13:19:12.487            14.985                Norilsk           468.281
       122   02 Jun 2027 14:37:30.481   02 Jun 2027 14:42:20.042           289.561                  Delhi          9048.781
       123   02 Jun 2027 14:47:17.776   02 Jun 2027 14:49:24.119           126.343                Novosib          3948.219
       124   02 Jun 2027 14:54:56.088   02 Jun 2027 14:56:16.554            80.466                Norilsk          2514.563
       125   02 Jun 2027 16:01:47.623   02 Jun 2027 16:02:52.847            65.224               CapeTown          2038.250
       126   02 Jun 2027 16:03:49.693   02 Jun 2027 16:05:00.085            70.392               CapeTown          2199.750
       127   02 Jun 2027 16:21:20.105   02 Jun 2027 16:21:54.654            34.549                 Moscow          1079.656
       128   02 Jun 2027 16:23:44.354   02 Jun 2027 16:24:07.359            23.005              Murmansk2           718.906
       129   02 Jun 2027 16:24:37.544   02 Jun 2027 16:25:39.554            62.010              Murmansk1          1937.813
       130   02 Jun 2027 16:35:50.954   02 Jun 2027 16:36:18.905            27.951              Murmansk2           873.469
       131   02 Jun 2027 16:39:06.132   02 Jun 2027 16:40:56.141           110.009                Anadyr1          3437.781
       132   02 Jun 2027 16:41:50.940   02 Jun 2027 16:42:41.065            50.125                Anadyr1          1566.406
       133   02 Jun 2027 17:33:27.896   02 Jun 2027 17:34:17.838            49.942               CapeTown          1560.687
       134   02 Jun 2027 17:39:50.771   02 Jun 2027 17:40:07.119            16.348               CapeTown           510.875
       135   02 Jun 2027 17:42:01.461   02 Jun 2027 17:42:41.977            40.516               CapeTown          1266.125
       136   02 Jun 2027 18:00:17.993   02 Jun 2027 18:04:03.725           225.732                 Moscow          7054.125
       137   02 Jun 2027 18:15:10.577   02 Jun 2027 18:15:39.320            28.743                Anadyr1           898.219
       138   02 Jun 2027 18:15:44.691   02 Jun 2027 18:15:56.647            11.956                Anadyr1           373.625
       139   02 Jun 2027 18:16:20.894   02 Jun 2027 18:16:38.195            17.301                Anadyr1           540.656
       140   02 Jun 2027 18:22:57.150   02 Jun 2027 18:23:17.413            20.263                Anadyr1           633.219
       141   02 Jun 2027 19:10:20.514   02 Jun 2027 19:11:28.183            67.669               CapeTown          2114.656
       142   02 Jun 2027 19:12:37.249   02 Jun 2027 19:13:15.379            38.130               CapeTown          1191.563
       143   02 Jun 2027 19:43:23.941   02 Jun 2027 19:47:02.298           218.357              Murmansk1          6823.656
       144   02 Jun 2027 19:52:31.034   02 Jun 2027 19:54:17.993           106.959               Magadan2          3342.469
       145   02 Jun 2027 19:55:36.860   02 Jun 2027 19:56:06.198            29.338               Magadan1           916.813
       146   02 Jun 2027 19:57:03.464   02 Jun 2027 19:57:22.430            18.966               Magadan1           592.687
       147   02 Jun 2027 19:58:14.775   02 Jun 2027 19:58:31.737            16.962               Magadan1           530.063
       148   02 Jun 2027 19:58:50.314   02 Jun 2027 19:59:11.673            21.359               Magadan1           667.469
       149   02 Jun 2027 21:25:51.602   02 Jun 2027 21:29:34.193           222.591                Anadyr1          6955.969
       150   02 Jun 2027 21:29:35.300   02 Jun 2027 21:30:59.040            83.740               Magadan2          2616.875
       151   02 Jun 2027 21:30:59.040   02 Jun 2027 21:31:56.361            57.321               Magadan1          1791.281
       152   02 Jun 2027 21:33:26.779   02 Jun 2027 21:33:43.509            16.730               Magadan1           522.813
       153   02 Jun 2027 21:34:36.767   02 Jun 2027 21:35:05.494            28.727               Magadan1           897.719
       154   02 Jun 2027 21:36:41.986   02 Jun 2027 21:37:11.131            29.145               Magadan1           910.781
       155   02 Jun 2027 21:38:37.925   02 Jun 2027 21:39:27.363            49.438               Magadan1          1544.938
       156   02 Jun 2027 22:20:28.309   02 Jun 2027 22:22:32.389           124.080            RioGallegos          3877.500
       157   02 Jun 2027 22:22:48.846   02 Jun 2027 22:23:21.240            32.394            RioGallegos          1012.312
       158   02 Jun 2027 23:01:31.429   02 Jun 2027 23:02:25.343            53.914                Anadyr2          1684.813
       159   02 Jun 2027 23:02:42.965   02 Jun 2027 23:02:50.033             7.068                Anadyr2           220.875
       160   02 Jun 2027 23:03:36.505   02 Jun 2027 23:03:44.898             8.393                Anadyr2           262.281
       161   02 Jun 2027 23:04:10.243   02 Jun 2027 23:05:44.246            94.003               Magadan1          2937.594
       162   02 Jun 2027 23:06:21.853   02 Jun 2027 23:07:20.288            58.435               Magadan1          1826.094
       163   02 Jun 2027 23:07:57.954   02 Jun 2027 23:09:11.607            73.653                Irkutsk          2301.656
       164   02 Jun 2027 23:10:39.207   02 Jun 2027 23:10:48.506             9.299                Novosib           290.594
       165   02 Jun 2027 23:12:30.211   02 Jun 2027 23:13:27.861            57.650                Irkutsk          1801.562
       166   02 Jun 2027 23:16:24.353   02 Jun 2027 23:17:27.195            62.842                Irkutsk          1963.812
       167   02 Jun 2027 23:23:14.229   02 Jun 2027 23:23:30.322            16.093                Sumatra           502.906
       168   02 Jun 2027 23:24:07.394   02 Jun 2027 23:25:05.627            58.233                Sumatra          1819.781
       169   02 Jun 2027 23:33:53.104   02 Jun 2027 23:33:55.019             1.915                Sumatra            59.844
       170   03 Jun 2027 00:05:26.130   03 Jun 2027 00:05:42.225            16.095            RioGallegos           502.969
       171   03 Jun 2027 00:07:05.899   03 Jun 2027 00:07:13.816             7.917            RioGallegos           247.406
       172   03 Jun 2027 00:08:02.259   03 Jun 2027 00:08:27.306            25.047            RioGallegos           782.719
       173   03 Jun 2027 00:36:22.561   03 Jun 2027 00:36:59.418            36.857                Anadyr1          1151.781
       174   03 Jun 2027 00:37:40.428   03 Jun 2027 00:38:32.001            51.573                Anadyr2          1611.656
       175   03 Jun 2027 00:39:10.690   03 Jun 2027 00:39:26.010            15.320                Anadyr2           478.750
       176   03 Jun 2027 00:39:37.482   03 Jun 2027 00:41:19.011           101.529                Norilsk          3172.781
       177   03 Jun 2027 00:41:40.235   03 Jun 2027 00:41:49.480             9.245               Magadan2           288.906
       178   03 Jun 2027 00:43:11.186   03 Jun 2027 00:43:17.454             6.268               Magadan1           195.875
       179   03 Jun 2027 00:43:29.659   03 Jun 2027 00:44:56.045            86.386                Irkutsk          2699.562
       180   03 Jun 2027 00:45:48.312   03 Jun 2027 00:47:17.305            88.993                Novosib          2781.031
       181   03 Jun 2027 00:50:40.647   03 Jun 2027 00:50:53.084            12.437                Novosib           388.656
       182   03 Jun 2027 00:51:41.498   03 Jun 2027 00:52:28.120            46.622                  Delhi          1456.937
       183   03 Jun 2027 00:54:48.009   03 Jun 2027 00:55:36.539            48.530                  Delhi          1516.562
       184   03 Jun 2027 01:03:40.920   03 Jun 2027 01:05:05.617            84.697                Sumatra          2646.781
       185   03 Jun 2027 01:39:12.397   03 Jun 2027 01:39:42.095            29.698            RioGallegos           928.063
       186   03 Jun 2027 01:42:13.344   03 Jun 2027 01:42:28.423            15.079            RioGallegos           471.219
       187   03 Jun 2027 02:10:00.449   03 Jun 2027 02:10:08.597             8.148                Anadyr1           254.625
       188   03 Jun 2027 02:10:53.756   03 Jun 2027 02:11:38.020            44.264                Anadyr2          1383.250
       189   03 Jun 2027 02:15:37.712   03 Jun 2027 02:17:13.343            95.631                Norilsk          2988.469
       190   03 Jun 2027 02:17:23.039   03 Jun 2027 02:17:47.224            24.185               Magadan1           755.781
       191   03 Jun 2027 02:18:01.492   03 Jun 2027 02:19:06.803            65.311              Murmansk1          2040.969
       192   03 Jun 2027 02:19:24.614   03 Jun 2027 02:20:21.002            56.388                Novosib          1762.125
       193   03 Jun 2027 02:21:20.341   03 Jun 2027 02:22:10.261            49.920                Novosib          1560.000
       194   03 Jun 2027 02:27:28.962   03 Jun 2027 02:28:33.989            65.027                Irkutsk          2032.094
       195   03 Jun 2027 03:43:21.517   03 Jun 2027 03:44:30.692            69.175                Anadyr2          2161.719
       196   03 Jun 2027 04:02:24.929   03 Jun 2027 04:05:38.092           193.163                Novosib          6036.344
       197   03 Jun 2027 04:05:50.983   03 Jun 2027 04:09:23.284           212.301                 Moscow          6634.406
       198   03 Jun 2027 04:21:42.985   03 Jun 2027 04:22:39.788            56.803               CapeTown          1775.094
       199   03 Jun 2027 04:23:40.311   03 Jun 2027 04:24:48.659            68.348               CapeTown          2135.875
       200   03 Jun 2027 04:25:40.116   03 Jun 2027 04:26:16.020            35.904               CapeTown          1122.000
       201   03 Jun 2027 04:27:46.126   03 Jun 2027 04:28:22.038            35.912               CapeTown          1122.250
       202   03 Jun 2027 04:29:01.770   03 Jun 2027 04:31:01.932           120.162               CapeTown          3755.062
       203   03 Jun 2027 05:22:58.930   03 Jun 2027 05:23:12.844            13.914                Anadyr1           434.812
       204   03 Jun 2027 05:23:45.368   03 Jun 2027 05:23:59.061            13.693                Anadyr1           427.906
       205   03 Jun 2027 05:24:14.844   03 Jun 2027 05:24:26.609            11.765               Magadan2           367.656
       206   03 Jun 2027 05:24:52.187   03 Jun 2027 05:25:08.308            16.121                Anadyr1           503.781
       207   03 Jun 2027 05:25:51.254   03 Jun 2027 05:27:16.696            85.442                Anadyr1          2670.062
       208   03 Jun 2027 05:37:45.679   03 Jun 2027 05:38:13.622            27.943                 Moscow           873.219
       209   03 Jun 2027 05:38:45.524   03 Jun 2027 05:39:16.863            31.339                 Moscow           979.344
       210   03 Jun 2027 05:39:23.867   03 Jun 2027 05:40:38.580            74.713                 Moscow          2334.781
       211   03 Jun 2027 05:43:47.150   03 Jun 2027 05:44:10.893            23.743                 Moscow           741.969
       212   03 Jun 2027 05:57:21.632   03 Jun 2027 05:58:50.713            89.081               CapeTown          2783.781
       213   03 Jun 2027 07:00:18.313   03 Jun 2027 07:00:19.631             1.318               Magadan1            41.187
       214   03 Jun 2027 07:00:20.590   03 Jun 2027 07:01:58.911            98.321               Magadan2          3072.531
       215   03 Jun 2027 07:02:18.771   03 Jun 2027 07:03:10.593            51.822               Magadan2          1619.438
       216   03 Jun 2027 07:03:41.895   03 Jun 2027 07:04:14.946            33.051                Anadyr1          1032.844
       217   03 Jun 2027 08:35:53.946   03 Jun 2027 08:37:42.778           108.832                Anadyr1          3401.000
       218   03 Jun 2027 08:37:58.295   03 Jun 2027 08:37:59.170             0.875               Magadan2            27.344
       219   03 Jun 2027 08:38:09.228   03 Jun 2027 08:38:26.312            17.084                Anadyr2           533.875
       220   03 Jun 2027 08:38:58.450   03 Jun 2027 08:40:32.632            94.182                Anadyr2          2943.188
       221   03 Jun 2027 10:11:00.991   03 Jun 2027 10:12:16.151            75.160               Magadan1          2348.750
       222   03 Jun 2027 10:12:59.269   03 Jun 2027 10:13:27.914            28.645               Magadan1           895.156
       223   03 Jun 2027 10:13:34.765   03 Jun 2027 10:16:07.393           152.628               Magadan1          4769.625
       224   03 Jun 2027 10:16:17.660   03 Jun 2027 10:16:41.836            24.176                Irkutsk           755.500
       225   03 Jun 2027 10:17:16.771   03 Jun 2027 10:17:44.530            27.759                Irkutsk           867.469
       226   03 Jun 2027 10:18:29.312   03 Jun 2027 10:18:41.101            11.789                Norilsk           368.406
       227   03 Jun 2027 10:52:28.631   03 Jun 2027 10:53:40.365            71.734            RioGallegos          2241.687
       228   03 Jun 2027 11:00:14.054   03 Jun 2027 11:00:39.881            25.827            RioGallegos           807.094
       229   03 Jun 2027 11:27:42.194   03 Jun 2027 11:28:20.174            37.980                Sumatra          1186.875
       230   03 Jun 2027 11:39:58.733   03 Jun 2027 11:40:02.225             3.492                  Delhi           109.125
       231   03 Jun 2027 11:44:18.354   03 Jun 2027 11:44:44.642            26.288                  Delhi           821.500
       232   03 Jun 2027 11:47:57.919   03 Jun 2027 11:48:56.498            58.579                Irkutsk          1830.594
       233   03 Jun 2027 11:49:10.337   03 Jun 2027 11:49:17.428             7.091                Norilsk           221.594
       234   03 Jun 2027 11:49:29.861   03 Jun 2027 11:49:56.876            27.015                Novosib           844.219
       235   03 Jun 2027 11:49:58.438   03 Jun 2027 11:50:48.852            50.414                Irkutsk          1575.437
       236   03 Jun 2027 11:50:52.742   03 Jun 2027 11:51:10.153            17.411                Norilsk           544.094
       237   03 Jun 2027 11:51:11.817   03 Jun 2027 11:51:38.119            26.302                Norilsk           821.937
       238   03 Jun 2027 11:51:55.051   03 Jun 2027 11:52:32.807            37.756                Irkutsk          1179.875
       239   03 Jun 2027 11:52:50.685   03 Jun 2027 11:52:56.046             5.361                Norilsk           167.531
       240   03 Jun 2027 11:53:04.580   03 Jun 2027 11:53:07.466             2.886                Norilsk            90.188
       241   03 Jun 2027 11:53:14.918   03 Jun 2027 11:53:55.788            40.870                Novosib          1277.187
       242   03 Jun 2027 12:30:41.738   03 Jun 2027 12:32:14.751            93.013            RioGallegos          2906.656
       243   03 Jun 2027 12:35:05.506   03 Jun 2027 12:35:32.803            27.297            RioGallegos           853.031
       244   03 Jun 2027 13:04:58.235   03 Jun 2027 13:05:57.058            58.823                Sumatra          1838.219
       245   03 Jun 2027 13:07:32.654   03 Jun 2027 13:08:22.948            50.294                Sumatra          1571.687
       246   03 Jun 2027 13:11:05.001   03 Jun 2027 13:11:30.487            25.486                Sumatra           796.438
       247   03 Jun 2027 13:20:42.256   03 Jun 2027 13:23:57.315           195.059                Irkutsk          6095.594
       248   03 Jun 2027 14:50:31.545   03 Jun 2027 14:52:26.245           114.700                  Delhi          3584.375
       249   03 Jun 2027 14:54:32.506   03 Jun 2027 14:54:56.906            24.400                  Delhi           762.500
       250   03 Jun 2027 14:59:01.624   03 Jun 2027 15:01:23.566           141.942                Novosib          4435.688
       251   03 Jun 2027 15:02:30.097   03 Jun 2027 15:03:24.513            54.416                Novosib          1700.500
       252   03 Jun 2027 15:05:42.995   03 Jun 2027 15:06:50.540            67.545                Norilsk          2110.781
       253   03 Jun 2027 16:14:15.341   03 Jun 2027 16:14:23.123             7.782               CapeTown           243.187
       254   03 Jun 2027 16:14:55.854   03 Jun 2027 16:15:31.466            35.612               CapeTown          1112.875
       255   03 Jun 2027 16:18:19.656   03 Jun 2027 16:18:53.349            33.693               CapeTown          1052.906
       256   03 Jun 2027 16:32:30.486   03 Jun 2027 16:33:19.628            49.142                 Moscow          1535.688
       257   03 Jun 2027 16:35:56.238   03 Jun 2027 16:36:39.018            42.780              Murmansk1          1336.875
       258   03 Jun 2027 16:36:52.751   03 Jun 2027 16:37:27.742            34.991              Murmansk1          1093.469
       259   03 Jun 2027 16:44:34.103   03 Jun 2027 16:44:39.571             5.468              Murmansk1           170.875
       260   03 Jun 2027 16:45:10.063   03 Jun 2027 16:46:14.402            64.339              Murmansk2          2010.594
       261   03 Jun 2027 16:50:52.074   03 Jun 2027 16:51:52.513            60.439                Anadyr1          1888.719
       262   03 Jun 2027 16:52:36.526   03 Jun 2027 16:52:46.387             9.861                Anadyr2           308.156
       263   03 Jun 2027 16:53:24.913   03 Jun 2027 16:53:35.689            10.776                Anadyr2           336.750
       264   03 Jun 2027 16:53:37.241   03 Jun 2027 16:53:41.899             4.658                Anadyr1           145.563
       265   03 Jun 2027 16:54:58.977   03 Jun 2027 16:55:23.408            24.431                Anadyr2           763.469
       266   03 Jun 2027 16:56:53.728   03 Jun 2027 16:57:20.286            26.558                Anadyr2           829.938
       267   03 Jun 2027 17:45:25.993   03 Jun 2027 17:46:05.223            39.230               CapeTown          1225.937
       268   03 Jun 2027 17:48:38.310   03 Jun 2027 17:49:04.338            26.028               CapeTown           813.375
       269   03 Jun 2027 17:51:14.600   03 Jun 2027 17:51:22.401             7.801               CapeTown           243.781
       270   03 Jun 2027 17:52:42.740   03 Jun 2027 17:53:16.088            33.348               CapeTown          1042.125
       271   03 Jun 2027 17:58:04.092   03 Jun 2027 17:58:14.501            10.409               CapeTown           325.281
       272   03 Jun 2027 18:13:35.454   03 Jun 2027 18:16:58.545           203.091                 Moscow          6346.594
       273   03 Jun 2027 18:23:41.396   03 Jun 2027 18:24:12.420            31.024              Murmansk1           969.500
       274   03 Jun 2027 18:28:58.443   03 Jun 2027 18:29:14.570            16.127                Anadyr2           503.969
       275   03 Jun 2027 18:30:50.875   03 Jun 2027 18:31:40.251            49.376               Magadan2          1543.000
       276   03 Jun 2027 18:33:08.267   03 Jun 2027 18:33:30.386            22.119               Magadan2           691.219
       277   03 Jun 2027 18:33:37.271   03 Jun 2027 18:33:49.665            12.394               Magadan1           387.313
       278   03 Jun 2027 19:22:49.765   03 Jun 2027 19:23:21.401            31.636               CapeTown           988.625
       279   03 Jun 2027 19:27:54.725   03 Jun 2027 19:28:00.062             5.337               CapeTown           166.781
       280   03 Jun 2027 19:28:55.670   03 Jun 2027 19:29:09.477            13.807               CapeTown           431.469
       281   03 Jun 2027 19:57:10.908   03 Jun 2027 19:58:00.982            50.074              Murmansk2          1564.813
       282   03 Jun 2027 20:01:57.653   03 Jun 2027 20:05:51.498           233.845                Anadyr2          7307.656
       283   03 Jun 2027 20:06:10.927   03 Jun 2027 20:07:47.167            96.240               Magadan2          3007.500
       284   03 Jun 2027 20:10:37.218   03 Jun 2027 20:10:41.968             4.750               Magadan1           148.438
       285   03 Jun 2027 20:10:47.405   03 Jun 2027 20:10:53.843             6.438               Magadan1           201.188
       286   03 Jun 2027 20:13:57.006   03 Jun 2027 20:14:12.583            15.577               Magadan1           486.781
       287   03 Jun 2027 20:16:03.765   03 Jun 2027 20:16:05.943             2.178               Magadan2            68.063
       288   03 Jun 2027 21:37:52.558   03 Jun 2027 21:41:34.356           221.798                Anadyr1          6931.187
       289   03 Jun 2027 21:41:52.653   03 Jun 2027 21:43:46.808           114.155                Norilsk          3567.344
       290   03 Jun 2027 21:43:47.596   03 Jun 2027 21:45:44.185           116.589               Magadan1          3643.406
       291   03 Jun 2027 21:50:12.395   03 Jun 2027 21:50:21.260             8.865               Magadan2           277.031
       292   03 Jun 2027 21:50:29.026   03 Jun 2027 21:50:38.176             9.150               Magadan2           285.938
       293   03 Jun 2027 21:51:44.661   03 Jun 2027 21:52:03.252            18.591               Magadan1           580.969
       294   03 Jun 2027 22:32:16.112   03 Jun 2027 22:34:26.504           130.392            RioGallegos          4074.750
       295   03 Jun 2027 22:34:28.907   03 Jun 2027 22:35:26.652            57.745            RioGallegos          1804.531
       296   03 Jun 2027 23:13:28.434   03 Jun 2027 23:14:25.491            57.057                Anadyr2          1783.031
       297   03 Jun 2027 23:14:39.123   03 Jun 2027 23:15:41.275            62.152                Anadyr2          1942.250
       298   03 Jun 2027 23:15:41.779   03 Jun 2027 23:15:55.972            14.193                Norilsk           443.531
       299   03 Jun 2027 23:16:13.344   03 Jun 2027 23:18:06.025           112.681               Magadan2          3521.281
       300   03 Jun 2027 23:19:51.762   03 Jun 2027 23:20:01.303             9.541                Irkutsk           298.156
       301   03 Jun 2027 23:20:41.240   03 Jun 2027 23:21:13.823            32.583                Irkutsk          1018.219
       302   03 Jun 2027 23:21:39.046   03 Jun 2027 23:22:22.328            43.282                Novosib          1352.563
       303   03 Jun 2027 23:23:16.202   03 Jun 2027 23:24:20.764            64.562                Novosib          2017.562
       304   03 Jun 2027 23:33:36.202   03 Jun 2027 23:34:15.987            39.785                Sumatra          1243.281
       305   03 Jun 2027 23:36:31.646   03 Jun 2027 23:37:08.667            37.021                Sumatra          1156.906
       306   03 Jun 2027 23:41:38.809   03 Jun 2027 23:43:04.138            85.329                Sumatra          2666.531
       307   04 Jun 2027 00:17:50.354   04 Jun 2027 00:17:57.186             6.832            RioGallegos           213.500
       308   04 Jun 2027 00:18:20.646   04 Jun 2027 00:18:37.447            16.801            RioGallegos           525.031
       309   04 Jun 2027 00:48:10.563   04 Jun 2027 00:48:57.549            46.986                Anadyr1          1468.312
       310   04 Jun 2027 00:48:57.549   04 Jun 2027 00:49:44.368            46.819                Anadyr2          1463.094
       311   04 Jun 2027 00:50:33.335   04 Jun 2027 00:51:06.648            33.313                Anadyr2          1041.031
       312   04 Jun 2027 00:51:39.780   04 Jun 2027 00:52:51.976            72.196                Norilsk          2256.125
       313   04 Jun 2027 00:53:07.565   04 Jun 2027 00:53:22.297            14.732                Norilsk           460.375
       314   04 Jun 2027 00:55:13.692   04 Jun 2027 00:55:35.206            21.514               Magadan1           672.313
       315   04 Jun 2027 00:55:38.751   04 Jun 2027 00:57:20.382           101.631                Novosib          3175.969
       316   04 Jun 2027 00:59:36.585   04 Jun 2027 01:00:25.383            48.798                Novosib          1524.937
       317   04 Jun 2027 01:03:23.066   04 Jun 2027 01:03:26.393             3.327                  Delhi           103.969
       318   04 Jun 2027 01:03:31.673   04 Jun 2027 01:03:53.805            22.132                Novosib           691.625
       319   04 Jun 2027 01:08:47.935   04 Jun 2027 01:09:38.153            50.218                  Delhi          1569.312
       320   04 Jun 2027 01:11:24.871   04 Jun 2027 01:13:25.877           121.006                Sumatra          3781.437
       321   04 Jun 2027 01:51:20.486   04 Jun 2027 01:51:23.100             2.614            RioGallegos            81.688
       322   04 Jun 2027 01:53:54.942   04 Jun 2027 01:54:07.009            12.067            RioGallegos           377.094
       323   04 Jun 2027 02:21:41.545   04 Jun 2027 02:21:45.211             3.666                Anadyr2           114.562
       324   04 Jun 2027 02:21:54.714   04 Jun 2027 02:22:52.781            58.067                Anadyr1          1814.594
       325   04 Jun 2027 02:27:22.276   04 Jun 2027 02:27:40.427            18.151                Anadyr1           567.219
       326   04 Jun 2027 02:27:48.627   04 Jun 2027 02:28:24.070            35.443               Magadan1          1107.594
       327   04 Jun 2027 02:28:38.799   04 Jun 2027 02:29:28.029            49.230                Norilsk          1538.437
       328   04 Jun 2027 02:29:59.063   04 Jun 2027 02:30:48.212            49.149              Murmansk1          1535.906
       329   04 Jun 2027 02:31:12.000   04 Jun 2027 02:31:44.237            32.237              Murmansk2          1007.406
       330   04 Jun 2027 02:31:52.853   04 Jun 2027 02:32:35.558            42.705                Novosib          1334.531
       331   04 Jun 2027 02:34:15.573   04 Jun 2027 02:35:06.134            50.561                Irkutsk          1580.031
       332   04 Jun 2027 02:39:49.609   04 Jun 2027 02:40:47.135            57.526                  Delhi          1797.687
       333   04 Jun 2027 02:47:33.839   04 Jun 2027 02:49:11.070            97.231                  Delhi          3038.469
       334   04 Jun 2027 04:12:36.335   04 Jun 2027 04:13:33.809            57.474                Novosib          1796.062
       335   04 Jun 2027 04:15:06.452   04 Jun 2027 04:16:27.637            81.185              Murmansk1          2537.031
       336   04 Jun 2027 04:16:30.331   04 Jun 2027 04:17:02.344            32.013                 Moscow          1000.406
       337   04 Jun 2027 04:17:08.133   04 Jun 2027 04:17:12.386             4.253                 Moscow           132.906
       338   04 Jun 2027 04:17:16.329   04 Jun 2027 04:17:36.158            19.829                 Moscow           619.656
       339   04 Jun 2027 04:18:29.605   04 Jun 2027 04:21:37.477           187.872                 Moscow          5871.000
       340   04 Jun 2027 04:33:24.194   04 Jun 2027 04:45:35.332           731.138               CapeTown         22848.063
       341   04 Jun 2027 05:34:37.414   04 Jun 2027 05:36:22.529           105.115                Anadyr2          3284.844
       342   04 Jun 2027 05:36:43.589   04 Jun 2027 05:38:15.836            92.247                Anadyr2          2882.719
       343   04 Jun 2027 05:42:09.102   04 Jun 2027 05:42:34.336            25.234                Anadyr1           788.562
       344   04 Jun 2027 05:55:34.887   04 Jun 2027 05:56:34.368            59.481                 Moscow          1858.781
       345   04 Jun 2027 06:09:46.770   04 Jun 2027 06:10:52.611            65.841               CapeTown          2057.531
       346   04 Jun 2027 07:10:41.548   04 Jun 2027 07:11:09.957            28.409               Magadan1           887.781
       347   04 Jun 2027 07:11:43.137   04 Jun 2027 07:12:35.060            51.923                Anadyr2          1622.594
       348   04 Jun 2027 07:12:44.916   04 Jun 2027 07:13:19.953            35.037                Anadyr1          1094.906
       349   04 Jun 2027 07:13:47.105   04 Jun 2027 07:14:44.301            57.196                Anadyr1          1787.375
       350   04 Jun 2027 07:14:44.301   04 Jun 2027 07:15:08.298            23.997                Anadyr2           749.906
       351   04 Jun 2027 08:45:53.421   04 Jun 2027 08:46:44.734            51.313                Anadyr2          1603.531
       352   04 Jun 2027 08:47:42.423   04 Jun 2027 08:49:24.839           102.416                Anadyr1          3200.500
       353   04 Jun 2027 08:50:21.304   04 Jun 2027 08:50:24.118             2.814               Magadan1            87.937
       354   04 Jun 2027 08:50:24.622   04 Jun 2027 08:50:28.432             3.810                Anadyr2           119.062
       355   04 Jun 2027 08:50:46.653   04 Jun 2027 08:51:16.699            30.046               Magadan2           938.937
       356   04 Jun 2027 08:51:42.359   04 Jun 2027 08:51:44.658             2.299               Magadan2            71.844
       357   04 Jun 2027 08:52:17.615   04 Jun 2027 08:52:50.337            32.722               Magadan1          1022.562
       358   04 Jun 2027 09:29:44.715   04 Jun 2027 09:30:13.334            28.619            RioGallegos           894.344
       359   04 Jun 2027 09:30:46.559   04 Jun 2027 09:31:25.570            39.011            RioGallegos          1219.094
       360   04 Jun 2027 10:22:38.739   04 Jun 2027 10:24:16.750            98.011               Magadan1          3062.844
       361   04 Jun 2027 10:25:32.943   04 Jun 2027 10:25:45.539            12.596               Magadan2           393.625
       362   04 Jun 2027 10:25:46.829   04 Jun 2027 10:26:42.771            55.942               Magadan2          1748.188
       363   04 Jun 2027 10:26:57.284   04 Jun 2027 10:27:21.828            24.544                Irkutsk           767.000
       364   04 Jun 2027 10:27:27.404   04 Jun 2027 10:27:37.294             9.890                Irkutsk           309.062
       365   04 Jun 2027 10:27:47.978   04 Jun 2027 10:28:26.085            38.107                Irkutsk          1190.844
       366   04 Jun 2027 10:29:08.847   04 Jun 2027 10:29:10.333             1.486                Irkutsk            46.438
       367   04 Jun 2027 10:29:10.611   04 Jun 2027 10:29:18.130             7.519                Novosib           234.969
       368   04 Jun 2027 10:30:08.506   04 Jun 2027 10:30:27.201            18.695                Novosib           584.219
       369   04 Jun 2027 11:04:33.168   04 Jun 2027 11:05:13.944            40.776            RioGallegos          1274.250
       370   04 Jun 2027 11:08:49.154   04 Jun 2027 11:09:37.294            48.140            RioGallegos          1504.375
       371   04 Jun 2027 11:40:10.292   04 Jun 2027 11:42:06.166           115.874                Sumatra          3621.062
       372   04 Jun 2027 11:59:56.427   04 Jun 2027 12:00:49.821            53.394                Irkutsk          1668.562
       373   04 Jun 2027 12:02:02.772   04 Jun 2027 12:04:31.362           148.590                Irkutsk          4643.438
       374   04 Jun 2027 12:45:29.307   04 Jun 2027 12:47:33.977           124.670            RioGallegos          3895.937
       375   04 Jun 2027 13:19:20.694   04 Jun 2027 13:20:12.388            51.694                Sumatra          1615.437
       376   04 Jun 2027 13:22:13.080   04 Jun 2027 13:22:26.634            13.554                Sumatra           423.563
       377   04 Jun 2027 13:23:02.000   04 Jun 2027 13:23:08.024             6.024                Sumatra           188.250
       378   04 Jun 2027 13:31:53.123   04 Jun 2027 13:32:08.549            15.426                Novosib           482.062
       379   04 Jun 2027 13:33:53.400   04 Jun 2027 13:35:56.421           123.021                Irkutsk          3844.406
       380   04 Jun 2027 13:36:51.175   04 Jun 2027 13:37:38.179            47.004                Irkutsk          1468.875
       381   04 Jun 2027 15:04:11.849   04 Jun 2027 15:07:00.451           168.602                  Delhi          5268.812
       382   04 Jun 2027 15:07:34.973   04 Jun 2027 15:07:47.215            12.242                  Delhi           382.563
       383   04 Jun 2027 15:12:26.112   04 Jun 2027 15:15:33.863           187.751                Novosib          5867.219
       384   04 Jun 2027 16:23:23.598   04 Jun 2027 16:24:06.794            43.196               CapeTown          1349.875
       385   04 Jun 2027 16:26:19.375   04 Jun 2027 16:26:58.326            38.951               CapeTown          1217.219
       386   04 Jun 2027 16:29:13.661   04 Jun 2027 16:29:21.439             7.778               CapeTown           243.062
       387   04 Jun 2027 16:30:08.109   04 Jun 2027 16:30:46.353            38.244               CapeTown          1195.125
       388   04 Jun 2027 16:44:49.628   04 Jun 2027 16:45:25.522            35.894                 Moscow          1121.687
       389   04 Jun 2027 16:47:21.131   04 Jun 2027 16:49:15.945           114.814                 Moscow          3587.938
       390   04 Jun 2027 16:56:36.225   04 Jun 2027 16:57:03.209            26.984              Murmansk2           843.250
       391   04 Jun 2027 17:02:42.306   04 Jun 2027 17:03:51.691            69.385                Anadyr1          2168.281
       392   04 Jun 2027 17:05:23.076   04 Jun 2027 17:05:47.621            24.545                Anadyr1           767.031
       393   04 Jun 2027 17:06:13.591   04 Jun 2027 17:06:32.708            19.117                Anadyr2           597.406
       394   04 Jun 2027 17:07:22.874   04 Jun 2027 17:07:25.596             2.722                Anadyr2            85.062
       395   04 Jun 2027 17:09:00.091   04 Jun 2027 17:09:05.170             5.079                Anadyr2           158.719
       396   04 Jun 2027 17:11:03.714   04 Jun 2027 17:11:09.877             6.163                Anadyr1           192.594
       397   04 Jun 2027 17:57:26.947   04 Jun 2027 17:57:47.205            20.258               CapeTown           633.063
       398   04 Jun 2027 18:00:12.188   04 Jun 2027 18:00:22.279            10.091               CapeTown           315.344
       399   04 Jun 2027 18:01:02.011   04 Jun 2027 18:01:20.729            18.718               CapeTown           584.937
       400   04 Jun 2027 18:05:31.360   04 Jun 2027 18:05:58.631            27.271               CapeTown           852.219
       401   04 Jun 2027 18:07:03.099   04 Jun 2027 18:07:09.608             6.509               CapeTown           203.406
       402   04 Jun 2027 18:09:16.125   04 Jun 2027 18:09:24.256             8.131               CapeTown           254.094
       403   04 Jun 2027 18:27:00.540   04 Jun 2027 18:30:13.767           193.227              Murmansk2          6038.344
       404   04 Jun 2027 18:30:13.767   04 Jun 2027 18:30:33.787            20.020              Murmansk1           625.625
       405   04 Jun 2027 18:32:27.361   04 Jun 2027 18:33:29.362            62.001              Murmansk2          1937.531
       406   04 Jun 2027 18:42:05.204   04 Jun 2027 18:43:09.600            64.396               Magadan1          2012.375
       407   04 Jun 2027 18:44:58.243   04 Jun 2027 18:45:31.606            33.363               Magadan1          1042.594
       408   04 Jun 2027 19:35:31.267   04 Jun 2027 19:35:50.892            19.625               CapeTown           613.281
       409   04 Jun 2027 19:37:13.338   04 Jun 2027 19:38:01.839            48.501               CapeTown          1515.656
       410   04 Jun 2027 20:13:59.406   04 Jun 2027 20:15:37.341            97.935                Anadyr1          3060.469
       411   04 Jun 2027 20:16:00.756   04 Jun 2027 20:17:44.220           103.464                Anadyr2          3233.250
       412   04 Jun 2027 20:18:29.794   04 Jun 2027 20:20:32.679           122.885               Magadan2          3840.156
       413   04 Jun 2027 20:21:12.826   04 Jun 2027 20:21:50.883            38.057               Magadan2          1189.281
       414   04 Jun 2027 20:22:55.676   04 Jun 2027 20:23:24.324            28.648               Magadan1           895.250
       415   04 Jun 2027 20:28:18.539   04 Jun 2027 20:28:19.039             0.500               Magadan2            15.625
       416   04 Jun 2027 21:49:53.228   04 Jun 2027 21:51:57.304           124.076                Anadyr2          3877.375
       417   04 Jun 2027 21:52:02.198   04 Jun 2027 21:53:34.117            91.919                Anadyr1          2872.469
       418   04 Jun 2027 21:53:41.765   04 Jun 2027 21:56:03.058           141.293                Norilsk          4415.406
       419   04 Jun 2027 21:56:36.386   04 Jun 2027 21:57:13.629            37.243                Norilsk          1163.844
       420   04 Jun 2027 21:57:43.061   04 Jun 2027 21:57:59.335            16.274                Norilsk           508.562
       421   04 Jun 2027 21:58:07.006   04 Jun 2027 21:58:17.698            10.692               Magadan1           334.125
       422   04 Jun 2027 21:58:27.936   04 Jun 2027 21:58:59.364            31.428               Magadan2           982.125
       423   04 Jun 2027 21:59:01.983   04 Jun 2027 21:59:23.574            21.591                Irkutsk           674.719
       424   04 Jun 2027 22:00:25.214   04 Jun 2027 22:00:43.270            18.056                Irkutsk           564.250
       425   04 Jun 2027 22:02:34.228   04 Jun 2027 22:03:01.988            27.760                Irkutsk           867.500
       426   04 Jun 2027 22:44:07.043   04 Jun 2027 22:45:20.076            73.033            RioGallegos          2282.281
       427   04 Jun 2027 22:45:39.646   04 Jun 2027 22:45:46.394             6.748            RioGallegos           210.875
       428   04 Jun 2027 22:49:30.313   04 Jun 2027 22:50:12.566            42.253            RioGallegos          1320.406
       429   04 Jun 2027 22:53:35.905   04 Jun 2027 22:54:05.438            29.533            RioGallegos           922.906
       430   04 Jun 2027 23:25:24.592   04 Jun 2027 23:26:04.442            39.850                Anadyr1          1245.313
       431   04 Jun 2027 23:26:39.743   04 Jun 2027 23:27:41.049            61.306                Anadyr1          1915.813
       432   04 Jun 2027 23:28:16.499   04 Jun 2027 23:29:48.203            91.704               Magadan2          2865.750
       433   04 Jun 2027 23:30:35.173   04 Jun 2027 23:31:17.133            41.960               Magadan2          1311.250
       434   04 Jun 2027 23:31:19.826   04 Jun 2027 23:31:27.743             7.917                Norilsk           247.406
       435   04 Jun 2027 23:31:47.396   04 Jun 2027 23:32:33.842            46.446                Irkutsk          1451.438
       436   04 Jun 2027 23:33:06.645   04 Jun 2027 23:34:30.563            83.918                Novosib          2622.437
       437   04 Jun 2027 23:36:15.920   04 Jun 2027 23:37:05.600            49.680                Novosib          1552.500
       438   04 Jun 2027 23:48:32.359   04 Jun 2027 23:48:45.812            13.453                Sumatra           420.406
       439   04 Jun 2027 23:50:04.787   04 Jun 2027 23:51:35.134            90.347                Sumatra          2823.344
       440   05 Jun 2027 00:28:44.770   05 Jun 2027 00:29:13.707            28.937            RioGallegos           904.281
       441   05 Jun 2027 00:59:57.265   05 Jun 2027 01:00:56.264            58.999                Anadyr1          1843.719
       442   05 Jun 2027 01:01:38.035   05 Jun 2027 01:02:11.210            33.175                Anadyr1          1036.719
       443   05 Jun 2027 01:02:34.620   05 Jun 2027 01:02:41.414             6.794                Anadyr1           212.312
       444   05 Jun 2027 01:03:42.094   05 Jun 2027 01:05:23.944           101.850                Norilsk          3182.813
       445   05 Jun 2027 01:06:44.652   05 Jun 2027 01:07:03.336            18.684               Magadan2           583.875
       446   05 Jun 2027 01:07:36.455   05 Jun 2027 01:09:34.132           117.677                Irkutsk          3677.406
       447   05 Jun 2027 01:09:37.454   05 Jun 2027 01:10:24.737            47.283                Novosib          1477.594
       448   05 Jun 2027 01:15:10.133   05 Jun 2027 01:15:39.324            29.191                  Delhi           912.219
       449   05 Jun 2027 01:16:43.903   05 Jun 2027 01:17:05.851            21.948                  Delhi           685.875
       450   05 Jun 2027 01:18:37.307   05 Jun 2027 01:18:48.711            11.404                  Delhi           356.375
       451   05 Jun 2027 01:21:46.817   05 Jun 2027 01:22:05.897            19.080                  Delhi           596.250
       452   05 Jun 2027 01:24:43.435   05 Jun 2027 01:25:17.026            33.591                Sumatra          1049.719
       453   05 Jun 2027 01:26:04.694   05 Jun 2027 01:28:18.020           133.326                Sumatra          4166.438
       454   05 Jun 2027 02:33:34.510   05 Jun 2027 02:33:38.529             4.019                Anadyr2           125.594
       455   05 Jun 2027 02:34:52.299   05 Jun 2027 02:35:12.755            20.456                Anadyr2           639.250
       456   05 Jun 2027 02:35:12.755   05 Jun 2027 02:36:06.714            53.959                Anadyr1          1686.219
       457   05 Jun 2027 02:39:35.445   05 Jun 2027 02:40:12.258            36.813               Magadan1          1150.406
       458   05 Jun 2027 02:40:33.615   05 Jun 2027 02:40:59.082            25.467                Norilsk           795.844
       459   05 Jun 2027 02:41:57.720   05 Jun 2027 02:42:48.088            50.368              Murmansk2          1574.000
       460   05 Jun 2027 02:43:15.583   05 Jun 2027 02:43:52.326            36.743              Murmansk1          1148.219
       461   05 Jun 2027 02:44:03.586   05 Jun 2027 02:44:46.668            43.082                Novosib          1346.313
       462   05 Jun 2027 02:45:30.644   05 Jun 2027 02:46:32.360            61.716                Irkutsk          1928.625
       463   05 Jun 2027 02:52:49.491   05 Jun 2027 02:52:54.924             5.433                  Delhi           169.781
       464   05 Jun 2027 02:54:59.665   05 Jun 2027 02:55:11.614            11.949                  Delhi           373.406
       465   05 Jun 2027 02:55:59.322   05 Jun 2027 02:56:13.758            14.436                  Delhi           451.125
       466   05 Jun 2027 02:59:20.291   05 Jun 2027 03:01:44.067           143.776                  Delhi          4493.000
       467   05 Jun 2027 04:25:40.802   05 Jun 2027 04:28:37.172           176.370                Novosib          5511.562
       468   05 Jun 2027 04:28:41.383   05 Jun 2027 04:30:09.851            88.468              Murmansk1          2764.625
       469   05 Jun 2027 04:31:48.047   05 Jun 2027 04:32:14.580            26.533                 Moscow           829.156
       470   05 Jun 2027 04:49:24.957   05 Jun 2027 04:51:26.162           121.205               CapeTown          3787.656
       471   05 Jun 2027 05:48:45.230   05 Jun 2027 05:50:05.382            80.152                Anadyr2          2504.750
       472   05 Jun 2027 05:50:07.433   05 Jun 2027 05:50:17.001             9.568               Magadan1           299.000
       473   05 Jun 2027 05:50:23.072   05 Jun 2027 05:50:49.918            26.846                Anadyr2           838.938
       474   05 Jun 2027 05:52:00.671   05 Jun 2027 05:52:46.391            45.720                Anadyr2          1428.750
       475   05 Jun 2027 07:22:53.818   05 Jun 2027 07:22:58.293             4.475                Anadyr1           139.844
       476   05 Jun 2027 07:23:12.522   05 Jun 2027 07:23:32.083            19.561               Magadan2           611.281
       477   05 Jun 2027 07:24:15.174   05 Jun 2027 07:24:50.399            35.225               Magadan2          1100.781
       478   05 Jun 2027 07:25:23.204   05 Jun 2027 07:26:45.429            82.225                Anadyr1          2569.531
       479   05 Jun 2027 07:27:00.074   05 Jun 2027 07:27:13.168            13.094               Magadan1           409.188
       480   05 Jun 2027 07:27:37.423   05 Jun 2027 07:28:11.166            33.743                Anadyr1          1054.469
       481   05 Jun 2027 07:28:52.714   05 Jun 2027 07:28:59.379             6.665               Magadan1           208.281
       482   05 Jun 2027 07:29:27.165   05 Jun 2027 07:30:28.653            61.488                Anadyr1          1921.500
