uniorb/output/strategy_4/Drop/Drop_KinoSat_111908.txt

KinoSat_111908
-------------------------
    Access    *     Start Time (UTCG)     *     Stop Time (UTCG)  *   Duration (s)        *       Station  *  Data (Mbytes)
         1   01 Jun 2027 04:11:13.908   01 Jun 2027 04:11:49.777            35.869              Murmansk2          1120.906
         2   01 Jun 2027 04:11:50.063   01 Jun 2027 04:11:53.549             3.486                Novosib           108.938
         3   01 Jun 2027 04:12:01.657   01 Jun 2027 04:12:17.293            15.636              Murmansk2           488.625
         4   01 Jun 2027 04:12:37.150   01 Jun 2027 04:14:36.799           119.649                Novosib          3739.031
         5   01 Jun 2027 04:14:37.540   01 Jun 2027 04:14:50.966            13.426                 Moscow           419.562
         6   01 Jun 2027 04:14:51.979   01 Jun 2027 04:16:14.671            82.692              Murmansk2          2584.125
         7   01 Jun 2027 04:16:17.544   01 Jun 2027 04:23:23.635           426.091                  Delhi         13315.344
         8   01 Jun 2027 05:49:22.554   01 Jun 2027 05:49:56.336            33.782                Novosib          1055.687
         9   01 Jun 2027 05:50:03.881   01 Jun 2027 05:50:43.853            39.972                Novosib          1249.125
        10   01 Jun 2027 05:50:53.210   01 Jun 2027 05:51:26.831            33.621                Novosib          1050.656
        11   01 Jun 2027 05:51:29.643   01 Jun 2027 05:51:46.143            16.500              Murmansk1           515.625
        12   01 Jun 2027 05:52:08.355   01 Jun 2027 05:54:39.370           151.015              Murmansk1          4719.219
        13   01 Jun 2027 05:55:01.079   01 Jun 2027 05:57:36.402           155.323                 Moscow          4853.844
        14   01 Jun 2027 06:09:25.595   01 Jun 2027 06:10:26.614            61.019               CapeTown          1906.844
        15   01 Jun 2027 06:13:10.454   01 Jun 2027 06:13:52.767            42.313               CapeTown          1322.281
        16   01 Jun 2027 07:13:58.880   01 Jun 2027 07:14:29.156            30.276               Magadan2           946.125
        17   01 Jun 2027 07:14:29.156   01 Jun 2027 07:17:03.774           154.618               Magadan1          4831.812
        18   01 Jun 2027 07:17:21.302   01 Jun 2027 07:17:41.779            20.477               Magadan2           639.906
        19   01 Jun 2027 07:18:30.637   01 Jun 2027 07:18:58.029            27.392                Anadyr2           856.000
        20   01 Jun 2027 07:25:01.023   01 Jun 2027 07:25:53.568            52.545                Norilsk          1642.031
        21   01 Jun 2027 07:26:03.897   01 Jun 2027 07:28:38.571           154.674              Murmansk2          4833.563
        22   01 Jun 2027 07:30:01.164   01 Jun 2027 07:30:30.049            28.885                 Moscow           902.656
        23   01 Jun 2027 07:47:09.462   01 Jun 2027 07:51:47.485           278.023               CapeTown          8688.219
        24   01 Jun 2027 08:49:01.574   01 Jun 2027 08:50:57.544           115.970                Anadyr2          3624.062
        25   01 Jun 2027 08:51:39.188   01 Jun 2027 08:54:49.795           190.607                Anadyr2          5956.469
        26   01 Jun 2027 10:21:54.994   01 Jun 2027 10:22:57.023            62.029               Magadan2          1938.406
        27   01 Jun 2027 10:23:09.762   01 Jun 2027 10:23:34.345            24.583               Magadan2           768.219
        28   01 Jun 2027 10:24:10.499   01 Jun 2027 10:25:12.480            61.981                Irkutsk          1936.906
        29   01 Jun 2027 10:25:51.112   01 Jun 2027 10:28:03.485           132.373                Norilsk          4136.656
        30   01 Jun 2027 10:28:05.681   01 Jun 2027 10:30:22.967           137.286               Magadan1          4290.187
        31   01 Jun 2027 11:44:47.837   01 Jun 2027 11:45:13.375            25.538                Sumatra           798.063
        32   01 Jun 2027 11:58:35.011   01 Jun 2027 12:04:50.963           375.952               Magadan1         11748.500
        33   01 Jun 2027 14:21:29.915   01 Jun 2027 14:27:24.606           354.691            RioGallegos         11084.094
        34   01 Jun 2027 16:52:53.465   01 Jun 2027 16:54:24.538            91.073                Norilsk          2846.031
        35   01 Jun 2027 16:55:19.363   01 Jun 2027 16:57:53.605           154.242                Norilsk          4820.062
        36   01 Jun 2027 18:22:28.495   01 Jun 2027 18:22:41.542            13.047                 Moscow           407.719
        37   01 Jun 2027 18:24:58.153   01 Jun 2027 18:25:13.501            15.348              Murmansk1           479.625
        38   01 Jun 2027 18:26:39.968   01 Jun 2027 18:27:07.532            27.564                 Moscow           861.375
        39   01 Jun 2027 18:28:41.432   01 Jun 2027 18:29:23.671            42.239              Murmansk1          1319.969
        40   01 Jun 2027 18:29:37.704   01 Jun 2027 18:29:52.276            14.572              Murmansk2           455.375
        41   01 Jun 2027 18:31:50.266   01 Jun 2027 18:32:44.269            54.003                 Moscow          1687.594
        42   01 Jun 2027 18:35:44.709   01 Jun 2027 18:36:06.988            22.279              Murmansk2           696.219
        43   01 Jun 2027 18:45:20.805   01 Jun 2027 18:45:47.822            27.017                Anadyr2           844.281
        44   01 Jun 2027 19:33:55.719   01 Jun 2027 19:35:22.440            86.721               CapeTown          2710.031
        45   01 Jun 2027 19:36:00.694   01 Jun 2027 19:36:52.716            52.022               CapeTown          1625.687
        46   01 Jun 2027 19:42:31.267   01 Jun 2027 19:42:43.967            12.700               CapeTown           396.875
        47   01 Jun 2027 20:04:21.641   01 Jun 2027 20:10:00.100           338.459              Murmansk1         10576.844
        48   01 Jun 2027 20:10:32.575   01 Jun 2027 20:12:29.087           116.512              Murmansk2          3641.000
        49   01 Jun 2027 21:50:23.232   01 Jun 2027 21:52:10.572           107.340                Anadyr1          3354.375
        50   01 Jun 2027 21:52:25.596   01 Jun 2027 21:53:32.883            67.287                Anadyr2          2102.719
        51   01 Jun 2027 21:53:42.742   01 Jun 2027 21:56:14.527           151.785               Magadan1          4743.281
        52   01 Jun 2027 22:00:05.365   01 Jun 2027 22:00:19.164            13.799               Magadan1           431.219
        53   01 Jun 2027 22:00:19.164   01 Jun 2027 22:00:38.014            18.850               Magadan2           589.062
        54   01 Jun 2027 22:01:15.452   01 Jun 2027 22:01:19.675             4.223               Magadan1           131.969
        55   01 Jun 2027 22:01:37.107   01 Jun 2027 22:02:02.609            25.502               Magadan2           796.938
        56   01 Jun 2027 22:03:38.012   01 Jun 2027 22:04:10.970            32.958               Magadan2          1029.937
        57   01 Jun 2027 22:47:39.425   01 Jun 2027 22:49:03.214            83.789            RioGallegos          2618.406
        58   01 Jun 2027 23:26:14.872   01 Jun 2027 23:27:41.097            86.225                Anadyr1          2694.531
        59   01 Jun 2027 23:27:48.777   01 Jun 2027 23:28:19.909            31.132                Anadyr2           972.875
        60   01 Jun 2027 23:28:23.111   01 Jun 2027 23:29:47.259            84.148                Norilsk          2629.625
        61   01 Jun 2027 23:29:58.922   01 Jun 2027 23:30:07.754             8.832                Anadyr2           276.000
        62   01 Jun 2027 23:30:08.790   01 Jun 2027 23:31:21.001            72.211               Magadan2          2256.594
        63   01 Jun 2027 23:31:43.198   01 Jun 2027 23:32:02.160            18.962               Magadan1           592.563
        64   01 Jun 2027 23:32:53.746   01 Jun 2027 23:33:31.743            37.997               Magadan1          1187.406
        65   01 Jun 2027 23:33:37.285   01 Jun 2027 23:34:43.471            66.186                Irkutsk          2068.313
        66   01 Jun 2027 23:38:46.655   01 Jun 2027 23:40:03.129            76.474                Irkutsk          2389.812
        67   01 Jun 2027 23:49:15.313   01 Jun 2027 23:50:51.352            96.039                Sumatra          3001.219
        68   02 Jun 2027 00:20:17.467   02 Jun 2027 00:20:58.852            41.385            RioGallegos          1293.281
        69   02 Jun 2027 00:21:25.698   02 Jun 2027 00:21:55.559            29.861            RioGallegos           933.156
        70   02 Jun 2027 00:27:04.577   02 Jun 2027 00:27:40.970            36.393            RioGallegos          1137.281
        71   02 Jun 2027 00:31:38.252   02 Jun 2027 00:32:29.554            51.302            RioGallegos          1603.187
        72   02 Jun 2027 01:01:37.633   02 Jun 2027 01:01:54.886            17.253                Anadyr2           539.156
        73   02 Jun 2027 01:03:13.989   02 Jun 2027 01:03:54.568            40.579                Anadyr1          1268.094
        74   02 Jun 2027 01:04:05.757   02 Jun 2027 01:04:18.474            12.717                Norilsk           397.406
        75   02 Jun 2027 01:04:42.288   02 Jun 2027 01:05:12.473            30.185                Norilsk           943.281
        76   02 Jun 2027 01:05:13.452   02 Jun 2027 01:06:18.032            64.580               Magadan1          2018.125
        77   02 Jun 2027 01:06:32.475   02 Jun 2027 01:06:48.113            15.638               Magadan2           488.687
        78   02 Jun 2027 01:08:03.932   02 Jun 2027 01:11:03.493           179.561                Irkutsk          5611.281
        79   02 Jun 2027 01:14:42.651   02 Jun 2027 01:15:09.172            26.521                Irkutsk           828.781
        80   02 Jun 2027 01:21:50.015   02 Jun 2027 01:23:34.242           104.227                Sumatra          3257.094
        81   02 Jun 2027 01:24:56.907   02 Jun 2027 01:26:08.833            71.926                Sumatra          2247.687
        82   02 Jun 2027 01:30:54.073   02 Jun 2027 01:31:13.563            19.490                Sumatra           609.063
        83   02 Jun 2027 02:00:05.591   02 Jun 2027 02:00:54.524            48.933            RioGallegos          1529.156
        84   02 Jun 2027 02:02:42.454   02 Jun 2027 02:02:47.915             5.461            RioGallegos           170.656
        85   02 Jun 2027 02:35:53.977   02 Jun 2027 02:35:55.370             1.393                Anadyr2            43.531
        86   02 Jun 2027 02:38:22.314   02 Jun 2027 02:38:34.224            11.910                Anadyr2           372.188
        87   02 Jun 2027 02:40:06.572   02 Jun 2027 02:42:17.605           131.033                Norilsk          4094.781
        88   02 Jun 2027 02:43:15.825   02 Jun 2027 02:44:14.809            58.984              Murmansk2          1843.250
        89   02 Jun 2027 02:44:22.955   02 Jun 2027 02:46:13.256           110.301                Irkutsk          3446.906
        90   02 Jun 2027 02:46:29.162   02 Jun 2027 02:46:34.803             5.641                Irkutsk           176.281
        91   02 Jun 2027 02:48:47.609   02 Jun 2027 02:49:28.987            41.378                Irkutsk          1293.062
        92   02 Jun 2027 02:52:12.247   02 Jun 2027 02:53:46.544            94.297                  Delhi          2946.781
        93   02 Jun 2027 03:32:57.903   02 Jun 2027 03:35:01.385           123.482            RioGallegos          3858.812
        94   02 Jun 2027 03:39:56.974   02 Jun 2027 03:40:53.529            56.555            RioGallegos          1767.344
        95   02 Jun 2027 04:23:51.791   02 Jun 2027 04:24:36.043            44.252              Murmansk1          1382.875
        96   02 Jun 2027 04:24:52.335   02 Jun 2027 04:25:03.570            11.235                Norilsk           351.094
        97   02 Jun 2027 04:25:08.416   02 Jun 2027 04:25:52.860            44.444              Murmansk2          1388.875
        98   02 Jun 2027 04:25:52.860   02 Jun 2027 04:26:46.851            53.991              Murmansk1          1687.219
        99   02 Jun 2027 04:26:53.751   02 Jun 2027 04:27:00.882             7.131              Murmansk2           222.844
       100   02 Jun 2027 04:27:05.208   02 Jun 2027 04:28:04.736            59.528                 Moscow          1860.250
       101   02 Jun 2027 04:28:17.783   02 Jun 2027 04:28:28.805            11.022                Novosib           344.438
       102   02 Jun 2027 04:28:30.785   02 Jun 2027 04:35:02.377           391.592                  Delhi         12237.250
       103   02 Jun 2027 06:02:55.834   02 Jun 2027 06:03:56.196            60.362                Novosib          1886.312
       104   02 Jun 2027 06:05:08.109   02 Jun 2027 06:08:45.309           217.200                 Moscow          6787.500
       105   02 Jun 2027 07:24:50.868   02 Jun 2027 07:25:45.291            54.423               Magadan2          1700.719
       106   02 Jun 2027 07:26:32.548   02 Jun 2027 07:26:40.221             7.673               Magadan2           239.781
       107   02 Jun 2027 07:29:28.250   02 Jun 2027 07:30:24.366            56.116               Magadan2          1753.625
       108   02 Jun 2027 09:02:55.461   02 Jun 2027 09:05:17.502           142.041               Magadan1          4438.781
       109   02 Jun 2027 09:05:53.587   02 Jun 2027 09:06:14.203            20.616               Magadan2           644.250
       110   02 Jun 2027 10:36:02.049   02 Jun 2027 10:36:11.609             9.560               Magadan1           298.750
       111   02 Jun 2027 10:36:27.386   02 Jun 2027 10:42:20.835           353.449               Magadan2         11045.281
       112   02 Jun 2027 12:11:50.516   02 Jun 2027 12:16:13.150           262.634               Magadan1          8207.312
       113   02 Jun 2027 13:36:39.083   02 Jun 2027 13:37:35.885            56.802                Sumatra          1775.063
       114   02 Jun 2027 13:50:10.679   02 Jun 2027 13:50:40.794            30.115                Irkutsk           941.094
       115   02 Jun 2027 13:57:21.959   02 Jun 2027 13:57:24.623             2.664                Norilsk            83.250
       116   02 Jun 2027 13:59:00.009   02 Jun 2027 13:59:12.651            12.642                Norilsk           395.062
       117   02 Jun 2027 14:35:15.300   02 Jun 2027 14:38:12.695           177.395            RioGallegos          5543.594
       118   02 Jun 2027 15:14:59.102   02 Jun 2027 15:17:20.464           141.362                  Delhi          4417.562
       119   02 Jun 2027 15:20:27.356   02 Jun 2027 15:21:24.543            57.187                Novosib          1787.094
       120   02 Jun 2027 15:25:06.576   02 Jun 2027 15:25:46.577            40.001                Novosib          1250.031
       121   02 Jun 2027 15:27:35.691   02 Jun 2027 15:28:59.023            83.332                Novosib          2604.125
       122   02 Jun 2027 16:56:26.013   02 Jun 2027 16:58:22.143           116.130                 Moscow          3629.062
       123   02 Jun 2027 16:59:55.873   02 Jun 2027 17:00:47.834            51.961              Murmansk1          1623.781
       124   02 Jun 2027 17:03:14.117   02 Jun 2027 17:04:01.417            47.300              Murmansk1          1478.125
       125   02 Jun 2027 17:04:45.736   02 Jun 2027 17:09:08.780           263.044                Norilsk          8220.125
       126   02 Jun 2027 18:34:23.048   02 Jun 2027 18:35:54.211            91.163                 Moscow          2848.844
       127   02 Jun 2027 18:37:17.552   02 Jun 2027 18:39:13.085           115.533              Murmansk2          3610.406
       128   02 Jun 2027 18:55:45.000   02 Jun 2027 18:55:57.501            12.501                Anadyr2           390.656
       129   02 Jun 2027 18:59:07.905   02 Jun 2027 18:59:51.670            43.765                Anadyr2          1367.656
       130   02 Jun 2027 19:00:38.290   02 Jun 2027 19:01:01.930            23.640                Anadyr2           738.750
       131   02 Jun 2027 19:46:04.493   02 Jun 2027 19:48:41.057           156.564               CapeTown          4892.625
       132   02 Jun 2027 20:17:03.117   02 Jun 2027 20:19:13.746           130.629              Murmansk1          4082.156
       133   02 Jun 2027 20:19:42.411   02 Jun 2027 20:23:00.529           198.118              Murmansk2          6191.187
       134   02 Jun 2027 22:02:25.043   02 Jun 2027 22:06:16.029           230.986                Anadyr1          7218.313
       135   02 Jun 2027 22:06:31.470   02 Jun 2027 22:08:17.462           105.992               Magadan2          3312.250
       136   02 Jun 2027 22:08:47.716   02 Jun 2027 22:10:18.064            90.348               Magadan1          2823.375
       137   02 Jun 2027 22:12:41.614   02 Jun 2027 22:12:57.364            15.750               Magadan1           492.188
       138   02 Jun 2027 22:13:06.889   02 Jun 2027 22:13:38.418            31.529               Magadan2           985.281
       139   02 Jun 2027 22:58:28.322   02 Jun 2027 23:01:05.266           156.944            RioGallegos          4904.500
       140   02 Jun 2027 23:38:14.675   02 Jun 2027 23:39:36.135            81.460                Anadyr2          2545.625
       141   02 Jun 2027 23:39:46.103   02 Jun 2027 23:40:07.268            21.165                Anadyr2           661.406
       142   02 Jun 2027 23:40:14.137   02 Jun 2027 23:40:30.160            16.023                Anadyr1           500.719
       143   02 Jun 2027 23:40:38.854   02 Jun 2027 23:43:36.523           177.669               Magadan1          5552.156
       144   02 Jun 2027 23:45:14.605   02 Jun 2027 23:45:55.969            41.364                Irkutsk          1292.625
       145   02 Jun 2027 23:47:07.191   02 Jun 2027 23:47:43.228            36.037                Irkutsk          1126.156
       146   02 Jun 2027 23:47:44.433   02 Jun 2027 23:48:53.381            68.948                Irkutsk          2154.625
       147   03 Jun 2027 00:00:10.422   03 Jun 2027 00:02:08.497           118.075                Sumatra          3689.844
       148   03 Jun 2027 00:36:46.764   03 Jun 2027 00:37:02.914            16.150            RioGallegos           504.688
       149   03 Jun 2027 00:40:19.169   03 Jun 2027 00:40:23.737             4.568            RioGallegos           142.750
       150   03 Jun 2027 00:41:08.746   03 Jun 2027 00:41:46.623            37.877            RioGallegos          1183.656
       151   03 Jun 2027 01:13:31.170   03 Jun 2027 01:13:57.362            26.192                Anadyr1           818.500
       152   03 Jun 2027 01:14:28.408   03 Jun 2027 01:15:45.295            76.887                Anadyr1          2402.719
       153   03 Jun 2027 01:16:07.793   03 Jun 2027 01:17:54.558           106.765                Norilsk          3336.406
       154   03 Jun 2027 01:18:08.570   03 Jun 2027 01:18:15.728             7.158               Magadan1           223.688
       155   03 Jun 2027 01:18:32.781   03 Jun 2027 01:19:55.251            82.470               Magadan1          2577.188
       156   03 Jun 2027 01:20:03.295   03 Jun 2027 01:21:14.711            71.416                Irkutsk          2231.750
       157   03 Jun 2027 01:25:42.679   03 Jun 2027 01:25:50.865             8.186                Novosib           255.812
       158   03 Jun 2027 01:28:53.260   03 Jun 2027 01:29:06.035            12.775                Novosib           399.219
       159   03 Jun 2027 01:30:33.443   03 Jun 2027 01:31:18.089            44.646                  Delhi          1395.187
       160   03 Jun 2027 01:33:58.136   03 Jun 2027 01:36:51.194           173.058                Sumatra          5408.063
       161   03 Jun 2027 02:17:48.456   03 Jun 2027 02:19:10.971            82.515            RioGallegos          2578.594
       162   03 Jun 2027 02:52:08.927   03 Jun 2027 02:53:16.597            67.670                Norilsk          2114.687
       163   03 Jun 2027 02:54:48.194   03 Jun 2027 02:55:22.623            34.429                Norilsk          1075.906
       164   03 Jun 2027 02:55:53.304   03 Jun 2027 02:55:54.947             1.643              Murmansk1            51.344
       165   03 Jun 2027 02:55:56.637   03 Jun 2027 02:57:02.259            65.622                Novosib          2050.687
       166   03 Jun 2027 02:57:35.067   03 Jun 2027 02:58:27.510            52.443                Novosib          1638.844
       167   03 Jun 2027 02:58:45.276   03 Jun 2027 02:59:37.917            52.641                Irkutsk          1645.031
       168   03 Jun 2027 03:00:18.443   03 Jun 2027 03:00:35.610            17.167              Murmansk1           536.469
       169   03 Jun 2027 03:00:36.664   03 Jun 2027 03:00:46.375             9.711                Norilsk           303.469
       170   03 Jun 2027 03:01:02.149   03 Jun 2027 03:03:47.974           165.825                Irkutsk          5182.031
       171   03 Jun 2027 03:03:56.503   03 Jun 2027 03:06:11.035           134.532                  Delhi          4204.125
       172   03 Jun 2027 03:45:15.912   03 Jun 2027 03:45:59.792            43.880            RioGallegos          1371.250
       173   03 Jun 2027 04:36:36.340   03 Jun 2027 04:36:48.022            11.682                Norilsk           365.063
       174   03 Jun 2027 04:36:54.226   03 Jun 2027 04:38:41.212           106.986                Irkutsk          3343.312
       175   03 Jun 2027 04:39:37.615   03 Jun 2027 04:41:09.246            91.631              Murmansk2          2863.469
       176   03 Jun 2027 04:41:11.360   03 Jun 2027 04:46:21.106           309.746                  Delhi          9679.562
       177   03 Jun 2027 06:17:43.680   03 Jun 2027 06:18:19.004            35.324                 Moscow          1103.875
       178   03 Jun 2027 06:33:21.341   03 Jun 2027 06:36:34.800           193.459               CapeTown          6045.594
       179   03 Jun 2027 07:36:22.866   03 Jun 2027 07:37:17.033            54.167                Anadyr1          1692.719
       180   03 Jun 2027 07:37:23.999   03 Jun 2027 07:37:41.365            17.366               Magadan1           542.688
       181   03 Jun 2027 07:37:42.462   03 Jun 2027 07:38:29.325            46.863                Anadyr2          1464.469
       182   03 Jun 2027 07:39:39.067   03 Jun 2027 07:39:46.492             7.425                Anadyr1           232.031
       183   03 Jun 2027 07:41:03.523   03 Jun 2027 07:41:37.737            34.214                Anadyr1          1069.187
       184   03 Jun 2027 08:13:25.845   03 Jun 2027 08:17:03.718           217.873               CapeTown          6808.531
       185   03 Jun 2027 09:12:56.529   03 Jun 2027 09:13:09.153            12.624               Magadan1           394.500
       186   03 Jun 2027 09:13:24.260   03 Jun 2027 09:14:53.865            89.605                Anadyr2          2800.156
       187   03 Jun 2027 09:14:58.848   03 Jun 2027 09:16:29.196            90.348                Anadyr2          2823.375
       188   03 Jun 2027 10:48:03.995   03 Jun 2027 10:48:21.614            17.619               Magadan1           550.594
       189   03 Jun 2027 10:48:21.614   03 Jun 2027 10:49:07.270            45.656               Magadan2          1426.750
       190   03 Jun 2027 10:49:33.669   03 Jun 2027 10:50:32.831            59.162               Magadan1          1848.812
       191   03 Jun 2027 10:50:32.831   03 Jun 2027 10:51:41.628            68.797               Magadan2          2149.906
       192   03 Jun 2027 10:52:52.632   03 Jun 2027 10:53:23.784            31.152               Magadan1           973.500
       193   03 Jun 2027 10:53:38.891   03 Jun 2027 10:53:44.088             5.197                Novosib           162.406
       194   03 Jun 2027 10:53:45.517   03 Jun 2027 10:54:00.179            14.662                Norilsk           458.187
       195   03 Jun 2027 10:54:21.873   03 Jun 2027 10:54:47.051            25.178                Norilsk           786.812
       196   03 Jun 2027 11:29:14.930   03 Jun 2027 11:30:22.205            67.275            RioGallegos          2102.344
       197   03 Jun 2027 12:07:37.699   03 Jun 2027 12:08:19.902            42.203                Sumatra          1318.844
       198   03 Jun 2027 12:17:28.469   03 Jun 2027 12:20:14.399           165.930                Irkutsk          5185.312
       199   03 Jun 2027 12:33:04.415   03 Jun 2027 12:33:23.142            18.727                Norilsk           585.219
       200   03 Jun 2027 13:05:42.846   03 Jun 2027 13:07:58.255           135.409            RioGallegos          4231.531
       201   03 Jun 2027 13:40:04.514   03 Jun 2027 13:42:46.102           161.588                Sumatra          5049.625
       202   03 Jun 2027 13:47:30.581   03 Jun 2027 13:48:40.684            70.103                Sumatra          2190.719
       203   03 Jun 2027 13:54:58.475   03 Jun 2027 13:56:12.298            73.823                Irkutsk          2306.969
       204   03 Jun 2027 14:10:20.364   03 Jun 2027 14:10:59.913            39.549                Norilsk          1235.906
       205   03 Jun 2027 15:24:45.892   03 Jun 2027 15:26:23.591            97.699                  Delhi          3053.094
       206   03 Jun 2027 15:29:41.126   03 Jun 2027 15:30:07.270            26.144                  Delhi           817.000
       207   03 Jun 2027 15:31:11.103   03 Jun 2027 15:32:48.178            97.075                  Delhi          3033.594
       208   03 Jun 2027 15:32:59.939   03 Jun 2027 15:34:42.948           103.009                Novosib          3219.031
       209   03 Jun 2027 15:36:50.321   03 Jun 2027 15:38:37.584           107.263                Novosib          3351.969
       210   03 Jun 2027 15:41:30.604   03 Jun 2027 15:41:50.350            19.746                Norilsk           617.063
       211   03 Jun 2027 15:45:12.852   03 Jun 2027 15:46:11.615            58.763                Norilsk          1836.344
       212   03 Jun 2027 17:08:30.791   03 Jun 2027 17:09:38.198            67.407                 Moscow          2106.469
       213   03 Jun 2027 17:11:42.681   03 Jun 2027 17:12:03.274            20.593                 Moscow           643.531
       214   03 Jun 2027 17:12:45.121   03 Jun 2027 17:13:21.922            36.801              Murmansk1          1150.031
       215   03 Jun 2027 17:17:38.339   03 Jun 2027 17:21:52.138           253.799                Norilsk          7931.219
       216   03 Jun 2027 18:32:48.231   03 Jun 2027 18:33:27.690            39.459               CapeTown          1233.094
       217   03 Jun 2027 18:47:00.365   03 Jun 2027 18:49:35.488           155.123                 Moscow          4847.594
       218   03 Jun 2027 18:49:39.164   03 Jun 2027 18:49:57.549            18.385              Murmansk1           574.531
       219   03 Jun 2027 18:50:03.564   03 Jun 2027 18:51:19.837            76.273                 Moscow          2383.531
       220   03 Jun 2027 19:58:16.543   03 Jun 2027 20:00:23.999           127.456               CapeTown          3983.000
       221   03 Jun 2027 20:01:41.222   03 Jun 2027 20:02:12.912            31.690               CapeTown           990.312
       222   03 Jun 2027 20:29:49.105   03 Jun 2027 20:34:13.780           264.675              Murmansk1          8271.094
       223   03 Jun 2027 20:35:01.369   03 Jun 2027 20:36:04.055            62.686              Murmansk2          1958.938
       224   03 Jun 2027 20:50:57.614   03 Jun 2027 20:51:01.606             3.992               Magadan1           124.750
       225   03 Jun 2027 20:51:13.896   03 Jun 2027 20:51:14.072             0.176               Magadan1             5.500
       226   03 Jun 2027 22:14:26.753   03 Jun 2027 22:18:17.273           230.520                Anadyr1          7203.750
       227   03 Jun 2027 22:18:27.871   03 Jun 2027 22:22:24.089           236.218               Magadan1          7381.812
       228   03 Jun 2027 23:09:51.344   03 Jun 2027 23:12:50.031           178.687            RioGallegos          5583.969
       229   03 Jun 2027 23:15:35.608   03 Jun 2027 23:16:11.982            36.374            RioGallegos          1136.687
       230   03 Jun 2027 23:50:13.983   03 Jun 2027 23:51:59.142           105.159                Anadyr2          3286.219
       231   03 Jun 2027 23:52:18.629   03 Jun 2027 23:53:31.926            73.297                Norilsk          2290.531
       232   03 Jun 2027 23:53:52.503   03 Jun 2027 23:54:37.973            45.470                Norilsk          1420.938
       233   03 Jun 2027 23:55:20.158   03 Jun 2027 23:56:11.863            51.705               Magadan2          1615.781
       234   03 Jun 2027 23:56:58.309   03 Jun 2027 23:58:00.042            61.733                Irkutsk          1929.156
       235   04 Jun 2027 00:02:32.520   04 Jun 2027 00:03:54.830            82.310                Irkutsk          2572.188
       236   04 Jun 2027 00:11:26.236   04 Jun 2027 00:12:58.968            92.732                Sumatra          2897.875
       237   04 Jun 2027 00:16:36.720   04 Jun 2027 00:17:36.537            59.817                Sumatra          1869.281
       238   04 Jun 2027 00:52:08.123   04 Jun 2027 00:52:28.609            20.486            RioGallegos           640.188
       239   04 Jun 2027 01:25:23.506   04 Jun 2027 01:26:50.986            87.480                Anadyr2          2733.750
       240   04 Jun 2027 01:27:13.056   04 Jun 2027 01:27:32.233            19.177                Anadyr2           599.281
       241   04 Jun 2027 01:27:51.700   04 Jun 2027 01:28:10.435            18.735                Anadyr2           585.469
       242   04 Jun 2027 01:28:22.335   04 Jun 2027 01:30:01.800            99.465                Norilsk          3108.281
       243   04 Jun 2027 01:31:26.878   04 Jun 2027 01:32:02.369            35.491               Magadan1          1109.094
       244   04 Jun 2027 01:32:03.689   04 Jun 2027 01:33:58.397           114.708                Irkutsk          3584.625
       245   04 Jun 2027 01:35:13.771   04 Jun 2027 01:35:20.141             6.370                Irkutsk           199.063
       246   04 Jun 2027 01:38:23.346   04 Jun 2027 01:39:29.524            66.178                Novosib          2068.062
       247   04 Jun 2027 01:46:12.567   04 Jun 2027 01:47:01.276            48.709                Sumatra          1522.156
       248   04 Jun 2027 01:48:39.419   04 Jun 2027 01:51:11.023           151.604                Sumatra          4737.625
       249   04 Jun 2027 02:29:55.035   04 Jun 2027 02:30:29.558            34.523            RioGallegos          1078.844
       250   04 Jun 2027 03:08:18.827   04 Jun 2027 03:09:38.688            79.861               Magadan1          2495.656
       251   04 Jun 2027 03:10:54.605   04 Jun 2027 03:11:50.536            55.931                Novosib          1747.844
       252   04 Jun 2027 03:11:54.052   04 Jun 2027 03:12:16.017            21.965                Irkutsk           686.406
       253   04 Jun 2027 03:12:27.613   04 Jun 2027 03:13:34.692            67.079                Irkutsk          2096.219
       254   04 Jun 2027 03:13:44.310   04 Jun 2027 03:13:57.750            13.440                Norilsk           420.000
       255   04 Jun 2027 03:14:09.736   04 Jun 2027 03:15:30.161            80.425                Novosib          2513.281
       256   04 Jun 2027 03:15:34.548   04 Jun 2027 03:18:44.505           189.957                  Delhi          5936.156
       257   04 Jun 2027 03:57:39.440   04 Jun 2027 03:57:52.610            13.170            RioGallegos           411.562
       258   04 Jun 2027 04:00:03.768   04 Jun 2027 04:02:45.195           161.427            RioGallegos          5044.594
       259   04 Jun 2027 04:48:11.353   04 Jun 2027 04:49:20.609            69.256                Irkutsk          2164.250
       260   04 Jun 2027 04:49:29.877   04 Jun 2027 04:49:30.820             0.943                Irkutsk            29.469
       261   04 Jun 2027 04:50:46.714   04 Jun 2027 04:50:57.004            10.290                Novosib           321.562
       262   04 Jun 2027 04:51:17.825   04 Jun 2027 04:55:10.622           232.797                Novosib          7274.906
       263   04 Jun 2027 04:57:02.460   04 Jun 2027 04:58:22.244            79.784                  Delhi          2493.250
       264   04 Jun 2027 06:28:14.618   04 Jun 2027 06:28:26.459            11.841                 Moscow           370.031
       265   04 Jun 2027 06:28:27.878   04 Jun 2027 06:28:28.294             0.416                 Moscow            13.000
       266   04 Jun 2027 06:33:10.530   04 Jun 2027 06:33:28.860            18.330                 Moscow           572.813
       267   04 Jun 2027 06:45:26.885   04 Jun 2027 06:48:25.684           178.799               CapeTown          5587.469
       268   04 Jun 2027 07:48:14.208   04 Jun 2027 07:49:18.270            64.062                Anadyr1          2001.937
       269   04 Jun 2027 07:49:35.977   04 Jun 2027 07:49:42.572             6.595               Magadan2           206.094
       270   04 Jun 2027 07:50:09.401   04 Jun 2027 07:50:46.653            37.252                Anadyr2          1164.125
       271   04 Jun 2027 07:50:46.653   04 Jun 2027 07:50:48.365             1.712                Anadyr1            53.500
       272   04 Jun 2027 07:53:03.949   04 Jun 2027 07:54:19.382            75.433                Anadyr2          2357.281
       273   04 Jun 2027 09:24:54.859   04 Jun 2027 09:25:25.969            31.110               Magadan2           972.188
       274   04 Jun 2027 09:25:35.812   04 Jun 2027 09:26:04.200            28.388               Magadan1           887.125
       275   04 Jun 2027 09:26:07.382   04 Jun 2027 09:26:58.835            51.453                Anadyr1          1607.906
       276   04 Jun 2027 09:27:23.246   04 Jun 2027 09:28:38.357            75.111               Magadan1          2347.219
       277   04 Jun 2027 10:55:24.201   04 Jun 2027 10:56:00.424            36.223               Magadan2          1131.969
       278   04 Jun 2027 11:00:13.759   04 Jun 2027 11:00:35.532            21.773               Magadan1           680.406
       279   04 Jun 2027 11:02:31.269   04 Jun 2027 11:02:54.097            22.828               Magadan1           713.375
       280   04 Jun 2027 11:03:24.706   04 Jun 2027 11:05:22.129           117.423               Magadan1          3669.469
       281   04 Jun 2027 11:05:22.129   04 Jun 2027 11:05:33.029            10.900               Magadan2           340.625
       282   04 Jun 2027 11:06:04.605   04 Jun 2027 11:06:08.122             3.517                Irkutsk           109.906
       283   04 Jun 2027 11:08:03.438   04 Jun 2027 11:08:44.523            41.085                Norilsk          1283.906
       284   04 Jun 2027 11:41:08.746   04 Jun 2027 11:42:22.090            73.344            RioGallegos          2292.000
       285   04 Jun 2027 12:17:09.125   04 Jun 2027 12:17:54.314            45.189                Sumatra          1412.156
       286   04 Jun 2027 12:29:29.323   04 Jun 2027 12:32:40.020           190.697                Irkutsk          5959.281
       287   04 Jun 2027 13:18:06.306   04 Jun 2027 13:18:46.594            40.288            RioGallegos          1259.000
       288   04 Jun 2027 13:19:55.208   04 Jun 2027 13:23:11.189           195.981            RioGallegos          6124.406
       289   04 Jun 2027 13:52:22.445   04 Jun 2027 13:54:01.397            98.952                Sumatra          3092.250
       290   04 Jun 2027 14:07:32.749   04 Jun 2027 14:09:58.497           145.748                Irkutsk          4554.625
       291   04 Jun 2027 15:37:15.906   04 Jun 2027 15:42:11.660           295.754                  Delhi          9242.313
       292   04 Jun 2027 15:45:38.671   04 Jun 2027 15:47:59.277           140.606                Novosib          4393.937
       293   04 Jun 2027 15:57:50.847   04 Jun 2027 15:59:17.623            86.776                Norilsk          2711.750
       294   04 Jun 2027 17:21:31.108   04 Jun 2027 17:23:46.038           134.930                 Moscow          4216.563
       295   04 Jun 2027 17:30:40.354   04 Jun 2027 17:34:03.744           203.390                Norilsk          6355.938
       296   04 Jun 2027 18:40:14.615   04 Jun 2027 18:40:24.928            10.313               CapeTown           322.281
       297   04 Jun 2027 18:43:18.405   04 Jun 2027 18:43:41.875            23.470               CapeTown           733.438
       298   04 Jun 2027 18:59:45.019   04 Jun 2027 19:04:14.219           269.200                 Moscow          8412.500
       299   04 Jun 2027 19:09:25.351   04 Jun 2027 19:10:45.252            79.901              Murmansk1          2496.906
       300   04 Jun 2027 20:10:32.444   04 Jun 2027 20:12:01.082            88.638               CapeTown          2769.937
       301   04 Jun 2027 20:14:08.545   04 Jun 2027 20:15:18.005            69.460               CapeTown          2170.625
       302   04 Jun 2027 20:42:41.004   04 Jun 2027 20:48:07.369           326.365              Murmansk1         10198.906
       303   04 Jun 2027 22:26:28.322   04 Jun 2027 22:31:12.986           284.664                Anadyr1          8895.750
       304   04 Jun 2027 22:31:59.088   04 Jun 2027 22:34:11.365           132.277               Magadan1          4133.656
       305   04 Jun 2027 22:39:46.509   04 Jun 2027 22:40:06.543            20.034               Magadan1           626.062
       306   04 Jun 2027 23:21:26.789   04 Jun 2027 23:24:38.740           191.951            RioGallegos          5998.469
       307   05 Jun 2027 00:02:12.710   05 Jun 2027 00:03:22.948            70.238                Anadyr2          2194.938
       308   05 Jun 2027 00:03:25.165   05 Jun 2027 00:03:41.506            16.341                Anadyr1           510.656
       309   05 Jun 2027 00:04:18.069   05 Jun 2027 00:05:52.570            94.501                Norilsk          2953.156
       310   05 Jun 2027 00:05:57.655   05 Jun 2027 00:06:56.476            58.821               Magadan2          1838.156
       311   05 Jun 2027 00:07:21.703   05 Jun 2027 00:07:48.586            26.883                Norilsk           840.094
       312   05 Jun 2027 00:08:30.482   05 Jun 2027 00:09:00.954            30.472               Magadan2           952.250
       313   05 Jun 2027 00:09:06.393   05 Jun 2027 00:09:30.144            23.751                Irkutsk           742.219
       314   05 Jun 2027 00:10:57.364   05 Jun 2027 00:12:15.673            78.309                Irkutsk          2447.156
       315   05 Jun 2027 00:22:54.620   05 Jun 2027 00:24:14.128            79.508                Sumatra          2484.625
       316   05 Jun 2027 00:28:40.347   05 Jun 2027 00:28:51.400            11.053                Sumatra           345.406
       317   05 Jun 2027 00:29:36.832   05 Jun 2027 00:29:38.422             1.590                Sumatra            49.687
       318   05 Jun 2027 00:32:45.737   05 Jun 2027 00:33:48.284            62.547                Sumatra          1954.594
       319   05 Jun 2027 00:58:50.348   05 Jun 2027 00:59:22.233            31.885            RioGallegos           996.406
       320   05 Jun 2027 01:04:18.159   05 Jun 2027 01:04:45.491            27.332            RioGallegos           854.125
       321   05 Jun 2027 01:37:14.570   05 Jun 2027 01:37:55.811            41.241                Anadyr2          1288.781
       322   05 Jun 2027 01:37:55.811   05 Jun 2027 01:38:30.774            34.963                Anadyr1          1092.594
       323   05 Jun 2027 01:39:12.868   05 Jun 2027 01:39:36.437            23.569                Anadyr2           736.531
       324   05 Jun 2027 01:39:36.437   05 Jun 2027 01:40:03.059            26.622                Anadyr1           831.938
       325   05 Jun 2027 01:40:12.310   05 Jun 2027 01:41:42.744            90.434                Norilsk          2826.063
       326   05 Jun 2027 01:42:03.157   05 Jun 2027 01:42:35.372            32.215               Magadan1          1006.719
       327   05 Jun 2027 01:44:05.018   05 Jun 2027 01:46:33.947           148.929                Irkutsk          4654.031
       328   05 Jun 2027 01:52:52.366   05 Jun 2027 01:53:13.463            21.097                  Delhi           659.281
       329   05 Jun 2027 01:55:29.361   05 Jun 2027 01:56:03.558            34.197                  Delhi          1068.656
       330   05 Jun 2027 01:58:34.336   05 Jun 2027 02:02:41.928           247.592                Sumatra          7737.250
       331   05 Jun 2027 03:20:58.405   05 Jun 2027 03:21:07.226             8.821               Magadan1           275.656
       332   05 Jun 2027 03:22:45.070   05 Jun 2027 03:23:17.916            32.846                Novosib          1026.438
       333   05 Jun 2027 03:23:47.450   05 Jun 2027 03:27:18.430           210.980                Irkutsk          6593.125
       334   05 Jun 2027 03:27:21.350   05 Jun 2027 03:27:58.454            37.104                Irkutsk          1159.500
       335   05 Jun 2027 03:28:07.969   05 Jun 2027 03:28:59.816            51.847                Irkutsk          1620.219
       336   05 Jun 2027 03:29:28.449   05 Jun 2027 03:29:54.622            26.173                Novosib           817.906
       337   05 Jun 2027 03:30:25.728   05 Jun 2027 03:31:33.812            68.084                  Delhi          2127.625
       338   05 Jun 2027 04:10:14.119   05 Jun 2027 04:14:10.176           236.057            RioGallegos          7376.781
       339   05 Jun 2027 05:00:51.861   05 Jun 2027 05:02:38.071           106.210                Novosib          3319.063
       340   05 Jun 2027 05:02:43.276   05 Jun 2027 05:06:24.426           221.150                Novosib          6910.937
       341   05 Jun 2027 06:39:58.234   05 Jun 2027 06:39:59.806             1.572              Murmansk2            49.125
       342   05 Jun 2027 06:40:01.554   05 Jun 2027 06:40:19.941            18.387                 Moscow           574.594
       343   05 Jun 2027 06:40:32.731   05 Jun 2027 06:41:21.584            48.853                 Moscow          1526.656
       344   05 Jun 2027 06:57:37.834   05 Jun 2027 06:59:31.409           113.575               CapeTown          3549.219
       345   05 Jun 2027 08:00:30.186   05 Jun 2027 08:00:35.113             4.927               Magadan2           153.969
       346   05 Jun 2027 08:00:47.162   05 Jun 2027 08:00:59.760            12.598               Magadan2           393.687
       347   05 Jun 2027 08:01:19.235   05 Jun 2027 08:02:41.669            82.434                Anadyr1          2576.062
       348   05 Jun 2027 08:02:54.272   05 Jun 2027 08:03:39.411            45.139               Magadan2          1410.594
       349   05 Jun 2027 08:05:03.923   05 Jun 2027 08:06:12.248            68.325                Anadyr1          2135.156
       350   05 Jun 2027 09:38:00.143   05 Jun 2027 09:38:08.203             8.060               Magadan1           251.875
       351   05 Jun 2027 09:38:23.331   05 Jun 2027 09:39:14.606            51.275               Magadan2          1602.344
       352   05 Jun 2027 09:39:29.868   05 Jun 2027 09:40:36.890            67.022               Magadan1          2094.437
       353   05 Jun 2027 09:41:17.015   05 Jun 2027 09:42:37.804            80.789                Anadyr2          2524.656
       354   05 Jun 2027 11:12:03.088   05 Jun 2027 11:13:19.803            76.715               Magadan2          2397.344
       355   05 Jun 2027 11:14:25.376   05 Jun 2027 11:15:04.097            38.721                Irkutsk          1210.031
       356   05 Jun 2027 11:15:24.864   05 Jun 2027 11:16:05.493            40.629                Irkutsk          1269.656
       357   05 Jun 2027 11:16:16.896   05 Jun 2027 11:17:20.421            63.525                Norilsk          1985.156
       358   05 Jun 2027 11:17:35.927   05 Jun 2027 11:17:43.655             7.728                Norilsk           241.500
       359   05 Jun 2027 11:17:46.309   05 Jun 2027 11:18:00.613            14.304                Norilsk           447.000
       360   05 Jun 2027 11:18:01.969   05 Jun 2027 11:18:15.050            13.081                Irkutsk           408.781
       361   05 Jun 2027 11:18:22.009   05 Jun 2027 11:19:05.795            43.786                Norilsk          1368.313
       362   05 Jun 2027 11:53:05.817   05 Jun 2027 11:54:20.815            74.998            RioGallegos          2343.687
       363   05 Jun 2027 12:28:42.368   05 Jun 2027 12:30:08.495            86.127                Sumatra          2691.469
       364   05 Jun 2027 12:41:33.483   05 Jun 2027 12:44:48.566           195.083                Irkutsk          6096.344
       365   05 Jun 2027 13:30:35.038   05 Jun 2027 13:31:57.512            82.474            RioGallegos          2577.313
       366   05 Jun 2027 13:35:01.362   05 Jun 2027 13:35:31.055            29.693            RioGallegos           927.906
       367   05 Jun 2027 14:04:48.523   05 Jun 2027 14:08:13.516           204.993                Sumatra          6406.031
       368   05 Jun 2027 14:20:14.258   05 Jun 2027 14:22:37.152           142.894                Irkutsk          4465.438
       369   05 Jun 2027 14:24:30.461   05 Jun 2027 14:24:49.008            18.547                Irkutsk           579.594
       370   05 Jun 2027 15:49:56.447   05 Jun 2027 15:54:35.298           278.851                  Delhi          8714.094
       371   05 Jun 2027 15:58:25.164   05 Jun 2027 16:02:51.448           266.284                Novosib          8321.375
       372   05 Jun 2027 17:35:45.607   05 Jun 2027 17:37:17.988            92.381                 Moscow          2886.906
       373   05 Jun 2027 17:38:58.591   05 Jun 2027 17:39:20.743            22.152              Murmansk2           692.250
       374   05 Jun 2027 17:44:09.904   05 Jun 2027 17:45:36.824            86.920                Norilsk          2716.250
       375   05 Jun 2027 17:53:19.851   05 Jun 2027 17:53:35.993            16.142                Anadyr1           504.438
       376   05 Jun 2027 18:46:06.746   05 Jun 2027 18:47:56.022           109.276               CapeTown          3414.875
       377   05 Jun 2027 19:12:39.656   05 Jun 2027 19:16:53.095           253.439                 Moscow          7919.969
       378   05 Jun 2027 19:19:48.194   05 Jun 2027 19:20:11.412            23.218              Murmansk1           725.562
       379   05 Jun 2027 19:23:18.433   05 Jun 2027 19:24:48.412            89.979              Murmansk2          2811.844
       380   05 Jun 2027 20:22:53.218   05 Jun 2027 20:25:04.414           131.196               CapeTown          4099.875
       381   05 Jun 2027 20:25:26.982   05 Jun 2027 20:28:03.211           156.229               CapeTown          4882.156
       382   05 Jun 2027 20:55:42.047   05 Jun 2027 20:59:43.397           241.350              Murmansk2          7542.188
       383   05 Jun 2027 22:38:29.714   05 Jun 2027 22:42:18.983           229.269                Anadyr2          7164.656
       384   05 Jun 2027 22:42:19.540   05 Jun 2027 22:44:21.032           121.492                Norilsk          3796.625
       385   05 Jun 2027 22:44:28.652   05 Jun 2027 22:44:57.847            29.195               Magadan1           912.344
       386   05 Jun 2027 22:45:00.699   05 Jun 2027 22:45:03.896             3.197               Magadan1            99.906
       387   05 Jun 2027 22:46:02.241   05 Jun 2027 22:47:07.041            64.800               Magadan1          2025.000
       388   05 Jun 2027 23:33:09.246   05 Jun 2027 23:35:12.708           123.462            RioGallegos          3858.188
       389   05 Jun 2027 23:37:49.624   05 Jun 2027 23:37:57.970             8.346            RioGallegos           260.812
       390   05 Jun 2027 23:38:11.441   05 Jun 2027 23:38:31.365            19.924            RioGallegos           622.625
       391   06 Jun 2027 00:14:10.793   06 Jun 2027 00:16:27.147           136.354                Anadyr1          4261.062
       392   06 Jun 2027 00:16:47.962   06 Jun 2027 00:19:58.816           190.854               Magadan2          5964.188
       393   06 Jun 2027 00:20:37.383   06 Jun 2027 00:21:19.592            42.209                Irkutsk          1319.031
       394   06 Jun 2027 00:22:53.960   06 Jun 2027 00:23:31.397            37.437                Irkutsk          1169.906
       395   06 Jun 2027 00:24:25.964   06 Jun 2027 00:24:50.471            24.507                Novosib           765.844
       396   06 Jun 2027 00:34:32.135   06 Jun 2027 00:36:18.229           106.094                Sumatra          3315.437
       397   06 Jun 2027 00:38:27.303   06 Jun 2027 00:40:59.745           152.442                Sumatra          4763.812
       398   06 Jun 2027 01:49:04.310   06 Jun 2027 01:49:07.014             2.704                Anadyr1            84.500
       399   06 Jun 2027 01:49:30.519   06 Jun 2027 01:50:07.427            36.908                Anadyr2          1153.375
       400   06 Jun 2027 01:50:30.804   06 Jun 2027 01:51:13.609            42.805                Anadyr1          1337.656
       401   06 Jun 2027 01:52:14.707   06 Jun 2027 01:52:57.566            42.859                Norilsk          1339.344
       402   06 Jun 2027 01:53:23.695   06 Jun 2027 01:53:53.491            29.796               Magadan2           931.125
       403   06 Jun 2027 01:54:37.330   06 Jun 2027 01:55:28.896            51.566               Magadan1          1611.438
       404   06 Jun 2027 01:56:07.201   06 Jun 2027 01:58:59.084           171.883                Irkutsk          5371.344
       405   06 Jun 2027 02:08:24.702   06 Jun 2027 02:08:39.593            14.891                  Delhi           465.344
       406   06 Jun 2027 02:11:05.391   06 Jun 2027 02:16:00.215           294.824                Sumatra          9213.250
       407   06 Jun 2027 03:35:13.639   06 Jun 2027 03:35:42.179            28.540                Irkutsk           891.875
       408   06 Jun 2027 03:36:27.872   06 Jun 2027 03:38:16.036           108.164                 Moscow          3380.125
       409   06 Jun 2027 03:38:23.513   06 Jun 2027 03:38:40.007            16.494                 Moscow           515.438
       410   06 Jun 2027 03:38:40.917   06 Jun 2027 03:42:24.905           223.988                Irkutsk          6999.625
       411   06 Jun 2027 03:43:00.196   06 Jun 2027 03:43:47.129            46.933                Novosib          1466.656
       412   06 Jun 2027 03:44:29.240   06 Jun 2027 03:48:56.551           267.311                  Delhi          8353.469
       413   06 Jun 2027 04:56:03.774   06 Jun 2027 04:56:28.628            24.854                Anadyr1           776.687
       414   06 Jun 2027 04:57:18.264   06 Jun 2027 04:57:43.732            25.468                Anadyr1           795.875
       415   06 Jun 2027 05:13:51.428   06 Jun 2027 05:14:01.654            10.226                Norilsk           319.562
       416   06 Jun 2027 05:14:05.341   06 Jun 2027 05:17:55.663           230.322                Novosib          7197.562
       417   06 Jun 2027 05:18:07.579   06 Jun 2027 05:18:15.330             7.751                 Moscow           242.219
       418   06 Jun 2027 05:19:03.821   06 Jun 2027 05:20:15.143            71.322                 Moscow          2228.812
       419   06 Jun 2027 05:34:26.689   06 Jun 2027 05:35:27.712            61.023               CapeTown          1906.969
       420   06 Jun 2027 05:41:01.581   06 Jun 2027 05:41:09.801             8.220               CapeTown           256.875
       421   06 Jun 2027 06:48:43.529   06 Jun 2027 06:48:52.787             9.258                 Moscow           289.312
       422   06 Jun 2027 06:48:55.599   06 Jun 2027 06:49:31.186            35.587                 Moscow          1112.094
       423   06 Jun 2027 06:50:17.849   06 Jun 2027 06:50:26.073             8.224                Norilsk           257.000
       424   06 Jun 2027 06:52:09.274   06 Jun 2027 06:52:36.684            27.410                 Moscow           856.563
       425   06 Jun 2027 06:54:31.724   06 Jun 2027 06:54:43.965            12.241                 Moscow           382.531
       426   06 Jun 2027 06:55:11.879   06 Jun 2027 06:55:32.684            20.805                 Moscow           650.156
       427   06 Jun 2027 07:09:54.662   06 Jun 2027 07:10:29.100            34.438               CapeTown          1076.187
       428   06 Jun 2027 07:12:22.928   06 Jun 2027 07:14:54.552           151.624               CapeTown          4738.250
       429   06 Jun 2027 08:13:02.396   06 Jun 2027 08:13:06.643             4.247               Magadan2           132.719
       430   06 Jun 2027 08:13:19.866   06 Jun 2027 08:14:40.671            80.805                Anadyr2          2525.156
       431   06 Jun 2027 08:14:46.069   06 Jun 2027 08:15:25.043            38.974               Magadan2          1217.938
       432   06 Jun 2027 08:16:16.531   06 Jun 2027 08:17:03.354            46.823                Anadyr1          1463.219
       433   06 Jun 2027 09:49:59.278   06 Jun 2027 09:50:39.919            40.641               Magadan1          1270.031
       434   06 Jun 2027 09:50:45.404   06 Jun 2027 09:50:48.746             3.342               Magadan1           104.437
       435   06 Jun 2027 09:51:39.217   06 Jun 2027 09:52:34.491            55.274               Magadan1          1727.312
       436   06 Jun 2027 10:30:50.563   06 Jun 2027 10:31:02.991            12.428            RioGallegos           388.375
       437   06 Jun 2027 11:23:48.389   06 Jun 2027 11:25:14.045            85.656               Magadan2          2676.750
       438   06 Jun 2027 11:26:12.609   06 Jun 2027 11:29:58.072           225.463               Magadan2          7045.719
       439   06 Jun 2027 11:30:33.686   06 Jun 2027 11:30:35.587             1.901                Norilsk            59.406
       440   06 Jun 2027 12:05:06.197   06 Jun 2027 12:05:20.824            14.627            RioGallegos           457.094
       441   06 Jun 2027 12:06:18.232   06 Jun 2027 12:08:16.003           117.771            RioGallegos          3680.344
       442   06 Jun 2027 12:40:23.730   06 Jun 2027 12:41:08.195            44.465                Sumatra          1389.531
       443   06 Jun 2027 12:53:41.072   06 Jun 2027 12:56:48.659           187.587                Irkutsk          5862.094
       444   06 Jun 2027 13:43:09.957   06 Jun 2027 13:45:59.421           169.464            RioGallegos          5295.750
       445   06 Jun 2027 14:17:25.526   06 Jun 2027 14:22:11.024           285.498                Sumatra          8921.813
       446   06 Jun 2027 14:33:05.353   06 Jun 2027 14:36:01.556           176.203                Irkutsk          5506.344
       447   06 Jun 2027 16:02:52.434   06 Jun 2027 16:08:09.868           317.434                  Delhi          9919.812
       448   06 Jun 2027 16:11:22.510   06 Jun 2027 16:18:05.362           402.852                Novosib         12589.125
       449   06 Jun 2027 18:58:04.295   06 Jun 2027 18:58:53.265            48.970               CapeTown          1530.313
       450   06 Jun 2027 19:04:33.368   06 Jun 2027 19:05:00.953            27.585               CapeTown           862.031
       451   06 Jun 2027 19:25:50.548   06 Jun 2027 19:29:39.767           229.219                 Moscow          7163.094
       452   06 Jun 2027 19:31:05.928   06 Jun 2027 19:32:09.271            63.343              Murmansk2          1979.469
       453   06 Jun 2027 19:32:59.659   06 Jun 2027 19:34:37.304            97.645              Murmansk1          3051.406
       454   06 Jun 2027 20:35:20.731   06 Jun 2027 20:38:44.736           204.005               CapeTown          6375.156
       455   06 Jun 2027 20:41:38.136   06 Jun 2027 20:41:40.108             1.972               CapeTown            61.625
       456   06 Jun 2027 21:09:05.107   06 Jun 2027 21:11:12.157           127.050              Murmansk1          3970.313
       457   06 Jun 2027 21:17:05.810   06 Jun 2027 21:17:43.216            37.406               Magadan1          1168.937
       458   06 Jun 2027 21:19:29.706   06 Jun 2027 21:19:45.350            15.644               Magadan2           488.875
       459   06 Jun 2027 21:20:12.489   06 Jun 2027 21:20:22.312             9.823               Magadan2           306.969
       460   06 Jun 2027 21:22:56.776   06 Jun 2027 21:23:14.400            17.624               Magadan1           550.750
       461   06 Jun 2027 21:23:14.400   06 Jun 2027 21:23:24.246             9.846               Magadan2           307.687
       462   06 Jun 2027 21:23:40.488   06 Jun 2027 21:24:40.247            59.759               Magadan1          1867.469
       463   06 Jun 2027 22:50:30.875   06 Jun 2027 22:54:19.340           228.465                Anadyr1          7139.531
       464   06 Jun 2027 22:54:19.768   06 Jun 2027 22:55:37.160            77.392                Anadyr2          2418.500
       465   06 Jun 2027 22:55:56.671   06 Jun 2027 22:57:41.130           104.459               Magadan1          3264.344
       466   06 Jun 2027 22:57:41.130   06 Jun 2027 22:57:56.185            15.055               Magadan2           470.469
       467   06 Jun 2027 23:03:35.824   06 Jun 2027 23:04:09.952            34.128               Magadan1          1066.500
       468   06 Jun 2027 23:44:56.332   06 Jun 2027 23:47:55.063           178.731            RioGallegos          5585.344
       469   06 Jun 2027 23:49:51.549   06 Jun 2027 23:50:24.987            33.438            RioGallegos          1044.938
       470   07 Jun 2027 00:26:08.131   07 Jun 2027 00:26:47.790            39.659                Anadyr2          1239.344
       471   07 Jun 2027 00:27:05.030   07 Jun 2027 00:27:21.288            16.258                Anadyr1           508.062
       472   07 Jun 2027 00:27:34.477   07 Jun 2027 00:27:48.428            13.951                Anadyr1           435.969
       473   07 Jun 2027 00:28:19.027   07 Jun 2027 00:30:09.901           110.874                Norilsk          3464.813
       474   07 Jun 2027 00:30:47.949   07 Jun 2027 00:33:04.898           136.949               Magadan2          4279.656
       475   07 Jun 2027 00:33:29.081   07 Jun 2027 00:34:02.025            32.944                Irkutsk          1029.500
       476   07 Jun 2027 00:34:26.028   07 Jun 2027 00:35:47.944            81.916                Novosib          2559.875
       477   07 Jun 2027 00:46:17.015   07 Jun 2027 00:48:43.963           146.948                Sumatra          4592.125
       478   07 Jun 2027 01:24:07.491   07 Jun 2027 01:24:47.677            40.186            RioGallegos          1255.813
       479   07 Jun 2027 01:29:49.193   07 Jun 2027 01:30:13.946            24.753            RioGallegos           773.531
       480   07 Jun 2027 02:00:52.715   07 Jun 2027 02:01:27.657            34.942                Anadyr2          1091.938
       481   07 Jun 2027 02:01:41.845   07 Jun 2027 02:02:21.405            39.560                Anadyr2          1236.250
       482   07 Jun 2027 02:03:14.312   07 Jun 2027 02:03:26.064            11.752                Anadyr1           367.250
