uniorb/output/strategy_4/Drop/Drop_KinoSat_110808.txt

KinoSat_110808
-------------------------
    Access    *     Start Time (UTCG)     *     Stop Time (UTCG)  *   Duration (s)        *       Station  *  Data (Mbytes)
         1   01 Jun 2027 03:07:14.108   01 Jun 2027 03:08:01.172            47.064                Anadyr2          1470.750
         2   01 Jun 2027 03:08:01.172   01 Jun 2027 03:09:22.741            81.569                Anadyr1          2549.031
         3   01 Jun 2027 03:12:13.872   01 Jun 2027 03:13:02.893            49.021                Anadyr2          1531.906
         4   01 Jun 2027 04:44:58.744   01 Jun 2027 04:47:27.123           148.379               Magadan1          4636.844
         5   01 Jun 2027 04:47:46.184   01 Jun 2027 04:49:04.545            78.361               Magadan2          2448.781
         6   01 Jun 2027 05:26:09.111   01 Jun 2027 05:26:50.943            41.832            RioGallegos          1307.250
         7   01 Jun 2027 06:19:25.482   01 Jun 2027 06:20:44.539            79.057               Magadan2          2470.531
         8   01 Jun 2027 06:20:51.347   01 Jun 2027 06:22:54.263           122.916                Irkutsk          3841.125
         9   01 Jun 2027 06:23:22.079   01 Jun 2027 06:23:26.879             4.800                Novosib           150.000
        10   01 Jun 2027 06:23:31.559   01 Jun 2027 06:24:10.521            38.962                Irkutsk          1217.562
        11   01 Jun 2027 06:24:14.210   01 Jun 2027 06:24:33.069            18.859               Magadan2           589.344
        12   01 Jun 2027 06:24:37.607   01 Jun 2027 06:25:02.997            25.390                Novosib           793.438
        13   01 Jun 2027 06:25:09.069   01 Jun 2027 06:25:28.257            19.188              Murmansk2           599.625
        14   01 Jun 2027 06:25:42.047   01 Jun 2027 06:26:08.875            26.828              Murmansk2           838.375
        15   01 Jun 2027 06:26:34.990   01 Jun 2027 06:27:03.226            28.236              Murmansk2           882.375
        16   01 Jun 2027 06:27:05.600   01 Jun 2027 06:27:26.986            21.386                Norilsk           668.312
        17   01 Jun 2027 06:29:12.255   01 Jun 2027 06:29:42.744            30.489              Murmansk1           952.781
        18   01 Jun 2027 06:59:31.399   01 Jun 2027 07:00:47.052            75.653            RioGallegos          2364.156
        19   01 Jun 2027 07:02:02.390   01 Jun 2027 07:02:30.543            28.153            RioGallegos           879.781
        20   01 Jun 2027 07:35:24.886   01 Jun 2027 07:35:32.614             7.728                Sumatra           241.500
        21   01 Jun 2027 07:36:22.354   01 Jun 2027 07:38:28.863           126.509                Sumatra          3953.406
        22   01 Jun 2027 07:56:22.469   01 Jun 2027 07:56:53.852            31.383                Novosib           980.719
        23   01 Jun 2027 07:57:21.536   01 Jun 2027 08:00:46.512           204.976                Irkutsk          6405.500
        24   01 Jun 2027 08:00:46.569   01 Jun 2027 08:02:09.963            83.394              Murmansk1          2606.062
        25   01 Jun 2027 08:07:17.314   01 Jun 2027 08:07:43.021            25.707              Murmansk2           803.344
        26   01 Jun 2027 08:36:39.088   01 Jun 2027 08:36:59.245            20.157            RioGallegos           629.906
        27   01 Jun 2027 08:38:05.246   01 Jun 2027 08:38:55.801            50.555            RioGallegos          1579.844
        28   01 Jun 2027 08:39:59.296   01 Jun 2027 08:40:10.771            11.475            RioGallegos           358.594
        29   01 Jun 2027 09:10:52.623   01 Jun 2027 09:11:53.843            61.220                Sumatra          1913.125
        30   01 Jun 2027 09:12:48.783   01 Jun 2027 09:14:11.258            82.475                Sumatra          2577.344
        31   01 Jun 2027 09:18:55.317   01 Jun 2027 09:20:27.480            92.163                  Delhi          2880.094
        32   01 Jun 2027 09:21:35.367   01 Jun 2027 09:22:15.693            40.326                  Delhi          1260.188
        33   01 Jun 2027 09:34:18.042   01 Jun 2027 09:35:31.114            73.072                Irkutsk          2283.500
        34   01 Jun 2027 09:36:38.032   01 Jun 2027 09:38:09.988            91.956                 Moscow          2873.625
        35   01 Jun 2027 09:38:37.686   01 Jun 2027 09:39:17.715            40.029                 Moscow          1250.906
        36   01 Jun 2027 10:55:50.838   01 Jun 2027 10:56:01.463            10.625                  Delhi           332.031
        37   01 Jun 2027 10:56:07.160   01 Jun 2027 10:56:47.591            40.431                  Delhi          1263.469
        38   01 Jun 2027 10:59:13.014   01 Jun 2027 11:00:27.789            74.775                  Delhi          2336.719
        39   01 Jun 2027 11:10:26.664   01 Jun 2027 11:12:03.800            97.136                 Moscow          3035.500
        40   01 Jun 2027 11:14:11.379   01 Jun 2027 11:14:44.970            33.591                 Moscow          1049.719
        41   01 Jun 2027 12:39:05.871   01 Jun 2027 12:43:10.831           244.960                 Moscow          7655.000
        42   01 Jun 2027 12:43:18.300   01 Jun 2027 12:46:18.821           180.521              Murmansk2          5641.281
        43   01 Jun 2027 12:47:12.527   01 Jun 2027 12:48:07.642            55.115              Murmansk2          1722.344
        44   01 Jun 2027 12:48:29.497   01 Jun 2027 12:48:43.059            13.562              Murmansk2           423.813
        45   01 Jun 2027 12:49:38.660   01 Jun 2027 12:51:11.050            92.390                Norilsk          2887.187
        46   01 Jun 2027 12:58:33.682   01 Jun 2027 13:03:34.778           301.096                Anadyr2          9409.250
        47   01 Jun 2027 14:20:36.116   01 Jun 2027 14:20:38.900             2.784              Murmansk1            87.000
        48   01 Jun 2027 14:21:11.667   01 Jun 2027 14:21:46.598            34.931              Murmansk2          1091.594
        49   01 Jun 2027 14:23:10.771   01 Jun 2027 14:23:39.994            29.223              Murmansk2           913.219
        50   01 Jun 2027 14:29:08.551   01 Jun 2027 14:29:27.297            18.746              Murmansk1           585.813
        51   01 Jun 2027 14:33:09.464   01 Jun 2027 14:35:06.006           116.542                Anadyr2          3641.938
        52   01 Jun 2027 14:35:46.370   01 Jun 2027 14:37:20.336            93.966                Anadyr1          2936.438
        53   01 Jun 2027 15:33:51.825   01 Jun 2027 15:34:04.782            12.957               CapeTown           404.906
        54   01 Jun 2027 16:01:28.483   01 Jun 2027 16:04:22.898           174.415              Murmansk1          5450.469
        55   01 Jun 2027 16:08:56.495   01 Jun 2027 16:10:59.847           123.352                Anadyr1          3854.750
        56   01 Jun 2027 16:11:38.277   01 Jun 2027 16:12:13.374            35.097                Anadyr1          1096.781
        57   01 Jun 2027 16:12:19.174   01 Jun 2027 16:14:23.363           124.189               Magadan1          3880.906
        58   01 Jun 2027 16:14:30.410   01 Jun 2027 16:16:36.123           125.713               Magadan2          3928.531
        59   01 Jun 2027 17:44:51.731   01 Jun 2027 17:46:23.685            91.954                Anadyr2          2873.562
        60   01 Jun 2027 17:46:38.152   01 Jun 2027 17:48:14.244            96.092                Anadyr1          3002.875
        61   01 Jun 2027 17:48:43.615   01 Jun 2027 17:48:57.600            13.985                Anadyr1           437.031
        62   01 Jun 2027 17:49:05.599   01 Jun 2027 17:50:11.938            66.339               Magadan2          2073.094
        63   01 Jun 2027 17:50:11.938   01 Jun 2027 17:51:04.982            53.044               Magadan1          1657.625
        64   01 Jun 2027 17:52:50.920   01 Jun 2027 17:53:06.345            15.425               Magadan1           482.031
        65   01 Jun 2027 17:53:06.345   01 Jun 2027 17:54:17.916            71.571               Magadan2          2236.594
        66   01 Jun 2027 18:39:47.971   01 Jun 2027 18:43:16.652           208.681            RioGallegos          6521.281
        67   01 Jun 2027 18:44:03.896   01 Jun 2027 18:46:18.582           134.686            RioGallegos          4208.937
        68   01 Jun 2027 19:23:08.423   01 Jun 2027 19:23:59.567            51.144               Magadan1          1598.250
        69   01 Jun 2027 19:23:59.567   01 Jun 2027 19:24:25.420            25.853               Magadan2           807.906
        70   01 Jun 2027 19:25:37.653   01 Jun 2027 19:26:52.854            75.201                Norilsk          2350.031
        71   01 Jun 2027 19:27:09.309   01 Jun 2027 19:29:44.566           155.257                Irkutsk          4851.781
        72   01 Jun 2027 19:41:11.624   01 Jun 2027 19:44:37.173           205.549                Sumatra          6423.406
        73   01 Jun 2027 19:46:59.641   01 Jun 2027 19:47:54.749            55.108                Sumatra          1722.125
        74   01 Jun 2027 20:59:57.339   01 Jun 2027 21:00:08.446            11.107                Norilsk           347.094
        75   01 Jun 2027 21:02:29.365   01 Jun 2027 21:02:42.712            13.347                Irkutsk           417.094
        76   01 Jun 2027 21:02:49.503   01 Jun 2027 21:05:25.634           156.131                Novosib          4879.094
        77   01 Jun 2027 21:11:09.038   01 Jun 2027 21:13:14.135           125.097                  Delhi          3909.281
        78   01 Jun 2027 21:13:49.637   01 Jun 2027 21:14:19.122            29.485                  Delhi           921.406
        79   01 Jun 2027 21:15:51.318   01 Jun 2027 21:16:44.347            53.029                  Delhi          1657.156
        80   01 Jun 2027 22:34:59.272   01 Jun 2027 22:35:12.367            13.095               Magadan2           409.219
        81   01 Jun 2027 22:35:31.776   01 Jun 2027 22:35:40.091             8.315                Norilsk           259.844
        82   01 Jun 2027 22:35:44.522   01 Jun 2027 22:36:27.437            42.915               Magadan2          1341.094
        83   01 Jun 2027 22:37:10.267   01 Jun 2027 22:41:08.217           237.950              Murmansk2          7435.937
        84   01 Jun 2027 22:42:04.896   01 Jun 2027 22:44:44.203           159.307              Murmansk1          4978.344
        85   01 Jun 2027 22:45:00.697   01 Jun 2027 22:45:49.382            48.685                 Moscow          1521.406
        86   02 Jun 2027 00:08:09.761   02 Jun 2027 00:09:09.443            59.682               Magadan2          1865.063
        87   02 Jun 2027 00:10:04.717   02 Jun 2027 00:10:42.421            37.704               Magadan1          1178.250
        88   02 Jun 2027 00:12:46.362   02 Jun 2027 00:13:23.041            36.679              Murmansk2          1146.219
        89   02 Jun 2027 00:13:38.411   02 Jun 2027 00:15:28.304           109.893              Murmansk1          3434.156
        90   02 Jun 2027 00:15:28.304   02 Jun 2027 00:15:39.719            11.415              Murmansk2           356.719
        91   02 Jun 2027 00:16:05.982   02 Jun 2027 00:16:34.330            28.348              Murmansk2           885.875
        92   02 Jun 2027 00:16:47.446   02 Jun 2027 00:17:07.274            19.828                 Moscow           619.625
        93   02 Jun 2027 00:18:10.613   02 Jun 2027 00:19:09.970            59.357                 Moscow          1854.906
        94   02 Jun 2027 00:21:16.138   02 Jun 2027 00:22:21.772            65.634              Murmansk2          2051.063
        95   02 Jun 2027 00:24:28.725   02 Jun 2027 00:25:08.057            39.332                 Moscow          1229.125
        96   02 Jun 2027 00:41:08.034   02 Jun 2027 00:42:27.128            79.094               CapeTown          2471.687
        97   02 Jun 2027 00:43:36.909   02 Jun 2027 00:44:19.076            42.167               CapeTown          1317.719
        98   02 Jun 2027 01:39:51.349   02 Jun 2027 01:40:32.911            41.562               Magadan2          1298.812
        99   02 Jun 2027 01:40:54.487   02 Jun 2027 01:42:17.615            83.128               Magadan1          2597.750
       100   02 Jun 2027 01:48:43.806   02 Jun 2027 01:50:13.441            89.635              Murmansk2          2801.094
       101   02 Jun 2027 01:50:39.586   02 Jun 2027 01:50:54.439            14.853              Murmansk1           464.156
       102   02 Jun 2027 01:51:50.041   02 Jun 2027 01:52:26.669            36.628                Novosib          1144.625
       103   02 Jun 2027 01:53:30.388   02 Jun 2027 01:55:10.510           100.122                 Moscow          3128.813
       104   02 Jun 2027 02:21:20.273   02 Jun 2027 02:21:28.335             8.062               CapeTown           251.937
       105   02 Jun 2027 02:22:19.892   02 Jun 2027 02:23:39.891            79.999               CapeTown          2499.969
       106   02 Jun 2027 03:18:40.664   02 Jun 2027 03:18:59.795            19.131               Magadan2           597.844
       107   02 Jun 2027 03:19:05.532   02 Jun 2027 03:21:19.933           134.401                Anadyr1          4200.031
       108   02 Jun 2027 03:21:19.933   02 Jun 2027 03:22:20.786            60.853                Anadyr2          1901.656
       109   02 Jun 2027 03:22:50.996   02 Jun 2027 03:24:12.468            81.472                Anadyr2          2546.000
       110   02 Jun 2027 03:24:12.468   02 Jun 2027 03:25:27.947            75.479                Anadyr1          2358.719
       111   02 Jun 2027 04:57:34.882   02 Jun 2027 04:58:40.536            65.654                Anadyr2          2051.687
       112   02 Jun 2027 06:32:37.172   02 Jun 2027 06:33:18.205            41.033                Novosib          1282.281
       113   02 Jun 2027 06:34:36.912   02 Jun 2027 06:36:25.448           108.536               Magadan1          3391.750
       114   02 Jun 2027 06:37:07.872   02 Jun 2027 06:37:48.691            40.819                Novosib          1275.594
       115   02 Jun 2027 08:09:39.950   02 Jun 2027 08:10:12.562            32.612                Irkutsk          1019.125
       116   02 Jun 2027 08:11:06.361   02 Jun 2027 08:12:45.944            99.583                Irkutsk          3111.969
       117   02 Jun 2027 08:14:38.814   02 Jun 2027 08:15:06.693            27.879              Murmansk1           871.219
       118   02 Jun 2027 08:49:09.130   02 Jun 2027 08:50:44.842            95.712            RioGallegos          2991.000
       119   02 Jun 2027 08:53:14.533   02 Jun 2027 08:53:38.665            24.132            RioGallegos           754.125
       120   02 Jun 2027 09:23:20.676   02 Jun 2027 09:25:58.295           157.619                Sumatra          4925.594
       121   02 Jun 2027 09:44:51.772   02 Jun 2027 09:45:00.498             8.726                Novosib           272.687
       122   02 Jun 2027 09:46:12.160   02 Jun 2027 09:47:19.671            67.511                Novosib          2109.719
       123   02 Jun 2027 09:47:25.081   02 Jun 2027 09:47:27.987             2.906                Norilsk            90.812
       124   02 Jun 2027 09:47:50.451   02 Jun 2027 09:47:51.510             1.059                Novosib            33.094
       125   02 Jun 2027 09:47:58.960   02 Jun 2027 09:48:04.767             5.807                Norilsk           181.469
       126   02 Jun 2027 09:48:05.350   02 Jun 2027 09:48:22.001            16.651                Norilsk           520.344
       127   02 Jun 2027 09:48:26.073   02 Jun 2027 09:49:00.439            34.366                Norilsk          1073.937
       128   02 Jun 2027 11:08:34.619   02 Jun 2027 11:09:13.916            39.297                  Delhi          1228.031
       129   02 Jun 2027 11:10:14.240   02 Jun 2027 11:12:51.342           157.102                  Delhi          4909.438
       130   02 Jun 2027 11:22:29.247   02 Jun 2027 11:23:42.333            73.086                Novosib          2283.938
       131   02 Jun 2027 11:24:58.281   02 Jun 2027 11:25:06.937             8.656                Norilsk           270.500
       132   02 Jun 2027 12:32:48.188   02 Jun 2027 12:34:00.457            72.269               CapeTown          2258.406
       133   02 Jun 2027 12:35:21.060   02 Jun 2027 12:36:05.379            44.319               CapeTown          1384.969
       134   02 Jun 2027 12:51:17.663   02 Jun 2027 12:52:27.197            69.534                 Moscow          2172.937
       135   02 Jun 2027 12:54:46.877   02 Jun 2027 12:56:37.715           110.838              Murmansk1          3463.688
       136   02 Jun 2027 12:56:37.715   02 Jun 2027 12:57:19.350            41.635              Murmansk2          1301.094
       137   02 Jun 2027 12:57:44.153   02 Jun 2027 12:57:50.774             6.621              Murmansk2           206.906
       138   02 Jun 2027 12:58:14.038   02 Jun 2027 12:59:14.050            60.012              Murmansk1          1875.375
       139   02 Jun 2027 13:10:11.128   02 Jun 2027 13:13:45.928           214.800                Anadyr2          6712.500
       140   02 Jun 2027 13:14:31.617   02 Jun 2027 13:16:35.719           124.102                Anadyr1          3878.187
       141   02 Jun 2027 14:33:34.850   02 Jun 2027 14:34:23.249            48.399              Murmansk1          1512.469
       142   02 Jun 2027 14:45:08.269   02 Jun 2027 14:46:17.709            69.440                Anadyr2          2170.000
       143   02 Jun 2027 14:46:17.709   02 Jun 2027 14:46:59.224            41.515                Anadyr1          1297.344
       144   02 Jun 2027 14:47:03.177   02 Jun 2027 14:47:45.181            42.004                Anadyr2          1312.625
       145   02 Jun 2027 15:43:19.239   02 Jun 2027 15:43:53.823            34.584               CapeTown          1080.750
       146   02 Jun 2027 16:14:36.247   02 Jun 2027 16:16:44.426           128.179              Murmansk2          4005.594
       147   02 Jun 2027 16:20:57.768   02 Jun 2027 16:22:30.626            92.858                Anadyr2          2901.812
       148   02 Jun 2027 16:22:53.452   02 Jun 2027 16:23:36.393            42.941                Anadyr2          1341.906
       149   02 Jun 2027 16:23:52.393   02 Jun 2027 16:27:32.067           219.674               Magadan1          6864.813
       150   02 Jun 2027 16:30:02.061   02 Jun 2027 16:31:00.357            58.296               Magadan1          1821.750
       151   02 Jun 2027 17:56:52.537   02 Jun 2027 17:58:37.738           105.201                Anadyr1          3287.531
       152   02 Jun 2027 17:59:09.600   02 Jun 2027 18:01:45.686           156.086               Magadan1          4877.688
       153   02 Jun 2027 18:02:06.207   02 Jun 2027 18:02:54.600            48.393                Norilsk          1512.281
       154   02 Jun 2027 18:51:31.172   02 Jun 2027 18:55:07.677           216.505            RioGallegos          6765.781
       155   02 Jun 2027 18:55:20.135   02 Jun 2027 18:57:44.779           144.644            RioGallegos          4520.125
       156   02 Jun 2027 19:34:44.765   02 Jun 2027 19:37:37.878           173.113                Norilsk          5409.781
       157   02 Jun 2027 19:38:58.894   02 Jun 2027 19:40:03.537            64.643                Norilsk          2020.094
       158   02 Jun 2027 19:40:33.184   02 Jun 2027 19:41:51.950            78.766                Irkutsk          2461.437
       159   02 Jun 2027 19:42:03.472   02 Jun 2027 19:43:55.909           112.437                Novosib          3513.656
       160   02 Jun 2027 19:54:09.846   02 Jun 2027 19:55:10.084            60.238                Sumatra          1882.437
       161   02 Jun 2027 19:57:25.602   02 Jun 2027 19:57:53.949            28.347                Sumatra           885.844
       162   02 Jun 2027 21:15:07.733   02 Jun 2027 21:15:25.539            17.806                Novosib           556.438
       163   02 Jun 2027 21:15:47.396   02 Jun 2027 21:16:40.646            53.250                Novosib          1664.063
       164   02 Jun 2027 21:17:40.362   02 Jun 2027 21:18:34.507            54.145                Novosib          1692.031
       165   02 Jun 2027 21:22:43.348   02 Jun 2027 21:26:10.199           206.851                  Delhi          6464.094
       166   02 Jun 2027 22:46:52.703   02 Jun 2027 22:47:14.045            21.342               Magadan2           666.937
       167   02 Jun 2027 22:48:24.479   02 Jun 2027 22:48:43.631            19.152               Magadan1           598.500
       168   02 Jun 2027 22:49:05.757   02 Jun 2027 22:53:07.162           241.405              Murmansk1          7543.906
       169   02 Jun 2027 22:54:23.341   02 Jun 2027 22:59:42.841           319.500                 Moscow          9984.375
       170   03 Jun 2027 00:24:47.506   03 Jun 2027 00:26:23.601            96.095              Murmansk2          3002.969
       171   03 Jun 2027 00:28:07.521   03 Jun 2027 00:28:59.020            51.499              Murmansk2          1609.344
       172   03 Jun 2027 00:29:36.627   03 Jun 2027 00:30:27.236            50.609              Murmansk1          1581.531
       173   03 Jun 2027 00:31:15.824   03 Jun 2027 00:31:21.557             5.733                 Moscow           179.156
       174   03 Jun 2027 00:32:08.587   03 Jun 2027 00:33:54.953           106.366                 Moscow          3323.937
       175   03 Jun 2027 00:52:43.499   03 Jun 2027 00:53:51.921            68.422               CapeTown          2138.188
       176   03 Jun 2027 00:55:58.896   03 Jun 2027 00:56:10.699            11.803               CapeTown           368.844
       177   03 Jun 2027 01:51:25.309   03 Jun 2027 01:52:48.845            83.536               Magadan2          2610.500
       178   03 Jun 2027 01:54:05.144   03 Jun 2027 01:54:07.972             2.828               Magadan1            88.375
       179   03 Jun 2027 01:54:13.510   03 Jun 2027 01:54:32.224            18.714               Magadan2           584.813
       180   03 Jun 2027 01:56:38.195   03 Jun 2027 01:56:55.726            17.531               Magadan1           547.844
       181   03 Jun 2027 01:59:11.095   03 Jun 2027 01:59:29.873            18.778               Magadan1           586.812
       182   03 Jun 2027 02:00:45.429   03 Jun 2027 02:01:11.094            25.665              Murmansk1           802.031
       183   03 Jun 2027 02:01:11.094   03 Jun 2027 02:02:15.127            64.033              Murmansk2          2001.031
       184   03 Jun 2027 02:03:58.789   03 Jun 2027 02:04:44.473            45.684                 Moscow          1427.625
       185   03 Jun 2027 02:05:20.941   03 Jun 2027 02:05:37.947            17.006                Novosib           531.437
       186   03 Jun 2027 02:07:41.231   03 Jun 2027 02:07:46.523             5.292                 Moscow           165.375
       187   03 Jun 2027 02:09:35.175   03 Jun 2027 02:09:36.220             1.045                 Moscow            32.656
       188   03 Jun 2027 02:10:10.362   03 Jun 2027 02:10:42.560            32.198                 Moscow          1006.187
       189   03 Jun 2027 02:28:24.117   03 Jun 2027 02:29:20.929            56.812               CapeTown          1775.375
       190   03 Jun 2027 02:36:30.273   03 Jun 2027 02:37:39.009            68.736               CapeTown          2148.000
       191   03 Jun 2027 03:30:55.851   03 Jun 2027 03:31:10.752            14.901               Magadan1           465.656
       192   03 Jun 2027 03:31:10.752   03 Jun 2027 03:31:46.993            36.241               Magadan2          1132.531
       193   03 Jun 2027 03:31:52.571   03 Jun 2027 03:32:01.143             8.572                Anadyr2           267.875
       194   03 Jun 2027 03:32:16.866   03 Jun 2027 03:33:11.812            54.946               Magadan1          1717.062
       195   03 Jun 2027 03:33:11.812   03 Jun 2027 03:36:04.940           173.128               Magadan2          5410.250
       196   03 Jun 2027 03:36:10.294   03 Jun 2027 03:37:28.523            78.229                Anadyr2          2444.656
       197   03 Jun 2027 04:19:09.619   03 Jun 2027 04:19:55.507            45.888            RioGallegos          1434.000
       198   03 Jun 2027 05:09:56.303   03 Jun 2027 05:10:45.940            49.637                Irkutsk          1551.156
       199   03 Jun 2027 05:11:00.833   03 Jun 2027 05:11:21.298            20.465                Anadyr2           639.531
       200   03 Jun 2027 05:11:38.063   03 Jun 2027 05:13:04.914            86.851               Magadan2          2714.094
       201   03 Jun 2027 06:44:36.871   03 Jun 2027 06:44:38.377             1.506               Magadan1            47.062
       202   03 Jun 2027 06:44:52.211   03 Jun 2027 06:44:54.446             2.235               Magadan2            69.844
       203   03 Jun 2027 06:44:54.446   03 Jun 2027 06:45:18.617            24.171               Magadan1           755.344
       204   03 Jun 2027 06:45:47.634   03 Jun 2027 06:46:36.583            48.949               Magadan1          1529.656
       205   03 Jun 2027 06:46:54.642   03 Jun 2027 06:47:30.857            36.215               Magadan2          1131.719
       206   03 Jun 2027 06:47:39.077   03 Jun 2027 06:48:15.297            36.220               Magadan2          1131.875
       207   03 Jun 2027 06:50:14.923   03 Jun 2027 06:50:39.939            25.016              Murmansk2           781.750
       208   03 Jun 2027 08:19:32.996   03 Jun 2027 08:19:48.178            15.182                Irkutsk           474.437
       209   03 Jun 2027 08:23:51.845   03 Jun 2027 08:24:20.095            28.250                Norilsk           882.813
       210   03 Jun 2027 08:24:24.017   03 Jun 2027 08:24:47.199            23.182                Norilsk           724.437
       211   03 Jun 2027 09:01:45.689   03 Jun 2027 09:02:48.425            62.736            RioGallegos          1960.500
       212   03 Jun 2027 09:36:00.655   03 Jun 2027 09:38:19.110           138.455                Sumatra          4326.719
       213   03 Jun 2027 09:56:45.076   03 Jun 2027 09:57:47.902            62.826                Novosib          1963.313
       214   03 Jun 2027 09:58:15.407   03 Jun 2027 09:59:30.171            74.764                Novosib          2336.375
       215   03 Jun 2027 09:59:36.760   03 Jun 2027 09:59:54.418            17.658                Novosib           551.812
       216   03 Jun 2027 10:00:17.006   03 Jun 2027 10:00:31.375            14.369                Novosib           449.031
       217   03 Jun 2027 11:21:36.254   03 Jun 2027 11:23:37.595           121.341                  Delhi          3791.906
       218   03 Jun 2027 11:25:02.994   03 Jun 2027 11:25:23.472            20.478                  Delhi           639.938
       219   03 Jun 2027 11:39:42.982   03 Jun 2027 11:40:02.708            19.726                Norilsk           616.438
       220   03 Jun 2027 13:03:32.918   03 Jun 2027 13:04:27.619            54.701                 Moscow          1709.406
       221   03 Jun 2027 13:06:58.578   03 Jun 2027 13:07:44.722            46.144              Murmansk1          1442.000
       222   03 Jun 2027 13:07:44.722   03 Jun 2027 13:08:51.471            66.749              Murmansk2          2085.906
       223   03 Jun 2027 13:09:19.897   03 Jun 2027 13:09:41.446            21.549              Murmansk1           673.406
       224   03 Jun 2027 13:09:45.818   03 Jun 2027 13:10:09.955            24.137              Murmansk2           754.281
       225   03 Jun 2027 13:11:15.677   03 Jun 2027 13:11:43.420            27.743              Murmansk1           866.969
       226   03 Jun 2027 13:15:43.431   03 Jun 2027 13:16:04.122            20.691              Murmansk1           646.594
       227   03 Jun 2027 13:21:56.340   03 Jun 2027 13:28:44.967           408.627                Anadyr1         12769.594
       228   03 Jun 2027 14:45:32.225   03 Jun 2027 14:45:40.405             8.180              Murmansk2           255.625
       229   03 Jun 2027 14:45:50.635   03 Jun 2027 14:46:06.180            15.545              Murmansk2           485.781
       230   03 Jun 2027 14:47:13.665   03 Jun 2027 14:47:19.971             6.306              Murmansk1           197.062
       231   03 Jun 2027 14:47:38.699   03 Jun 2027 14:49:03.680            84.981              Murmansk1          2655.656
       232   03 Jun 2027 14:57:07.661   03 Jun 2027 14:57:35.953            28.292                Anadyr2           884.125
       233   03 Jun 2027 14:58:27.625   03 Jun 2027 14:58:54.305            26.680                Anadyr1           833.750
       234   03 Jun 2027 14:59:10.720   03 Jun 2027 14:59:43.419            32.699                Anadyr2          1021.844
       235   03 Jun 2027 15:01:03.413   03 Jun 2027 15:01:15.452            12.039                Anadyr2           376.219
       236   03 Jun 2027 15:01:57.461   03 Jun 2027 15:04:49.298           171.837               Magadan2          5369.906
       237   03 Jun 2027 15:04:49.298   03 Jun 2027 15:05:28.798            39.500               Magadan1          1234.375
       238   03 Jun 2027 16:32:59.115   03 Jun 2027 16:35:33.867           154.752                Anadyr1          4836.000
       239   03 Jun 2027 16:36:08.467   03 Jun 2027 16:40:04.796           236.329               Magadan2          7385.281
       240   03 Jun 2027 18:08:53.112   03 Jun 2027 18:10:26.493            93.381                Anadyr1          2918.156
       241   03 Jun 2027 18:10:37.824   03 Jun 2027 18:11:59.405            81.581                Anadyr2          2549.406
       242   03 Jun 2027 18:12:25.611   03 Jun 2027 18:15:13.856           168.245                Norilsk          5257.656
       243   03 Jun 2027 19:03:18.613   03 Jun 2027 19:06:57.865           219.252            RioGallegos          6851.625
       244   03 Jun 2027 19:46:45.000   03 Jun 2027 19:48:27.662           102.662                Norilsk          3208.188
       245   03 Jun 2027 19:50:53.955   03 Jun 2027 19:51:26.317            32.362                Irkutsk          1011.313
       246   03 Jun 2027 19:51:34.575   03 Jun 2027 19:52:18.360            43.785                Norilsk          1368.281
       247   03 Jun 2027 19:52:43.366   03 Jun 2027 19:58:19.774           336.408                Novosib         10512.750
       248   03 Jun 2027 20:06:16.565   03 Jun 2027 20:07:25.433            68.868                Sumatra          2152.125
       249   03 Jun 2027 20:16:44.741   03 Jun 2027 20:17:07.595            22.854                Sumatra           714.187
       250   03 Jun 2027 21:26:33.796   03 Jun 2027 21:27:00.492            26.696                Irkutsk           834.250
       251   03 Jun 2027 21:27:11.488   03 Jun 2027 21:28:33.728            82.240                Novosib          2570.000
       252   03 Jun 2027 21:30:52.861   03 Jun 2027 21:32:22.951            90.090                Novosib          2815.312
       253   03 Jun 2027 21:34:24.754   03 Jun 2027 21:35:53.079            88.325                  Delhi          2760.156
       254   03 Jun 2027 21:36:14.605   03 Jun 2027 21:38:05.114           110.509                  Delhi          3453.406
       255   03 Jun 2027 22:58:42.887   03 Jun 2027 22:58:49.669             6.782               Magadan2           211.938
       256   03 Jun 2027 22:59:19.174   03 Jun 2027 22:59:53.195            34.021               Magadan2          1063.156
       257   03 Jun 2027 23:01:02.782   03 Jun 2027 23:03:14.256           131.474              Murmansk1          4108.563
       258   03 Jun 2027 23:03:46.810   03 Jun 2027 23:06:39.896           173.086              Murmansk2          5408.937
       259   03 Jun 2027 23:07:00.518   03 Jun 2027 23:10:22.744           202.226                 Moscow          6319.562
       260   04 Jun 2027 00:33:02.146   04 Jun 2027 00:33:07.400             5.254               Magadan2           164.188
       261   04 Jun 2027 00:36:48.855   04 Jun 2027 00:37:19.994            31.139              Murmansk2           973.094
       262   04 Jun 2027 00:37:19.994   04 Jun 2027 00:38:22.188            62.194              Murmansk1          1943.562
       263   04 Jun 2027 00:38:52.054   04 Jun 2027 00:41:15.788           143.734                Novosib          4491.688
       264   04 Jun 2027 00:44:14.336   04 Jun 2027 00:44:44.582            30.246                 Moscow           945.187
       265   04 Jun 2027 01:04:24.846   04 Jun 2027 01:05:39.402            74.556               CapeTown          2329.875
       266   04 Jun 2027 01:05:56.392   04 Jun 2027 01:06:48.289            51.897               CapeTown          1621.781
       267   04 Jun 2027 02:01:40.027   04 Jun 2027 02:02:06.671            26.644                Anadyr1           832.625
       268   04 Jun 2027 02:02:40.110   04 Jun 2027 02:02:50.128            10.018                Anadyr2           313.063
       269   04 Jun 2027 02:03:00.837   04 Jun 2027 02:04:56.635           115.798               Magadan1          3618.687
       270   04 Jun 2027 02:09:57.246   04 Jun 2027 02:10:27.638            30.392                Norilsk           949.750
       271   04 Jun 2027 02:12:46.967   04 Jun 2027 02:14:16.876            89.909              Murmansk1          2809.656
       272   04 Jun 2027 02:15:13.190   04 Jun 2027 02:15:29.289            16.099              Murmansk2           503.094
       273   04 Jun 2027 02:15:59.024   04 Jun 2027 02:16:06.394             7.370              Murmansk2           230.313
       274   04 Jun 2027 02:16:20.167   04 Jun 2027 02:16:35.183            15.016                 Moscow           469.250
       275   04 Jun 2027 02:17:16.296   04 Jun 2027 02:17:30.250            13.954                 Moscow           436.062
       276   04 Jun 2027 02:18:57.683   04 Jun 2027 02:19:10.707            13.024                 Moscow           407.000
       277   04 Jun 2027 02:21:56.810   04 Jun 2027 02:22:17.001            20.191                 Moscow           630.969
       278   04 Jun 2027 02:40:49.165   04 Jun 2027 02:41:23.042            33.877               CapeTown          1058.656
       279   04 Jun 2027 02:44:02.449   04 Jun 2027 02:44:36.795            34.346               CapeTown          1073.313
       280   04 Jun 2027 02:46:25.768   04 Jun 2027 02:47:12.929            47.161               CapeTown          1473.781
       281   04 Jun 2027 03:40:05.457   04 Jun 2027 03:40:11.530             6.073                Anadyr1           189.781
       282   04 Jun 2027 03:41:38.718   04 Jun 2027 03:42:13.413            34.695                Anadyr1          1084.219
       283   04 Jun 2027 03:42:27.717   04 Jun 2027 03:42:55.523            27.806                Anadyr1           868.938
       284   04 Jun 2027 03:43:18.048   04 Jun 2027 03:47:46.650           268.602                Anadyr2          8393.813
       285   04 Jun 2027 03:47:46.650   04 Jun 2027 03:47:51.146             4.496                Anadyr1           140.500
       286   04 Jun 2027 03:48:05.626   04 Jun 2027 03:49:12.081            66.455               Magadan1          2076.719
       287   04 Jun 2027 05:19:55.693   04 Jun 2027 05:20:51.204            55.511                Irkutsk          1734.719
       288   04 Jun 2027 05:21:35.352   04 Jun 2027 05:21:53.083            17.731                Anadyr1           554.094
       289   04 Jun 2027 05:22:18.772   04 Jun 2027 05:25:04.283           165.511               Magadan1          5172.219
       290   04 Jun 2027 06:54:49.991   04 Jun 2027 06:55:08.400            18.409               Magadan1           575.281
       291   04 Jun 2027 06:56:02.235   04 Jun 2027 06:56:09.039             6.804               Magadan2           212.625
       292   04 Jun 2027 06:56:30.876   04 Jun 2027 06:56:54.205            23.329               Magadan2           729.031
       293   04 Jun 2027 06:56:57.779   04 Jun 2027 06:57:22.228            24.449               Magadan1           764.031
       294   04 Jun 2027 06:58:35.611   04 Jun 2027 06:58:57.499            21.888               Magadan1           684.000
       295   04 Jun 2027 06:59:11.997   04 Jun 2027 06:59:16.078             4.081               Magadan2           127.531
       296   04 Jun 2027 06:59:33.436   04 Jun 2027 07:00:01.590            28.154               Magadan2           879.813
       297   04 Jun 2027 07:01:24.159   04 Jun 2027 07:01:25.957             1.798                Norilsk            56.187
       298   04 Jun 2027 07:40:47.274   04 Jun 2027 07:41:02.635            15.361            RioGallegos           480.031
       299   04 Jun 2027 08:13:43.933   04 Jun 2027 08:14:08.162            24.229                Sumatra           757.156
       300   04 Jun 2027 08:22:03.033   04 Jun 2027 08:22:08.908             5.875                Sumatra           183.594
       301   04 Jun 2027 08:32:45.417   04 Jun 2027 08:33:21.783            36.366                Irkutsk          1136.437
       302   04 Jun 2027 08:35:39.347   04 Jun 2027 08:35:41.326             1.979                Novosib            61.844
       303   04 Jun 2027 08:36:07.801   04 Jun 2027 08:36:11.227             3.426                Irkutsk           107.063
       304   04 Jun 2027 08:40:06.593   04 Jun 2027 08:40:13.492             6.899                Norilsk           215.594
       305   04 Jun 2027 09:14:30.482   04 Jun 2027 09:14:49.639            19.157            RioGallegos           598.656
       306   04 Jun 2027 09:15:32.792   04 Jun 2027 09:16:01.226            28.434            RioGallegos           888.562
       307   04 Jun 2027 09:18:24.820   04 Jun 2027 09:18:41.837            17.017            RioGallegos           531.781
       308   04 Jun 2027 09:49:00.770   04 Jun 2027 09:50:02.397            61.627                Sumatra          1925.844
       309   04 Jun 2027 09:52:38.171   04 Jun 2027 09:52:53.478            15.307                Sumatra           478.344
       310   04 Jun 2027 10:03:51.516   04 Jun 2027 10:04:15.870            24.354                  Delhi           761.062
       311   04 Jun 2027 10:09:43.363   04 Jun 2027 10:09:53.732            10.369                Novosib           324.031
       312   04 Jun 2027 10:10:11.836   04 Jun 2027 10:11:17.942            66.106                Novosib          2065.813
       313   04 Jun 2027 10:11:31.184   04 Jun 2027 10:12:02.395            31.211                Norilsk           975.344
       314   04 Jun 2027 10:12:04.884   04 Jun 2027 10:12:34.725            29.841                Novosib           932.531
       315   04 Jun 2027 11:35:19.383   04 Jun 2027 11:37:53.781           154.398                  Delhi          4824.938
       316   04 Jun 2027 11:49:57.497   04 Jun 2027 11:50:20.550            23.053                Norilsk           720.406
       317   04 Jun 2027 12:54:25.599   04 Jun 2027 12:55:50.834            85.235               CapeTown          2663.594
       318   04 Jun 2027 13:00:47.347   04 Jun 2027 13:01:04.888            17.541               CapeTown           548.156
       319   04 Jun 2027 13:15:51.920   04 Jun 2027 13:16:30.953            39.033                 Moscow          1219.781
       320   04 Jun 2027 13:18:33.164   04 Jun 2027 13:19:06.174            33.010                 Moscow          1031.562
       321   04 Jun 2027 13:19:12.178   04 Jun 2027 13:20:38.930            86.752              Murmansk1          2711.000
       322   04 Jun 2027 13:21:20.706   04 Jun 2027 13:21:47.412            26.706              Murmansk2           834.563
       323   04 Jun 2027 13:22:06.540   04 Jun 2027 13:22:25.306            18.766              Murmansk2           586.437
       324   04 Jun 2027 13:23:06.070   04 Jun 2027 13:23:17.379            11.309              Murmansk1           353.406
       325   04 Jun 2027 13:23:30.460   04 Jun 2027 13:24:07.977            37.517              Murmansk2          1172.406
       326   04 Jun 2027 13:29:40.807   04 Jun 2027 13:29:41.815             1.008              Murmansk1            31.500
       327   04 Jun 2027 13:30:55.924   04 Jun 2027 13:31:21.185            25.261              Murmansk2           789.406
       328   04 Jun 2027 13:33:45.964   04 Jun 2027 13:37:36.314           230.350                Anadyr2          7198.437
       329   04 Jun 2027 13:38:41.769   04 Jun 2027 13:39:06.464            24.695                Anadyr1           771.719
       330   04 Jun 2027 13:39:21.889   04 Jun 2027 13:40:46.257            84.368                Anadyr1          2636.500
       331   04 Jun 2027 15:01:27.136   04 Jun 2027 15:01:34.813             7.677              Murmansk1           239.906
       332   04 Jun 2027 15:03:27.348   04 Jun 2027 15:04:06.899            39.551              Murmansk1          1235.969
       333   04 Jun 2027 15:09:07.532   04 Jun 2027 15:10:17.801            70.269                Anadyr2          2195.906
       334   04 Jun 2027 15:10:22.089   04 Jun 2027 15:11:16.160            54.071                Anadyr1          1689.719
       335   04 Jun 2027 15:13:09.902   04 Jun 2027 15:16:18.990           189.088               Magadan2          5909.000
       336   04 Jun 2027 15:16:36.369   04 Jun 2027 15:18:53.562           137.193               Magadan1          4287.281
       337   04 Jun 2027 16:45:00.491   04 Jun 2027 16:45:19.327            18.836                Anadyr2           588.625
       338   04 Jun 2027 16:45:46.976   04 Jun 2027 16:46:01.271            14.295                Anadyr2           446.719
       339   04 Jun 2027 16:46:05.013   04 Jun 2027 16:46:32.288            27.275                Anadyr2           852.344
       340   04 Jun 2027 16:47:26.859   04 Jun 2027 16:50:15.367           168.508               Magadan1          5265.875
       341   04 Jun 2027 16:53:10.867   04 Jun 2027 16:53:49.440            38.573               Magadan1          1205.406
       342   04 Jun 2027 18:20:53.403   04 Jun 2027 18:22:27.788            94.385                Anadyr1          2949.531
       343   04 Jun 2027 18:22:38.316   04 Jun 2027 18:24:49.846           131.530                Anadyr2          4110.313
       344   04 Jun 2027 18:25:08.234   04 Jun 2027 18:27:10.385           122.151                Norilsk          3817.219
       345   04 Jun 2027 18:29:32.412   04 Jun 2027 18:31:58.992           146.580                Irkutsk          4580.625
       346   04 Jun 2027 19:15:38.956   04 Jun 2027 19:16:40.833            61.877            RioGallegos          1933.656
       347   04 Jun 2027 19:18:01.420   04 Jun 2027 19:18:10.435             9.015            RioGallegos           281.719
       348   04 Jun 2027 19:56:23.734   04 Jun 2027 19:56:28.516             4.782                Anadyr1           149.437
       349   04 Jun 2027 19:58:45.675   04 Jun 2027 20:00:24.821            99.146                Norilsk          3098.313
       350   04 Jun 2027 20:00:49.717   04 Jun 2027 20:01:46.543            56.826               Magadan1          1775.812
       351   04 Jun 2027 20:02:56.596   04 Jun 2027 20:04:07.375            70.779                Norilsk          2211.844
       352   04 Jun 2027 20:04:10.213   04 Jun 2027 20:08:36.747           266.534                Novosib          8329.187
       353   04 Jun 2027 20:08:54.539   04 Jun 2027 20:10:24.052            89.513                Novosib          2797.281
       354   04 Jun 2027 20:19:01.490   04 Jun 2027 20:19:20.987            19.497                Sumatra           609.281
       355   04 Jun 2027 21:38:37.163   04 Jun 2027 21:38:47.738            10.575                Irkutsk           330.469
       356   04 Jun 2027 21:38:54.812   04 Jun 2027 21:40:42.054           107.242                Novosib          3351.312
       357   04 Jun 2027 21:43:21.204   04 Jun 2027 21:44:40.650            79.446                Novosib          2482.688
       358   04 Jun 2027 21:46:11.575   04 Jun 2027 21:47:45.455            93.880                  Delhi          2933.750
       359   04 Jun 2027 21:48:37.945   04 Jun 2027 21:49:57.652            79.707                  Delhi          2490.844
       360   04 Jun 2027 23:10:29.152   04 Jun 2027 23:10:50.108            20.956               Magadan2           654.875
       361   04 Jun 2027 23:11:21.896   04 Jun 2027 23:12:10.117            48.221               Magadan2          1506.906
       362   04 Jun 2027 23:12:46.285   04 Jun 2027 23:12:59.784            13.499               Magadan2           421.844
       363   04 Jun 2027 23:13:00.932   04 Jun 2027 23:15:00.671           119.739              Murmansk2          3741.844
       364   04 Jun 2027 23:15:47.103   04 Jun 2027 23:18:06.913           139.810              Murmansk1          4369.062
       365   04 Jun 2027 23:18:18.294   04 Jun 2027 23:20:50.914           152.620                 Moscow          4769.375
       366   04 Jun 2027 23:21:04.480   04 Jun 2027 23:21:13.862             9.382              Murmansk2           293.188
       367   04 Jun 2027 23:23:57.463   04 Jun 2027 23:24:47.435            49.972                 Moscow          1561.625
       368   04 Jun 2027 23:46:12.828   04 Jun 2027 23:46:41.262            28.434               CapeTown           888.563
       369   04 Jun 2027 23:47:57.049   04 Jun 2027 23:48:28.499            31.450               CapeTown           982.812
       370   04 Jun 2027 23:49:16.843   04 Jun 2027 23:49:18.311             1.468               CapeTown            45.875
       371   05 Jun 2027 00:46:18.625   05 Jun 2027 00:46:39.258            20.633               Magadan2           644.781
       372   05 Jun 2027 00:48:50.346   05 Jun 2027 00:50:22.560            92.214              Murmansk1          2881.687
       373   05 Jun 2027 00:50:59.664   05 Jun 2027 00:52:52.416           112.752                Novosib          3523.500
       374   05 Jun 2027 00:55:06.745   05 Jun 2027 00:55:14.422             7.677                 Moscow           239.906
       375   05 Jun 2027 00:57:40.484   05 Jun 2027 00:57:45.685             5.201                 Moscow           162.531
       376   05 Jun 2027 00:59:33.746   05 Jun 2027 00:59:49.089            15.343                 Moscow           479.469
       377   05 Jun 2027 01:03:40.473   05 Jun 2027 01:04:04.000            23.527                 Moscow           735.219
       378   05 Jun 2027 01:16:11.570   05 Jun 2027 01:17:50.015            98.445               CapeTown          3076.406
       379   05 Jun 2027 01:25:01.675   05 Jun 2027 01:25:39.153            37.478               CapeTown          1171.188
       380   05 Jun 2027 02:13:40.390   05 Jun 2027 02:13:56.059            15.669                Anadyr2           489.656
       381   05 Jun 2027 02:14:05.167   05 Jun 2027 02:14:19.473            14.306                Anadyr1           447.063
       382   05 Jun 2027 02:14:38.044   05 Jun 2027 02:16:58.464           140.420               Magadan1          4388.125
       383   05 Jun 2027 02:23:49.987   05 Jun 2027 02:23:51.314             1.327                Norilsk            41.469
       384   05 Jun 2027 02:24:48.402   05 Jun 2027 02:25:59.644            71.242              Murmansk1          2226.313
       385   05 Jun 2027 02:26:11.970   05 Jun 2027 02:26:18.640             6.670              Murmansk1           208.438
       386   05 Jun 2027 02:27:58.284   05 Jun 2027 02:28:49.288            51.004              Murmansk2          1593.875
       387   05 Jun 2027 02:29:39.322   05 Jun 2027 02:29:43.032             3.710                 Moscow           115.937
       388   05 Jun 2027 02:30:37.248   05 Jun 2027 02:30:39.497             2.249                 Moscow            70.281
       389   05 Jun 2027 02:30:47.820   05 Jun 2027 02:32:03.449            75.629                 Moscow          2363.406
       390   05 Jun 2027 02:53:22.579   05 Jun 2027 02:53:54.286            31.707               CapeTown           990.844
       391   05 Jun 2027 02:59:05.815   05 Jun 2027 02:59:07.667             1.852               CapeTown            57.875
       392   05 Jun 2027 02:59:43.906   05 Jun 2027 03:00:16.341            32.435               CapeTown          1013.594
       393   05 Jun 2027 03:53:20.111   05 Jun 2027 03:54:19.830            59.719               Magadan2          1866.219
       394   05 Jun 2027 03:54:49.858   05 Jun 2027 03:55:14.185            24.327               Magadan1           760.219
       395   05 Jun 2027 03:55:14.284   05 Jun 2027 03:56:43.783            89.499               Magadan1          2796.844
       396   05 Jun 2027 03:56:57.850   05 Jun 2027 03:59:10.134           132.284                Anadyr1          4133.875
       397   05 Jun 2027 03:59:10.134   05 Jun 2027 03:59:16.964             6.830                Anadyr2           213.437
       398   05 Jun 2027 04:00:02.778   05 Jun 2027 04:00:40.948            38.170                Anadyr1          1192.813
       399   05 Jun 2027 04:41:50.219   05 Jun 2027 04:42:54.594            64.375            RioGallegos          2011.719
       400   05 Jun 2027 04:43:34.205   05 Jun 2027 04:44:03.498            29.293            RioGallegos           915.406
       401   05 Jun 2027 05:31:10.023   05 Jun 2027 05:35:44.381           274.358                Irkutsk          8573.688
       402   05 Jun 2027 05:36:41.470   05 Jun 2027 05:37:02.983            21.513               Magadan1           672.281
       403   05 Jun 2027 07:07:11.472   05 Jun 2027 07:08:19.324            67.852               Magadan2          2120.375
       404   05 Jun 2027 07:08:38.693   05 Jun 2027 07:08:55.925            17.232               Magadan2           538.500
       405   05 Jun 2027 07:09:28.434   05 Jun 2027 07:10:33.873            65.439               Magadan1          2044.969
       406   05 Jun 2027 07:10:55.112   05 Jun 2027 07:11:30.103            34.991               Magadan2          1093.469
       407   05 Jun 2027 07:12:06.162   05 Jun 2027 07:12:29.569            23.407                Norilsk           731.469
       408   05 Jun 2027 07:12:41.858   05 Jun 2027 07:13:03.503            21.645                Novosib           676.406
       409   05 Jun 2027 07:53:03.646   05 Jun 2027 07:53:51.505            47.859            RioGallegos          1495.594
       410   05 Jun 2027 08:30:51.736   05 Jun 2027 08:32:02.999            71.263                Sumatra          2226.969
       411   05 Jun 2027 08:44:15.271   05 Jun 2027 08:44:44.695            29.424                Irkutsk           919.500
       412   05 Jun 2027 08:45:32.698   05 Jun 2027 08:45:45.290            12.592                Norilsk           393.500
       413   05 Jun 2027 08:46:17.836   05 Jun 2027 08:46:24.977             7.141                Irkutsk           223.156
       414   05 Jun 2027 08:46:28.864   05 Jun 2027 08:47:06.900            38.036                Irkutsk          1188.625
       415   05 Jun 2027 08:47:28.486   05 Jun 2027 08:48:14.384            45.898                Irkutsk          1434.312
       416   05 Jun 2027 08:48:29.585   05 Jun 2027 08:48:37.166             7.581                Irkutsk           236.906
       417   05 Jun 2027 08:49:20.691   05 Jun 2027 08:50:15.978            55.287              Murmansk2          1727.719
       418   05 Jun 2027 09:27:58.490   05 Jun 2027 09:28:17.274            18.784            RioGallegos           587.000
       419   05 Jun 2027 10:03:03.743   05 Jun 2027 10:04:08.526            64.783                Sumatra          2024.469
       420   05 Jun 2027 10:06:42.784   05 Jun 2027 10:07:12.677            29.893                  Delhi           934.156
       421   05 Jun 2027 10:23:32.991   05 Jun 2027 10:23:47.011            14.020                Norilsk           438.125
       422   05 Jun 2027 10:23:58.660   05 Jun 2027 10:24:18.889            20.229                Novosib           632.156
       423   05 Jun 2027 10:24:41.098   05 Jun 2027 10:25:15.023            33.925                Novosib          1060.156
       424   05 Jun 2027 12:01:34.112   05 Jun 2027 12:02:08.969            34.857                Norilsk          1089.281
       425   05 Jun 2027 12:03:24.042   05 Jun 2027 12:04:17.064            53.022                Norilsk          1656.937
       426   05 Jun 2027 13:05:52.242   05 Jun 2027 13:06:36.696            44.454               CapeTown          1389.187
       427   05 Jun 2027 13:08:32.610   05 Jun 2027 13:09:05.806            33.196               CapeTown          1037.375
       428   05 Jun 2027 13:10:54.653   05 Jun 2027 13:12:49.551           114.898               CapeTown          3590.563
       429   05 Jun 2027 13:14:19.570   05 Jun 2027 13:15:07.054            47.484               CapeTown          1483.875
       430   05 Jun 2027 13:31:27.749   05 Jun 2027 13:32:08.876            41.127              Murmansk2          1285.219
       431   05 Jun 2027 13:32:12.377   05 Jun 2027 13:32:38.935            26.558              Murmansk1           829.938
       432   05 Jun 2027 13:33:21.756   05 Jun 2027 13:33:48.905            27.149              Murmansk2           848.406
       433   05 Jun 2027 13:35:14.607   05 Jun 2027 13:35:19.128             4.521              Murmansk2           141.281
       434   05 Jun 2027 13:35:21.223   05 Jun 2027 13:35:30.510             9.287              Murmansk2           290.219
       435   05 Jun 2027 13:36:03.038   05 Jun 2027 13:36:31.749            28.711              Murmansk1           897.219
       436   05 Jun 2027 13:37:59.277   05 Jun 2027 13:38:11.754            12.477              Murmansk2           389.906
       437   05 Jun 2027 13:38:22.955   05 Jun 2027 13:38:40.809            17.854              Murmansk1           557.938
       438   05 Jun 2027 13:39:55.781   05 Jun 2027 13:40:58.649            62.868              Murmansk2          1964.625
       439   05 Jun 2027 13:45:38.458   05 Jun 2027 13:48:01.843           143.385                Anadyr1          4480.781
       440   05 Jun 2027 13:48:29.245   05 Jun 2027 13:48:35.969             6.724                Anadyr1           210.125
       441   05 Jun 2027 13:48:44.739   05 Jun 2027 13:50:30.214           105.475                Anadyr2          3296.094
       442   05 Jun 2027 15:13:07.257   05 Jun 2027 15:13:28.246            20.989              Murmansk2           655.906
       443   05 Jun 2027 15:13:28.246   05 Jun 2027 15:13:52.635            24.389              Murmansk1           762.156
       444   05 Jun 2027 15:16:42.082   05 Jun 2027 15:16:57.735            15.653              Murmansk1           489.156
       445   05 Jun 2027 15:18:55.041   05 Jun 2027 15:19:07.373            12.332              Murmansk2           385.375
       446   05 Jun 2027 15:21:07.782   05 Jun 2027 15:22:48.304           100.522                Anadyr1          3141.312
       447   05 Jun 2027 15:23:19.584   05 Jun 2027 15:23:22.788             3.204                Anadyr1           100.125
       448   05 Jun 2027 15:23:37.897   05 Jun 2027 15:23:51.456            13.559                Anadyr2           423.719
       449   05 Jun 2027 15:23:54.988   05 Jun 2027 15:24:09.844            14.856                Anadyr2           464.250
       450   05 Jun 2027 15:24:23.714   05 Jun 2027 15:25:17.231            53.517                Anadyr2          1672.406
       451   05 Jun 2027 15:26:14.243   05 Jun 2027 15:31:54.894           340.651               Magadan1         10645.344
       452   05 Jun 2027 16:59:24.858   05 Jun 2027 17:00:15.177            50.319               Magadan1          1572.469
       453   05 Jun 2027 17:00:15.177   05 Jun 2027 17:00:58.887            43.710               Magadan2          1365.937
       454   05 Jun 2027 17:02:27.175   05 Jun 2027 17:02:36.392             9.217               Magadan1           288.031
       455   05 Jun 2027 17:07:11.389   05 Jun 2027 17:07:12.506             1.117               Magadan1            34.906
       456   05 Jun 2027 17:09:40.005   05 Jun 2027 17:10:09.547            29.542               Magadan2           923.187
       457   05 Jun 2027 18:32:53.365   05 Jun 2027 18:36:20.052           206.687                Anadyr2          6458.969
       458   05 Jun 2027 18:37:45.669   05 Jun 2027 18:39:08.267            82.598                Norilsk          2581.187
       459   05 Jun 2027 18:39:31.926   05 Jun 2027 18:41:10.419            98.493                Norilsk          3077.906
       460   05 Jun 2027 18:41:38.691   05 Jun 2027 18:43:43.280           124.589                Irkutsk          3893.406
       461   05 Jun 2027 18:44:37.927   05 Jun 2027 18:45:03.090            25.163                Irkutsk           786.344
       462   05 Jun 2027 18:46:32.358   05 Jun 2027 18:47:22.773            50.415                Irkutsk          1575.469
       463   05 Jun 2027 18:57:02.615   05 Jun 2027 18:58:57.997           115.382                Sumatra          3605.687
       464   05 Jun 2027 19:01:09.329   05 Jun 2027 19:01:40.816            31.487                Sumatra           983.969
       465   05 Jun 2027 20:11:57.369   05 Jun 2027 20:12:21.976            24.607                Norilsk           768.969
       466   05 Jun 2027 20:14:45.955   05 Jun 2027 20:16:46.124           120.169                Irkutsk          3755.281
       467   05 Jun 2027 20:17:13.486   05 Jun 2027 20:19:18.459           124.973                Novosib          3905.406
       468   05 Jun 2027 20:21:05.007   05 Jun 2027 20:22:27.027            82.020                Novosib          2563.125
       469   05 Jun 2027 20:28:27.969   05 Jun 2027 20:28:52.209            24.240                Sumatra           757.500
       470   05 Jun 2027 20:36:17.865   05 Jun 2027 20:36:58.644            40.779                Sumatra          1274.344
       471   05 Jun 2027 21:47:21.008   05 Jun 2027 21:48:20.555            59.547               Magadan2          1860.844
       472   05 Jun 2027 21:50:27.200   05 Jun 2027 21:53:16.421           169.221              Murmansk1          5288.156
       473   05 Jun 2027 21:53:37.414   05 Jun 2027 21:53:44.609             7.195                Novosib           224.844
       474   05 Jun 2027 21:58:02.823   05 Jun 2027 21:59:32.375            89.552                  Delhi          2798.500
       475   05 Jun 2027 21:59:57.197   05 Jun 2027 22:01:10.607            73.410                  Delhi          2294.063
       476   05 Jun 2027 22:10:16.556   05 Jun 2027 22:10:18.418             1.862                  Delhi            58.188
       477   05 Jun 2027 23:22:11.109   05 Jun 2027 23:22:21.306            10.197               Magadan2           318.656
       478   05 Jun 2027 23:22:21.306   05 Jun 2027 23:22:50.273            28.967               Magadan1           905.219
       479   05 Jun 2027 23:23:24.574   05 Jun 2027 23:23:28.015             3.441               Magadan1           107.531
       480   05 Jun 2027 23:23:53.188   05 Jun 2027 23:24:29.415            36.227               Magadan2          1132.094
       481   05 Jun 2027 23:24:48.160   05 Jun 2027 23:24:53.972             5.812               Magadan1           181.625
       482   05 Jun 2027 23:24:59.929   05 Jun 2027 23:26:51.935           112.006              Murmansk1          3500.188
