uniorb/output/strategy_4/Drop/Drop_KinoSat_110803.txt

KinoSat_110803
-------------------------
    Access    *     Start Time (UTCG)     *     Stop Time (UTCG)  *   Duration (s)        *       Station  *  Data (Mbytes)
         1   01 Jun 2027 03:55:41.456   01 Jun 2027 03:57:31.173           109.717                Anadyr2          3428.656
         2   01 Jun 2027 03:57:50.818   01 Jun 2027 04:01:21.256           210.438                Anadyr2          6576.187
         3   01 Jun 2027 05:29:26.431   01 Jun 2027 05:29:44.999            18.568               Magadan1           580.250
         4   01 Jun 2027 05:29:53.416   01 Jun 2027 05:30:23.870            30.454                Anadyr2           951.688
         5   01 Jun 2027 05:30:45.352   01 Jun 2027 05:31:32.511            47.159               Magadan2          1473.719
         6   01 Jun 2027 05:31:32.511   01 Jun 2027 05:32:28.012            55.501               Magadan1          1734.406
         7   01 Jun 2027 05:32:44.561   01 Jun 2027 05:36:55.582           251.021               Magadan2          7844.406
         8   01 Jun 2027 06:13:40.639   01 Jun 2027 06:14:34.960            54.321            RioGallegos          1697.531
         9   01 Jun 2027 06:52:48.758   01 Jun 2027 06:53:43.673            54.915                Sumatra          1716.094
        10   01 Jun 2027 07:07:21.406   01 Jun 2027 07:09:41.309           139.903                Irkutsk          4371.969
        11   01 Jun 2027 07:09:47.460   01 Jun 2027 07:10:06.574            19.114                Irkutsk           597.313
        12   01 Jun 2027 07:10:15.749   01 Jun 2027 07:12:26.159           130.410                Irkutsk          4075.313
        13   01 Jun 2027 07:12:47.818   01 Jun 2027 07:14:24.515            96.697                Norilsk          3021.781
        14   01 Jun 2027 07:16:37.185   01 Jun 2027 07:16:58.858            21.673              Murmansk1           677.281
        15   01 Jun 2027 07:47:35.122   01 Jun 2027 07:48:56.697            81.575            RioGallegos          2549.219
        16   01 Jun 2027 07:51:56.499   01 Jun 2027 07:52:13.140            16.641            RioGallegos           520.031
        17   01 Jun 2027 07:52:26.188   01 Jun 2027 07:52:28.482             2.294            RioGallegos            71.688
        18   01 Jun 2027 08:22:20.822   01 Jun 2027 08:23:08.228            47.406                Sumatra          1481.438
        19   01 Jun 2027 08:23:53.902   01 Jun 2027 08:25:18.291            84.389                Sumatra          2637.156
        20   01 Jun 2027 08:32:51.026   01 Jun 2027 08:34:01.885            70.859                  Delhi          2214.344
        21   01 Jun 2027 08:37:37.371   01 Jun 2027 08:37:50.895            13.524                  Delhi           422.625
        22   01 Jun 2027 08:44:37.209   01 Jun 2027 08:45:58.052            80.843                Irkutsk          2526.344
        23   01 Jun 2027 08:46:09.581   01 Jun 2027 08:47:37.463            87.882                Novosib          2746.313
        24   01 Jun 2027 08:47:48.655   01 Jun 2027 08:48:29.926            41.271              Murmansk2          1289.719
        25   01 Jun 2027 08:48:43.928   01 Jun 2027 08:50:15.926            91.998              Murmansk2          2874.937
        26   01 Jun 2027 08:50:16.989   01 Jun 2027 08:50:36.111            19.122                 Moscow           597.563
        27   01 Jun 2027 09:27:18.887   01 Jun 2027 09:27:50.975            32.088            RioGallegos          1002.750
        28   01 Jun 2027 09:28:56.140   01 Jun 2027 09:29:48.715            52.575            RioGallegos          1642.969
        29   01 Jun 2027 10:02:54.174   01 Jun 2027 10:04:42.253           108.079                Sumatra          3377.469
        30   01 Jun 2027 10:06:35.294   01 Jun 2027 10:08:37.049           121.755                  Delhi          3804.844
        31   01 Jun 2027 10:22:13.461   01 Jun 2027 10:23:01.823            48.362                 Moscow          1511.312
        32   01 Jun 2027 10:23:11.436   01 Jun 2027 10:24:09.860            58.424                Norilsk          1825.750
        33   01 Jun 2027 10:24:11.245   01 Jun 2027 10:25:05.697            54.452                Novosib          1701.625
        34   01 Jun 2027 11:55:23.657   01 Jun 2027 11:56:38.168            74.511              Murmansk2          2328.469
        35   01 Jun 2027 11:56:38.168   01 Jun 2027 11:57:29.808            51.640              Murmansk1          1613.750
        36   01 Jun 2027 11:57:43.359   01 Jun 2027 11:58:43.275            59.916              Murmansk1          1872.375
        37   01 Jun 2027 11:58:43.379   01 Jun 2027 12:00:56.399           133.020                 Moscow          4156.875
        38   01 Jun 2027 12:02:33.567   01 Jun 2027 12:02:37.618             4.051                 Moscow           126.594
        39   01 Jun 2027 12:02:48.719   01 Jun 2027 12:03:12.069            23.350                 Moscow           729.688
        40   01 Jun 2027 12:03:58.998   01 Jun 2027 12:04:18.583            19.585              Murmansk1           612.031
        41   01 Jun 2027 12:04:32.606   01 Jun 2027 12:04:55.526            22.920              Murmansk2           716.250
        42   01 Jun 2027 12:05:12.837   01 Jun 2027 12:05:24.139            11.302                Norilsk           353.188
        43   01 Jun 2027 12:05:33.556   01 Jun 2027 12:05:50.268            16.712              Murmansk2           522.250
        44   01 Jun 2027 12:05:50.268   01 Jun 2027 12:06:13.997            23.729              Murmansk1           741.531
        45   01 Jun 2027 12:06:48.902   01 Jun 2027 12:07:03.129            14.227              Murmansk1           444.594
        46   01 Jun 2027 12:07:16.710   01 Jun 2027 12:07:19.094             2.384              Murmansk1            74.500
        47   01 Jun 2027 13:07:20.335   01 Jun 2027 13:07:48.343            28.008               CapeTown           875.250
        48   01 Jun 2027 13:08:23.649   01 Jun 2027 13:10:47.397           143.748               CapeTown          4492.125
        49   01 Jun 2027 13:11:17.325   01 Jun 2027 13:15:39.946           262.621               CapeTown          8206.906
        50   01 Jun 2027 13:35:06.961   01 Jun 2027 13:36:07.158            60.197              Murmansk1          1881.156
        51   01 Jun 2027 13:36:20.771   01 Jun 2027 13:37:14.975            54.204                 Moscow          1693.875
        52   01 Jun 2027 13:37:33.597   01 Jun 2027 13:37:34.976             1.379              Murmansk2            43.094
        53   01 Jun 2027 13:37:51.916   01 Jun 2027 13:38:32.659            40.743              Murmansk1          1273.219
        54   01 Jun 2027 13:38:32.659   01 Jun 2027 13:39:04.543            31.884              Murmansk2           996.375
        55   01 Jun 2027 13:39:11.775   01 Jun 2027 13:39:47.078            35.303              Murmansk2          1103.219
        56   01 Jun 2027 13:40:51.402   01 Jun 2027 13:43:17.088           145.686              Murmansk1          4552.688
        57   01 Jun 2027 13:45:31.084   01 Jun 2027 13:47:54.340           143.256                Anadyr1          4476.750
        58   01 Jun 2027 13:47:54.340   01 Jun 2027 13:48:21.929            27.589                Anadyr2           862.156
        59   01 Jun 2027 13:50:22.657   01 Jun 2027 13:51:22.402            59.745                Anadyr1          1867.031
        60   01 Jun 2027 13:52:10.635   01 Jun 2027 13:53:35.807            85.172                Anadyr2          2661.625
        61   01 Jun 2027 15:13:44.151   01 Jun 2027 15:13:55.608            11.457              Murmansk1           358.031
        62   01 Jun 2027 15:14:53.291   01 Jun 2027 15:15:18.721            25.430              Murmansk2           794.687
        63   01 Jun 2027 15:15:52.892   01 Jun 2027 15:16:35.093            42.201              Murmansk2          1318.781
        64   01 Jun 2027 15:17:32.379   01 Jun 2027 15:18:47.012            74.633              Murmansk1          2332.281
        65   01 Jun 2027 15:23:12.246   01 Jun 2027 15:23:43.919            31.673                Anadyr2           989.781
        66   01 Jun 2027 15:24:02.554   01 Jun 2027 15:24:16.400            13.846                Anadyr2           432.688
        67   01 Jun 2027 15:24:35.612   01 Jun 2027 15:31:47.009           431.397               Magadan1         13481.156
        68   01 Jun 2027 17:00:51.717   01 Jun 2027 17:01:23.127            31.410               Magadan1           981.562
        69   01 Jun 2027 17:02:10.678   01 Jun 2027 17:02:19.643             8.965               Magadan1           280.156
        70   01 Jun 2027 17:02:29.074   01 Jun 2027 17:03:22.803            53.729               Magadan1          1679.031
        71   01 Jun 2027 17:07:04.051   01 Jun 2027 17:07:05.314             1.263               Magadan2            39.469
        72   01 Jun 2027 17:09:32.766   01 Jun 2027 17:10:02.387            29.621               Magadan2           925.656
        73   01 Jun 2027 18:32:45.955   01 Jun 2027 18:36:40.447           234.492                Anadyr2          7327.875
        74   01 Jun 2027 18:37:33.098   01 Jun 2027 18:38:05.396            32.298                Anadyr2          1009.312
        75   01 Jun 2027 18:38:52.935   01 Jun 2027 18:39:31.708            38.773               Magadan2          1211.656
        76   01 Jun 2027 18:40:34.587   01 Jun 2027 18:41:37.961            63.374                Norilsk          1980.437
        77   01 Jun 2027 18:41:58.521   01 Jun 2027 18:44:30.632           152.111                Irkutsk          4753.469
        78   01 Jun 2027 18:46:25.028   01 Jun 2027 18:47:14.780            49.752                Irkutsk          1554.750
        79   01 Jun 2027 18:56:56.329   01 Jun 2027 18:58:50.700           114.371                Sumatra          3574.094
        80   01 Jun 2027 19:01:01.833   01 Jun 2027 19:01:32.312            30.479                Sumatra           952.469
        81   01 Jun 2027 20:11:49.744   01 Jun 2027 20:12:15.577            25.833                Norilsk           807.281
        82   01 Jun 2027 20:14:38.554   01 Jun 2027 20:16:38.823           120.269                Irkutsk          3758.406
        83   01 Jun 2027 20:17:04.797   01 Jun 2027 20:19:11.151           126.354                Novosib          3948.562
        84   01 Jun 2027 20:20:11.342   01 Jun 2027 20:20:21.747            10.405                Novosib           325.156
        85   01 Jun 2027 20:20:57.644   01 Jun 2027 20:22:10.247            72.603                Novosib          2268.844
        86   01 Jun 2027 20:28:50.680   01 Jun 2027 20:29:17.970            27.290                Sumatra           852.812
        87   01 Jun 2027 20:34:03.700   01 Jun 2027 20:35:13.373            69.673                Sumatra          2177.281
        88   01 Jun 2027 21:47:13.598   01 Jun 2027 21:48:12.122            58.524               Magadan2          1828.875
        89   01 Jun 2027 21:50:20.120   01 Jun 2027 21:53:08.269           168.149              Murmansk1          5254.656
        90   01 Jun 2027 21:57:55.458   01 Jun 2027 21:59:48.741           113.283                  Delhi          3540.094
        91   01 Jun 2027 22:00:02.259   01 Jun 2027 22:00:46.725            44.466                  Delhi          1389.562
        92   01 Jun 2027 22:01:57.821   01 Jun 2027 22:02:17.788            19.967                  Delhi           623.969
        93   01 Jun 2027 22:06:38.733   01 Jun 2027 22:07:25.724            46.991                  Delhi          1468.469
        94   01 Jun 2027 23:18:06.553   01 Jun 2027 23:18:29.478            22.925                Anadyr1           716.406
        95   01 Jun 2027 23:22:03.896   01 Jun 2027 23:22:44.641            40.745               Magadan2          1273.281
        96   01 Jun 2027 23:22:48.086   01 Jun 2027 23:23:20.682            32.596               Magadan1          1018.625
        97   01 Jun 2027 23:23:46.031   01 Jun 2027 23:24:22.132            36.101               Magadan1          1128.156
        98   01 Jun 2027 23:24:52.507   01 Jun 2027 23:29:00.063           247.556              Murmansk2          7736.125
        99   01 Jun 2027 23:29:33.479   01 Jun 2027 23:30:59.282            85.803                 Moscow          2681.344
       100   01 Jun 2027 23:34:34.460   01 Jun 2027 23:35:13.251            38.791                 Moscow          1212.219
       101   01 Jun 2027 23:56:21.299   01 Jun 2027 23:57:54.723            93.424               CapeTown          2919.500
       102   01 Jun 2027 23:59:11.480   02 Jun 2027 00:00:02.006            50.526               CapeTown          1578.938
       103   02 Jun 2027 00:53:55.613   02 Jun 2027 00:54:50.713            55.100               Magadan2          1721.875
       104   02 Jun 2027 00:55:06.399   02 Jun 2027 00:55:10.805             4.406               Magadan1           137.688
       105   02 Jun 2027 00:55:59.346   02 Jun 2027 00:56:16.900            17.554               Magadan2           548.562
       106   02 Jun 2027 00:56:52.581   02 Jun 2027 00:57:39.403            46.822               Magadan2          1463.187
       107   02 Jun 2027 01:00:44.499   02 Jun 2027 01:03:09.110           144.611              Murmansk1          4519.094
       108   02 Jun 2027 01:03:11.088   02 Jun 2027 01:03:22.061            10.973              Murmansk1           342.906
       109   02 Jun 2027 01:03:59.787   02 Jun 2027 01:05:49.857           110.070                 Moscow          3439.687
       110   02 Jun 2027 01:31:02.865   02 Jun 2027 01:31:42.487            39.622               CapeTown          1238.188
       111   02 Jun 2027 01:35:11.392   02 Jun 2027 01:36:21.082            69.690               CapeTown          2177.812
       112   02 Jun 2027 02:24:34.653   02 Jun 2027 02:25:55.572            80.919                Anadyr2          2528.719
       113   02 Jun 2027 02:26:09.780   02 Jun 2027 02:26:47.952            38.172               Magadan1          1192.875
       114   02 Jun 2027 02:27:27.805   02 Jun 2027 02:27:37.716             9.911               Magadan1           309.719
       115   02 Jun 2027 02:28:26.377   02 Jun 2027 02:28:52.984            26.607               Magadan1           831.469
       116   02 Jun 2027 02:32:55.600   02 Jun 2027 02:33:04.413             8.813               Magadan2           275.406
       117   02 Jun 2027 02:33:27.137   02 Jun 2027 02:33:36.206             9.069                Norilsk           283.406
       118   02 Jun 2027 02:35:43.130   02 Jun 2027 02:36:09.185            26.055                Norilsk           814.219
       119   02 Jun 2027 02:36:42.267   02 Jun 2027 02:37:05.833            23.566              Murmansk2           736.438
       120   02 Jun 2027 02:37:11.593   02 Jun 2027 02:37:58.321            46.728              Murmansk1          1460.250
       121   02 Jun 2027 02:39:49.842   02 Jun 2027 02:40:01.681            11.839              Murmansk2           369.969
       122   02 Jun 2027 02:40:02.671   02 Jun 2027 02:40:31.924            29.253              Murmansk1           914.156
       123   02 Jun 2027 02:40:45.807   02 Jun 2027 02:41:53.558            67.751                 Moscow          2117.219
       124   02 Jun 2027 03:05:59.190   02 Jun 2027 03:06:51.130            51.940               CapeTown          1623.125
       125   02 Jun 2027 03:14:12.928   02 Jun 2027 03:14:49.012            36.084               CapeTown          1127.625
       126   02 Jun 2027 04:05:21.155   02 Jun 2027 04:08:40.500           199.345               Magadan2          6229.531
       127   02 Jun 2027 04:08:40.500   02 Jun 2027 04:09:01.684            21.184               Magadan1           662.000
       128   02 Jun 2027 04:09:08.282   02 Jun 2027 04:12:56.703           228.421                Anadyr2          7138.156
       129   02 Jun 2027 04:12:57.837   02 Jun 2027 04:13:08.418            10.581               Magadan2           330.656
       130   02 Jun 2027 04:51:57.856   02 Jun 2027 04:52:44.840            46.984            RioGallegos          1468.250
       131   02 Jun 2027 04:54:04.587   02 Jun 2027 04:54:14.936            10.349            RioGallegos           323.406
       132   02 Jun 2027 04:59:04.716   02 Jun 2027 04:59:19.319            14.603            RioGallegos           456.344
       133   02 Jun 2027 05:41:59.483   02 Jun 2027 05:42:11.919            12.436               Magadan1           388.625
       134   02 Jun 2027 05:42:36.390   02 Jun 2027 05:44:59.216           142.826                Irkutsk          4463.312
       135   02 Jun 2027 05:45:11.698   02 Jun 2027 05:48:18.540           186.842                Anadyr2          5838.812
       136   02 Jun 2027 05:48:21.354   02 Jun 2027 05:48:53.480            32.126               Magadan1          1003.938
       137   02 Jun 2027 07:20:32.689   02 Jun 2027 07:22:32.115           119.426               Magadan1          3732.062
       138   02 Jun 2027 07:22:50.560   02 Jun 2027 07:24:50.243           119.683                Irkutsk          3740.094
       139   02 Jun 2027 07:25:15.154   02 Jun 2027 07:26:07.772            52.618                Novosib          1644.313
       140   02 Jun 2027 08:58:10.884   02 Jun 2027 09:00:11.968           121.084                Irkutsk          3783.875
       141   02 Jun 2027 09:01:02.159   02 Jun 2027 09:01:03.956             1.797                Novosib            56.156
       142   02 Jun 2027 09:01:13.393   02 Jun 2027 09:02:18.748            65.355              Murmansk1          2042.344
       143   02 Jun 2027 09:03:07.168   02 Jun 2027 09:04:21.543            74.375                Norilsk          2324.219
       144   02 Jun 2027 09:40:35.336   02 Jun 2027 09:43:17.750           162.414            RioGallegos          5075.438
       145   02 Jun 2027 10:18:45.780   02 Jun 2027 10:21:36.150           170.370                  Delhi          5324.063
       146   02 Jun 2027 10:23:00.265   02 Jun 2027 10:23:40.404            40.139                  Delhi          1254.344
       147   02 Jun 2027 10:32:52.922   02 Jun 2027 10:33:55.492            62.570                Novosib          1955.312
       148   02 Jun 2027 10:34:00.562   02 Jun 2027 10:34:48.308            47.746                Novosib          1492.062
       149   02 Jun 2027 10:34:54.867   02 Jun 2027 10:35:01.915             7.048                Novosib           220.250
       150   02 Jun 2027 10:35:06.293   02 Jun 2027 10:35:27.018            20.725                Norilsk           647.656
       151   02 Jun 2027 10:35:34.969   02 Jun 2027 10:35:35.269             0.300                Norilsk             9.375
       152   02 Jun 2027 10:35:52.194   02 Jun 2027 10:36:08.780            16.586                Novosib           518.312
       153   02 Jun 2027 10:36:18.704   02 Jun 2027 10:36:19.327             0.623                Norilsk            19.469
       154   02 Jun 2027 10:36:38.891   02 Jun 2027 10:36:42.869             3.978                Novosib           124.313
       155   02 Jun 2027 12:06:25.245   02 Jun 2027 12:07:59.082            93.837              Murmansk2          2932.406
       156   02 Jun 2027 12:09:28.499   02 Jun 2027 12:09:39.914            11.415              Murmansk1           356.719
       157   02 Jun 2027 12:09:53.405   02 Jun 2027 12:10:39.128            45.723              Murmansk1          1428.844
       158   02 Jun 2027 12:10:46.099   02 Jun 2027 12:11:16.462            30.363              Murmansk1           948.844
       159   02 Jun 2027 12:11:24.970   02 Jun 2027 12:12:17.261            52.291                Norilsk          1634.094
       160   02 Jun 2027 12:15:17.514   02 Jun 2027 12:15:32.090            14.576                Norilsk           455.500
       161   02 Jun 2027 13:17:21.053   02 Jun 2027 13:19:56.054           155.001               CapeTown          4843.781
       162   02 Jun 2027 13:20:49.767   02 Jun 2027 13:22:00.940            71.173               CapeTown          2224.156
       163   02 Jun 2027 13:23:35.420   02 Jun 2027 13:23:52.604            17.184               CapeTown           537.000
       164   02 Jun 2027 13:43:37.780   02 Jun 2027 13:44:31.067            53.287              Murmansk1          1665.219
       165   02 Jun 2027 13:44:31.067   02 Jun 2027 13:45:14.991            43.924              Murmansk2          1372.625
       166   02 Jun 2027 13:45:52.898   02 Jun 2027 13:46:32.275            39.377              Murmansk2          1230.531
       167   02 Jun 2027 13:52:53.749   02 Jun 2027 13:53:15.339            21.590              Murmansk1           674.687
       168   02 Jun 2027 13:57:25.598   02 Jun 2027 13:59:55.592           149.994                Anadyr1          4687.313
       169   02 Jun 2027 13:59:56.392   02 Jun 2027 14:00:22.608            26.216                Anadyr2           819.250
       170   02 Jun 2027 14:02:11.363   02 Jun 2027 14:02:48.998            37.635                Anadyr1          1176.094
       171   02 Jun 2027 14:04:53.419   02 Jun 2027 14:06:56.832           123.413                Anadyr1          3856.656
       172   02 Jun 2027 15:28:51.163   02 Jun 2027 15:29:07.468            16.305              Murmansk2           509.531
       173   02 Jun 2027 15:33:00.920   02 Jun 2027 15:35:13.723           132.803                Anadyr2          4150.094
       174   02 Jun 2027 15:35:43.711   02 Jun 2027 15:35:56.630            12.919                Anadyr2           403.719
       175   02 Jun 2027 15:36:12.457   02 Jun 2027 15:36:49.152            36.695                Anadyr2          1146.719
       176   02 Jun 2027 15:37:38.375   02 Jun 2027 15:39:54.257           135.882               Magadan2          4246.312
       177   02 Jun 2027 15:39:56.329   02 Jun 2027 15:40:32.747            36.418               Magadan1          1138.062
       178   02 Jun 2027 15:41:22.167   02 Jun 2027 15:42:36.527            74.360               Magadan1          2323.750
       179   02 Jun 2027 17:08:55.761   02 Jun 2027 17:09:36.044            40.283                Anadyr2          1258.844
       180   02 Jun 2027 17:10:01.257   02 Jun 2027 17:10:08.973             7.716                Anadyr2           241.125
       181   02 Jun 2027 17:10:35.506   02 Jun 2027 17:11:09.407            33.901                Anadyr1          1059.406
       182   02 Jun 2027 17:11:16.222   02 Jun 2027 17:11:55.578            39.356               Magadan2          1229.875
       183   02 Jun 2027 17:12:21.740   02 Jun 2027 17:13:24.098            62.358               Magadan1          1948.688
       184   02 Jun 2027 17:18:38.959   02 Jun 2027 17:19:03.388            24.429               Magadan1           763.406
       185   02 Jun 2027 17:21:18.772   02 Jun 2027 17:21:31.636            12.864               Magadan2           402.000
       186   02 Jun 2027 18:05:49.167   02 Jun 2027 18:08:03.168           134.001            RioGallegos          4187.531
       187   02 Jun 2027 18:08:43.558   02 Jun 2027 18:09:47.858            64.300            RioGallegos          2009.375
       188   02 Jun 2027 18:46:59.030   02 Jun 2027 18:49:40.196           161.166                Norilsk          5036.437
       189   02 Jun 2027 18:50:59.777   02 Jun 2027 18:51:46.268            46.491                Norilsk          1452.844
       190   02 Jun 2027 18:52:05.058   02 Jun 2027 18:55:24.209           199.151                Irkutsk          6223.469
       191   02 Jun 2027 18:56:16.411   02 Jun 2027 18:57:05.794            49.383                Irkutsk          1543.219
       192   02 Jun 2027 18:58:26.834   02 Jun 2027 18:59:00.012            33.178                Irkutsk          1036.812
       193   02 Jun 2027 19:07:24.002   02 Jun 2027 19:09:26.852           122.850                Sumatra          3839.063
       194   02 Jun 2027 19:11:01.010   02 Jun 2027 19:12:57.538           116.528                Sumatra          3641.500
       195   02 Jun 2027 20:28:02.357   02 Jun 2027 20:29:29.248            86.891                Novosib          2715.344
       196   02 Jun 2027 20:32:11.378   02 Jun 2027 20:32:40.050            28.672                Novosib           896.000
       197   02 Jun 2027 20:33:04.929   02 Jun 2027 20:34:21.690            76.761                Novosib          2398.781
       198   02 Jun 2027 20:38:29.033   02 Jun 2027 20:39:24.484            55.451                  Delhi          1732.844
       199   02 Jun 2027 21:59:51.704   02 Jun 2027 22:00:41.300            49.596               Magadan2          1549.875
       200   02 Jun 2027 22:01:50.276   02 Jun 2027 22:05:25.133           214.857              Murmansk1          6714.281
       201   02 Jun 2027 22:09:50.495   02 Jun 2027 22:10:38.769            48.274                  Delhi          1508.562
       202   02 Jun 2027 22:14:02.785   02 Jun 2027 22:14:56.479            53.694                  Delhi          1677.938
       203   02 Jun 2027 23:28:37.985   02 Jun 2027 23:29:50.582            72.597                Anadyr1          2268.656
       204   02 Jun 2027 23:33:41.686   02 Jun 2027 23:34:23.199            41.513               Magadan1          1297.281
       205   02 Jun 2027 23:34:23.199   02 Jun 2027 23:35:19.748            56.549               Magadan2          1767.156
       206   02 Jun 2027 23:36:52.159   02 Jun 2027 23:41:00.928           248.769              Murmansk1          7774.031
       207   02 Jun 2027 23:41:30.723   02 Jun 2027 23:42:46.287            75.564                 Moscow          2361.375
       208   02 Jun 2027 23:43:36.174   02 Jun 2027 23:44:30.851            54.677                 Moscow          1708.656
       209   03 Jun 2027 00:07:15.288   03 Jun 2027 00:09:23.314           128.026               CapeTown          4000.812
       210   03 Jun 2027 00:14:37.852   03 Jun 2027 00:15:12.954            35.102               CapeTown          1096.937
       211   03 Jun 2027 01:12:46.167   03 Jun 2027 01:13:59.332            73.165              Murmansk1          2286.406
       212   03 Jun 2027 01:15:02.381   03 Jun 2027 01:15:05.002             2.621              Murmansk2            81.906
       213   03 Jun 2027 01:15:10.800   03 Jun 2027 01:15:47.578            36.778                Novosib          1149.312
       214   03 Jun 2027 01:15:58.841   03 Jun 2027 01:16:05.121             6.280              Murmansk1           196.250
       215   03 Jun 2027 01:16:08.263   03 Jun 2027 01:16:10.884             2.621              Murmansk1            81.906
       216   03 Jun 2027 01:17:24.607   03 Jun 2027 01:17:48.921            24.314                 Moscow           759.813
       217   03 Jun 2027 01:18:01.761   03 Jun 2027 01:19:15.690            73.929                 Moscow          2310.281
       218   03 Jun 2027 01:39:52.741   03 Jun 2027 01:40:11.301            18.560               CapeTown           580.000
       219   03 Jun 2027 01:41:18.690   03 Jun 2027 01:42:30.799            72.109               CapeTown          2253.406
       220   03 Jun 2027 02:36:37.027   03 Jun 2027 02:37:40.595            63.568                Anadyr1          1986.500
       221   03 Jun 2027 02:37:41.087   03 Jun 2027 02:37:58.332            17.245                Anadyr2           538.906
       222   03 Jun 2027 02:38:15.910   03 Jun 2027 02:38:16.412             0.502                Anadyr2            15.688
       223   03 Jun 2027 02:38:24.165   03 Jun 2027 02:39:54.211            90.046               Magadan2          2813.937
       224   03 Jun 2027 02:42:43.091   03 Jun 2027 02:42:56.282            13.191               Magadan2           412.219
       225   03 Jun 2027 02:43:45.528   03 Jun 2027 02:44:12.211            26.683               Magadan2           833.844
       226   03 Jun 2027 02:47:36.547   03 Jun 2027 02:48:07.560            31.013                Norilsk           969.156
       227   03 Jun 2027 02:48:43.397   03 Jun 2027 02:48:58.410            15.013              Murmansk2           469.156
       228   03 Jun 2027 02:49:22.155   03 Jun 2027 02:49:48.078            25.923              Murmansk1           810.094
       229   03 Jun 2027 02:50:15.364   03 Jun 2027 02:50:30.685            15.321              Murmansk2           478.781
       230   03 Jun 2027 02:51:48.246   03 Jun 2027 02:52:19.005            30.759              Murmansk1           961.219
       231   03 Jun 2027 02:52:50.396   03 Jun 2027 02:53:13.449            23.053                 Moscow           720.406
       232   03 Jun 2027 02:54:15.193   03 Jun 2027 02:54:32.185            16.992                 Moscow           531.000
       233   03 Jun 2027 02:59:07.496   03 Jun 2027 02:59:37.508            30.012                 Moscow           937.875
       234   03 Jun 2027 03:19:04.059   03 Jun 2027 03:19:11.888             7.829               CapeTown           244.656
       235   03 Jun 2027 04:19:14.734   03 Jun 2027 04:19:50.630            35.896                Anadyr2          1121.750
       236   03 Jun 2027 04:20:24.376   03 Jun 2027 04:22:40.660           136.284               Magadan2          4258.875
       237   03 Jun 2027 04:22:40.660   03 Jun 2027 04:22:44.258             3.598               Magadan1           112.437
       238   03 Jun 2027 04:22:51.062   03 Jun 2027 04:23:50.208            59.146               Magadan1          1848.312
       239   03 Jun 2027 05:03:15.970   03 Jun 2027 05:05:46.306           150.336            RioGallegos          4698.000
       240   03 Jun 2027 05:53:57.188   03 Jun 2027 05:54:38.581            41.393                Irkutsk          1293.531
       241   03 Jun 2027 05:55:11.804   03 Jun 2027 05:56:05.082            53.278               Magadan1          1664.938
       242   03 Jun 2027 05:56:40.813   03 Jun 2027 05:59:56.429           195.616                Anadyr2          6113.000
       243   03 Jun 2027 06:00:09.657   03 Jun 2027 06:01:38.806            89.149                Norilsk          2785.906
       244   03 Jun 2027 06:03:45.528   03 Jun 2027 06:04:20.328            34.800              Murmansk1          1087.500
       245   03 Jun 2027 07:31:04.519   03 Jun 2027 07:31:07.657             3.138               Magadan1            98.063
       246   03 Jun 2027 07:31:08.570   03 Jun 2027 07:31:41.715            33.145               Magadan1          1035.781
       247   03 Jun 2027 07:31:50.450   03 Jun 2027 07:32:50.171            59.721               Magadan2          1866.281
       248   03 Jun 2027 07:35:23.865   03 Jun 2027 07:35:33.826             9.961                Irkutsk           311.281
       249   03 Jun 2027 07:35:49.748   03 Jun 2027 07:36:52.303            62.555                Irkutsk          1954.844
       250   03 Jun 2027 08:12:02.270   03 Jun 2027 08:12:06.721             4.451            RioGallegos           139.094
       251   03 Jun 2027 08:18:21.175   03 Jun 2027 08:18:47.510            26.335            RioGallegos           822.969
       252   03 Jun 2027 08:46:28.162   03 Jun 2027 08:48:18.627           110.465                Sumatra          3452.031
       253   03 Jun 2027 09:07:06.903   03 Jun 2027 09:07:53.870            46.967                Irkutsk          1467.719
       254   03 Jun 2027 09:08:32.356   03 Jun 2027 09:08:50.379            18.023                Irkutsk           563.219
       255   03 Jun 2027 09:09:29.851   03 Jun 2027 09:10:00.253            30.402                Irkutsk           950.063
       256   03 Jun 2027 09:10:25.146   03 Jun 2027 09:10:54.991            29.845                Irkutsk           932.656
       257   03 Jun 2027 09:11:09.485   03 Jun 2027 09:11:12.976             3.491                Irkutsk           109.094
       258   03 Jun 2027 09:11:47.684   03 Jun 2027 09:12:53.843            66.159                Novosib          2067.469
       259   03 Jun 2027 10:31:02.447   03 Jun 2027 10:33:27.178           144.731                  Delhi          4522.844
       260   03 Jun 2027 10:46:38.320   03 Jun 2027 10:46:41.383             3.063                Novosib            95.719
       261   03 Jun 2027 10:46:43.349   03 Jun 2027 10:47:52.373            69.024                Novosib          2157.000
       262   03 Jun 2027 10:48:30.515   03 Jun 2027 10:48:38.560             8.045                Norilsk           251.406
       263   03 Jun 2027 12:19:59.122   03 Jun 2027 12:23:17.514           198.392              Murmansk1          6199.750
       264   03 Jun 2027 12:23:17.514   03 Jun 2027 12:23:31.187            13.673              Murmansk2           427.281
       265   03 Jun 2027 12:23:39.924   03 Jun 2027 12:24:24.705            44.781                Norilsk          1399.406
       266   03 Jun 2027 12:25:26.304   03 Jun 2027 12:25:30.280             3.976                Norilsk           124.250
       267   03 Jun 2027 12:26:12.341   03 Jun 2027 12:26:53.061            40.720                Norilsk          1272.500
       268   03 Jun 2027 13:29:03.556   03 Jun 2027 13:32:06.906           183.350               CapeTown          5729.688
       269   03 Jun 2027 13:53:25.344   03 Jun 2027 13:53:35.294             9.950                 Moscow           310.938
       270   03 Jun 2027 13:53:46.056   03 Jun 2027 13:54:12.182            26.126                 Moscow           816.437
       271   03 Jun 2027 13:55:57.512   03 Jun 2027 13:57:43.983           106.471              Murmansk2          3327.219
       272   03 Jun 2027 13:59:15.035   03 Jun 2027 13:59:23.265             8.230              Murmansk1           257.188
       273   03 Jun 2027 13:59:58.024   03 Jun 2027 14:00:37.661            39.637              Murmansk2          1238.656
       274   03 Jun 2027 14:03:14.930   03 Jun 2027 14:03:41.304            26.374              Murmansk1           824.188
       275   03 Jun 2027 14:09:21.615   03 Jun 2027 14:11:36.013           134.398                Anadyr2          4199.937
       276   03 Jun 2027 14:11:54.841   03 Jun 2027 14:12:23.505            28.664                Anadyr1           895.750
       277   03 Jun 2027 14:15:33.170   03 Jun 2027 14:16:41.974            68.804                Anadyr2          2150.125
       278   03 Jun 2027 15:35:53.508   03 Jun 2027 15:37:02.547            69.039              Murmansk2          2157.469
       279   03 Jun 2027 15:37:22.961   03 Jun 2027 15:39:01.348            98.387              Murmansk2          3074.594
       280   03 Jun 2027 15:45:01.743   03 Jun 2027 15:47:13.322           131.579                Anadyr1          4111.844
       281   03 Jun 2027 15:48:04.036   03 Jun 2027 15:50:57.003           172.967               Magadan1          5405.219
       282   03 Jun 2027 15:50:57.003   03 Jun 2027 15:51:48.636            51.633               Magadan2          1613.531
       283   03 Jun 2027 15:53:02.902   03 Jun 2027 15:54:09.225            66.323               Magadan1          2072.594
       284   03 Jun 2027 17:23:15.662   03 Jun 2027 17:24:49.573            93.911               Magadan1          2934.719
       285   03 Jun 2027 17:27:06.875   03 Jun 2027 17:27:35.103            28.228               Magadan1           882.125
       286   03 Jun 2027 17:30:12.034   03 Jun 2027 17:30:43.237            31.203               Magadan2           975.094
       287   03 Jun 2027 18:16:51.660   03 Jun 2027 18:19:46.196           174.536            RioGallegos          5454.250
       288   03 Jun 2027 18:22:32.412   03 Jun 2027 18:22:40.884             8.472            RioGallegos           264.750
       289   03 Jun 2027 18:58:14.410   03 Jun 2027 18:58:23.167             8.757                Anadyr1           273.656
       290   03 Jun 2027 18:58:55.644   03 Jun 2027 19:02:59.397           243.753                Norilsk          7617.281
       291   03 Jun 2027 19:03:43.861   03 Jun 2027 19:04:06.540            22.679                Irkutsk           708.719
       292   03 Jun 2027 19:05:02.094   03 Jun 2027 19:05:40.014            37.920                Irkutsk          1185.000
       293   03 Jun 2027 19:05:56.813   03 Jun 2027 19:07:15.312            78.499                Irkutsk          2453.094
       294   03 Jun 2027 19:08:07.605   03 Jun 2027 19:09:12.373            64.768                Irkutsk          2024.000
       295   03 Jun 2027 19:18:27.420   03 Jun 2027 19:22:33.528           246.108                Sumatra          7690.875
       296   03 Jun 2027 19:24:56.107   03 Jun 2027 19:25:21.059            24.952                Sumatra           779.750
       297   03 Jun 2027 19:26:24.429   03 Jun 2027 19:26:32.418             7.989                Sumatra           249.656
       298   03 Jun 2027 20:39:12.690   03 Jun 2027 20:39:59.027            46.337                Novosib          1448.031
       299   03 Jun 2027 20:41:08.751   03 Jun 2027 20:41:33.136            24.385                Novosib           762.031
       300   03 Jun 2027 20:42:07.249   03 Jun 2027 20:42:50.981            43.732                Novosib          1366.625
       301   03 Jun 2027 20:48:45.463   03 Jun 2027 20:50:58.538           133.075                  Delhi          4158.594
       302   03 Jun 2027 20:54:30.300   03 Jun 2027 20:55:26.083            55.783                  Delhi          1743.219
       303   03 Jun 2027 22:13:34.362   03 Jun 2027 22:17:20.533           226.171              Murmansk1          7067.844
       304   03 Jun 2027 22:17:28.645   03 Jun 2027 22:19:18.775           110.130              Murmansk2          3441.562
       305   03 Jun 2027 23:44:23.349   03 Jun 2027 23:44:38.475            15.126                Anadyr2           472.687
       306   03 Jun 2027 23:44:49.848   03 Jun 2027 23:45:13.246            23.398                Anadyr2           731.187
       307   03 Jun 2027 23:45:15.864   03 Jun 2027 23:46:00.614            44.750               Magadan1          1398.437
       308   03 Jun 2027 23:47:19.013   03 Jun 2027 23:47:53.431            34.418               Magadan2          1075.563
       309   03 Jun 2027 23:48:01.127   03 Jun 2027 23:48:50.152            49.025               Magadan2          1532.031
       310   03 Jun 2027 23:48:52.321   03 Jun 2027 23:51:38.521           166.200              Murmansk2          5193.750
       311   03 Jun 2027 23:52:36.095   03 Jun 2027 23:53:25.214            49.119                 Moscow          1534.969
       312   03 Jun 2027 23:54:03.424   03 Jun 2027 23:55:07.330            63.906                 Moscow          1997.062
       313   04 Jun 2027 00:18:25.550   04 Jun 2027 00:19:18.881            53.331               CapeTown          1666.594
       314   04 Jun 2027 00:20:14.956   04 Jun 2027 00:20:58.606            43.650               CapeTown          1364.063
       315   04 Jun 2027 00:21:29.125   04 Jun 2027 00:21:51.318            22.193               CapeTown           693.531
       316   04 Jun 2027 00:22:26.626   04 Jun 2027 00:22:57.442            30.816               CapeTown           963.000
       317   04 Jun 2027 00:24:30.921   04 Jun 2027 00:25:56.457            85.536               CapeTown          2673.000
       318   04 Jun 2027 01:24:47.867   04 Jun 2027 01:25:55.888            68.021              Murmansk1          2125.656
       319   04 Jun 2027 01:26:59.491   04 Jun 2027 01:27:30.477            30.986              Murmansk2           968.312
       320   04 Jun 2027 01:27:46.799   04 Jun 2027 01:28:12.318            25.519                Novosib           797.469
       321   04 Jun 2027 01:28:27.002   04 Jun 2027 01:28:41.626            14.624              Murmansk2           457.000
       322   04 Jun 2027 01:28:57.243   04 Jun 2027 01:29:24.275            27.032                 Moscow           844.750
       323   04 Jun 2027 01:31:19.313   04 Jun 2027 01:31:34.878            15.565                 Moscow           486.406
       324   04 Jun 2027 01:33:48.863   04 Jun 2027 01:33:55.032             6.169              Murmansk2           192.781
       325   04 Jun 2027 01:36:24.385   04 Jun 2027 01:36:37.356            12.971                 Moscow           405.344
       326   04 Jun 2027 01:36:42.311   04 Jun 2027 01:36:54.311            12.000                 Moscow           375.000
       327   04 Jun 2027 01:51:54.437   04 Jun 2027 01:52:27.766            33.329               CapeTown          1041.531
       328   04 Jun 2027 01:54:51.954   04 Jun 2027 01:55:06.512            14.558               CapeTown           454.937
       329   04 Jun 2027 01:56:17.298   04 Jun 2027 01:56:24.604             7.306               CapeTown           228.312
       330   04 Jun 2027 01:57:29.558   04 Jun 2027 01:58:33.871            64.313               CapeTown          2009.781
       331   04 Jun 2027 02:48:41.385   04 Jun 2027 02:49:26.576            45.191                Anadyr2          1412.219
       332   04 Jun 2027 02:49:33.286   04 Jun 2027 02:51:21.622           108.336               Magadan2          3385.500
       333   04 Jun 2027 02:52:57.988   04 Jun 2027 02:53:00.929             2.941               Magadan1            91.906
       334   04 Jun 2027 02:54:44.476   04 Jun 2027 02:54:57.517            13.041               Magadan2           407.531
       335   04 Jun 2027 02:55:13.174   04 Jun 2027 02:55:43.682            30.508               Magadan2           953.375
       336   04 Jun 2027 02:57:51.729   04 Jun 2027 02:57:54.680             2.951                Norilsk            92.219
       337   04 Jun 2027 02:59:34.283   04 Jun 2027 02:59:39.796             5.513                Norilsk           172.281
       338   04 Jun 2027 04:32:15.383   04 Jun 2027 04:34:15.646           120.263                Irkutsk          3758.219
       339   04 Jun 2027 06:07:22.773   04 Jun 2027 06:08:15.211            52.438                Irkutsk          1638.688
       340   04 Jun 2027 06:08:53.138   04 Jun 2027 06:10:05.999            72.861               Magadan1          2276.906
       341   04 Jun 2027 06:10:09.425   04 Jun 2027 06:10:48.167            38.742                Anadyr2          1210.688
       342   04 Jun 2027 06:10:48.167   04 Jun 2027 06:11:16.041            27.874                Anadyr1           871.063
       343   04 Jun 2027 06:11:34.522   04 Jun 2027 06:12:17.166            42.644               Magadan2          1332.625
       344   04 Jun 2027 06:12:40.857   04 Jun 2027 06:12:46.159             5.302               Magadan2           165.687
       345   04 Jun 2027 07:41:08.563   04 Jun 2027 07:42:00.901            52.338                Norilsk          1635.563
       346   04 Jun 2027 07:47:29.038   04 Jun 2027 07:47:36.186             7.148                Irkutsk           223.375
       347   04 Jun 2027 07:47:37.964   04 Jun 2027 07:48:19.913            41.949                Irkutsk          1310.906
       348   04 Jun 2027 07:48:22.542   04 Jun 2027 07:48:53.557            31.015                Irkutsk           969.219
       349   04 Jun 2027 08:24:22.123   04 Jun 2027 08:25:01.490            39.367            RioGallegos          1230.219
       350   04 Jun 2027 08:32:11.382   04 Jun 2027 08:32:41.531            30.149            RioGallegos           942.156
       351   04 Jun 2027 08:58:40.728   04 Jun 2027 09:00:10.151            89.423                Sumatra          2794.469
       352   04 Jun 2027 09:20:16.280   04 Jun 2027 09:20:41.502            25.222                Norilsk           788.187
       353   04 Jun 2027 09:23:20.014   04 Jun 2027 09:23:52.031            32.017                Novosib          1000.531
       354   04 Jun 2027 10:43:26.197   04 Jun 2027 10:47:01.212           215.015                  Delhi          6719.219
       355   04 Jun 2027 10:57:51.981   04 Jun 2027 10:58:03.564            11.583                Novosib           361.969
       356   04 Jun 2027 10:59:58.277   04 Jun 2027 11:01:12.034            73.757                Novosib          2304.906
       357   04 Jun 2027 12:27:04.829   04 Jun 2027 12:27:16.116            11.287                 Moscow           352.719
       358   04 Jun 2027 12:28:37.467   04 Jun 2027 12:29:30.370            52.903                 Moscow          1653.219
       359   04 Jun 2027 12:30:17.147   04 Jun 2027 12:31:30.687            73.540                 Moscow          2298.125
       360   04 Jun 2027 12:31:57.990   04 Jun 2027 12:32:42.733            44.743              Murmansk2          1398.219
       361   04 Jun 2027 12:33:14.904   04 Jun 2027 12:33:27.186            12.282              Murmansk2           383.812
       362   04 Jun 2027 12:33:48.184   04 Jun 2027 12:34:07.371            19.187              Murmansk2           599.594
       363   04 Jun 2027 12:35:18.756   04 Jun 2027 12:35:42.558            23.802              Murmansk2           743.813
       364   04 Jun 2027 12:37:22.468   04 Jun 2027 12:37:32.395             9.927                Norilsk           310.219
       365   04 Jun 2027 12:41:00.279   04 Jun 2027 12:41:32.258            31.979              Murmansk1           999.344
       366   04 Jun 2027 12:47:22.427   04 Jun 2027 12:50:11.379           168.952                Anadyr1          5279.750
       367   04 Jun 2027 13:43:10.970   04 Jun 2027 13:44:21.410            70.440               CapeTown          2201.250
       368   04 Jun 2027 14:08:19.470   04 Jun 2027 14:08:32.505            13.035              Murmansk1           407.344
       369   04 Jun 2027 14:09:17.993   04 Jun 2027 14:09:49.402            31.409              Murmansk1           981.531
       370   04 Jun 2027 14:09:50.051   04 Jun 2027 14:10:07.136            17.085              Murmansk2           533.906
       371   04 Jun 2027 14:11:16.752   04 Jun 2027 14:12:29.257            72.505              Murmansk1          2265.781
       372   04 Jun 2027 14:15:39.298   04 Jun 2027 14:16:33.679            54.381              Murmansk2          1699.406
       373   04 Jun 2027 14:21:18.793   04 Jun 2027 14:23:58.961           160.168                Anadyr2          5005.250
       374   04 Jun 2027 14:24:24.579   04 Jun 2027 14:24:55.027            30.448                Anadyr2           951.500
       375   04 Jun 2027 15:48:41.406   04 Jun 2027 15:50:58.492           137.086              Murmansk2          4283.937
       376   04 Jun 2027 15:57:02.756   04 Jun 2027 15:59:05.782           123.026                Anadyr2          3844.563
       377   04 Jun 2027 15:59:54.212   04 Jun 2027 16:03:09.386           195.174               Magadan1          6099.187
       378   04 Jun 2027 16:03:15.984   04 Jun 2027 16:03:44.469            28.485               Magadan2           890.156
       379   04 Jun 2027 16:07:02.365   04 Jun 2027 16:07:51.635            49.270               Magadan2          1539.688
       380   04 Jun 2027 17:32:58.162   04 Jun 2027 17:33:51.715            53.553                Anadyr2          1673.531
       381   04 Jun 2027 17:35:13.891   04 Jun 2027 17:35:55.663            41.772                Anadyr1          1305.375
       382   04 Jun 2027 17:37:18.909   04 Jun 2027 17:38:18.717            59.808               Magadan2          1869.000
       383   04 Jun 2027 17:38:32.456   04 Jun 2027 17:38:35.848             3.392               Magadan1           106.000
       384   04 Jun 2027 17:38:43.820   04 Jun 2027 17:38:52.132             8.312               Magadan1           259.750
       385   04 Jun 2027 17:42:44.997   04 Jun 2027 17:43:01.914            16.917               Magadan2           528.656
       386   04 Jun 2027 17:43:07.677   04 Jun 2027 17:43:09.060             1.383               Magadan2            43.219
       387   04 Jun 2027 17:44:28.177   04 Jun 2027 17:44:44.816            16.639               Magadan1           519.969
       388   04 Jun 2027 18:28:18.211   04 Jun 2027 18:31:33.507           195.296            RioGallegos          6103.000
       389   04 Jun 2027 18:34:34.381   04 Jun 2027 18:35:23.832            49.451            RioGallegos          1545.344
       390   04 Jun 2027 19:10:53.594   04 Jun 2027 19:14:59.589           245.995                Norilsk          7687.344
       391   04 Jun 2027 19:15:28.308   04 Jun 2027 19:16:20.932            52.624                Irkutsk          1644.500
       392   04 Jun 2027 19:17:45.562   04 Jun 2027 19:19:25.757           100.195                Irkutsk          3131.094
       393   04 Jun 2027 19:21:41.743   04 Jun 2027 19:24:53.257           191.514                Irkutsk          5984.812
       394   04 Jun 2027 19:32:23.180   04 Jun 2027 19:32:52.255            29.075                Sumatra           908.594
       395   04 Jun 2027 19:33:51.722   04 Jun 2027 19:35:39.599           107.877                Sumatra          3371.156
       396   04 Jun 2027 20:51:03.668   04 Jun 2027 20:52:05.394            61.726                Novosib          1928.938
       397   04 Jun 2027 20:52:34.184   04 Jun 2027 20:53:37.498            63.314                Novosib          1978.562
       398   04 Jun 2027 20:59:52.046   04 Jun 2027 21:02:39.749           167.703                  Delhi          5240.719
       399   04 Jun 2027 21:06:22.304   04 Jun 2027 21:07:50.375            88.071                  Delhi          2752.219
       400   04 Jun 2027 22:25:24.329   04 Jun 2027 22:29:17.490           233.161              Murmansk1          7286.281
       401   04 Jun 2027 22:29:51.621   04 Jun 2027 22:32:08.093           136.472              Murmansk2          4264.750
       402   04 Jun 2027 23:59:24.644   05 Jun 2027 00:00:02.233            37.589               Magadan1          1174.656
       403   05 Jun 2027 00:00:52.896   05 Jun 2027 00:03:37.381           164.485              Murmansk1          5140.156
       404   05 Jun 2027 00:03:46.341   05 Jun 2027 00:04:11.481            25.140              Murmansk1           785.625
       405   05 Jun 2027 00:04:28.889   05 Jun 2027 00:05:17.009            48.120                 Moscow          1503.750
       406   05 Jun 2027 00:05:59.195   05 Jun 2027 00:07:08.785            69.590                 Moscow          2174.687
       407   05 Jun 2027 00:29:46.361   05 Jun 2027 00:31:27.888           101.527               CapeTown          3172.719
       408   05 Jun 2027 00:34:37.657   05 Jun 2027 00:35:09.716            32.059               CapeTown          1001.844
       409   05 Jun 2027 00:36:28.112   05 Jun 2027 00:36:49.934            21.822               CapeTown           681.937
       410   05 Jun 2027 01:29:02.188   05 Jun 2027 01:29:36.008            33.820               Magadan2          1056.875
       411   05 Jun 2027 01:32:19.194   05 Jun 2027 01:32:25.556             6.362               Magadan2           198.812
       412   05 Jun 2027 01:33:46.552   05 Jun 2027 01:34:24.157            37.605               Magadan1          1175.156
       413   05 Jun 2027 01:36:17.684   05 Jun 2027 01:36:53.819            36.135               Magadan1          1129.219
       414   05 Jun 2027 01:37:48.332   05 Jun 2027 01:38:19.479            31.147              Murmansk2           973.344
       415   05 Jun 2027 01:39:28.777   05 Jun 2027 01:40:01.173            32.396              Murmansk1          1012.375
       416   05 Jun 2027 01:40:01.881   05 Jun 2027 01:40:38.238            36.357                 Moscow          1136.156
       417   05 Jun 2027 01:41:24.200   05 Jun 2027 01:41:39.273            15.073                 Moscow           471.031
       418   05 Jun 2027 01:43:50.271   05 Jun 2027 01:43:54.690             4.419                 Moscow           138.094
       419   05 Jun 2027 01:47:12.841   05 Jun 2027 01:47:30.414            17.573                 Moscow           549.156
       420   05 Jun 2027 01:50:01.277   05 Jun 2027 01:50:45.915            44.638                 Moscow          1394.938
       421   05 Jun 2027 02:04:01.241   05 Jun 2027 02:04:32.376            31.135               CapeTown           972.969
       422   05 Jun 2027 02:08:28.612   05 Jun 2027 02:09:02.849            34.237               CapeTown          1069.906
       423   05 Jun 2027 02:13:45.072   05 Jun 2027 02:15:15.603            90.531               CapeTown          2829.094
       424   05 Jun 2027 03:00:47.800   05 Jun 2027 03:01:13.769            25.969                Anadyr2           811.531
       425   05 Jun 2027 03:02:49.026   05 Jun 2027 03:02:58.319             9.293               Magadan2           290.406
       426   05 Jun 2027 03:06:46.349   05 Jun 2027 03:07:12.249            25.900               Magadan1           809.375
       427   05 Jun 2027 03:07:12.249   05 Jun 2027 03:09:03.835           111.586               Magadan2          3487.062
       428   05 Jun 2027 03:09:27.784   05 Jun 2027 03:10:59.287            91.503                Anadyr1          2859.469
       429   05 Jun 2027 03:10:59.287   05 Jun 2027 03:11:09.387            10.100                Anadyr2           315.625
       430   05 Jun 2027 03:11:12.034   05 Jun 2027 03:11:42.666            30.632                Anadyr2           957.250
       431   05 Jun 2027 03:11:57.799   05 Jun 2027 03:12:27.288            29.489               Magadan2           921.531
       432   05 Jun 2027 03:12:56.692   05 Jun 2027 03:13:12.477            15.785               Magadan2           493.281
       433   05 Jun 2027 04:45:56.648   05 Jun 2027 04:46:18.567            21.919               Magadan2           684.969
       434   05 Jun 2027 04:46:46.048   05 Jun 2027 04:46:50.084             4.036               Magadan1           126.125
       435   05 Jun 2027 04:47:07.308   05 Jun 2027 04:47:26.805            19.497                Anadyr1           609.281
       436   05 Jun 2027 04:47:26.805   05 Jun 2027 04:48:48.256            81.451                Anadyr2          2545.344
       437   05 Jun 2027 06:20:02.154   05 Jun 2027 06:20:52.006            49.852               Magadan1          1557.875
       438   05 Jun 2027 06:20:55.569   05 Jun 2027 06:20:57.067             1.498               Magadan2            46.812
       439   05 Jun 2027 06:20:57.067   05 Jun 2027 06:21:26.761            29.694               Magadan1           927.938
       440   05 Jun 2027 06:21:37.859   05 Jun 2027 06:21:55.561            17.702               Magadan2           553.187
       441   05 Jun 2027 06:22:44.425   05 Jun 2027 06:23:53.238            68.813               Magadan2          2150.406
       442   05 Jun 2027 06:24:05.004   05 Jun 2027 06:24:21.957            16.953               Magadan1           529.781
       443   05 Jun 2027 06:26:22.329   05 Jun 2027 06:26:42.778            20.449              Murmansk2           639.031
       444   05 Jun 2027 07:59:22.450   05 Jun 2027 07:59:25.682             3.232                Irkutsk           101.000
       445   05 Jun 2027 07:59:47.535   05 Jun 2027 07:59:49.729             2.194                Irkutsk            68.563
       446   05 Jun 2027 08:02:17.378   05 Jun 2027 08:02:20.668             3.290              Murmansk2           102.812
       447   05 Jun 2027 08:36:46.745   05 Jun 2027 08:37:06.943            20.198            RioGallegos           631.188
       448   05 Jun 2027 08:38:13.375   05 Jun 2027 08:39:03.521            50.146            RioGallegos          1567.063
       449   05 Jun 2027 09:11:00.250   05 Jun 2027 09:12:01.369            61.119                Sumatra          1909.969
       450   05 Jun 2027 09:15:16.666   05 Jun 2027 09:15:21.499             4.833                Sumatra           151.031
       451   05 Jun 2027 09:35:40.561   05 Jun 2027 09:35:41.265             0.704                Irkutsk            22.000
       452   05 Jun 2027 09:35:49.120   05 Jun 2027 09:35:55.900             6.780                Novosib           211.875
       453   05 Jun 2027 09:36:04.779   05 Jun 2027 09:36:18.206            13.427                Novosib           419.594
       454   05 Jun 2027 09:36:40.884   05 Jun 2027 09:36:46.022             5.138                Novosib           160.563
       455   05 Jun 2027 10:55:58.586   05 Jun 2027 10:58:38.409           159.823                  Delhi          4994.469
       456   05 Jun 2027 11:11:47.362   05 Jun 2027 11:11:51.842             4.480                Novosib           140.000
       457   05 Jun 2027 11:11:54.746   05 Jun 2027 11:12:16.815            22.069                Norilsk           689.656
       458   05 Jun 2027 12:39:13.384   05 Jun 2027 12:39:45.195            31.811                 Moscow           994.094
       459   05 Jun 2027 12:40:37.157   05 Jun 2027 12:41:36.508            59.351                 Moscow          1854.719
       460   05 Jun 2027 12:42:44.505   05 Jun 2027 12:44:33.378           108.873              Murmansk2          3402.281
       461   05 Jun 2027 12:44:43.991   05 Jun 2027 12:45:19.034            35.043              Murmansk1          1095.094
       462   05 Jun 2027 12:45:27.104   05 Jun 2027 12:45:49.888            22.784              Murmansk1           712.000
       463   05 Jun 2027 12:46:27.347   05 Jun 2027 12:47:20.148            52.801              Murmansk1          1650.031
       464   05 Jun 2027 12:48:15.750   05 Jun 2027 12:48:51.639            35.889              Murmansk1          1121.531
       465   05 Jun 2027 12:58:40.880   05 Jun 2027 13:02:00.859           199.979                Anadyr1          6249.344
       466   05 Jun 2027 13:02:17.587   05 Jun 2027 13:03:42.767            85.180                Anadyr2          2661.875
       467   05 Jun 2027 14:20:43.766   05 Jun 2027 14:21:19.697            35.931              Murmansk1          1122.844
       468   05 Jun 2027 14:21:45.466   05 Jun 2027 14:22:24.166            38.700              Murmansk1          1209.375
       469   05 Jun 2027 14:33:16.878   05 Jun 2027 14:35:13.524           116.646                Anadyr2          3645.188
       470   05 Jun 2027 14:35:53.859   05 Jun 2027 14:37:22.066            88.207                Anadyr1          2756.469
       471   05 Jun 2027 15:32:09.892   05 Jun 2027 15:32:32.370            22.478               CapeTown           702.437
       472   05 Jun 2027 15:34:43.897   05 Jun 2027 15:35:27.212            43.315               CapeTown          1353.594
       473   05 Jun 2027 16:01:36.450   05 Jun 2027 16:02:54.135            77.685              Murmansk1          2427.656
       474   05 Jun 2027 16:03:22.635   05 Jun 2027 16:03:52.321            29.686              Murmansk2           927.687
       475   05 Jun 2027 16:09:03.924   05 Jun 2027 16:10:37.820            93.896                Anadyr2          2934.250
       476   05 Jun 2027 16:10:40.020   05 Jun 2027 16:11:07.139            27.119                Anadyr1           847.469
       477   05 Jun 2027 16:11:46.827   05 Jun 2027 16:16:44.087           297.260               Magadan1          9289.375
       478   05 Jun 2027 17:44:59.160   05 Jun 2027 17:45:37.647            38.487                Anadyr1          1202.719
       479   05 Jun 2027 17:45:56.399   05 Jun 2027 17:46:46.434            50.035                Anadyr2          1563.594
       480   05 Jun 2027 17:47:16.138   05 Jun 2027 17:47:57.222            41.084               Magadan2          1283.875
       481   05 Jun 2027 17:49:12.874   05 Jun 2027 17:50:19.107            66.233               Magadan1          2069.781
       482   05 Jun 2027 17:50:32.056   05 Jun 2027 17:51:13.023            40.967               Magadan1          1280.219
