uniorb/output/strategy_4/Drop/Drop_KinoSat_112003.txt

KinoSat_112003
-------------------------
    Access    *     Start Time (UTCG)     *     Stop Time (UTCG)  *   Duration (s)        *       Station  *  Data (Mbytes)
         1   01 Jun 2027 03:17:18.269   01 Jun 2027 03:18:30.523            72.254               Magadan2          2257.937
         2   01 Jun 2027 03:18:52.429   01 Jun 2027 03:19:18.146            25.717                Norilsk           803.656
         3   01 Jun 2027 03:19:25.480   01 Jun 2027 03:19:56.090            30.610                Norilsk           956.562
         4   01 Jun 2027 03:20:04.850   01 Jun 2027 03:20:17.610            12.760                Irkutsk           398.750
         5   01 Jun 2027 03:20:31.916   01 Jun 2027 03:21:30.784            58.868                Irkutsk          1839.625
         6   01 Jun 2027 03:21:40.344   01 Jun 2027 03:22:30.968            50.624                Norilsk          1582.000
         7   01 Jun 2027 03:22:37.858   01 Jun 2027 03:24:42.369           124.511                Novosib          3890.969
         8   01 Jun 2027 03:25:47.434   01 Jun 2027 03:27:50.323           122.889                Irkutsk          3840.281
         9   01 Jun 2027 04:05:04.861   01 Jun 2027 04:06:47.365           102.504            RioGallegos          3203.250
        10   01 Jun 2027 04:08:04.682   01 Jun 2027 04:10:03.388           118.706            RioGallegos          3709.563
        11   01 Jun 2027 04:55:32.250   01 Jun 2027 04:55:53.432            21.182              Murmansk1           661.938
        12   01 Jun 2027 04:55:55.325   01 Jun 2027 04:57:39.308           103.983                Norilsk          3249.469
        13   01 Jun 2027 04:57:48.523   01 Jun 2027 04:59:16.627            88.104                 Moscow          2753.250
        14   01 Jun 2027 04:59:24.190   01 Jun 2027 04:59:57.179            32.989                Norilsk          1030.906
        15   01 Jun 2027 05:00:29.483   01 Jun 2027 05:00:46.336            16.853                Norilsk           526.656
        16   01 Jun 2027 05:00:48.626   01 Jun 2027 05:08:56.955           488.329                  Delhi         15260.281
        17   01 Jun 2027 06:34:28.252   01 Jun 2027 06:37:23.940           175.688              Murmansk1          5490.250
        18   01 Jun 2027 06:37:24.252   01 Jun 2027 06:38:00.853            36.601                 Moscow          1143.781
        19   01 Jun 2027 06:38:44.686   01 Jun 2027 06:39:24.387            39.701                 Moscow          1240.656
        20   01 Jun 2027 06:53:20.576   01 Jun 2027 06:56:34.004           193.428               CapeTown          6044.625
        21   01 Jun 2027 07:57:36.436   01 Jun 2027 07:57:41.825             5.389                Anadyr1           168.406
        22   01 Jun 2027 07:58:00.238   01 Jun 2027 07:58:04.778             4.540               Magadan2           141.875
        23   01 Jun 2027 07:58:29.681   01 Jun 2027 07:59:54.365            84.684                Anadyr1          2646.375
        24   01 Jun 2027 08:01:10.490   01 Jun 2027 08:02:31.093            80.603                Anadyr2          2518.844
        25   01 Jun 2027 08:32:31.942   01 Jun 2027 08:39:30.451           418.509               CapeTown         13078.406
        26   01 Jun 2027 09:33:03.087   01 Jun 2027 09:33:08.933             5.846                Anadyr2           182.688
        27   01 Jun 2027 09:34:31.888   01 Jun 2027 09:37:50.736           198.848               Magadan2          6214.000
        28   01 Jun 2027 09:38:00.161   01 Jun 2027 09:38:13.984            13.823               Magadan1           431.969
        29   01 Jun 2027 09:38:37.476   01 Jun 2027 09:38:49.340            11.864                Anadyr2           370.750
        30   01 Jun 2027 11:02:44.022   01 Jun 2027 11:04:47.770           123.748               Magadan2          3867.125
        31   01 Jun 2027 11:07:31.222   01 Jun 2027 11:11:54.896           263.674               Magadan2          8239.812
        32   01 Jun 2027 11:11:54.896   01 Jun 2027 11:13:09.113            74.217               Magadan1          2319.281
        33   01 Jun 2027 12:44:29.886   01 Jun 2027 12:47:49.685           199.799               Magadan1          6243.719
        34   01 Jun 2027 13:25:30.952   01 Jun 2027 13:30:24.801           293.849            RioGallegos          9182.781
        35   01 Jun 2027 13:59:57.078   01 Jun 2027 14:00:01.113             4.035                Sumatra           126.094
        36   01 Jun 2027 14:02:52.194   01 Jun 2027 14:06:00.976           188.782                Sumatra          5899.438
        37   01 Jun 2027 14:08:07.339   01 Jun 2027 14:09:41.626            94.287                Sumatra          2946.469
        38   01 Jun 2027 14:14:40.630   01 Jun 2027 14:15:49.021            68.391                Irkutsk          2137.219
        39   01 Jun 2027 14:19:41.238   01 Jun 2027 14:20:40.986            59.748                Irkutsk          1867.125
        40   01 Jun 2027 14:22:29.984   01 Jun 2027 14:24:23.356           113.372                Irkutsk          3542.875
        41   01 Jun 2027 15:44:31.823   01 Jun 2027 15:45:45.415            73.592                  Delhi          2299.750
        42   01 Jun 2027 15:51:57.435   01 Jun 2027 15:54:25.057           147.622                  Delhi          4613.187
        43   01 Jun 2027 15:57:03.608   01 Jun 2027 15:58:14.062            70.454                Novosib          2201.688
        44   01 Jun 2027 17:39:40.673   01 Jun 2027 17:42:44.635           183.962                Norilsk          5748.813
        45   01 Jun 2027 19:06:36.917   01 Jun 2027 19:08:58.007           141.090                 Moscow          4409.062
        46   01 Jun 2027 19:10:21.884   01 Jun 2027 19:11:13.961            52.077              Murmansk1          1627.406
        47   01 Jun 2027 19:11:51.372   01 Jun 2027 19:13:01.980            70.608              Murmansk1          2206.500
        48   01 Jun 2027 20:18:08.974   01 Jun 2027 20:19:14.953            65.979               CapeTown          2061.844
        49   01 Jun 2027 20:20:35.091   01 Jun 2027 20:22:43.351           128.260               CapeTown          4008.125
        50   01 Jun 2027 20:26:21.409   01 Jun 2027 20:27:53.581            92.172               CapeTown          2880.375
        51   01 Jun 2027 20:49:20.350   01 Jun 2027 20:55:30.176           369.826              Murmansk2         11557.063
        52   01 Jun 2027 22:36:42.983   01 Jun 2027 22:37:50.063            67.080               Magadan1          2096.250
        53   01 Jun 2027 22:37:50.063   01 Jun 2027 22:38:36.500            46.437               Magadan2          1451.156
        54   01 Jun 2027 22:45:10.753   01 Jun 2027 22:45:54.952            44.199               Magadan1          1381.219
        55   01 Jun 2027 23:30:11.385   01 Jun 2027 23:33:01.043           169.658            RioGallegos          5301.812
        56   01 Jun 2027 23:35:04.657   01 Jun 2027 23:36:21.952            77.295            RioGallegos          2415.469
        57   02 Jun 2027 00:10:14.715   02 Jun 2027 00:11:42.252            87.537                Anadyr2          2735.531
        58   02 Jun 2027 00:11:50.861   02 Jun 2027 00:11:56.917             6.056                Anadyr1           189.250
        59   02 Jun 2027 00:12:19.213   02 Jun 2027 00:13:55.303            96.090                Norilsk          3002.813
        60   02 Jun 2027 00:14:21.144   02 Jun 2027 00:14:24.446             3.302               Magadan2           103.188
        61   02 Jun 2027 00:15:54.017   02 Jun 2027 00:15:55.597             1.580                Norilsk            49.375
        62   02 Jun 2027 00:16:06.869   02 Jun 2027 00:16:24.133            17.264               Magadan2           539.500
        63   02 Jun 2027 00:16:48.990   02 Jun 2027 00:17:14.378            25.388               Magadan1           793.375
        64   02 Jun 2027 00:17:38.234   02 Jun 2027 00:18:09.755            31.521                Irkutsk           985.031
        65   02 Jun 2027 00:19:17.543   02 Jun 2027 00:19:49.752            32.209                Irkutsk          1006.531
        66   02 Jun 2027 00:21:10.585   02 Jun 2027 00:21:51.969            41.384                Irkutsk          1293.250
        67   02 Jun 2027 00:25:09.723   02 Jun 2027 00:25:37.789            28.066                Irkutsk           877.062
        68   02 Jun 2027 00:31:51.254   02 Jun 2027 00:34:24.110           152.856                Sumatra          4776.750
        69   02 Jun 2027 00:38:19.488   02 Jun 2027 00:40:50.799           151.311                Sumatra          4728.469
        70   02 Jun 2027 01:45:28.642   02 Jun 2027 01:45:34.271             5.629                Anadyr2           175.906
        71   02 Jun 2027 01:47:00.136   02 Jun 2027 01:47:14.492            14.356                Anadyr2           448.625
        72   02 Jun 2027 01:47:42.173   02 Jun 2027 01:48:23.631            41.458                Anadyr1          1295.563
        73   02 Jun 2027 01:48:48.239   02 Jun 2027 01:49:04.957            16.718               Magadan1           522.437
        74   02 Jun 2027 01:49:16.199   02 Jun 2027 01:50:12.758            56.559                Norilsk          1767.469
        75   02 Jun 2027 01:50:27.776   02 Jun 2027 01:50:29.837             2.061               Magadan1            64.406
        76   02 Jun 2027 01:51:37.703   02 Jun 2027 01:51:53.358            15.655                Norilsk           489.219
        77   02 Jun 2027 01:52:03.402   02 Jun 2027 01:54:11.949           128.547                Irkutsk          4017.094
        78   02 Jun 2027 01:54:53.760   02 Jun 2027 01:55:30.270            36.510                Novosib          1140.937
        79   02 Jun 2027 01:55:50.258   02 Jun 2027 01:56:25.411            35.153                Novosib          1098.531
        80   02 Jun 2027 01:59:56.389   02 Jun 2027 02:01:00.306            63.917                Irkutsk          1997.406
        81   02 Jun 2027 02:06:03.138   02 Jun 2027 02:06:32.977            29.839                Sumatra           932.469
        82   02 Jun 2027 02:08:47.442   02 Jun 2027 02:11:46.728           179.286                Sumatra          5602.688
        83   02 Jun 2027 02:41:37.167   02 Jun 2027 02:41:52.511            15.344            RioGallegos           479.500
        84   02 Jun 2027 02:42:47.520   02 Jun 2027 02:43:04.885            17.365            RioGallegos           542.656
        85   02 Jun 2027 02:47:13.950   02 Jun 2027 02:47:39.016            25.066            RioGallegos           783.313
        86   02 Jun 2027 02:52:09.769   02 Jun 2027 02:52:10.407             0.638            RioGallegos            19.938
        87   02 Jun 2027 03:28:31.396   02 Jun 2027 03:29:57.860            86.464               Magadan1          2702.000
        88   02 Jun 2027 03:31:57.833   02 Jun 2027 03:32:31.551            33.718                Norilsk          1053.688
        89   02 Jun 2027 03:32:35.806   02 Jun 2027 03:35:06.404           150.598                Irkutsk          4706.188
        90   02 Jun 2027 03:35:52.058   02 Jun 2027 03:38:20.998           148.940                  Delhi          4654.375
        91   02 Jun 2027 03:42:07.816   02 Jun 2027 03:44:23.334           135.518                  Delhi          4234.937
        92   02 Jun 2027 04:17:24.806   02 Jun 2027 04:23:35.533           370.727            RioGallegos         11585.219
        93   02 Jun 2027 05:08:21.385   02 Jun 2027 05:10:15.823           114.438                Irkutsk          3576.188
        94   02 Jun 2027 05:11:38.818   02 Jun 2027 05:13:45.028           126.210                Novosib          3944.062
        95   02 Jun 2027 05:14:35.512   02 Jun 2027 05:19:49.674           314.162                  Delhi          9817.563
        96   02 Jun 2027 06:47:10.347   02 Jun 2027 06:47:51.517            41.170              Murmansk2          1286.563
        97   02 Jun 2027 06:48:18.245   02 Jun 2027 06:49:08.511            50.266              Murmansk2          1570.812
        98   02 Jun 2027 06:52:29.156   02 Jun 2027 06:53:18.014            48.858                 Moscow          1526.812
        99   02 Jun 2027 08:09:21.812   02 Jun 2027 08:13:11.137           229.325                Anadyr1          7166.406
       100   02 Jun 2027 08:14:36.171   02 Jun 2027 08:14:36.951             0.780               Magadan1            24.375
       101   02 Jun 2027 09:45:00.011   02 Jun 2027 09:46:06.168            66.157                Anadyr1          2067.406
       102   02 Jun 2027 09:46:27.603   02 Jun 2027 09:47:20.622            53.019               Magadan2          1656.844
       103   02 Jun 2027 09:48:32.173   02 Jun 2027 09:49:47.603            75.430                Anadyr1          2357.188
       104   02 Jun 2027 11:15:07.864   02 Jun 2027 11:15:44.976            37.112               Magadan1          1159.750
       105   02 Jun 2027 11:16:45.056   02 Jun 2027 11:17:11.482            26.426               Magadan2           825.812
       106   02 Jun 2027 11:17:11.482   02 Jun 2027 11:18:21.756            70.274               Magadan1          2196.063
       107   02 Jun 2027 11:20:07.613   02 Jun 2027 11:22:08.247           120.634               Magadan1          3769.813
       108   02 Jun 2027 11:22:24.453   02 Jun 2027 11:22:35.739            11.286                Irkutsk           352.687
       109   02 Jun 2027 11:22:49.378   02 Jun 2027 11:22:52.994             3.616                Norilsk           113.000
       110   02 Jun 2027 11:23:17.896   02 Jun 2027 11:23:26.388             8.492                Irkutsk           265.375
       111   02 Jun 2027 11:23:27.345   02 Jun 2027 11:23:47.220            19.875                Norilsk           621.094
       112   02 Jun 2027 11:23:52.030   02 Jun 2027 11:24:53.114            61.084                Anadyr1          1908.875
       113   02 Jun 2027 11:24:58.281   02 Jun 2027 11:25:06.937             8.656                Norilsk           270.500
       114   02 Jun 2027 11:25:08.564   02 Jun 2027 11:26:03.406            54.842                Irkutsk          1713.812
       115   02 Jun 2027 11:26:11.165   02 Jun 2027 11:26:16.246             5.081               Magadan1           158.781
       116   02 Jun 2027 11:26:20.736   02 Jun 2027 11:27:19.121            58.385                Norilsk          1824.531
       117   02 Jun 2027 12:01:12.245   02 Jun 2027 12:02:29.521            77.276            RioGallegos          2414.875
       118   02 Jun 2027 12:40:15.551   02 Jun 2027 12:40:59.858            44.307                Sumatra          1384.594
       119   02 Jun 2027 12:49:28.534   02 Jun 2027 12:50:50.437            81.903                Irkutsk          2559.469
       120   02 Jun 2027 12:51:24.825   02 Jun 2027 12:52:38.992            74.167                Irkutsk          2317.719
       121   02 Jun 2027 12:57:42.662   02 Jun 2027 12:58:17.675            35.013                Norilsk          1094.156
       122   02 Jun 2027 13:37:51.553   02 Jun 2027 13:38:28.694            37.141            RioGallegos          1160.656
       123   02 Jun 2027 13:39:38.133   02 Jun 2027 13:42:59.421           201.288            RioGallegos          6290.250
       124   02 Jun 2027 14:12:10.850   02 Jun 2027 14:13:15.034            64.184                Sumatra          2005.750
       125   02 Jun 2027 14:27:11.213   02 Jun 2027 14:29:11.240           120.027                Irkutsk          3750.844
       126   02 Jun 2027 14:31:23.571   02 Jun 2027 14:32:53.992            90.421                Irkutsk          2825.656
       127   02 Jun 2027 14:35:54.330   02 Jun 2027 14:37:34.944           100.614                Irkutsk          3144.187
       128   02 Jun 2027 15:56:56.732   02 Jun 2027 16:00:22.966           206.234                  Delhi          6444.813
       129   02 Jun 2027 16:01:35.339   02 Jun 2027 16:02:40.669            65.330                  Delhi          2041.562
       130   02 Jun 2027 16:05:14.365   02 Jun 2027 16:07:56.713           162.348                Novosib          5073.375
       131   02 Jun 2027 16:10:37.154   02 Jun 2027 16:11:10.820            33.666                Novosib          1052.063
       132   02 Jun 2027 17:43:46.049   02 Jun 2027 17:44:32.951            46.902                 Moscow          1465.687
       133   02 Jun 2027 17:44:51.488   02 Jun 2027 17:45:30.381            38.893              Murmansk2          1215.406
       134   02 Jun 2027 17:50:00.753   02 Jun 2027 17:54:13.445           252.692                Norilsk          7896.625
       135   02 Jun 2027 19:05:15.891   02 Jun 2027 19:05:55.018            39.127               CapeTown          1222.719
       136   02 Jun 2027 19:19:16.920   02 Jun 2027 19:25:38.023           381.103                 Moscow         11909.469
       137   02 Jun 2027 20:30:22.518   02 Jun 2027 20:30:36.938            14.420               CapeTown           450.625
       138   02 Jun 2027 20:32:13.639   02 Jun 2027 20:34:02.852           109.213               CapeTown          3412.906
       139   02 Jun 2027 20:38:37.107   02 Jun 2027 20:40:10.359            93.252               CapeTown          2914.125
       140   02 Jun 2027 21:02:08.418   02 Jun 2027 21:08:14.968           366.550              Murmansk1         11454.688
       141   02 Jun 2027 22:46:27.574   02 Jun 2027 22:47:27.774            60.200                Anadyr2          1881.250
       142   02 Jun 2027 22:47:44.673   02 Jun 2027 22:47:57.637            12.964                Anadyr2           405.125
       143   02 Jun 2027 22:48:43.631   02 Jun 2027 22:49:46.824            63.193               Magadan1          1974.781
       144   02 Jun 2027 22:49:46.824   02 Jun 2027 22:50:34.742            47.918               Magadan2          1497.438
       145   02 Jun 2027 22:51:01.715   02 Jun 2027 22:51:54.750            53.035               Magadan1          1657.344
       146   02 Jun 2027 22:52:32.750   02 Jun 2027 22:52:37.175             4.425               Magadan1           138.281
       147   02 Jun 2027 22:53:12.239   02 Jun 2027 22:53:40.793            28.554               Magadan1           892.312
       148   02 Jun 2027 22:53:40.793   02 Jun 2027 22:54:05.033            24.240               Magadan2           757.500
       149   02 Jun 2027 22:55:26.005   02 Jun 2027 22:55:49.556            23.551               Magadan2           735.969
       150   02 Jun 2027 23:41:40.433   02 Jun 2027 23:44:47.961           187.528            RioGallegos          5860.250
       151   02 Jun 2027 23:47:46.950   02 Jun 2027 23:48:15.822            28.872            RioGallegos           902.250
       152   03 Jun 2027 00:22:13.838   03 Jun 2027 00:23:37.942            84.104                Anadyr1          2628.250
       153   03 Jun 2027 00:24:18.149   03 Jun 2027 00:26:55.200           157.051                Norilsk          4907.844
       154   03 Jun 2027 00:28:53.075   03 Jun 2027 00:30:09.132            76.057                Irkutsk          2376.781
       155   03 Jun 2027 00:30:52.828   03 Jun 2027 00:32:22.252            89.424                Irkutsk          2794.500
       156   03 Jun 2027 00:43:12.603   03 Jun 2027 00:46:08.692           176.089                Sumatra          5502.781
       157   03 Jun 2027 01:22:12.902   03 Jun 2027 01:23:22.269            69.367            RioGallegos          2167.719
       158   03 Jun 2027 01:57:20.515   03 Jun 2027 01:57:40.942            20.427                Anadyr1           638.344
       159   03 Jun 2027 01:58:17.996   03 Jun 2027 01:58:50.538            32.542                Anadyr1          1016.937
       160   03 Jun 2027 01:59:41.424   03 Jun 2027 01:59:47.873             6.449                Anadyr2           201.531
       161   03 Jun 2027 02:00:10.909   03 Jun 2027 02:01:41.785            90.876                Norilsk          2839.875
       162   03 Jun 2027 02:02:06.941   03 Jun 2027 02:02:15.013             8.072                Norilsk           252.250
       163   03 Jun 2027 02:02:57.042   03 Jun 2027 02:03:16.275            19.233               Magadan2           601.031
       164   03 Jun 2027 02:04:04.219   03 Jun 2027 02:06:59.091           174.872                Irkutsk          5464.750
       165   03 Jun 2027 02:13:14.424   03 Jun 2027 02:13:22.671             8.247                  Delhi           257.719
       166   03 Jun 2027 02:15:56.715   03 Jun 2027 02:16:03.177             6.462                  Delhi           201.938
       167   03 Jun 2027 02:16:34.794   03 Jun 2027 02:17:13.850            39.056                  Delhi          1220.500
       168   03 Jun 2027 02:18:20.350   03 Jun 2027 02:20:20.175           119.825                Sumatra          3744.531
       169   03 Jun 2027 02:23:10.094   03 Jun 2027 02:28:13.713           303.619                Sumatra          9488.094
       170   03 Jun 2027 03:40:55.217   03 Jun 2027 03:41:25.697            30.480               Magadan1           952.500
       171   03 Jun 2027 03:44:09.250   03 Jun 2027 03:44:51.938            42.688              Murmansk1          1334.000
       172   03 Jun 2027 03:45:20.373   03 Jun 2027 03:49:31.492           251.119                Novosib          7847.469
       173   03 Jun 2027 03:49:32.765   03 Jun 2027 03:53:52.765           260.000                  Delhi          8125.000
       174   03 Jun 2027 03:56:34.594   03 Jun 2027 03:59:58.723           204.129                  Delhi          6379.031
       175   03 Jun 2027 04:29:51.836   03 Jun 2027 04:34:52.075           300.239            RioGallegos          9382.469
       176   03 Jun 2027 05:18:42.677   03 Jun 2027 05:19:14.841            32.164                Irkutsk          1005.125
       177   03 Jun 2027 05:20:16.120   03 Jun 2027 05:20:50.617            34.497                Irkutsk          1078.031
       178   03 Jun 2027 05:22:08.655   03 Jun 2027 05:24:29.323           140.668                Novosib          4395.875
       179   03 Jun 2027 05:24:57.529   03 Jun 2027 05:25:41.721            44.192              Murmansk2          1381.000
       180   03 Jun 2027 05:26:56.390   03 Jun 2027 05:26:57.860             1.470                Novosib            45.937
       181   03 Jun 2027 05:27:04.137   03 Jun 2027 05:29:56.060           171.923                  Delhi          5372.594
       182   03 Jun 2027 06:57:45.071   03 Jun 2027 06:58:02.961            17.890                Norilsk           559.062
       183   03 Jun 2027 06:58:38.172   03 Jun 2027 06:59:05.247            27.075              Murmansk1           846.094
       184   03 Jun 2027 06:59:30.129   03 Jun 2027 06:59:40.545            10.416              Murmansk1           325.500
       185   03 Jun 2027 06:59:41.347   03 Jun 2027 07:00:21.157            39.810                 Moscow          1244.063
       186   03 Jun 2027 07:01:14.167   03 Jun 2027 07:01:26.846            12.679                 Moscow           396.219
       187   03 Jun 2027 07:04:32.644   03 Jun 2027 07:05:14.431            41.787                 Moscow          1305.844
       188   03 Jun 2027 07:17:47.070   03 Jun 2027 07:20:05.125           138.055               CapeTown          4314.219
       189   03 Jun 2027 07:27:00.739   03 Jun 2027 07:27:14.843            14.104               CapeTown           440.750
       190   03 Jun 2027 08:20:17.621   03 Jun 2027 08:21:22.973            65.352                Anadyr1          2042.250
       191   03 Jun 2027 08:21:38.768   03 Jun 2027 08:21:41.208             2.440               Magadan1            76.250
       192   03 Jun 2027 08:22:40.325   03 Jun 2027 08:22:57.419            17.094                Anadyr1           534.187
       193   03 Jun 2027 08:23:58.025   03 Jun 2027 08:25:11.377            73.352                Anadyr2          2292.250
       194   03 Jun 2027 09:56:59.217   03 Jun 2027 09:57:58.015            58.798               Magadan2          1837.438
       195   03 Jun 2027 09:58:21.723   03 Jun 2027 09:58:55.376            33.653               Magadan2          1051.656
       196   03 Jun 2027 09:59:25.656   03 Jun 2027 10:00:44.991            79.335               Magadan2          2479.219
       197   03 Jun 2027 11:27:35.688   03 Jun 2027 11:28:39.538            63.850               Magadan2          1995.312
       198   03 Jun 2027 11:31:08.842   03 Jun 2027 11:33:00.253           111.411               Magadan1          3481.594
       199   03 Jun 2027 11:34:19.653   03 Jun 2027 11:35:29.403            69.750                Norilsk          2179.688
       200   03 Jun 2027 11:35:48.685   03 Jun 2027 11:36:03.133            14.448                Norilsk           451.500
       201   03 Jun 2027 11:36:12.808   03 Jun 2027 11:37:25.550            72.742                Norilsk          2273.188
       202   03 Jun 2027 11:37:35.025   03 Jun 2027 11:38:11.070            36.045               Magadan2          1126.406
       203   03 Jun 2027 11:38:22.957   03 Jun 2027 11:38:24.979             2.022                Norilsk            63.187
       204   03 Jun 2027 12:13:07.352   03 Jun 2027 12:14:28.829            81.477            RioGallegos          2546.156
       205   03 Jun 2027 12:48:57.586   03 Jun 2027 12:50:10.864            73.278                Sumatra          2289.937
       206   03 Jun 2027 12:58:12.681   03 Jun 2027 12:58:52.809            40.128                Sumatra          1254.000
       207   03 Jun 2027 13:01:30.701   03 Jun 2027 13:04:48.190           197.489                Irkutsk          6171.531
       208   03 Jun 2027 13:50:17.032   03 Jun 2027 13:51:30.791            73.759            RioGallegos          2304.969
       209   03 Jun 2027 13:55:14.705   03 Jun 2027 13:55:41.602            26.897            RioGallegos           840.531
       210   03 Jun 2027 13:57:58.173   03 Jun 2027 14:00:15.292           137.119            RioGallegos          4284.969
       211   03 Jun 2027 14:24:31.826   03 Jun 2027 14:30:08.048           336.222                Sumatra         10506.937
       212   03 Jun 2027 14:39:48.164   03 Jun 2027 14:39:58.169            10.005                Irkutsk           312.656
       213   03 Jun 2027 14:42:58.713   03 Jun 2027 14:45:58.937           180.224                Irkutsk          5632.000
       214   03 Jun 2027 16:09:30.567   03 Jun 2027 16:16:04.627           394.060                  Delhi         12314.375
       215   03 Jun 2027 16:17:55.925   03 Jun 2027 16:19:34.003            98.078                Novosib          3064.937
       216   03 Jun 2027 16:20:16.893   03 Jun 2027 16:24:25.827           248.934                Novosib          7779.187
       217   03 Jun 2027 18:03:08.741   03 Jun 2027 18:04:05.875            57.134                Norilsk          1785.437
       218   03 Jun 2027 18:05:35.546   03 Jun 2027 18:06:09.983            34.437                Norilsk          1076.156
       219   03 Jun 2027 19:32:05.094   03 Jun 2027 19:32:39.787            34.693                 Moscow          1084.156
       220   03 Jun 2027 19:33:13.847   03 Jun 2027 19:39:58.258           404.411                 Moscow         12637.844
       221   03 Jun 2027 20:45:41.277   03 Jun 2027 20:47:48.172           126.895               CapeTown          3965.469
       222   03 Jun 2027 21:15:03.275   03 Jun 2027 21:20:02.341           299.066              Murmansk2          9345.812
       223   03 Jun 2027 22:58:29.123   03 Jun 2027 22:58:41.435            12.312                Anadyr2           384.750
       224   03 Jun 2027 22:58:52.107   03 Jun 2027 22:59:11.161            19.054                Anadyr2           595.437
       225   03 Jun 2027 22:59:58.444   03 Jun 2027 23:00:19.203            20.759                Anadyr2           648.719
       226   03 Jun 2027 23:00:44.754   03 Jun 2027 23:01:56.518            71.764               Magadan2          2242.625
       227   03 Jun 2027 23:02:25.568   03 Jun 2027 23:02:36.275            10.707               Magadan2           334.594
       228   03 Jun 2027 23:03:46.093   03 Jun 2027 23:04:15.558            29.465               Magadan1           920.781
       229   03 Jun 2027 23:04:15.558   03 Jun 2027 23:04:28.378            12.820               Magadan2           400.625
       230   03 Jun 2027 23:05:32.296   03 Jun 2027 23:05:51.637            19.341               Magadan2           604.406
       231   03 Jun 2027 23:07:17.741   03 Jun 2027 23:07:58.402            40.661               Magadan2          1270.656
       232   03 Jun 2027 23:13:01.794   03 Jun 2027 23:13:11.320             9.526               Magadan1           297.688
       233   03 Jun 2027 23:53:19.113   03 Jun 2027 23:56:38.279           199.166            RioGallegos          6223.938
       234   04 Jun 2027 00:01:17.612   04 Jun 2027 00:01:45.976            28.364            RioGallegos           886.375
       235   04 Jun 2027 00:34:12.363   04 Jun 2027 00:35:27.703            75.340                Anadyr1          2354.375
       236   04 Jun 2027 00:35:30.437   04 Jun 2027 00:35:41.090            10.653                Anadyr2           332.906
       237   04 Jun 2027 00:36:17.974   04 Jun 2027 00:37:58.693           100.719                Norilsk          3147.469
       238   04 Jun 2027 00:38:50.192   04 Jun 2027 00:38:55.421             5.229               Magadan1           163.406
       239   04 Jun 2027 00:39:02.638   04 Jun 2027 00:39:25.482            22.844               Magadan1           713.875
       240   04 Jun 2027 00:39:41.063   04 Jun 2027 00:39:59.912            18.849                Norilsk           589.031
       241   04 Jun 2027 00:40:13.700   04 Jun 2027 00:40:15.260             1.560               Magadan1            48.750
       242   04 Jun 2027 00:40:42.441   04 Jun 2027 00:42:09.524            87.083                Irkutsk          2721.344
       243   04 Jun 2027 00:45:26.325   04 Jun 2027 00:46:36.113            69.788                Irkutsk          2180.875
       244   04 Jun 2027 00:49:09.698   04 Jun 2027 00:50:56.003           106.305                Irkutsk          3322.031
       245   04 Jun 2027 00:54:44.889   04 Jun 2027 00:55:19.159            34.270                Sumatra          1070.937
       246   04 Jun 2027 01:01:26.323   04 Jun 2027 01:01:49.317            22.994                Sumatra           718.562
       247   04 Jun 2027 01:28:11.538   04 Jun 2027 01:28:42.463            30.925            RioGallegos           966.406
       248   04 Jun 2027 01:30:52.186   04 Jun 2027 01:31:20.202            28.016            RioGallegos           875.500
       249   04 Jun 2027 01:35:21.772   04 Jun 2027 01:35:39.946            18.174            RioGallegos           567.937
       250   04 Jun 2027 01:39:35.238   04 Jun 2027 01:40:01.242            26.004            RioGallegos           812.625
       251   04 Jun 2027 02:09:23.589   04 Jun 2027 02:09:41.282            17.693                Anadyr2           552.906
       252   04 Jun 2027 02:10:19.500   04 Jun 2027 02:10:36.986            17.486                Anadyr2           546.438
       253   04 Jun 2027 02:11:14.742   04 Jun 2027 02:11:33.194            18.452                Anadyr1           576.625
       254   04 Jun 2027 02:11:40.067   04 Jun 2027 02:11:57.284            17.217                Anadyr2           538.031
       255   04 Jun 2027 02:12:13.308   04 Jun 2027 02:13:34.567            81.259                Norilsk          2539.344
       256   04 Jun 2027 02:16:05.935   04 Jun 2027 02:18:25.006           139.071                Irkutsk          4345.969
       257   04 Jun 2027 02:18:58.964   04 Jun 2027 02:19:52.413            53.449                Novosib          1670.281
       258   04 Jun 2027 02:24:40.325   04 Jun 2027 02:25:24.334            44.009                  Delhi          1375.281
       259   04 Jun 2027 02:30:45.533   04 Jun 2027 02:36:45.882           360.349                Sumatra         11260.906
       260   04 Jun 2027 03:52:24.693   04 Jun 2027 03:52:49.325            24.632               Magadan1           769.750
       261   04 Jun 2027 03:55:55.521   04 Jun 2027 03:56:44.456            48.935              Murmansk1          1529.219
       262   04 Jun 2027 03:56:49.652   04 Jun 2027 04:01:16.283           266.631                Irkutsk          8332.219
       263   04 Jun 2027 04:03:43.911   04 Jun 2027 04:05:31.542           107.631                  Delhi          3363.469
       264   04 Jun 2027 04:08:45.319   04 Jun 2027 04:11:48.104           182.785                  Delhi          5712.031
       265   04 Jun 2027 04:42:35.986   04 Jun 2027 04:45:35.681           179.695            RioGallegos          5615.469
       266   04 Jun 2027 05:33:26.817   04 Jun 2027 05:33:35.895             9.078                 Moscow           283.688
       267   04 Jun 2027 05:34:10.006   04 Jun 2027 05:36:12.229           122.223                Novosib          3819.469
       268   04 Jun 2027 05:36:29.967   04 Jun 2027 05:37:50.557            80.590                Novosib          2518.437
       269   04 Jun 2027 05:54:42.076   04 Jun 2027 05:55:33.502            51.426               CapeTown          1607.062
       270   04 Jun 2027 05:58:39.276   04 Jun 2027 05:59:51.916            72.640               CapeTown          2270.000
       271   04 Jun 2027 07:09:11.474   04 Jun 2027 07:09:25.081            13.607                Norilsk           425.219
       272   04 Jun 2027 07:10:37.123   04 Jun 2027 07:10:58.986            21.863              Murmansk1           683.219
       273   04 Jun 2027 07:11:25.647   04 Jun 2027 07:11:28.986             3.339              Murmansk1           104.344
       274   04 Jun 2027 07:11:28.986   04 Jun 2027 07:11:43.628            14.642              Murmansk2           457.562
       275   04 Jun 2027 07:11:48.670   04 Jun 2027 07:13:29.518           100.848                 Moscow          3151.500
       276   04 Jun 2027 07:29:43.886   04 Jun 2027 07:30:08.861            24.975               CapeTown           780.469
       277   04 Jun 2027 07:30:45.825   04 Jun 2027 07:32:27.909           102.084               CapeTown          3190.125
       278   04 Jun 2027 07:38:25.121   04 Jun 2027 07:39:32.874            67.753               CapeTown          2117.281
       279   04 Jun 2027 08:33:05.163   04 Jun 2027 08:33:13.617             8.454               Magadan1           264.188
       280   04 Jun 2027 08:33:21.775   04 Jun 2027 08:33:39.511            17.736               Magadan1           554.250
       281   04 Jun 2027 08:34:25.063   04 Jun 2027 08:34:53.485            28.422                Anadyr2           888.187
       282   04 Jun 2027 08:35:15.193   04 Jun 2027 08:36:08.930            53.737                Anadyr2          1679.281
       283   04 Jun 2027 08:36:58.196   04 Jun 2027 08:37:29.538            31.342               Magadan2           979.437
       284   04 Jun 2027 10:05:25.371   04 Jun 2027 10:06:12.220            46.849                Anadyr2          1464.031
       285   04 Jun 2027 10:08:59.222   04 Jun 2027 10:10:13.761            74.539               Magadan1          2329.344
       286   04 Jun 2027 10:10:35.719   04 Jun 2027 10:10:42.593             6.874               Magadan1           214.813
       287   04 Jun 2027 10:11:33.367   04 Jun 2027 10:12:25.241            51.874               Magadan2          1621.063
       288   04 Jun 2027 10:51:06.157   04 Jun 2027 10:51:13.889             7.732            RioGallegos           241.625
       289   04 Jun 2027 10:51:54.672   04 Jun 2027 10:52:19.133            24.461            RioGallegos           764.406
       290   04 Jun 2027 11:40:07.984   04 Jun 2027 11:50:03.975           595.991               Magadan2         18624.719
       291   04 Jun 2027 14:02:48.097   04 Jun 2027 14:03:44.042            55.945            RioGallegos          1748.281
       292   04 Jun 2027 14:06:55.601   04 Jun 2027 14:08:33.938            98.337            RioGallegos          3073.031
       293   04 Jun 2027 14:12:07.231   04 Jun 2027 14:12:51.525            44.294            RioGallegos          1384.187
       294   04 Jun 2027 14:37:01.830   04 Jun 2027 14:43:39.929           398.099                Sumatra         12440.594
       295   04 Jun 2027 14:54:20.780   04 Jun 2027 14:59:35.507           314.727                Irkutsk          9835.219
       296   04 Jun 2027 16:23:20.957   04 Jun 2027 16:31:02.556           461.599                  Delhi         14424.969
       297   04 Jun 2027 16:31:30.769   04 Jun 2027 16:38:22.728           411.959                Novosib         12873.719
       298   04 Jun 2027 19:45:04.975   04 Jun 2027 19:51:30.482           385.507                 Moscow         12047.094
       299   04 Jun 2027 19:51:38.862   04 Jun 2027 19:51:54.374            15.512              Murmansk2           484.750
       300   04 Jun 2027 20:56:58.126   04 Jun 2027 21:00:47.942           229.816               CapeTown          7181.750
       301   04 Jun 2027 21:28:09.832   04 Jun 2027 21:31:40.101           210.269              Murmansk1          6570.906
       302   04 Jun 2027 23:15:22.688   04 Jun 2027 23:15:30.413             7.725               Magadan2           241.406
       303   04 Jun 2027 23:16:05.884   04 Jun 2027 23:16:17.985            12.101               Magadan2           378.156
       304   04 Jun 2027 23:16:29.029   04 Jun 2027 23:16:38.567             9.538               Magadan2           298.063
       305   04 Jun 2027 23:17:42.098   04 Jun 2027 23:17:59.411            17.313               Magadan1           541.031
       306   04 Jun 2027 23:23:24.052   04 Jun 2027 23:23:34.702            10.650               Magadan2           332.813
       307   04 Jun 2027 23:24:39.373   04 Jun 2027 23:25:41.647            62.274               Magadan2          1946.063
       308   05 Jun 2027 00:05:03.660   05 Jun 2027 00:08:03.264           179.604            RioGallegos          5612.625
       309   05 Jun 2027 00:11:44.459   05 Jun 2027 00:12:00.124            15.665            RioGallegos           489.531
       310   05 Jun 2027 00:13:49.638   05 Jun 2027 00:14:28.567            38.929            RioGallegos          1216.531
       311   05 Jun 2027 00:46:10.198   05 Jun 2027 00:47:21.887            71.689                Anadyr2          2240.281
       312   05 Jun 2027 00:48:18.466   05 Jun 2027 00:48:53.786            35.320                Norilsk          1103.750
       313   05 Jun 2027 00:49:07.095   05 Jun 2027 00:49:12.637             5.542               Magadan2           173.187
       314   05 Jun 2027 00:49:33.281   05 Jun 2027 00:50:18.430            45.149                Norilsk          1410.906
       315   05 Jun 2027 00:50:54.341   05 Jun 2027 00:51:05.139            10.798               Magadan1           337.438
       316   05 Jun 2027 00:51:12.685   05 Jun 2027 00:51:29.620            16.935                Norilsk           529.219
       317   05 Jun 2027 00:52:13.814   05 Jun 2027 00:52:58.810            44.996               Magadan1          1406.125
       318   05 Jun 2027 00:53:12.691   05 Jun 2027 00:54:10.840            58.149                Irkutsk          1817.156
       319   05 Jun 2027 00:55:00.989   05 Jun 2027 00:55:24.576            23.587                Novosib           737.094
       320   05 Jun 2027 00:55:36.596   05 Jun 2027 00:56:03.977            27.381                Novosib           855.656
       321   05 Jun 2027 00:57:00.366   05 Jun 2027 00:57:43.803            43.437                Novosib          1357.406
       322   05 Jun 2027 01:06:25.496   05 Jun 2027 01:08:42.705           137.209                Sumatra          4287.781
       323   05 Jun 2027 01:40:12.385   05 Jun 2027 01:40:35.997            23.612            RioGallegos           737.875
       324   05 Jun 2027 01:42:28.447   05 Jun 2027 01:42:47.957            19.510            RioGallegos           609.687
       325   05 Jun 2027 01:43:49.797   05 Jun 2027 01:44:09.754            19.957            RioGallegos           623.656
       326   05 Jun 2027 01:46:56.508   05 Jun 2027 01:47:14.833            18.325            RioGallegos           572.656
       327   05 Jun 2027 01:48:55.833   05 Jun 2027 01:49:42.800            46.967            RioGallegos          1467.719
       328   05 Jun 2027 02:21:00.330   05 Jun 2027 02:21:05.529             5.199                Anadyr1           162.469
       329   05 Jun 2027 02:21:32.227   05 Jun 2027 02:21:39.062             6.835                Anadyr1           213.594
       330   05 Jun 2027 02:22:16.755   05 Jun 2027 02:22:46.344            29.589                Anadyr1           924.656
       331   05 Jun 2027 02:23:37.944   05 Jun 2027 02:23:40.981             3.037                Anadyr2            94.906
       332   05 Jun 2027 02:24:15.767   05 Jun 2027 02:25:26.694            70.927                Norilsk          2216.469
       333   05 Jun 2027 02:26:34.648   05 Jun 2027 02:27:27.059            52.411               Magadan2          1637.844
       334   05 Jun 2027 02:28:08.494   05 Jun 2027 02:29:25.884            77.390                Irkutsk          2418.437
       335   05 Jun 2027 02:31:22.454   05 Jun 2027 02:31:41.874            19.420                Irkutsk           606.875
       336   05 Jun 2027 02:33:22.202   05 Jun 2027 02:33:53.914            31.712                Novosib           991.000
       337   05 Jun 2027 02:36:48.946   05 Jun 2027 02:37:05.786            16.840                  Delhi           526.250
       338   05 Jun 2027 02:37:23.932   05 Jun 2027 02:39:04.711           100.779                  Delhi          3149.344
       339   05 Jun 2027 02:43:21.258   05 Jun 2027 02:52:43.078           561.820                Sumatra         17556.875
       340   05 Jun 2027 04:07:27.425   05 Jun 2027 04:08:25.439            58.014                Irkutsk          1812.937
       341   05 Jun 2027 04:09:19.859   05 Jun 2027 04:13:26.263           246.404                Irkutsk          7700.125
       342   05 Jun 2027 04:13:26.352   05 Jun 2027 04:14:12.786            46.434                Irkutsk          1451.062
       343   05 Jun 2027 04:14:19.140   05 Jun 2027 04:16:00.914           101.774                Novosib          3180.437
       344   05 Jun 2027 04:18:59.417   05 Jun 2027 04:23:31.692           272.275                  Delhi          8508.594
       345   05 Jun 2027 05:44:37.787   05 Jun 2027 05:48:54.310           256.523                Novosib          8016.344
       346   05 Jun 2027 05:52:19.362   05 Jun 2027 05:52:31.388            12.026                 Moscow           375.813
       347   05 Jun 2027 05:52:43.752   05 Jun 2027 05:53:14.451            30.699                 Moscow           959.344
       348   05 Jun 2027 06:06:18.223   05 Jun 2027 06:07:28.134            69.911               CapeTown          2184.719
       349   05 Jun 2027 06:12:18.636   05 Jun 2027 06:12:37.166            18.530               CapeTown           579.062
       350   05 Jun 2027 06:17:32.548   05 Jun 2027 06:17:40.975             8.427               CapeTown           263.344
       351   05 Jun 2027 07:10:03.774   05 Jun 2027 07:10:06.362             2.588                Anadyr2            80.875
       352   05 Jun 2027 07:10:06.362   05 Jun 2027 07:10:14.496             8.134                Anadyr1           254.187
       353   05 Jun 2027 07:11:19.373   05 Jun 2027 07:11:54.771            35.398                Anadyr2          1106.188
       354   05 Jun 2027 07:12:40.329   05 Jun 2027 07:12:56.537            16.208               Magadan2           506.500
       355   05 Jun 2027 07:21:13.298   05 Jun 2027 07:21:38.093            24.795                Norilsk           774.844
       356   05 Jun 2027 07:22:00.212   05 Jun 2027 07:22:05.010             4.798                Norilsk           149.938
       357   05 Jun 2027 07:22:36.473   05 Jun 2027 07:22:51.646            15.173              Murmansk1           474.156
       358   05 Jun 2027 07:23:16.935   05 Jun 2027 07:23:40.347            23.412              Murmansk1           731.625
       359   05 Jun 2027 07:23:42.827   05 Jun 2027 07:23:58.061            15.234              Murmansk2           476.063
       360   05 Jun 2027 07:24:52.698   05 Jun 2027 07:25:22.051            29.353              Murmansk2           917.281
       361   05 Jun 2027 07:28:53.411   05 Jun 2027 07:29:37.055            43.644                 Moscow          1363.875
       362   05 Jun 2027 07:42:03.275   05 Jun 2027 07:43:20.423            77.148               CapeTown          2410.875
       363   05 Jun 2027 07:49:30.580   05 Jun 2027 07:51:57.771           147.191               CapeTown          4599.719
       364   05 Jun 2027 08:44:57.031   05 Jun 2027 08:45:07.754            10.723               Magadan2           335.094
       365   05 Jun 2027 08:45:24.325   05 Jun 2027 08:46:47.934            83.609                Anadyr1          2612.781
       366   05 Jun 2027 08:46:55.301   05 Jun 2027 08:47:49.643            54.342               Magadan2          1698.187
       367   05 Jun 2027 08:47:50.978   05 Jun 2027 08:47:54.528             3.550                Anadyr1           110.938
       368   05 Jun 2027 08:49:10.232   05 Jun 2027 08:50:05.127            54.895                Anadyr2          1715.469
       369   05 Jun 2027 10:17:25.051   05 Jun 2027 10:18:00.284            35.233                Anadyr2          1101.031
       370   05 Jun 2027 10:20:58.569   05 Jun 2027 10:22:02.987            64.418               Magadan2          2013.063
       371   05 Jun 2027 10:23:06.815   05 Jun 2027 10:23:19.835            13.020               Magadan1           406.875
       372   05 Jun 2027 10:23:43.857   05 Jun 2027 10:24:40.126            56.269               Magadan1          1758.406
       373   05 Jun 2027 10:24:41.802   05 Jun 2027 10:26:37.766           115.964                Anadyr2          3623.875
       374   05 Jun 2027 11:52:45.471   05 Jun 2027 11:55:40.136           174.665               Magadan1          5458.281
       375   05 Jun 2027 11:56:23.040   05 Jun 2027 11:58:46.743           143.703               Magadan1          4490.719
       376   05 Jun 2027 11:59:04.575   05 Jun 2027 12:01:54.320           169.745               Magadan2          5304.531
       377   05 Jun 2027 12:46:02.591   05 Jun 2027 12:46:45.487            42.896            RioGallegos          1340.500
       378   05 Jun 2027 12:47:53.924   05 Jun 2027 12:49:59.889           125.965            RioGallegos          3936.406
       379   05 Jun 2027 13:20:08.555   05 Jun 2027 13:20:40.810            32.255                Sumatra          1007.969
       380   05 Jun 2027 13:25:45.229   05 Jun 2027 13:26:00.308            15.079                Irkutsk           471.219
       381   05 Jun 2027 13:28:48.657   05 Jun 2027 13:29:52.807            64.150                Irkutsk          2004.688
       382   05 Jun 2027 13:30:16.625   05 Jun 2027 13:30:25.167             8.542                Irkutsk           266.938
       383   05 Jun 2027 13:32:33.246   05 Jun 2027 13:35:11.078           157.832                Irkutsk          4932.250
       384   05 Jun 2027 14:15:25.841   05 Jun 2027 14:21:42.296           376.455            RioGallegos         11764.219
       385   05 Jun 2027 14:49:45.933   05 Jun 2027 14:58:17.504           511.571                Sumatra         15986.594
       386   05 Jun 2027 15:05:29.112   05 Jun 2027 15:12:35.087           425.975                Irkutsk         13311.719
       387   05 Jun 2027 16:35:21.343   05 Jun 2027 16:42:10.727           409.384                  Delhi         12793.250
       388   05 Jun 2027 16:43:49.441   05 Jun 2027 16:49:52.248           362.807                Novosib         11337.719
       389   05 Jun 2027 19:58:26.640   05 Jun 2027 20:02:44.039           257.399                 Moscow          8043.719
       390   05 Jun 2027 20:03:05.824   05 Jun 2027 20:05:25.965           140.141              Murmansk2          4379.406
       391   05 Jun 2027 21:07:34.672   05 Jun 2027 21:15:30.502           475.830               CapeTown         14869.687
       392   06 Jun 2027 00:58:07.258   06 Jun 2027 00:59:06.541            59.283                Anadyr2          1852.594
       393   06 Jun 2027 01:00:52.868   06 Jun 2027 01:01:51.059            58.191               Magadan2          1818.469
       394   06 Jun 2027 01:02:20.679   06 Jun 2027 01:02:20.734             0.055                Norilsk             1.719
       395   06 Jun 2027 01:02:41.443   06 Jun 2027 01:03:12.554            31.111               Magadan2           972.219
       396   06 Jun 2027 01:03:12.554   06 Jun 2027 01:04:13.386            60.832               Magadan1          1901.000
       397   06 Jun 2027 01:04:28.936   06 Jun 2027 01:05:40.249            71.313                Irkutsk          2228.531
       398   06 Jun 2027 01:07:48.950   06 Jun 2027 01:08:12.731            23.781                Irkutsk           743.156
       399   06 Jun 2027 01:08:16.634   06 Jun 2027 01:08:25.519             8.885                Novosib           277.656
       400   06 Jun 2027 01:13:37.809   06 Jun 2027 01:13:59.934            22.125                Irkutsk           691.406
       401   06 Jun 2027 01:18:13.015   06 Jun 2027 01:21:03.718           170.703                Sumatra          5334.469
       402   06 Jun 2027 01:55:45.264   06 Jun 2027 01:56:05.655            20.391            RioGallegos           637.219
       403   06 Jun 2027 01:59:58.589   06 Jun 2027 02:00:14.575            15.986            RioGallegos           499.562
       404   06 Jun 2027 02:01:50.528   06 Jun 2027 02:01:56.992             6.464            RioGallegos           202.000
       405   06 Jun 2027 02:02:26.824   06 Jun 2027 02:02:56.742            29.918            RioGallegos           934.937
       406   06 Jun 2027 02:32:48.227   06 Jun 2027 02:33:33.595            45.368                Anadyr1          1417.750
       407   06 Jun 2027 02:36:18.265   06 Jun 2027 02:37:18.182            59.917                Norilsk          1872.406
       408   06 Jun 2027 02:37:37.926   06 Jun 2027 02:37:50.490            12.564                Norilsk           392.625
       409   06 Jun 2027 02:38:40.863   06 Jun 2027 02:39:07.256            26.393                Norilsk           824.781
       410   06 Jun 2027 02:40:11.848   06 Jun 2027 02:42:42.172           150.324                Irkutsk          4697.625
       411   06 Jun 2027 02:47:46.221   06 Jun 2027 02:48:18.433            32.212                Irkutsk          1006.625
       412   06 Jun 2027 02:49:53.519   06 Jun 2027 02:51:27.576            94.057                  Delhi          2939.281
       413   06 Jun 2027 02:56:13.292   06 Jun 2027 03:03:46.400           453.108                Sumatra         14159.625
       414   06 Jun 2027 04:19:50.484   06 Jun 2027 04:20:40.502            50.018                Irkutsk          1563.063
       415   06 Jun 2027 04:20:43.613   06 Jun 2027 04:25:39.249           295.636                Irkutsk          9238.625
       416   06 Jun 2027 04:26:49.985   06 Jun 2027 04:27:07.851            17.866                Novosib           558.312
       417   06 Jun 2027 04:31:12.352   06 Jun 2027 04:35:08.951           236.599                  Delhi          7393.719
       418   06 Jun 2027 05:58:10.446   06 Jun 2027 06:01:11.572           181.126                Novosib          5660.187
       419   06 Jun 2027 06:01:14.531   06 Jun 2027 06:01:31.360            16.829              Murmansk1           525.906
       420   06 Jun 2027 06:04:25.424   06 Jun 2027 06:05:03.250            37.826                 Moscow          1182.062
       421   06 Jun 2027 06:06:07.514   06 Jun 2027 06:06:17.993            10.479                 Moscow           327.469
       422   06 Jun 2027 06:18:00.336   06 Jun 2027 06:21:29.702           209.366               CapeTown          6542.688
       423   06 Jun 2027 06:24:54.147   06 Jun 2027 06:25:27.607            33.460               CapeTown          1045.625
       424   06 Jun 2027 07:21:21.329   06 Jun 2027 07:21:37.332            16.003               Magadan1           500.094
       425   06 Jun 2027 07:21:44.707   06 Jun 2027 07:23:19.900            95.193                Anadyr1          2974.781
       426   06 Jun 2027 07:33:15.167   06 Jun 2027 07:33:35.455            20.288                Norilsk           634.000
       427   06 Jun 2027 07:34:06.323   06 Jun 2027 07:34:09.344             3.021                Norilsk            94.406
       428   06 Jun 2027 07:34:43.310   06 Jun 2027 07:35:04.517            21.207              Murmansk2           662.719
       429   06 Jun 2027 07:35:18.593   06 Jun 2027 07:35:28.329             9.736              Murmansk1           304.250
       430   06 Jun 2027 07:36:45.653   06 Jun 2027 07:36:51.990             6.337              Murmansk1           198.031
       431   06 Jun 2027 07:40:40.123   06 Jun 2027 07:41:33.616            53.493                 Moscow          1671.656
       432   06 Jun 2027 07:54:29.763   06 Jun 2027 07:57:45.349           195.586               CapeTown          6112.062
       433   06 Jun 2027 07:59:25.180   06 Jun 2027 08:00:16.192            51.012               CapeTown          1594.125
       434   06 Jun 2027 08:55:59.819   06 Jun 2027 08:56:14.266            14.447               Magadan1           451.469
       435   06 Jun 2027 08:56:31.678   06 Jun 2027 08:57:10.109            38.431               Magadan2          1200.969
       436   06 Jun 2027 08:57:43.485   06 Jun 2027 08:58:54.829            71.344               Magadan2          2229.500
       437   06 Jun 2027 08:59:42.775   06 Jun 2027 08:59:56.076            13.301               Magadan1           415.656
       438   06 Jun 2027 09:00:18.739   06 Jun 2027 09:00:42.585            23.846                Anadyr1           745.188
       439   06 Jun 2027 09:01:46.645   06 Jun 2027 09:03:07.366            80.721                Anadyr1          2522.531
       440   06 Jun 2027 10:29:08.422   06 Jun 2027 10:30:35.044            86.622               Magadan1          2706.937
       441   06 Jun 2027 10:32:09.619   06 Jun 2027 10:32:57.123            47.504               Magadan2          1484.500
       442   06 Jun 2027 10:33:48.190   06 Jun 2027 10:35:57.279           129.089               Magadan1          4034.031
       443   06 Jun 2027 10:36:12.467   06 Jun 2027 10:36:18.174             5.707               Magadan1           178.344
       444   06 Jun 2027 10:36:18.174   06 Jun 2027 10:36:35.890            17.716               Magadan2           553.625
       445   06 Jun 2027 10:38:02.295   06 Jun 2027 10:38:07.712             5.417                Norilsk           169.281
       446   06 Jun 2027 11:14:20.474   06 Jun 2027 11:15:11.967            51.493            RioGallegos          1609.156
       447   06 Jun 2027 11:19:43.610   06 Jun 2027 11:20:19.725            36.115            RioGallegos          1128.594
       448   06 Jun 2027 12:03:00.307   06 Jun 2027 12:03:08.657             8.350                Irkutsk           260.937
       449   06 Jun 2027 12:03:47.656   06 Jun 2027 12:04:50.252            62.596                Irkutsk          1956.125
       450   06 Jun 2027 12:05:29.279   06 Jun 2027 12:12:03.444           394.165               Magadan2         12317.656
       451   06 Jun 2027 12:12:44.577   06 Jun 2027 12:13:41.053            56.476               Magadan1          1764.875
       452   06 Jun 2027 13:44:28.030   06 Jun 2027 13:47:44.941           196.911                Irkutsk          6153.469
       453   06 Jun 2027 14:28:12.078   06 Jun 2027 14:35:31.361           439.283            RioGallegos         13727.594
       454   06 Jun 2027 15:02:49.926   06 Jun 2027 15:09:07.085           377.159                Sumatra         11786.219
       455   06 Jun 2027 15:18:43.885   06 Jun 2027 15:23:52.408           308.523                Irkutsk          9641.344
       456   06 Jun 2027 16:49:14.766   06 Jun 2027 16:52:32.450           197.684                  Delhi          6177.625
       457   06 Jun 2027 16:57:19.522   06 Jun 2027 17:00:58.073           218.551                Novosib          6829.719
       458   06 Jun 2027 17:04:56.723   06 Jun 2027 17:04:56.793             0.070                Norilsk             2.187
       459   06 Jun 2027 20:12:10.664   06 Jun 2027 20:13:25.708            75.044              Murmansk2          2345.125
       460   06 Jun 2027 20:15:02.742   06 Jun 2027 20:18:01.214           178.472              Murmansk2          5577.250
       461   06 Jun 2027 20:18:31.887   06 Jun 2027 20:19:27.481            55.594              Murmansk2          1737.312
       462   06 Jun 2027 21:20:19.731   06 Jun 2027 21:26:23.646           363.915               CapeTown         11372.344
       463   06 Jun 2027 23:34:32.390   06 Jun 2027 23:35:49.572            77.182                Anadyr2          2411.938
       464   06 Jun 2027 23:35:49.572   06 Jun 2027 23:36:12.841            23.269                Anadyr1           727.156
       465   06 Jun 2027 23:36:49.122   06 Jun 2027 23:38:25.112            95.990                Norilsk          2999.687
       466   06 Jun 2027 23:38:26.271   06 Jun 2027 23:38:41.152            14.881               Magadan2           465.031
       467   06 Jun 2027 23:39:06.348   06 Jun 2027 23:40:03.848            57.500               Magadan2          1796.875
       468   06 Jun 2027 23:43:25.167   06 Jun 2027 23:44:01.310            36.143                Irkutsk          1129.469
       469   06 Jun 2027 23:44:37.185   06 Jun 2027 23:44:55.448            18.263                Irkutsk           570.719
       470   06 Jun 2027 23:46:02.958   06 Jun 2027 23:46:09.792             6.834                Irkutsk           213.562
       471   06 Jun 2027 23:47:45.377   06 Jun 2027 23:47:57.685            12.308                Irkutsk           384.625
       472   07 Jun 2027 00:28:43.831   07 Jun 2027 00:32:15.885           212.054            RioGallegos          6626.687
       473   07 Jun 2027 01:10:03.446   07 Jun 2027 01:10:24.146            20.700                Anadyr2           646.875
       474   07 Jun 2027 01:10:56.311   07 Jun 2027 01:11:30.650            34.339                Anadyr1          1073.094
       475   07 Jun 2027 01:11:56.454   07 Jun 2027 01:12:37.062            40.608                Anadyr2          1269.000
       476   07 Jun 2027 01:12:37.581   07 Jun 2027 01:14:23.082           105.501                Norilsk          3296.906
       477   07 Jun 2027 01:14:23.319   07 Jun 2027 01:14:45.881            22.562               Magadan1           705.062
       478   07 Jun 2027 01:15:56.565   07 Jun 2027 01:16:12.314            15.749               Magadan2           492.156
       479   07 Jun 2027 01:16:12.314   07 Jun 2027 01:16:17.130             4.816               Magadan1           150.500
       480   07 Jun 2027 01:16:25.041   07 Jun 2027 01:18:15.962           110.921                Irkutsk          3466.281
       481   07 Jun 2027 01:19:23.900   07 Jun 2027 01:20:04.254            40.354                Novosib          1261.062
       482   07 Jun 2027 01:22:26.323   07 Jun 2027 01:23:09.377            43.054                Novosib          1345.438
