uniorb/output/strategy_4/Drop/Drop_KinoSat_110902.txt

KinoSat_110902
-------------------------
    Access    *     Start Time (UTCG)     *     Stop Time (UTCG)  *   Duration (s)        *       Station  *  Data (Mbytes)
         1   01 Jun 2027 04:02:21.362   01 Jun 2027 04:03:47.717            86.355               Magadan2          2698.594
         2   01 Jun 2027 04:03:47.717   01 Jun 2027 04:06:34.719           167.002               Magadan1          5218.813
         3   01 Jun 2027 04:06:45.248   01 Jun 2027 04:06:50.606             5.358                Anadyr2           167.438
         4   01 Jun 2027 05:38:08.425   01 Jun 2027 05:39:40.690            92.265               Magadan1          2883.281
         5   01 Jun 2027 05:39:40.690   01 Jun 2027 05:40:07.460            26.770               Magadan2           836.563
         6   01 Jun 2027 05:40:30.946   01 Jun 2027 05:42:24.408           113.462                Anadyr1          3545.688
         7   01 Jun 2027 06:23:15.965   01 Jun 2027 06:24:13.987            58.022            RioGallegos          1813.188
         8   01 Jun 2027 07:13:04.978   01 Jun 2027 07:13:58.880            53.902               Magadan2          1684.438
         9   01 Jun 2027 07:14:00.952   01 Jun 2027 07:14:24.998            24.046                Irkutsk           751.437
        10   01 Jun 2027 07:14:29.156   01 Jun 2027 07:17:21.302           172.146               Magadan2          5379.562
        11   01 Jun 2027 07:17:31.857   01 Jun 2027 07:19:03.454            91.597              Murmansk2          2862.406
        12   01 Jun 2027 07:19:05.634   01 Jun 2027 07:19:22.045            16.411                Novosib           512.844
        13   01 Jun 2027 07:53:44.669   01 Jun 2027 07:54:36.940            52.271            RioGallegos          1633.469
        14   01 Jun 2027 08:28:09.811   01 Jun 2027 08:30:44.069           154.258                Sumatra          4820.562
        15   01 Jun 2027 08:50:16.553   01 Jun 2027 08:53:47.742           211.189                Irkutsk          6599.656
        16   01 Jun 2027 08:54:28.016   01 Jun 2027 08:54:47.162            19.146                Novosib           598.312
        17   01 Jun 2027 10:05:25.218   01 Jun 2027 10:05:30.411             5.193                Sumatra           162.281
        18   01 Jun 2027 10:08:34.127   01 Jun 2027 10:09:23.513            49.386                Sumatra          1543.312
        19   01 Jun 2027 10:12:04.429   01 Jun 2027 10:12:59.590            55.161                  Delhi          1723.781
        20   01 Jun 2027 10:15:02.890   01 Jun 2027 10:16:08.878            65.988                  Delhi          2062.125
        21   01 Jun 2027 10:28:12.751   01 Jun 2027 10:28:24.366            11.615                Irkutsk           362.969
        22   01 Jun 2027 10:28:28.612   01 Jun 2027 10:31:41.511           192.899                Norilsk          6028.094
        23   01 Jun 2027 11:50:59.899   01 Jun 2027 11:51:43.074            43.175                  Delhi          1349.219
        24   01 Jun 2027 11:52:38.612   01 Jun 2027 11:54:47.803           129.191                  Delhi          4037.219
        25   01 Jun 2027 13:44:56.824   01 Jun 2027 13:45:26.313            29.489              Murmansk1           921.531
        26   01 Jun 2027 13:45:37.412   01 Jun 2027 13:46:09.274            31.862              Murmansk1           995.687
        27   01 Jun 2027 13:47:08.404   01 Jun 2027 13:48:22.358            73.954              Murmansk2          2311.063
        28   01 Jun 2027 13:51:22.402   01 Jun 2027 13:52:40.025            77.623                Anadyr1          2425.719
        29   01 Jun 2027 13:53:35.807   01 Jun 2027 13:55:01.084            85.277                Anadyr2          2664.906
        30   01 Jun 2027 13:55:40.878   01 Jun 2027 13:55:48.460             7.582                Anadyr1           236.938
        31   01 Jun 2027 13:57:29.194   01 Jun 2027 13:57:56.989            27.795                Anadyr1           868.594
        32   01 Jun 2027 15:17:21.616   01 Jun 2027 15:17:34.877            13.261                 Moscow           414.406
        33   01 Jun 2027 15:18:47.012   01 Jun 2027 15:18:59.991            12.979              Murmansk2           405.594
        34   01 Jun 2027 15:20:10.401   01 Jun 2027 15:20:37.089            26.688              Murmansk2           834.000
        35   01 Jun 2027 15:22:35.140   01 Jun 2027 15:22:55.250            20.110              Murmansk2           628.438
        36   01 Jun 2027 15:23:19.971   01 Jun 2027 15:24:36.494            76.523              Murmansk2          2391.344
        37   01 Jun 2027 15:27:42.124   01 Jun 2027 15:28:22.081            39.957                Anadyr1          1248.656
        38   01 Jun 2027 15:29:46.738   01 Jun 2027 15:31:35.368           108.630                Anadyr2          3394.687
        39   01 Jun 2027 15:31:47.009   01 Jun 2027 15:31:57.679            10.670               Magadan2           333.438
        40   01 Jun 2027 15:33:43.137   01 Jun 2027 15:34:51.962            68.825               Magadan1          2150.781
        41   01 Jun 2027 17:02:25.027   01 Jun 2027 17:04:58.157           153.130                Anadyr2          4785.313
        42   01 Jun 2027 17:05:21.168   01 Jun 2027 17:05:27.946             6.778                Anadyr1           211.812
        43   01 Jun 2027 17:05:37.744   01 Jun 2027 17:07:15.741            97.997               Magadan1          3062.406
        44   01 Jun 2027 17:09:32.766   01 Jun 2027 17:10:02.387            29.621               Magadan1           925.656
        45   01 Jun 2027 17:11:26.644   01 Jun 2027 17:11:47.372            20.728               Magadan1           647.750
        46   01 Jun 2027 17:11:47.372   01 Jun 2027 17:11:55.497             8.125               Magadan2           253.906
        47   01 Jun 2027 17:12:05.273   01 Jun 2027 17:12:12.750             7.477               Magadan2           233.656
        48   01 Jun 2027 17:13:06.787   01 Jun 2027 17:15:07.139           120.352               Magadan2          3761.000
        49   01 Jun 2027 18:38:19.120   01 Jun 2027 18:40:02.758           103.638                Anadyr2          3238.687
        50   01 Jun 2027 18:40:36.752   01 Jun 2027 18:41:44.091            67.339               Magadan2          2104.344
        51   01 Jun 2027 18:42:25.336   01 Jun 2027 18:43:35.066            69.730                Norilsk          2179.063
        52   01 Jun 2027 18:44:58.005   01 Jun 2027 18:45:27.181            29.176                Norilsk           911.750
        53   01 Jun 2027 18:51:08.641   01 Jun 2027 18:51:29.468            20.827               Magadan1           650.844
        54   01 Jun 2027 19:32:44.780   01 Jun 2027 19:35:45.535           180.755            RioGallegos          5648.594
        55   01 Jun 2027 19:38:49.700   01 Jun 2027 19:38:50.810             1.110            RioGallegos            34.688
        56   01 Jun 2027 19:41:40.112   01 Jun 2027 19:42:11.492            31.380            RioGallegos           980.625
        57   01 Jun 2027 20:15:50.629   01 Jun 2027 20:15:51.784             1.155                Anadyr2            36.094
        58   01 Jun 2027 20:16:10.794   01 Jun 2027 20:16:55.886            45.092                Norilsk          1409.125
        59   01 Jun 2027 20:17:09.855   01 Jun 2027 20:18:02.508            52.653                Norilsk          1645.406
        60   01 Jun 2027 20:18:33.569   01 Jun 2027 20:19:10.196            36.627                Norilsk          1144.594
        61   01 Jun 2027 20:20:11.355   01 Jun 2027 20:21:09.481            58.126                Norilsk          1816.437
        62   01 Jun 2027 20:21:29.602   01 Jun 2027 20:21:59.993            30.391                Irkutsk           949.719
        63   01 Jun 2027 20:22:10.247   01 Jun 2027 20:24:09.201           118.954                Novosib          3717.312
        64   01 Jun 2027 20:24:16.350   01 Jun 2027 20:25:02.029            45.679                Novosib          1427.469
        65   01 Jun 2027 20:28:18.127   01 Jun 2027 20:29:34.819            76.692                Irkutsk          2396.625
        66   01 Jun 2027 20:36:51.006   01 Jun 2027 20:37:50.506            59.500                Sumatra          1859.375
        67   01 Jun 2027 20:44:31.851   01 Jun 2027 20:46:17.174           105.323                Sumatra          3291.344
        68   01 Jun 2027 21:55:59.690   01 Jun 2027 21:56:30.381            30.691                Irkutsk           959.094
        69   01 Jun 2027 21:56:34.708   01 Jun 2027 21:56:38.791             4.083                Irkutsk           127.594
        70   01 Jun 2027 21:57:56.002   01 Jun 2027 21:59:13.425            77.423                Novosib          2419.469
        71   01 Jun 2027 22:02:46.079   01 Jun 2027 22:03:12.833            26.754                Novosib           836.063
        72   01 Jun 2027 22:03:51.120   01 Jun 2027 22:06:38.733           167.613                  Delhi          5237.906
        73   01 Jun 2027 23:22:33.599   01 Jun 2027 23:23:41.091            67.492                Anadyr1          2109.125
        74   01 Jun 2027 23:28:06.615   01 Jun 2027 23:28:23.111            16.496                Norilsk           515.500
        75   01 Jun 2027 23:28:33.257   01 Jun 2027 23:30:08.790            95.533               Magadan1          2985.406
        76   01 Jun 2027 23:30:28.616   01 Jun 2027 23:33:17.141           168.525              Murmansk2          5266.406
        77   01 Jun 2027 23:33:17.141   01 Jun 2027 23:34:26.696            69.555              Murmansk1          2173.594
        78   01 Jun 2027 23:35:13.251   01 Jun 2027 23:37:24.092           130.841                 Moscow          4088.781
        79   01 Jun 2027 23:40:27.282   01 Jun 2027 23:40:36.792             9.510                 Moscow           297.187
        80   01 Jun 2027 23:40:55.751   01 Jun 2027 23:41:08.937            13.186                 Moscow           412.063
        81   02 Jun 2027 00:55:33.318   02 Jun 2027 00:55:55.468            22.150                Anadyr1           692.187
        82   02 Jun 2027 00:56:44.780   02 Jun 2027 00:57:10.852            26.072                Anadyr1           814.750
        83   02 Jun 2027 00:57:34.286   02 Jun 2027 00:57:58.479            24.193                Anadyr1           756.031
        84   02 Jun 2027 01:00:28.388   02 Jun 2027 01:01:15.583            47.195                Anadyr1          1474.844
        85   02 Jun 2027 01:01:16.094   02 Jun 2027 01:03:05.413           109.319               Magadan1          3416.219
        86   02 Jun 2027 01:04:08.550   02 Jun 2027 01:04:20.711            12.161               Magadan1           380.031
        87   02 Jun 2027 01:06:14.696   02 Jun 2027 01:08:33.700           139.004              Murmansk1          4343.875
        88   02 Jun 2027 01:09:35.546   02 Jun 2027 01:10:37.079            61.533                 Moscow          1922.906
        89   02 Jun 2027 01:16:49.110   02 Jun 2027 01:16:57.911             8.801                 Moscow           275.031
        90   02 Jun 2027 01:17:12.280   02 Jun 2027 01:17:22.996            10.716                 Moscow           334.875
        91   02 Jun 2027 01:17:53.822   02 Jun 2027 01:19:01.323            67.501                 Moscow          2109.406
        92   02 Jun 2027 01:33:51.303   02 Jun 2027 01:35:11.392            80.089               CapeTown          2502.781
        93   02 Jun 2027 02:30:09.027   02 Jun 2027 02:31:07.415            58.388                Anadyr2          1824.625
        94   02 Jun 2027 02:31:19.707   02 Jun 2027 02:31:41.803            22.096                Anadyr2           690.500
        95   02 Jun 2027 02:32:06.290   02 Jun 2027 02:32:13.765             7.475                Anadyr1           233.594
        96   02 Jun 2027 02:32:27.611   02 Jun 2027 02:33:47.116            79.505               Magadan1          2484.531
        97   02 Jun 2027 02:37:04.499   02 Jun 2027 02:37:11.262             6.763               Magadan2           211.344
        98   02 Jun 2027 02:37:35.198   02 Jun 2027 02:38:02.361            27.163               Magadan1           848.844
        99   02 Jun 2027 02:42:12.877   02 Jun 2027 02:43:15.825            62.948              Murmansk2          1967.125
       100   02 Jun 2027 02:43:23.210   02 Jun 2027 02:43:53.138            29.928              Murmansk1           935.250
       101   02 Jun 2027 02:45:27.630   02 Jun 2027 02:46:55.678            88.048                 Moscow          2751.500
       102   02 Jun 2027 03:10:14.249   02 Jun 2027 03:10:57.822            43.573               CapeTown          1361.656
       103   02 Jun 2027 03:13:37.438   02 Jun 2027 03:14:12.928            35.490               CapeTown          1109.062
       104   02 Jun 2027 04:11:49.503   02 Jun 2027 04:14:57.702           188.199                Anadyr1          5881.219
       105   02 Jun 2027 04:14:57.702   02 Jun 2027 04:15:21.825            24.123                Anadyr2           753.844
       106   02 Jun 2027 04:15:26.660   02 Jun 2027 04:17:19.052           112.392               Magadan1          3512.250
       107   02 Jun 2027 04:17:19.052   02 Jun 2027 04:17:47.212            28.160               Magadan2           880.000
       108   02 Jun 2027 04:18:09.570   02 Jun 2027 04:18:16.953             7.383               Magadan1           230.719
       109   02 Jun 2027 04:18:51.169   02 Jun 2027 04:18:54.819             3.650                Anadyr2           114.062
       110   02 Jun 2027 04:59:19.319   02 Jun 2027 05:00:18.825            59.506            RioGallegos          1859.563
       111   02 Jun 2027 05:49:31.327   02 Jun 2027 05:50:56.320            84.993                Irkutsk          2656.031
       112   02 Jun 2027 05:51:02.883   02 Jun 2027 05:52:20.727            77.844                Anadyr1          2432.625
       113   02 Jun 2027 05:52:25.669   02 Jun 2027 05:52:34.651             8.982               Magadan2           280.687
       114   02 Jun 2027 05:52:40.774   02 Jun 2027 05:54:17.096            96.322                Anadyr2          3010.062
       115   02 Jun 2027 05:54:24.176   02 Jun 2027 05:54:25.123             0.947               Magadan1            29.594
       116   02 Jun 2027 07:25:45.291   02 Jun 2027 07:25:49.017             3.726               Magadan2           116.438
       117   02 Jun 2027 07:26:01.677   02 Jun 2027 07:26:32.548            30.871               Magadan2           964.719
       118   02 Jun 2027 07:26:40.221   02 Jun 2027 07:28:15.013            94.792               Magadan2          2962.250
       119   02 Jun 2027 07:28:45.463   02 Jun 2027 07:29:28.250            42.787               Magadan2          1337.094
       120   02 Jun 2027 07:29:41.446   02 Jun 2027 07:30:54.822            73.376                Novosib          2293.000
       121   02 Jun 2027 08:05:00.466   02 Jun 2027 08:06:54.450           113.984            RioGallegos          3562.000
       122   02 Jun 2027 08:39:59.111   02 Jun 2027 08:42:41.356           162.245                Sumatra          5070.156
       123   02 Jun 2027 09:03:14.064   02 Jun 2027 09:03:31.403            17.339                Irkutsk           541.844
       124   02 Jun 2027 09:03:58.360   02 Jun 2027 09:04:41.092            42.732                Irkutsk          1335.375
       125   02 Jun 2027 09:05:37.013   02 Jun 2027 09:06:07.585            30.572                Irkutsk           955.375
       126   02 Jun 2027 09:08:26.835   02 Jun 2027 09:08:57.886            31.051                Norilsk           970.344
       127   02 Jun 2027 09:43:54.858   02 Jun 2027 09:46:53.588           178.730            RioGallegos          5585.312
       128   02 Jun 2027 09:47:50.077   02 Jun 2027 09:48:05.325            15.248            RioGallegos           476.500
       129   02 Jun 2027 10:18:24.558   02 Jun 2027 10:19:40.368            75.810                Sumatra          2369.063
       130   02 Jun 2027 10:20:26.200   02 Jun 2027 10:22:26.023           119.823                Sumatra          3744.469
       131   02 Jun 2027 10:24:03.799   02 Jun 2027 10:24:04.357             0.558                  Delhi            17.437
       132   02 Jun 2027 10:28:29.024   02 Jun 2027 10:28:33.069             4.045                  Delhi           126.406
       133   02 Jun 2027 10:38:40.224   02 Jun 2027 10:38:59.918            19.694                Norilsk           615.437
       134   02 Jun 2027 10:39:11.727   02 Jun 2027 10:39:41.192            29.465                Novosib           920.781
       135   02 Jun 2027 10:39:43.119   02 Jun 2027 10:40:15.129            32.010                Novosib          1000.312
       136   02 Jun 2027 10:40:36.756   02 Jun 2027 10:40:42.575             5.819                Norilsk           181.844
       137   02 Jun 2027 10:40:56.923   02 Jun 2027 10:41:20.048            23.125                Novosib           722.656
       138   02 Jun 2027 10:41:26.123   02 Jun 2027 10:41:36.497            10.374                Novosib           324.187
       139   02 Jun 2027 10:41:37.155   02 Jun 2027 10:42:11.773            34.618                Novosib          1081.812
       140   02 Jun 2027 12:04:40.678   02 Jun 2027 12:06:51.686           131.008                  Delhi          4094.000
       141   02 Jun 2027 12:07:24.047   02 Jun 2027 12:07:37.031            12.984                  Delhi           405.750
       142   02 Jun 2027 12:11:53.842   02 Jun 2027 12:12:23.686            29.844              Murmansk1           932.625
       143   02 Jun 2027 12:12:53.852   02 Jun 2027 12:13:04.600            10.748              Murmansk1           335.875
       144   02 Jun 2027 12:13:38.415   02 Jun 2027 12:13:59.114            20.699                Novosib           646.844
       145   02 Jun 2027 12:16:18.111   02 Jun 2027 12:17:14.868            56.757                Norilsk          1773.656
       146   02 Jun 2027 13:23:52.604   02 Jun 2027 13:26:41.166           168.562               CapeTown          5267.562
       147   02 Jun 2027 13:29:38.987   02 Jun 2027 13:30:19.760            40.773               CapeTown          1274.156
       148   02 Jun 2027 13:48:37.673   02 Jun 2027 13:49:39.222            61.549              Murmansk2          1923.406
       149   02 Jun 2027 13:49:51.151   02 Jun 2027 13:50:24.603            33.452              Murmansk1          1045.375
       150   02 Jun 2027 13:50:56.405   02 Jun 2027 13:51:05.511             9.106              Murmansk1           284.563
       151   02 Jun 2027 13:51:13.402   02 Jun 2027 13:51:43.882            30.480              Murmansk1           952.500
       152   02 Jun 2027 13:53:15.339   02 Jun 2027 13:53:50.914            35.575              Murmansk1          1111.719
       153   02 Jun 2027 13:57:33.054   02 Jun 2027 13:58:13.522            40.468              Murmansk2          1264.625
       154   02 Jun 2027 14:03:11.980   02 Jun 2027 14:05:35.680           143.700                Anadyr2          4490.625
       155   02 Jun 2027 14:07:15.103   02 Jun 2027 14:07:33.146            18.043                Anadyr2           563.844
       156   02 Jun 2027 14:08:13.872   02 Jun 2027 14:09:29.350            75.478                Anadyr2          2358.687
       157   02 Jun 2027 15:27:29.249   02 Jun 2027 15:28:05.486            36.237              Murmansk2          1132.406
       158   02 Jun 2027 15:28:51.163   02 Jun 2027 15:29:07.468            16.305              Murmansk1           509.531
       159   02 Jun 2027 15:30:55.897   02 Jun 2027 15:31:09.036            13.139              Murmansk1           410.594
       160   02 Jun 2027 15:32:43.304   02 Jun 2027 15:33:01.639            18.335              Murmansk1           572.969
       161   02 Jun 2027 15:34:56.884   02 Jun 2027 15:36:36.283            99.399              Murmansk2          3106.219
       162   02 Jun 2027 15:38:33.435   02 Jun 2027 15:39:26.022            52.587                Anadyr2          1643.344
       163   02 Jun 2027 15:41:28.671   02 Jun 2027 15:42:36.075            67.404                Anadyr1          2106.375
       164   02 Jun 2027 15:42:36.527   02 Jun 2027 15:45:32.105           175.578               Magadan1          5486.812
       165   02 Jun 2027 15:47:44.704   02 Jun 2027 15:48:11.349            26.645               Magadan2           832.656
       166   02 Jun 2027 17:14:26.433   02 Jun 2027 17:15:26.075            59.642                Anadyr2          1863.813
       167   02 Jun 2027 17:16:08.113   02 Jun 2027 17:16:26.682            18.569                Anadyr2           580.281
       168   02 Jun 2027 17:16:52.827   02 Jun 2027 17:18:38.959           106.132               Magadan1          3316.625
       169   02 Jun 2027 17:19:03.388   02 Jun 2027 17:19:04.528             1.140               Magadan1            35.625
       170   02 Jun 2027 17:21:31.636   02 Jun 2027 17:22:32.979            61.343               Magadan2          1916.969
       171   02 Jun 2027 18:50:19.450   02 Jun 2027 18:52:04.073           104.623                Anadyr2          3269.469
       172   02 Jun 2027 18:52:23.537   02 Jun 2027 18:54:01.691            98.154                Anadyr1          3067.312
       173   02 Jun 2027 18:54:06.150   02 Jun 2027 18:55:52.776           106.626               Magadan2          3332.063
       174   02 Jun 2027 18:56:02.430   02 Jun 2027 18:56:30.717            28.287                Norilsk           883.969
       175   02 Jun 2027 18:59:00.012   02 Jun 2027 19:00:13.571            73.559                Irkutsk          2298.719
       176   02 Jun 2027 19:01:22.114   02 Jun 2027 19:01:41.731            19.617                Irkutsk           613.031
       177   02 Jun 2027 19:02:44.313   02 Jun 2027 19:03:24.849            40.536                Irkutsk          1266.750
       178   02 Jun 2027 19:44:35.289   02 Jun 2027 19:46:02.417            87.128            RioGallegos          2722.750
       179   02 Jun 2027 19:46:49.936   02 Jun 2027 19:47:07.046            17.110            RioGallegos           534.688
       180   02 Jun 2027 19:54:56.257   02 Jun 2027 19:54:57.107             0.850            RioGallegos            26.562
       181   02 Jun 2027 20:28:11.496   02 Jun 2027 20:28:21.831            10.335                Norilsk           322.969
       182   02 Jun 2027 20:28:42.411   02 Jun 2027 20:30:16.181            93.770               Magadan2          2930.312
       183   02 Jun 2027 20:30:54.231   02 Jun 2027 20:31:44.610            50.379               Magadan2          1574.344
       184   02 Jun 2027 20:32:15.241   02 Jun 2027 20:34:01.992           106.751                Irkutsk          3335.969
       185   02 Jun 2027 20:34:21.690   02 Jun 2027 20:36:49.351           147.661                Novosib          4614.406
       186   02 Jun 2027 20:37:55.146   02 Jun 2027 20:38:49.868            54.722                Novosib          1710.063
       187   02 Jun 2027 20:45:55.979   02 Jun 2027 20:46:52.502            56.523                Sumatra          1766.344
       188   02 Jun 2027 22:04:46.289   02 Jun 2027 22:06:04.032            77.743               Magadan2          2429.469
       189   02 Jun 2027 22:08:03.070   02 Jun 2027 22:08:27.577            24.507                Irkutsk           765.844
       190   02 Jun 2027 22:09:24.589   02 Jun 2027 22:09:41.907            17.318                Irkutsk           541.187
       191   02 Jun 2027 22:09:56.207   02 Jun 2027 22:10:55.715            59.508                Novosib          1859.625
       192   02 Jun 2027 22:11:21.462   02 Jun 2027 22:11:30.991             9.529                Novosib           297.781
       193   02 Jun 2027 22:15:33.543   02 Jun 2027 22:15:56.810            23.267                Novosib           727.094
       194   02 Jun 2027 22:16:31.996   02 Jun 2027 22:19:21.631           169.635                  Delhi          5301.094
       195   02 Jun 2027 23:33:48.249   02 Jun 2027 23:33:53.586             5.337                Anadyr1           166.781
       196   02 Jun 2027 23:34:20.107   02 Jun 2027 23:34:23.413             3.306                Anadyr2           103.312
       197   02 Jun 2027 23:35:42.149   02 Jun 2027 23:36:07.950            25.801                Anadyr1           806.281
       198   02 Jun 2027 23:39:13.055   02 Jun 2027 23:39:29.810            16.755                Anadyr1           523.594
       199   02 Jun 2027 23:39:56.133   02 Jun 2027 23:40:38.854            42.721               Magadan1          1335.031
       200   02 Jun 2027 23:40:40.440   02 Jun 2027 23:41:47.542            67.102                Norilsk          2096.937
       201   02 Jun 2027 23:42:26.779   02 Jun 2027 23:47:22.520           295.741              Murmansk1          9241.906
       202   02 Jun 2027 23:47:54.424   02 Jun 2027 23:49:01.694            67.270                 Moscow          2102.188
       203   02 Jun 2027 23:52:40.964   02 Jun 2027 23:52:56.673            15.709                 Moscow           490.906
       204   02 Jun 2027 23:53:18.004   02 Jun 2027 23:53:23.622             5.618                 Moscow           175.563
       205   03 Jun 2027 00:15:43.985   03 Jun 2027 00:16:09.136            25.151               CapeTown           785.969
       206   03 Jun 2027 00:16:52.081   03 Jun 2027 00:17:56.883            64.802               CapeTown          2025.062
       207   03 Jun 2027 01:12:01.489   03 Jun 2027 01:13:19.312            77.823               Magadan2          2431.969
       208   03 Jun 2027 01:15:49.173   03 Jun 2027 01:16:10.342            21.169               Magadan1           661.531
       209   03 Jun 2027 01:16:10.342   03 Jun 2027 01:16:22.729            12.387               Magadan2           387.094
       210   03 Jun 2027 01:18:15.728   03 Jun 2027 01:18:32.781            17.053               Magadan2           532.906
       211   03 Jun 2027 01:19:21.346   03 Jun 2027 01:20:33.844            72.498              Murmansk2          2265.562
       212   03 Jun 2027 01:20:37.279   03 Jun 2027 01:22:07.227            89.948              Murmansk2          2810.875
       213   03 Jun 2027 01:27:06.633   03 Jun 2027 01:27:14.856             8.223                 Moscow           256.969
       214   03 Jun 2027 01:28:53.336   03 Jun 2027 01:29:08.343            15.007                 Moscow           468.969
       215   03 Jun 2027 01:32:56.058   03 Jun 2027 01:33:07.650            11.592                 Moscow           362.250
       216   03 Jun 2027 01:33:57.360   03 Jun 2027 01:34:11.073            13.713                 Moscow           428.531
       217   03 Jun 2027 01:45:37.878   03 Jun 2027 01:47:06.096            88.218               CapeTown          2756.812
       218   03 Jun 2027 02:42:07.615   03 Jun 2027 02:44:07.265           119.650                Anadyr1          3739.062
       219   03 Jun 2027 02:44:19.376   03 Jun 2027 02:44:57.717            38.341               Magadan1          1198.156
       220   03 Jun 2027 02:46:33.620   03 Jun 2027 02:46:49.503            15.883               Magadan2           496.344
       221   03 Jun 2027 02:49:02.664   03 Jun 2027 02:49:12.189             9.525               Magadan2           297.656
       222   03 Jun 2027 02:49:44.825   03 Jun 2027 02:50:28.324            43.499               Magadan2          1359.344
       223   03 Jun 2027 02:54:14.345   03 Jun 2027 02:55:53.304            98.959              Murmansk1          3092.469
       224   03 Jun 2027 02:57:31.061   03 Jun 2027 02:58:28.465            57.404                 Moscow          1793.875
       225   03 Jun 2027 03:00:35.610   03 Jun 2027 03:01:12.072            36.462              Murmansk1          1139.438
       226   03 Jun 2027 03:01:12.072   03 Jun 2027 03:01:20.142             8.070              Murmansk2           252.187
       227   03 Jun 2027 03:01:28.726   03 Jun 2027 03:02:07.225            38.499              Murmansk1          1203.094
       228   03 Jun 2027 03:03:10.109   03 Jun 2027 03:03:34.949            24.840              Murmansk2           776.250
       229   03 Jun 2027 03:06:18.171   03 Jun 2027 03:07:10.662            52.491              Murmansk2          1640.344
       230   03 Jun 2027 04:23:41.298   03 Jun 2027 04:25:19.500            98.202                Anadyr2          3068.813
       231   03 Jun 2027 04:25:19.500   03 Jun 2027 04:25:30.138            10.638                Anadyr1           332.437
       232   03 Jun 2027 04:25:40.828   03 Jun 2027 04:26:57.446            76.618                Anadyr2          2394.312
       233   03 Jun 2027 04:27:07.822   03 Jun 2027 04:27:41.244            33.422                Anadyr2          1044.437
       234   03 Jun 2027 04:27:47.494   03 Jun 2027 04:28:09.158            21.664               Magadan1           677.000
       235   03 Jun 2027 04:28:09.158   03 Jun 2027 04:28:23.244            14.086               Magadan2           440.188
       236   03 Jun 2027 05:59:08.262   03 Jun 2027 05:59:29.006            20.744               Magadan2           648.250
       237   03 Jun 2027 05:59:45.966   03 Jun 2027 06:01:39.020           113.054                Irkutsk          3532.938
       238   03 Jun 2027 06:02:30.447   03 Jun 2027 06:03:42.374            71.927               Magadan1          2247.719
       239   03 Jun 2027 06:03:53.868   03 Jun 2027 06:04:56.203            62.335                Irkutsk          1947.969
       240   03 Jun 2027 06:06:03.110   03 Jun 2027 06:06:13.672            10.562                Novosib           330.063
       241   03 Jun 2027 06:06:26.954   03 Jun 2027 06:06:29.085             2.131               Magadan2            66.594
       242   03 Jun 2027 07:36:53.964   03 Jun 2027 07:37:23.999            30.035               Magadan1           938.594
       243   03 Jun 2027 07:37:41.365   03 Jun 2027 07:37:53.510            12.145               Magadan1           379.531
       244   03 Jun 2027 07:38:05.205   03 Jun 2027 07:38:13.886             8.681               Magadan2           271.281
       245   03 Jun 2027 07:38:35.967   03 Jun 2027 07:38:41.862             5.895               Magadan2           184.219
       246   03 Jun 2027 07:39:16.288   03 Jun 2027 07:40:13.076            56.788               Magadan2          1774.625
       247   03 Jun 2027 07:40:29.149   03 Jun 2027 07:40:44.977            15.828               Magadan2           494.625
       248   03 Jun 2027 07:47:08.649   03 Jun 2027 07:47:31.596            22.947              Murmansk1           717.094
       249   03 Jun 2027 08:17:08.317   03 Jun 2027 08:17:59.553            51.236            RioGallegos          1601.125
       250   03 Jun 2027 08:29:20.381   03 Jun 2027 08:29:46.372            25.991            RioGallegos           812.219
       251   03 Jun 2027 08:51:54.263   03 Jun 2027 08:52:39.041            44.778                Sumatra          1399.313
       252   03 Jun 2027 08:59:42.570   03 Jun 2027 08:59:59.891            17.321                Sumatra           541.281
       253   03 Jun 2027 09:13:27.337   03 Jun 2027 09:14:06.213            38.876                Novosib          1214.875
       254   03 Jun 2027 09:14:50.811   03 Jun 2027 09:14:59.439             8.628                Norilsk           269.625
       255   03 Jun 2027 09:15:00.213   03 Jun 2027 09:15:31.419            31.206                Irkutsk           975.187
       256   03 Jun 2027 09:15:39.258   03 Jun 2027 09:15:43.207             3.949                Irkutsk           123.406
       257   03 Jun 2027 09:15:50.308   03 Jun 2027 09:16:09.430            19.122                Irkutsk           597.563
       258   03 Jun 2027 09:16:43.707   03 Jun 2027 09:16:56.420            12.713                Irkutsk           397.281
       259   03 Jun 2027 09:17:23.320   03 Jun 2027 09:18:01.226            37.906                Irkutsk          1184.563
       260   03 Jun 2027 09:21:06.925   03 Jun 2027 09:21:07.598             0.673                Norilsk            21.031
       261   03 Jun 2027 09:56:50.830   03 Jun 2027 09:57:33.227            42.397            RioGallegos          1324.906
       262   03 Jun 2027 09:58:04.653   03 Jun 2027 09:58:46.723            42.070            RioGallegos          1314.688
       263   03 Jun 2027 10:32:22.882   03 Jun 2027 10:33:12.346            49.464                Sumatra          1545.750
       264   03 Jun 2027 10:34:50.560   03 Jun 2027 10:34:52.711             2.151                Sumatra            67.219
       265   03 Jun 2027 10:39:14.769   03 Jun 2027 10:40:43.500            88.731                  Delhi          2772.844
       266   03 Jun 2027 10:50:36.470   03 Jun 2027 10:51:41.662            65.192                Novosib          2037.250
       267   03 Jun 2027 10:51:46.304   03 Jun 2027 10:52:45.811            59.507                Novosib          1859.594
       268   03 Jun 2027 10:52:59.338   03 Jun 2027 10:53:08.541             9.203                Novosib           287.594
       269   03 Jun 2027 10:53:16.358   03 Jun 2027 10:53:43.214            26.856                Norilsk           839.250
       270   03 Jun 2027 10:54:18.829   03 Jun 2027 10:54:56.752            37.923                Novosib          1185.094
       271   03 Jun 2027 12:23:41.151   03 Jun 2027 12:24:38.001            56.850                 Moscow          1776.562
       272   03 Jun 2027 12:24:41.070   03 Jun 2027 12:26:06.585            85.515              Murmansk1          2672.344
       273   03 Jun 2027 12:26:09.645   03 Jun 2027 12:27:16.742            67.097              Murmansk2          2096.781
       274   03 Jun 2027 12:27:39.538   03 Jun 2027 12:28:11.176            31.638                Norilsk           988.687
       275   03 Jun 2027 12:28:29.438   03 Jun 2027 12:29:09.936            40.498                Norilsk          1265.563
       276   03 Jun 2027 13:35:18.935   03 Jun 2027 13:36:59.897           100.962               CapeTown          3155.063
       277   03 Jun 2027 13:37:46.684   03 Jun 2027 13:40:05.304           138.620               CapeTown          4331.875
       278   03 Jun 2027 13:41:52.700   03 Jun 2027 13:42:14.497            21.797               CapeTown           681.156
       279   03 Jun 2027 14:00:53.206   03 Jun 2027 14:03:06.699           133.493              Murmansk1          4171.656
       280   03 Jun 2027 14:09:29.386   03 Jun 2027 14:10:05.768            36.382              Murmansk1          1136.938
       281   03 Jun 2027 14:11:26.964   03 Jun 2027 14:11:28.071             1.107              Murmansk1            34.594
       282   03 Jun 2027 14:15:04.453   03 Jun 2027 14:17:35.923           151.470                Anadyr1          4733.437
       283   03 Jun 2027 14:20:15.540   03 Jun 2027 14:20:20.697             5.157                Anadyr1           161.156
       284   03 Jun 2027 14:21:29.153   03 Jun 2027 14:22:13.894            44.741                Anadyr2          1398.156
       285   03 Jun 2027 15:40:04.461   03 Jun 2027 15:42:49.001           164.540              Murmansk2          5141.875
       286   03 Jun 2027 15:50:33.707   03 Jun 2027 15:51:27.406            53.699                Anadyr1          1678.094
       287   03 Jun 2027 15:52:22.155   03 Jun 2027 15:52:23.721             1.566                Anadyr2            48.937
       288   03 Jun 2027 15:53:11.482   03 Jun 2027 15:53:22.410            10.928                Anadyr1           341.500
       289   03 Jun 2027 15:53:30.003   03 Jun 2027 15:53:36.785             6.782                Anadyr1           211.937
       290   03 Jun 2027 15:54:09.225   03 Jun 2027 15:59:46.827           337.602               Magadan1         10550.062
       291   03 Jun 2027 17:26:27.831   03 Jun 2027 17:26:29.955             2.124                Anadyr2            66.375
       292   03 Jun 2027 17:27:15.639   03 Jun 2027 17:27:44.985            29.346                Anadyr2           917.063
       293   03 Jun 2027 17:28:45.134   03 Jun 2027 17:28:51.113             5.979                Anadyr2           186.844
       294   03 Jun 2027 17:28:58.449   03 Jun 2027 17:29:21.291            22.842                Anadyr2           713.812
       295   03 Jun 2027 17:29:22.232   03 Jun 2027 17:30:43.237            81.005               Magadan1          2531.406
       296   03 Jun 2027 17:31:05.661   03 Jun 2027 17:31:09.255             3.594               Magadan2           112.312
       297   03 Jun 2027 17:31:16.833   03 Jun 2027 17:32:50.137            93.304               Magadan2          2915.750
       298   03 Jun 2027 19:02:19.452   03 Jun 2027 19:04:05.256           105.804                Anadyr1          3306.375
       299   03 Jun 2027 19:04:18.900   03 Jun 2027 19:05:37.926            79.026                Anadyr2          2469.563
       300   03 Jun 2027 19:05:38.522   03 Jun 2027 19:06:45.378            66.856               Magadan1          2089.250
       301   03 Jun 2027 19:07:00.797   03 Jun 2027 19:08:28.433            87.636                Norilsk          2738.625
       302   03 Jun 2027 19:10:09.429   03 Jun 2027 19:13:05.604           176.175                Irkutsk          5505.469
       303   03 Jun 2027 19:14:03.780   03 Jun 2027 19:15:18.906            75.126                Irkutsk          2347.688
       304   03 Jun 2027 19:16:21.446   03 Jun 2027 19:16:44.378            22.932                Irkutsk           716.625
       305   03 Jun 2027 19:26:32.418   03 Jun 2027 19:27:29.159            56.741                Sumatra          1773.156
       306   03 Jun 2027 19:29:53.049   03 Jun 2027 19:30:29.062            36.013                Sumatra          1125.406
       307   03 Jun 2027 20:44:11.979   03 Jun 2027 20:46:00.807           108.828                Irkutsk          3400.875
       308   03 Jun 2027 20:46:24.205   03 Jun 2027 20:48:39.804           135.599                Novosib          4237.469
       309   03 Jun 2027 20:50:15.928   03 Jun 2027 20:51:11.108            55.180                Novosib          1724.375
       310   03 Jun 2027 20:58:23.209   03 Jun 2027 20:58:41.646            18.437                Sumatra           576.156
       311   03 Jun 2027 21:06:31.190   03 Jun 2027 21:07:26.525            55.335                Sumatra          1729.219
       312   03 Jun 2027 22:16:47.268   03 Jun 2027 22:17:42.043            54.775               Magadan2          1711.719
       313   03 Jun 2027 22:19:53.697   03 Jun 2027 22:22:40.587           166.890              Murmansk1          5215.312
       314   03 Jun 2027 22:27:01.318   03 Jun 2027 22:27:23.077            21.759                Novosib           679.969
       315   03 Jun 2027 22:27:28.987   03 Jun 2027 22:29:42.620           133.633                  Delhi          4176.031
       316   03 Jun 2027 22:39:33.242   03 Jun 2027 22:39:48.264            15.022                  Delhi           469.438
       317   03 Jun 2027 23:47:43.013   03 Jun 2027 23:47:51.450             8.437                Anadyr1           263.656
       318   03 Jun 2027 23:51:38.224   03 Jun 2027 23:52:38.547            60.323               Magadan2          1885.094
       319   03 Jun 2027 23:53:10.991   03 Jun 2027 23:53:59.948            48.957               Magadan2          1529.906
       320   03 Jun 2027 23:54:25.797   03 Jun 2027 23:57:20.174           174.377              Murmansk2          5449.281
       321   03 Jun 2027 23:57:44.381   03 Jun 2027 23:59:05.113            80.732              Murmansk2          2522.875
       322   03 Jun 2027 23:59:57.336   04 Jun 2027 00:01:35.537            98.201                 Moscow          3068.781
       323   04 Jun 2027 00:25:56.457   04 Jun 2027 00:27:28.079            91.622               CapeTown          2863.188
       324   04 Jun 2027 00:29:00.860   04 Jun 2027 00:30:17.667            76.807               CapeTown          2400.219
       325   04 Jun 2027 01:23:29.880   04 Jun 2027 01:24:48.992            79.112               Magadan2          2472.250
       326   04 Jun 2027 01:29:43.682   04 Jun 2027 01:29:51.615             7.933               Magadan1           247.906
       327   04 Jun 2027 01:30:01.288   04 Jun 2027 01:30:33.814            32.526               Magadan1          1016.438
       328   04 Jun 2027 01:31:18.008   04 Jun 2027 01:33:04.488           106.480              Murmansk2          3327.500
       329   04 Jun 2027 01:33:33.189   04 Jun 2027 01:35:20.344           107.155                 Moscow          3348.594
       330   04 Jun 2027 01:58:57.404   04 Jun 2027 02:00:36.179            98.775               CapeTown          3086.719
       331   04 Jun 2027 02:54:08.049   04 Jun 2027 02:55:41.442            93.393                Anadyr2          2918.531
       332   04 Jun 2027 02:55:43.682   04 Jun 2027 02:55:52.575             8.893               Magadan2           277.906
       333   04 Jun 2027 02:56:24.176   04 Jun 2027 02:56:50.946            26.770               Magadan2           836.562
       334   04 Jun 2027 02:59:27.037   04 Jun 2027 03:00:08.152            41.115               Magadan1          1284.844
       335   04 Jun 2027 03:00:21.616   04 Jun 2027 03:01:59.394            97.778                Anadyr1          3055.563
       336   04 Jun 2027 03:02:06.647   04 Jun 2027 03:02:27.979            21.332               Magadan1           666.625
       337   04 Jun 2027 03:02:34.616   04 Jun 2027 03:02:48.618            14.002               Magadan2           437.562
       338   04 Jun 2027 03:03:00.490   04 Jun 2027 03:03:53.080            52.590               Magadan2          1643.438
       339   04 Jun 2027 04:36:35.017   04 Jun 2027 04:38:20.296           105.279               Magadan2          3289.969
       340   04 Jun 2027 04:39:09.696   04 Jun 2027 04:39:37.927            28.231                Anadyr1           882.219
       341   04 Jun 2027 04:40:04.044   04 Jun 2027 04:40:36.902            32.858               Magadan2          1026.813
       342   04 Jun 2027 04:40:51.794   04 Jun 2027 04:42:12.406            80.612                Anadyr2          2519.125
       343   04 Jun 2027 06:10:05.999   04 Jun 2027 06:10:28.648            22.649               Magadan1           707.781
       344   04 Jun 2027 06:10:43.754   04 Jun 2027 06:11:34.522            50.768               Magadan1          1586.500
       345   04 Jun 2027 06:11:39.664   04 Jun 2027 06:12:40.857            61.193               Magadan1          1912.281
       346   04 Jun 2027 06:12:46.159   04 Jun 2027 06:14:17.858            91.699               Magadan1          2865.594
       347   04 Jun 2027 06:14:26.959   04 Jun 2027 06:15:32.603            65.644                Anadyr2          2051.375
       348   04 Jun 2027 06:15:35.017   04 Jun 2027 06:16:18.812            43.795               Magadan1          1368.594
       349   04 Jun 2027 06:16:29.285   04 Jun 2027 06:16:30.007             0.722               Magadan2            22.562
       350   04 Jun 2027 06:16:39.343   04 Jun 2027 06:17:10.956            31.613                Anadyr2           987.906
       351   04 Jun 2027 06:17:10.956   04 Jun 2027 06:17:39.790            28.834                Anadyr1           901.062
       352   04 Jun 2027 06:23:56.059   04 Jun 2027 06:24:19.051            22.992              Murmansk2           718.500
       353   04 Jun 2027 07:47:06.629   04 Jun 2027 07:47:26.168            19.539               Magadan2           610.594
       354   04 Jun 2027 07:48:31.732   04 Jun 2027 07:48:56.935            25.203               Magadan2           787.594
       355   04 Jun 2027 07:50:57.238   04 Jun 2027 07:51:26.401            29.163               Magadan1           911.344
       356   04 Jun 2027 07:52:10.161   04 Jun 2027 07:52:14.892             4.731               Magadan2           147.844
       357   04 Jun 2027 07:52:42.797   04 Jun 2027 07:53:41.842            59.045                Novosib          1845.156
       358   04 Jun 2027 07:56:29.453   04 Jun 2027 07:56:33.510             4.057                Norilsk           126.781
       359   04 Jun 2027 07:59:51.862   04 Jun 2027 08:00:26.453            34.591              Murmansk1          1080.969
       360   04 Jun 2027 08:29:19.857   04 Jun 2027 08:29:59.116            39.259            RioGallegos          1226.844
       361   04 Jun 2027 09:03:55.022   04 Jun 2027 09:04:13.765            18.743                Sumatra           585.719
       362   04 Jun 2027 09:07:03.182   04 Jun 2027 09:08:01.206            58.024                Sumatra          1813.250
       363   04 Jun 2027 09:24:46.004   04 Jun 2027 09:24:53.089             7.085                Novosib           221.406
       364   04 Jun 2027 09:26:11.640   04 Jun 2027 09:26:14.077             2.437                Irkutsk            76.156
       365   04 Jun 2027 09:27:12.431   04 Jun 2027 09:27:28.954            16.523                Irkutsk           516.344
       366   04 Jun 2027 09:28:11.653   04 Jun 2027 09:28:13.731             2.078                Irkutsk            64.937
       367   04 Jun 2027 09:28:15.174   04 Jun 2027 09:28:20.561             5.387                Irkutsk           168.344
       368   04 Jun 2027 09:28:40.331   04 Jun 2027 09:29:31.850            51.519                Novosib          1609.969
       369   04 Jun 2027 09:30:24.081   04 Jun 2027 09:30:45.403            21.322                Novosib           666.313
       370   04 Jun 2027 10:10:06.635   04 Jun 2027 10:10:26.656            20.021            RioGallegos           625.656
       371   04 Jun 2027 10:11:49.104   04 Jun 2027 10:12:41.876            52.772            RioGallegos          1649.125
       372   04 Jun 2027 10:48:18.940   04 Jun 2027 10:49:48.685            89.745                  Delhi          2804.531
       373   04 Jun 2027 11:02:40.350   04 Jun 2027 11:03:39.188            58.838                Novosib          1838.687
       374   04 Jun 2027 11:04:01.059   04 Jun 2027 11:04:23.311            22.252                Norilsk           695.375
       375   04 Jun 2027 11:04:29.090   04 Jun 2027 11:04:37.397             8.307                Novosib           259.594
       376   04 Jun 2027 11:04:43.402   04 Jun 2027 11:05:40.018            56.616                Novosib          1769.250
       377   04 Jun 2027 11:06:29.073   04 Jun 2027 11:06:41.107            12.034                Novosib           376.063
       378   04 Jun 2027 12:32:30.334   04 Jun 2027 12:33:28.087            57.753                 Moscow          1804.781
       379   04 Jun 2027 12:34:20.341   04 Jun 2027 12:34:41.717            21.376                 Moscow           668.000
       380   04 Jun 2027 12:35:09.999   04 Jun 2027 12:36:45.917            95.918                 Moscow          2997.437
       381   04 Jun 2027 12:36:46.514   04 Jun 2027 12:39:18.306           151.792              Murmansk1          4743.500
       382   04 Jun 2027 13:46:54.810   04 Jun 2027 13:50:18.338           203.528               CapeTown          6360.250
       383   04 Jun 2027 13:51:47.916   04 Jun 2027 13:53:00.260            72.344               CapeTown          2260.750
       384   04 Jun 2027 14:13:10.785   04 Jun 2027 14:15:08.089           117.304              Murmansk1          3665.750
       385   04 Jun 2027 14:26:58.975   04 Jun 2027 14:30:51.715           232.740                Anadyr1          7273.125
       386   04 Jun 2027 15:52:43.136   04 Jun 2027 15:54:40.706           117.570              Murmansk2          3674.063
       387   04 Jun 2027 16:02:34.298   04 Jun 2027 16:04:34.402           120.104                Anadyr2          3753.250
       388   04 Jun 2027 16:04:48.878   04 Jun 2027 16:04:57.717             8.839                Anadyr2           276.219
       389   04 Jun 2027 16:05:31.295   04 Jun 2027 16:06:01.534            30.239                Anadyr2           944.969
       390   04 Jun 2027 16:07:02.365   04 Jun 2027 16:09:54.771           172.406               Magadan1          5387.688
       391   04 Jun 2027 16:11:49.124   04 Jun 2027 16:12:12.097            22.973               Magadan1           717.906
       392   04 Jun 2027 17:38:29.194   04 Jun 2027 17:40:43.648           134.454                Anadyr1          4201.688
       393   04 Jun 2027 17:40:49.626   04 Jun 2027 17:41:11.235            21.609               Magadan2           675.281
       394   04 Jun 2027 17:41:11.235   04 Jun 2027 17:42:44.997            93.762               Magadan1          2930.063
       395   04 Jun 2027 17:43:01.914   04 Jun 2027 17:43:07.677             5.763               Magadan2           180.094
       396   04 Jun 2027 17:44:44.816   04 Jun 2027 17:45:35.237            50.421               Magadan2          1575.656
       397   04 Jun 2027 18:35:23.832   04 Jun 2027 18:37:33.795           129.963            RioGallegos          4061.344
       398   04 Jun 2027 19:14:19.069   04 Jun 2027 19:16:06.272           107.203                Anadyr2          3350.094
       399   04 Jun 2027 19:16:32.302   04 Jun 2027 19:18:29.913           117.611                Norilsk          3675.344
       400   04 Jun 2027 19:19:16.252   04 Jun 2027 19:20:27.189            70.937                Norilsk          2216.781
       401   04 Jun 2027 19:21:26.633   04 Jun 2027 19:23:19.571           112.938                Norilsk          3529.313
       402   04 Jun 2027 19:27:25.136   04 Jun 2027 19:27:33.027             7.891                Irkutsk           246.594
       403   04 Jun 2027 19:36:58.778   04 Jun 2027 19:38:58.425           119.647                Sumatra          3738.969
       404   04 Jun 2027 19:40:02.726   04 Jun 2027 19:40:23.713            20.987                Sumatra           655.844
       405   04 Jun 2027 19:42:20.123   04 Jun 2027 19:44:30.061           129.938                Sumatra          4060.563
       406   04 Jun 2027 20:56:10.000   04 Jun 2027 20:57:56.502           106.502                Irkutsk          3328.187
       407   04 Jun 2027 20:58:27.217   04 Jun 2027 21:00:19.491           112.274                Novosib          3508.563
       408   04 Jun 2027 21:01:20.714   04 Jun 2027 21:01:38.780            18.066                Novosib           564.563
       409   04 Jun 2027 21:03:15.869   04 Jun 2027 21:04:00.263            44.394                Novosib          1387.312
       410   04 Jun 2027 21:08:05.857   04 Jun 2027 21:08:56.981            51.124                  Delhi          1597.625
       411   04 Jun 2027 21:10:54.341   04 Jun 2027 21:10:58.183             3.842                  Delhi           120.063
       412   04 Jun 2027 22:28:47.505   04 Jun 2027 22:29:38.424            50.919               Magadan2          1591.219
       413   04 Jun 2027 22:31:23.667   04 Jun 2027 22:34:53.314           209.647              Murmansk1          6551.469
       414   04 Jun 2027 22:35:21.056   04 Jun 2027 22:35:54.120            33.064              Murmansk2          1033.250
       415   04 Jun 2027 22:39:23.981   04 Jun 2027 22:40:02.326            38.345                  Delhi          1198.281
       416   04 Jun 2027 22:47:44.435   04 Jun 2027 22:48:53.107            68.672                  Delhi          2146.000
       417   04 Jun 2027 23:57:10.800   04 Jun 2027 23:57:15.882             5.082                Anadyr2           158.813
       418   04 Jun 2027 23:59:54.071   04 Jun 2027 23:59:57.131             3.060                Anadyr1            95.625
       419   05 Jun 2027 00:02:46.461   05 Jun 2027 00:02:54.637             8.176                Anadyr1           255.500
       420   05 Jun 2027 00:03:12.302   05 Jun 2027 00:03:25.165            12.863                Anadyr1           401.969
       421   05 Jun 2027 00:03:49.544   05 Jun 2027 00:05:28.368            98.824               Magadan2          3088.250
       422   05 Jun 2027 00:06:25.474   05 Jun 2027 00:08:20.815           115.341              Murmansk2          3604.406
       423   05 Jun 2027 00:08:27.982   05 Jun 2027 00:10:28.109           120.127              Murmansk1          3753.969
       424   05 Jun 2027 00:10:40.271   05 Jun 2027 00:12:08.798            88.527                 Moscow          2766.469
       425   05 Jun 2027 00:12:15.494   05 Jun 2027 00:12:35.306            19.812                 Moscow           619.125
       426   05 Jun 2027 00:36:49.934   05 Jun 2027 00:38:55.437           125.503               CapeTown          3921.969
       427   05 Jun 2027 00:40:01.626   05 Jun 2027 00:41:15.245            73.619               CapeTown          2300.594
       428   05 Jun 2027 01:34:58.962   05 Jun 2027 01:35:33.607            34.645               Magadan2          1082.656
       429   05 Jun 2027 01:36:06.333   05 Jun 2027 01:36:17.684            11.351               Magadan2           354.719
       430   05 Jun 2027 01:41:42.744   05 Jun 2027 01:41:54.489            11.745                Norilsk           367.031
       431   05 Jun 2027 01:42:19.533   05 Jun 2027 01:42:21.064             1.531              Murmansk1            47.844
       432   05 Jun 2027 01:43:13.425   05 Jun 2027 01:44:22.620            69.195              Murmansk1          2162.344
       433   05 Jun 2027 01:44:22.620   05 Jun 2027 01:44:52.229            29.609              Murmansk2           925.281
       434   05 Jun 2027 01:45:10.768   05 Jun 2027 01:45:55.556            44.788                Novosib          1399.625
       435   05 Jun 2027 01:48:41.726   05 Jun 2027 01:48:49.038             7.312                 Moscow           228.500
       436   05 Jun 2027 01:49:11.136   05 Jun 2027 01:49:27.451            16.315                Novosib           509.844
       437   05 Jun 2027 01:50:45.915   05 Jun 2027 01:51:12.650            26.735                 Moscow           835.469
       438   05 Jun 2027 01:56:37.372   05 Jun 2027 01:56:59.513            22.141                 Moscow           691.906
       439   05 Jun 2027 02:09:26.203   05 Jun 2027 02:10:44.723            78.520               CapeTown          2453.750
       440   05 Jun 2027 03:06:10.400   05 Jun 2027 03:07:01.962            51.562                Anadyr2          1611.312
       441   05 Jun 2027 03:07:03.135   05 Jun 2027 03:07:21.988            18.853                Anadyr2           589.156
       442   05 Jun 2027 03:09:29.617   05 Jun 2027 03:09:42.938            13.321               Magadan2           416.281
       443   05 Jun 2027 03:12:21.186   05 Jun 2027 03:15:48.196           207.010                Anadyr2          6469.062
       444   05 Jun 2027 03:15:49.011   05 Jun 2027 03:16:22.525            33.514               Magadan1          1047.312
       445   05 Jun 2027 04:51:11.237   05 Jun 2027 04:52:53.118           101.881                Anadyr2          3183.781
       446   05 Jun 2027 04:53:17.120   05 Jun 2027 04:53:25.539             8.419                Anadyr1           263.094
       447   05 Jun 2027 04:53:41.264   05 Jun 2027 04:54:04.399            23.135                Anadyr1           722.969
       448   05 Jun 2027 04:54:46.903   05 Jun 2027 04:54:53.074             6.171                Anadyr2           192.844
       449   05 Jun 2027 06:24:05.004   05 Jun 2027 06:24:21.957            16.953               Magadan2           529.781
       450   05 Jun 2027 06:24:23.004   05 Jun 2027 06:24:25.787             2.783                Anadyr1            86.969
       451   05 Jun 2027 06:24:25.787   05 Jun 2027 06:24:56.827            31.040                Anadyr2           970.000
       452   05 Jun 2027 06:25:11.637   05 Jun 2027 06:26:34.492            82.855               Magadan2          2589.219
       453   05 Jun 2027 06:26:45.079   05 Jun 2027 06:27:52.955            67.876               Magadan1          2121.125
       454   05 Jun 2027 06:27:59.351   05 Jun 2027 06:28:37.615            38.264                Anadyr1          1195.750
       455   05 Jun 2027 06:28:37.615   05 Jun 2027 06:29:12.743            35.128                Anadyr2          1097.750
       456   05 Jun 2027 06:30:16.313   05 Jun 2027 06:30:24.021             7.708               Magadan2           240.875
       457   05 Jun 2027 06:33:15.885   05 Jun 2027 06:33:24.647             8.762                Norilsk           273.812
       458   05 Jun 2027 08:00:35.113   05 Jun 2027 08:00:47.162            12.049               Magadan2           376.531
       459   05 Jun 2027 08:00:56.695   05 Jun 2027 08:02:19.994            83.299                Irkutsk          2603.094
       460   05 Jun 2027 08:02:28.386   05 Jun 2027 08:03:01.264            32.878                Irkutsk          1027.438
       461   05 Jun 2027 08:03:08.184   05 Jun 2027 08:03:55.521            47.337                Irkutsk          1479.281
       462   05 Jun 2027 08:11:04.903   05 Jun 2027 08:11:26.485            21.582              Murmansk2           674.437
       463   05 Jun 2027 08:41:35.348   05 Jun 2027 08:42:31.561            56.213            RioGallegos          1756.656
       464   05 Jun 2027 08:50:55.985   05 Jun 2027 08:51:07.955            11.970            RioGallegos           374.063
       465   05 Jun 2027 09:16:01.439   05 Jun 2027 09:17:13.028            71.589                Sumatra          2237.156
       466   05 Jun 2027 09:36:55.158   05 Jun 2027 09:37:27.963            32.805                Irkutsk          1025.156
       467   05 Jun 2027 09:39:18.010   05 Jun 2027 09:39:23.186             5.176                Novosib           161.750
       468   05 Jun 2027 09:39:57.271   05 Jun 2027 09:40:13.063            15.792                Irkutsk           493.500
       469   05 Jun 2027 09:40:22.072   05 Jun 2027 09:40:36.527            14.455                Novosib           451.719
       470   05 Jun 2027 09:40:41.794   05 Jun 2027 09:41:36.592            54.798                Novosib          1712.437
       471   05 Jun 2027 09:42:20.697   05 Jun 2027 09:42:31.726            11.029                Novosib           344.656
       472   05 Jun 2027 11:00:35.504   05 Jun 2027 11:03:00.891           145.387                  Delhi          4543.344
       473   05 Jun 2027 11:03:05.654   05 Jun 2027 11:03:29.625            23.971                  Delhi           749.094
       474   05 Jun 2027 11:13:35.275   05 Jun 2027 11:13:46.580            11.305                Novosib           353.281
       475   05 Jun 2027 11:15:36.894   05 Jun 2027 11:15:55.017            18.123                Novosib           566.344
       476   05 Jun 2027 11:16:21.024   05 Jun 2027 11:16:31.716            10.692                Novosib           334.125
       477   05 Jun 2027 11:17:43.655   05 Jun 2027 11:17:46.309             2.654                Norilsk            82.937
       478   05 Jun 2027 11:17:47.189   05 Jun 2027 11:17:56.978             9.789                Novosib           305.906
       479   05 Jun 2027 12:44:32.757   05 Jun 2027 12:45:32.832            60.075                 Moscow          1877.344
       480   05 Jun 2027 12:46:16.963   05 Jun 2027 12:46:27.651            10.688                 Moscow           334.000
       481   05 Jun 2027 12:47:43.410   05 Jun 2027 12:48:57.060            73.650                 Moscow          2301.563
       482   05 Jun 2027 12:49:06.575   05 Jun 2027 12:50:22.472            75.897              Murmansk1          2371.781
