uniorb/output/strategy_4/Drop/Drop_KinoSat_111306.txt

KinoSat_111306
-------------------------
    Access    *     Start Time (UTCG)     *     Stop Time (UTCG)  *   Duration (s)        *       Station  *  Data (Mbytes)
         1   01 Jun 2027 03:19:37.018   01 Jun 2027 03:20:15.707            38.689                 Moscow          1209.031
         2   01 Jun 2027 03:20:22.396   01 Jun 2027 03:21:13.979            51.583              Murmansk2          1611.969
         3   01 Jun 2027 03:21:20.508   01 Jun 2027 03:21:46.557            26.049              Murmansk1           814.031
         4   01 Jun 2027 03:22:12.552   01 Jun 2027 03:24:38.181           145.629              Murmansk1          4550.906
         5   01 Jun 2027 03:24:51.034   01 Jun 2027 03:26:41.913           110.879                 Moscow          3464.969
         6   01 Jun 2027 03:39:26.034   01 Jun 2027 03:42:20.058           174.024               CapeTown          5438.250
         7   01 Jun 2027 04:42:44.381   01 Jun 2027 04:45:39.123           174.742               Magadan2          5460.687
         8   01 Jun 2027 04:46:59.583   01 Jun 2027 04:47:18.315            18.732                Anadyr2           585.375
         9   01 Jun 2027 04:48:26.589   01 Jun 2027 04:48:57.847            31.258                Anadyr1           976.812
        10   01 Jun 2027 06:17:23.410   01 Jun 2027 06:17:58.414            35.004                Anadyr1          1093.875
        11   01 Jun 2027 06:18:20.760   01 Jun 2027 06:21:06.628           165.868                Anadyr1          5183.375
        12   01 Jun 2027 06:21:18.826   01 Jun 2027 06:23:45.434           146.608               Magadan1          4581.500
        13   01 Jun 2027 07:52:55.273   01 Jun 2027 07:54:12.671            77.398                Anadyr1          2418.687
        14   01 Jun 2027 07:54:27.233   01 Jun 2027 07:55:05.014            37.781               Magadan1          1180.656
        15   01 Jun 2027 07:55:16.510   01 Jun 2027 07:56:42.065            85.555                Irkutsk          2673.594
        16   01 Jun 2027 07:56:42.725   01 Jun 2027 07:57:51.624            68.899               Magadan1          2153.094
        17   01 Jun 2027 07:57:52.808   01 Jun 2027 07:58:00.238             7.430               Magadan2           232.188
        18   01 Jun 2027 07:58:04.778   01 Jun 2027 08:00:22.246           137.468               Magadan1          4295.875
        19   01 Jun 2027 08:36:17.751   01 Jun 2027 08:36:39.088            21.337            RioGallegos           666.781
        20   01 Jun 2027 09:14:55.647   01 Jun 2027 09:15:17.065            21.418                Sumatra           669.312
        21   01 Jun 2027 09:30:55.302   01 Jun 2027 09:33:50.726           175.424               Magadan1          5482.000
        22   01 Jun 2027 09:34:31.888   01 Jun 2027 09:34:49.445            17.557               Magadan1           548.656
        23   01 Jun 2027 09:35:31.114   01 Jun 2027 09:36:16.333            45.219                Irkutsk          1413.094
        24   01 Jun 2027 09:36:33.332   01 Jun 2027 09:37:32.130            58.798                Novosib          1837.438
        25   01 Jun 2027 09:37:35.512   01 Jun 2027 09:37:50.373            14.861              Murmansk2           464.406
        26   01 Jun 2027 09:39:47.872   01 Jun 2027 09:40:31.408            43.536                Norilsk          1360.500
        27   01 Jun 2027 10:11:08.759   01 Jun 2027 10:12:27.648            78.889            RioGallegos          2465.281
        28   01 Jun 2027 10:13:00.144   01 Jun 2027 10:14:06.397            66.253            RioGallegos          2070.406
        29   01 Jun 2027 10:22:05.173   01 Jun 2027 10:22:34.380            29.207            RioGallegos           912.719
        30   01 Jun 2027 10:45:47.950   01 Jun 2027 10:46:15.792            27.842                Sumatra           870.063
        31   01 Jun 2027 10:48:06.844   01 Jun 2027 10:49:52.530           105.686                Sumatra          3302.688
        32   01 Jun 2027 11:05:59.153   01 Jun 2027 11:06:02.525             3.372                  Delhi           105.375
        33   01 Jun 2027 11:07:59.115   01 Jun 2027 11:08:35.497            36.382                Novosib          1136.938
        34   01 Jun 2027 11:08:49.182   01 Jun 2027 11:09:27.529            38.347                Novosib          1198.344
        35   01 Jun 2027 11:09:36.818   01 Jun 2027 11:11:46.122           129.304                Norilsk          4040.750
        36   01 Jun 2027 11:11:55.008   01 Jun 2027 11:13:46.339           111.331                Novosib          3479.094
        37   01 Jun 2027 11:13:56.441   01 Jun 2027 11:14:26.988            30.547              Murmansk2           954.594
        38   01 Jun 2027 11:14:26.988   01 Jun 2027 11:14:58.614            31.626              Murmansk1           988.312
        39   01 Jun 2027 11:17:07.629   01 Jun 2027 11:18:05.809            58.180              Murmansk2          1818.125
        40   01 Jun 2027 11:51:26.766   01 Jun 2027 11:54:12.306           165.540            RioGallegos          5173.125
        41   01 Jun 2027 11:55:40.938   01 Jun 2027 11:55:42.868             1.930            RioGallegos            60.312
        42   01 Jun 2027 12:34:11.129   01 Jun 2027 12:34:37.914            26.785                  Delhi           837.031
        43   01 Jun 2027 12:36:25.604   01 Jun 2027 12:37:36.714            71.110                  Delhi          2222.187
        44   01 Jun 2027 12:37:58.707   01 Jun 2027 12:39:42.253           103.546                Novosib          3235.813
        45   01 Jun 2027 12:42:00.817   01 Jun 2027 12:43:18.004            77.187                Novosib          2412.094
        46   01 Jun 2027 12:43:36.504   01 Jun 2027 12:44:31.013            54.509                Norilsk          1703.406
        47   01 Jun 2027 12:45:25.161   01 Jun 2027 12:46:15.444            50.283                Norilsk          1571.344
        48   01 Jun 2027 12:49:26.242   01 Jun 2027 12:49:37.143            10.901                Norilsk           340.656
        49   01 Jun 2027 12:51:30.373   01 Jun 2027 12:51:46.819            16.446                Norilsk           513.937
        50   01 Jun 2027 14:14:24.092   01 Jun 2027 14:18:16.426           232.334                 Moscow          7260.438
        51   01 Jun 2027 14:19:02.861   01 Jun 2027 14:21:11.667           128.806              Murmansk2          4025.188
        52   01 Jun 2027 14:21:46.598   01 Jun 2027 14:22:16.572            29.974              Murmansk2           936.688
        53   01 Jun 2027 14:22:46.841   01 Jun 2027 14:24:37.583           110.742                Norilsk          3460.688
        54   01 Jun 2027 14:24:58.650   01 Jun 2027 14:25:35.682            37.032                Norilsk          1157.250
        55   01 Jun 2027 15:28:56.401   01 Jun 2027 15:29:51.567            55.166               CapeTown          1723.937
        56   01 Jun 2027 15:30:17.598   01 Jun 2027 15:32:02.232           104.634               CapeTown          3269.812
        57   01 Jun 2027 15:51:50.188   01 Jun 2027 15:52:36.666            46.478                 Moscow          1452.437
        58   01 Jun 2027 15:54:57.383   01 Jun 2027 15:55:08.965            11.582              Murmansk1           361.938
        59   01 Jun 2027 15:56:36.325   01 Jun 2027 15:56:58.303            21.978                 Moscow           686.813
        60   01 Jun 2027 15:57:10.203   01 Jun 2027 15:57:57.647            47.444              Murmansk1          1482.625
        61   01 Jun 2027 15:58:59.710   01 Jun 2027 15:59:19.622            19.912              Murmansk1           622.250
        62   01 Jun 2027 16:08:53.734   01 Jun 2027 16:08:56.495             2.761                Anadyr1            86.281
        63   01 Jun 2027 16:09:17.127   01 Jun 2027 16:10:30.208            73.081                Anadyr2          2283.781
        64   01 Jun 2027 16:10:59.847   01 Jun 2027 16:11:38.277            38.430                Anadyr1          1200.938
        65   01 Jun 2027 16:18:15.271   01 Jun 2027 16:18:24.644             9.373                Anadyr1           292.906
        66   01 Jun 2027 17:03:54.810   01 Jun 2027 17:06:01.335           126.525               CapeTown          3953.906
        67   01 Jun 2027 17:15:32.634   01 Jun 2027 17:15:33.247             0.613               CapeTown            19.156
        68   01 Jun 2027 17:34:20.721   01 Jun 2027 17:35:43.433            82.712              Murmansk2          2584.750
        69   01 Jun 2027 17:36:10.340   01 Jun 2027 17:39:16.185           185.845              Murmansk1          5807.656
        70   01 Jun 2027 17:39:37.702   01 Jun 2027 17:40:29.260            51.558              Murmansk2          1611.188
        71   01 Jun 2027 17:44:27.643   01 Jun 2027 17:45:07.619            39.976                Anadyr1          1249.250
        72   01 Jun 2027 17:47:49.592   01 Jun 2027 17:49:05.599            76.007               Magadan1          2375.219
        73   01 Jun 2027 17:49:33.355   01 Jun 2027 17:50:11.938            38.583               Magadan1          1205.719
        74   01 Jun 2027 19:20:22.737   01 Jun 2027 19:22:16.401           113.664                Anadyr1          3552.000
        75   01 Jun 2027 19:22:27.877   01 Jun 2027 19:24:10.028           102.151                Anadyr2          3192.219
        76   01 Jun 2027 19:24:25.420   01 Jun 2027 19:26:27.138           121.718               Magadan2          3803.687
        77   01 Jun 2027 19:28:28.468   01 Jun 2027 19:29:37.036            68.568               Magadan1          2142.750
        78   01 Jun 2027 19:31:45.226   01 Jun 2027 19:32:03.781            18.555               Magadan1           579.844
        79   01 Jun 2027 20:17:56.593   01 Jun 2027 20:19:28.535            91.942            RioGallegos          2873.187
        80   01 Jun 2027 20:56:13.743   01 Jun 2027 20:59:03.251           169.508                Anadyr1          5297.125
        81   01 Jun 2027 20:59:08.210   01 Jun 2027 21:02:49.004           220.794               Magadan2          6899.813
        82   01 Jun 2027 21:03:26.384   01 Jun 2027 21:04:07.892            41.508                Norilsk          1297.125
        83   01 Jun 2027 21:04:34.145   01 Jun 2027 21:05:21.638            47.493                Norilsk          1484.156
        84   01 Jun 2027 21:05:47.471   01 Jun 2027 21:06:39.121            51.650                Irkutsk          1614.063
        85   01 Jun 2027 21:19:21.518   01 Jun 2027 21:20:58.846            97.328                Sumatra          3041.500
        86   01 Jun 2027 21:23:49.272   01 Jun 2027 21:24:46.097            56.825                Sumatra          1775.781
        87   01 Jun 2027 22:31:36.165   01 Jun 2027 22:31:49.202            13.037                Anadyr2           407.406
        88   01 Jun 2027 22:31:49.202   01 Jun 2027 22:32:15.048            25.846                Anadyr1           807.687
        89   01 Jun 2027 22:32:24.250   01 Jun 2027 22:32:35.448            11.198                Anadyr2           349.937
        90   01 Jun 2027 22:33:28.828   01 Jun 2027 22:34:04.226            35.398                Anadyr1          1106.188
        91   01 Jun 2027 22:34:06.621   01 Jun 2027 22:35:31.776            85.155                Norilsk          2661.094
        92   01 Jun 2027 22:35:40.091   01 Jun 2027 22:35:56.925            16.834                Norilsk           526.063
        93   01 Jun 2027 22:36:42.983   01 Jun 2027 22:36:56.405            13.422               Magadan1           419.437
        94   01 Jun 2027 22:38:01.109   01 Jun 2027 22:38:11.496            10.387               Magadan2           324.594
        95   01 Jun 2027 22:38:56.647   01 Jun 2027 22:41:41.640           164.993                Novosib          5156.031
        96   01 Jun 2027 22:54:26.964   01 Jun 2027 22:54:56.860            29.896                Sumatra           934.250
        97   01 Jun 2027 22:56:01.467   01 Jun 2027 22:56:34.336            32.869                Sumatra          1027.156
        98   01 Jun 2027 23:00:55.584   01 Jun 2027 23:00:58.471             2.887                Sumatra            90.219
        99   01 Jun 2027 23:30:11.385   01 Jun 2027 23:30:23.047            11.662            RioGallegos           364.437
       100   01 Jun 2027 23:31:51.114   01 Jun 2027 23:32:17.791            26.677            RioGallegos           833.656
       101   01 Jun 2027 23:32:48.817   01 Jun 2027 23:33:01.043            12.226            RioGallegos           382.062
       102   01 Jun 2027 23:35:04.657   01 Jun 2027 23:35:14.854            10.197            RioGallegos           318.656
       103   01 Jun 2027 23:36:21.952   01 Jun 2027 23:36:53.598            31.646            RioGallegos           988.937
       104   02 Jun 2027 00:05:53.032   02 Jun 2027 00:07:19.520            86.488                Anadyr2          2702.750
       105   02 Jun 2027 00:08:07.626   02 Jun 2027 00:08:15.590             7.964                Anadyr2           248.875
       106   02 Jun 2027 00:08:21.596   02 Jun 2027 00:08:45.400            23.804                Anadyr2           743.875
       107   02 Jun 2027 00:10:06.568   02 Jun 2027 00:10:24.010            17.442                Norilsk           545.062
       108   02 Jun 2027 00:10:43.302   02 Jun 2027 00:11:48.688            65.386               Magadan1          2043.312
       109   02 Jun 2027 00:11:48.872   02 Jun 2027 00:12:40.080            51.208               Magadan2          1600.250
       110   02 Jun 2027 00:13:23.041   02 Jun 2027 00:15:28.304           125.263              Murmansk2          3914.469
       111   02 Jun 2027 00:15:39.719   02 Jun 2027 00:16:05.982            26.263              Murmansk2           820.719
       112   02 Jun 2027 00:22:03.494   02 Jun 2027 00:22:11.739             8.245                  Delhi           257.656
       113   02 Jun 2027 00:23:27.011   02 Jun 2027 00:23:51.640            24.629                Novosib           769.656
       114   02 Jun 2027 00:24:20.952   02 Jun 2027 00:25:01.837            40.885                  Delhi          1277.656
       115   02 Jun 2027 00:29:20.997   02 Jun 2027 00:29:34.358            13.361                  Delhi           417.531
       116   02 Jun 2027 00:30:51.303   02 Jun 2027 00:31:34.473            43.170                  Delhi          1349.063
       117   02 Jun 2027 00:33:48.433   02 Jun 2027 00:34:01.341            12.908                  Delhi           403.375
       118   02 Jun 2027 01:05:57.340   02 Jun 2027 01:06:10.998            13.658            RioGallegos           426.813
       119   02 Jun 2027 01:07:27.473   02 Jun 2027 01:08:02.888            35.415            RioGallegos          1106.719
       120   02 Jun 2027 01:39:12.450   02 Jun 2027 01:39:38.931            26.481                Anadyr2           827.531
       121   02 Jun 2027 01:39:50.285   02 Jun 2027 01:39:57.557             7.272                Anadyr2           227.250
       122   02 Jun 2027 01:40:16.050   02 Jun 2027 01:41:26.001            69.951                Anadyr1          2185.969
       123   02 Jun 2027 01:44:08.620   02 Jun 2027 01:44:57.060            48.440                Anadyr1          1513.750
       124   02 Jun 2027 01:45:22.161   02 Jun 2027 01:46:38.428            76.267               Magadan1          2383.344
       125   02 Jun 2027 01:47:38.239   02 Jun 2027 01:48:01.657            23.418               Magadan1           731.812
       126   02 Jun 2027 01:48:18.616   02 Jun 2027 01:50:39.586           140.970              Murmansk1          4405.312
       127   02 Jun 2027 01:54:03.565   02 Jun 2027 01:54:53.760            50.195                Novosib          1568.594
       128   02 Jun 2027 02:03:39.753   02 Jun 2027 02:04:16.845            37.092                  Delhi          1159.125
       129   02 Jun 2027 02:20:57.994   02 Jun 2027 02:21:20.273            22.279               CapeTown           696.219
       130   02 Jun 2027 02:23:39.891   02 Jun 2027 02:24:32.512            52.621               CapeTown          1644.406
       131   02 Jun 2027 03:17:24.732   02 Jun 2027 03:17:34.771            10.039                Anadyr1           313.719
       132   02 Jun 2027 03:32:13.646   02 Jun 2027 03:33:49.509            95.863                Novosib          2995.719
       133   02 Jun 2027 03:34:13.614   02 Jun 2027 03:35:41.285            87.671              Murmansk2          2739.719
       134   02 Jun 2027 03:35:41.285   02 Jun 2027 03:36:49.357            68.072              Murmansk1          2127.250
       135   02 Jun 2027 03:36:56.321   02 Jun 2027 03:37:01.853             5.532                 Moscow           172.875
       136   02 Jun 2027 03:51:20.881   02 Jun 2027 03:51:53.143            32.262               CapeTown          1008.187
       137   02 Jun 2027 03:59:02.652   02 Jun 2027 03:59:41.851            39.199               CapeTown          1224.969
       138   02 Jun 2027 04:00:16.481   02 Jun 2027 04:00:54.735            38.254               CapeTown          1195.438
       139   02 Jun 2027 04:54:40.362   02 Jun 2027 04:54:47.218             6.856               Magadan2           214.250
       140   02 Jun 2027 04:54:55.971   02 Jun 2027 04:58:45.827           229.856               Magadan1          7183.000
       141   02 Jun 2027 04:58:51.237   02 Jun 2027 04:59:22.677            31.440               Magadan1           982.500
       142   02 Jun 2027 04:59:42.757   02 Jun 2027 05:00:32.905            50.148               Magadan2          1567.125
       143   02 Jun 2027 06:33:25.578   02 Jun 2027 06:34:32.329            66.751                Anadyr2          2085.969
       144   02 Jun 2027 06:35:16.035   02 Jun 2027 06:36:09.149            53.114                Anadyr1          1659.812
       145   02 Jun 2027 06:36:25.448   02 Jun 2027 06:36:36.751            11.303               Magadan1           353.219
       146   02 Jun 2027 08:07:07.253   02 Jun 2027 08:08:42.233            94.980               Magadan2          2968.125
       147   02 Jun 2027 08:08:42.233   02 Jun 2027 08:08:59.421            17.188               Magadan1           537.125
       148   02 Jun 2027 08:09:21.812   02 Jun 2027 08:11:36.530           134.718                Anadyr2          4209.937
       149   02 Jun 2027 09:25:58.295   02 Jun 2027 09:26:43.352            45.057                Sumatra          1408.031
       150   02 Jun 2027 09:41:47.833   02 Jun 2027 09:42:53.695            65.862               Magadan1          2058.188
       151   02 Jun 2027 09:43:37.437   02 Jun 2027 09:45:25.558           108.121               Magadan2          3378.781
       152   02 Jun 2027 09:46:19.524   02 Jun 2027 09:46:39.435            19.911                Irkutsk           622.219
       153   02 Jun 2027 09:46:44.107   02 Jun 2027 09:47:25.081            40.974                Norilsk          1280.438
       154   02 Jun 2027 09:47:27.987   02 Jun 2027 09:47:58.960            30.973                Norilsk           967.906
       155   02 Jun 2027 09:48:02.237   02 Jun 2027 09:48:16.185            13.948                Novosib           435.875
       156   02 Jun 2027 10:23:22.833   02 Jun 2027 10:24:19.706            56.873            RioGallegos          1777.281
       157   02 Jun 2027 10:26:32.032   02 Jun 2027 10:27:28.847            56.815            RioGallegos          1775.469
       158   02 Jun 2027 11:00:54.806   02 Jun 2027 11:02:12.320            77.514                Sumatra          2422.313
       159   02 Jun 2027 11:18:17.288   02 Jun 2027 11:18:22.791             5.503                  Delhi           171.969
       160   02 Jun 2027 11:18:49.014   02 Jun 2027 11:19:18.513            29.499                Irkutsk           921.844
       161   02 Jun 2027 11:20:18.848   02 Jun 2027 11:20:33.021            14.173                Irkutsk           442.906
       162   02 Jun 2027 11:20:39.081   02 Jun 2027 11:21:36.098            57.017                Irkutsk          1781.781
       163   02 Jun 2027 11:21:57.146   02 Jun 2027 11:22:12.472            15.326                Norilsk           478.938
       164   02 Jun 2027 11:22:24.453   02 Jun 2027 11:22:35.739            11.286                Irkutsk           352.687
       165   02 Jun 2027 11:22:49.378   02 Jun 2027 11:22:52.994             3.616                Norilsk           113.000
       166   02 Jun 2027 11:23:17.896   02 Jun 2027 11:23:26.388             8.492                Irkutsk           265.375
       167   02 Jun 2027 11:23:27.345   02 Jun 2027 11:23:47.220            19.875                Norilsk           621.094
       168   02 Jun 2027 11:23:59.856   02 Jun 2027 11:24:44.297            44.441                Novosib          1388.781
       169   02 Jun 2027 12:06:09.778   02 Jun 2027 12:08:06.597           116.819            RioGallegos          3650.594
       170   02 Jun 2027 12:42:22.437   02 Jun 2027 12:42:46.740            24.303                  Delhi           759.469
       171   02 Jun 2027 12:50:25.537   02 Jun 2027 12:51:16.169            50.632                Novosib          1582.250
       172   02 Jun 2027 12:52:05.108   02 Jun 2027 12:52:28.598            23.490                Novosib           734.062
       173   02 Jun 2027 12:54:06.469   02 Jun 2027 12:55:02.865            56.396                Novosib          1762.375
       174   02 Jun 2027 12:55:17.684   02 Jun 2027 12:55:38.050            20.366                Norilsk           636.437
       175   02 Jun 2027 12:55:40.068   02 Jun 2027 12:55:55.612            15.544                Norilsk           485.750
       176   02 Jun 2027 12:57:22.473   02 Jun 2027 12:57:42.662            20.189                Norilsk           630.906
       177   02 Jun 2027 12:58:17.675   02 Jun 2027 12:59:24.215            66.540                Norilsk          2079.375
       178   02 Jun 2027 14:26:25.499   02 Jun 2027 14:30:25.097           239.598                 Moscow          7487.438
       179   02 Jun 2027 14:31:17.317   02 Jun 2027 14:32:55.069            97.752              Murmansk2          3054.750
       180   02 Jun 2027 14:34:45.020   02 Jun 2027 14:35:45.310            60.290                Norilsk          1884.063
       181   02 Jun 2027 14:37:14.280   02 Jun 2027 14:37:40.080            25.800                Norilsk           806.250
       182   02 Jun 2027 15:40:36.768   02 Jun 2027 15:43:19.239           162.471               CapeTown          5077.219
       183   02 Jun 2027 16:07:16.396   02 Jun 2027 16:08:25.299            68.903              Murmansk2          2153.219
       184   02 Jun 2027 16:09:31.186   02 Jun 2027 16:10:02.303            31.117              Murmansk2           972.406
       185   02 Jun 2027 16:11:55.934   02 Jun 2027 16:12:40.077            44.143              Murmansk2          1379.469
       186   02 Jun 2027 16:20:49.489   02 Jun 2027 16:22:53.452           123.963                Anadyr1          3873.844
       187   02 Jun 2027 17:16:02.914   02 Jun 2027 17:17:51.008           108.094               CapeTown          3377.937
       188   02 Jun 2027 17:47:01.849   02 Jun 2027 17:50:21.382           199.533              Murmansk2          6235.406
       189   02 Jun 2027 17:51:14.019   02 Jun 2027 17:53:03.466           109.447              Murmansk1          3420.219
       190   02 Jun 2027 17:59:34.969   02 Jun 2027 18:00:57.370            82.401               Magadan2          2575.031
       191   02 Jun 2027 18:02:28.807   02 Jun 2027 18:02:49.338            20.531               Magadan1           641.594
       192   02 Jun 2027 19:32:24.233   02 Jun 2027 19:34:29.532           125.299                Anadyr1          3915.594
       193   02 Jun 2027 19:34:42.986   02 Jun 2027 19:37:00.706           137.720               Magadan2          4303.750
       194   02 Jun 2027 19:37:15.855   02 Jun 2027 19:38:27.786            71.931               Magadan1          2247.844
       195   02 Jun 2027 19:39:48.283   02 Jun 2027 19:39:56.757             8.474               Magadan2           264.812
       196   02 Jun 2027 19:40:23.195   02 Jun 2027 19:41:43.903            80.708               Magadan2          2522.125
       197   02 Jun 2027 20:28:35.191   02 Jun 2027 20:31:05.895           150.704            RioGallegos          4709.500
       198   02 Jun 2027 20:33:55.082   02 Jun 2027 20:34:15.354            20.272            RioGallegos           633.500
       199   02 Jun 2027 21:08:13.268   02 Jun 2027 21:08:42.535            29.267                Anadyr2           914.594
       200   02 Jun 2027 21:09:58.140   02 Jun 2027 21:10:24.541            26.401                Anadyr2           825.031
       201   02 Jun 2027 21:10:37.855   02 Jun 2027 21:12:07.921            90.066               Magadan2          2814.563
       202   02 Jun 2027 21:12:09.630   02 Jun 2027 21:14:03.311           113.681                Norilsk          3552.531
       203   02 Jun 2027 21:15:17.686   02 Jun 2027 21:16:08.041            50.355                Irkutsk          1573.594
       204   02 Jun 2027 21:17:46.209   02 Jun 2027 21:18:27.692            41.483                Irkutsk          1296.344
       205   02 Jun 2027 21:21:31.457   02 Jun 2027 21:21:51.235            19.778                Irkutsk           618.063
       206   02 Jun 2027 21:30:14.591   02 Jun 2027 21:32:30.193           135.602                Sumatra          4237.563
       207   02 Jun 2027 22:44:00.064   02 Jun 2027 22:44:36.097            36.033                Anadyr1          1126.031
       208   02 Jun 2027 22:46:08.289   02 Jun 2027 22:48:09.017           120.728                Norilsk          3772.750
       209   02 Jun 2027 22:48:18.975   02 Jun 2027 22:48:24.479             5.504               Magadan1           172.000
       210   02 Jun 2027 22:50:03.230   02 Jun 2027 22:51:14.529            71.299                Irkutsk          2228.094
       211   02 Jun 2027 22:51:26.200   02 Jun 2027 22:53:38.965           132.765                Novosib          4148.906
       212   02 Jun 2027 23:00:41.852   02 Jun 2027 23:02:19.804            97.952                  Delhi          3061.000
       213   02 Jun 2027 23:03:33.474   02 Jun 2027 23:04:59.757            86.283                  Delhi          2696.344
       214   03 Jun 2027 00:19:51.792   03 Jun 2027 00:20:09.281            17.489                Anadyr2           546.531
       215   03 Jun 2027 00:20:13.497   03 Jun 2027 00:20:27.921            14.424                Anadyr2           450.750
       216   03 Jun 2027 00:22:08.619   03 Jun 2027 00:23:08.945            60.326                Norilsk          1885.187
       217   03 Jun 2027 00:23:19.905   03 Jun 2027 00:23:29.457             9.552               Magadan2           298.500
       218   03 Jun 2027 00:23:58.455   03 Jun 2027 00:24:22.784            24.329               Magadan1           760.281
       219   03 Jun 2027 00:25:04.431   03 Jun 2027 00:26:22.296            77.865              Murmansk1          2433.281
       220   03 Jun 2027 00:26:23.601   03 Jun 2027 00:28:07.521           103.920              Murmansk2          3247.500
       221   03 Jun 2027 00:28:59.020   03 Jun 2027 00:29:36.627            37.607              Murmansk1          1175.219
       222   03 Jun 2027 00:33:56.435   03 Jun 2027 00:35:30.210            93.775                  Delhi          2930.469
       223   03 Jun 2027 01:15:11.361   03 Jun 2027 01:16:11.750            60.389            RioGallegos          1887.156
       224   03 Jun 2027 01:50:54.167   03 Jun 2027 01:51:47.696            53.529                Anadyr2          1672.781
       225   03 Jun 2027 01:51:58.830   03 Jun 2027 01:52:28.122            29.292                Anadyr2           915.375
       226   03 Jun 2027 01:53:31.632   03 Jun 2027 01:54:09.639            38.007                Anadyr1          1187.719
       227   03 Jun 2027 01:56:39.059   03 Jun 2027 01:56:53.645            14.586                Anadyr1           455.813
       228   03 Jun 2027 01:56:57.479   03 Jun 2027 01:57:44.691            47.212               Magadan2          1475.375
       229   03 Jun 2027 01:58:04.013   03 Jun 2027 01:58:25.258            21.245                Norilsk           663.906
       230   03 Jun 2027 01:59:30.433   03 Jun 2027 01:59:40.648            10.215                Norilsk           319.219
       231   03 Jun 2027 02:00:18.846   03 Jun 2027 02:00:45.429            26.583              Murmansk1           830.719
       232   03 Jun 2027 02:01:11.094   03 Jun 2027 02:02:32.234            81.140              Murmansk1          2535.625
       233   03 Jun 2027 02:03:31.110   03 Jun 2027 02:04:04.219            33.109                Irkutsk          1034.656
       234   03 Jun 2027 02:04:44.473   03 Jun 2027 02:05:29.942            45.469                 Moscow          1420.906
       235   03 Jun 2027 02:11:42.779   03 Jun 2027 02:12:26.252            43.473                  Delhi          1358.531
       236   03 Jun 2027 02:17:13.850   03 Jun 2027 02:17:33.575            19.725                  Delhi           616.406
       237   03 Jun 2027 02:33:55.782   03 Jun 2027 02:34:12.320            16.538               CapeTown           516.812
       238   03 Jun 2027 02:38:18.018   03 Jun 2027 02:38:57.489            39.471               CapeTown          1233.469
       239   03 Jun 2027 03:30:23.819   03 Jun 2027 03:30:43.150            19.331               Magadan1           604.094
       240   03 Jun 2027 03:45:42.127   03 Jun 2027 03:46:59.690            77.563                 Moscow          2423.844
       241   03 Jun 2027 03:47:09.890   03 Jun 2027 03:51:11.283           241.393                 Moscow          7543.531
       242   03 Jun 2027 04:15:23.138   03 Jun 2027 04:16:08.106            44.968               CapeTown          1405.250
       243   03 Jun 2027 05:06:49.971   03 Jun 2027 05:12:35.840           345.869               Magadan1         10808.406
       244   03 Jun 2027 05:12:58.090   03 Jun 2027 05:13:00.797             2.707                Anadyr2            84.594
       245   03 Jun 2027 06:43:31.895   03 Jun 2027 06:43:36.338             4.443                Anadyr1           138.844
       246   03 Jun 2027 06:43:46.409   03 Jun 2027 06:44:19.807            33.398               Magadan2          1043.687
       247   03 Jun 2027 06:44:36.871   03 Jun 2027 06:44:52.211            15.340               Magadan2           479.375
       248   03 Jun 2027 06:44:54.446   03 Jun 2027 06:45:18.617            24.171               Magadan2           755.344
       249   03 Jun 2027 06:45:27.432   03 Jun 2027 06:46:25.736            58.304                Anadyr2          1822.000
       250   03 Jun 2027 06:47:35.026   03 Jun 2027 06:47:51.470            16.444                Anadyr2           513.875
       251   03 Jun 2027 08:17:01.854   03 Jun 2027 08:17:03.428             1.574               Magadan1            49.188
       252   03 Jun 2027 08:17:48.957   03 Jun 2027 08:18:16.181            27.224               Magadan1           850.750
       253   03 Jun 2027 08:18:16.979   03 Jun 2027 08:19:09.226            52.247               Magadan2          1632.719
       254   03 Jun 2027 08:19:20.335   03 Jun 2027 08:20:17.621            57.286                Anadyr2          1790.188
       255   03 Jun 2027 08:20:41.040   03 Jun 2027 08:21:02.376            21.336               Magadan1           666.750
       256   03 Jun 2027 08:21:22.973   03 Jun 2027 08:22:40.325            77.352                Anadyr2          2417.250
       257   03 Jun 2027 08:22:50.736   03 Jun 2027 08:22:54.504             3.768               Magadan1           117.750
       258   03 Jun 2027 08:23:04.785   03 Jun 2027 08:23:07.251             2.466                Anadyr2            77.063
       259   03 Jun 2027 08:23:18.818   03 Jun 2027 08:23:45.361            26.543               Magadan1           829.469
       260   03 Jun 2027 08:24:10.046   03 Jun 2027 08:24:16.317             6.271               Magadan2           195.969
       261   03 Jun 2027 08:24:20.095   03 Jun 2027 08:24:24.017             3.922                Norilsk           122.563
       262   03 Jun 2027 08:28:05.723   03 Jun 2027 08:28:17.507            11.784                Norilsk           368.250
       263   03 Jun 2027 08:59:14.889   03 Jun 2027 09:00:00.824            45.935            RioGallegos          1435.469
       264   03 Jun 2027 09:00:20.013   03 Jun 2027 09:01:00.258            40.245            RioGallegos          1257.656
       265   03 Jun 2027 09:35:49.932   03 Jun 2027 09:36:00.655            10.723                Sumatra           335.094
       266   03 Jun 2027 09:38:59.130   03 Jun 2027 09:40:19.200            80.070                Sumatra          2502.187
       267   03 Jun 2027 09:57:47.902   03 Jun 2027 09:58:12.380            24.478                Novosib           764.937
       268   03 Jun 2027 09:58:14.514   03 Jun 2027 09:58:26.570            12.056                Irkutsk           376.750
       269   03 Jun 2027 09:58:57.183   03 Jun 2027 09:59:32.287            35.104                Irkutsk          1097.000
       270   03 Jun 2027 09:59:54.418   03 Jun 2027 10:00:17.006            22.588                Novosib           705.875
       271   03 Jun 2027 10:35:41.070   03 Jun 2027 10:35:47.534             6.464            RioGallegos           202.000
       272   03 Jun 2027 10:37:56.520   03 Jun 2027 10:38:25.102            28.582            RioGallegos           893.188
       273   03 Jun 2027 11:10:02.704   03 Jun 2027 11:12:06.274           123.570                Sumatra          3861.562
       274   03 Jun 2027 11:30:51.571   03 Jun 2027 11:31:24.115            32.544                Irkutsk          1017.000
       275   03 Jun 2027 11:33:39.933   03 Jun 2027 11:33:44.082             4.149                Norilsk           129.656
       276   03 Jun 2027 11:33:46.368   03 Jun 2027 11:33:49.859             3.491                Novosib           109.094
       277   03 Jun 2027 11:33:54.017   03 Jun 2027 11:34:03.731             9.714                Novosib           303.563
       278   03 Jun 2027 11:34:19.653   03 Jun 2027 11:34:46.756            27.103                Norilsk           846.969
       279   03 Jun 2027 11:34:56.709   03 Jun 2027 11:35:31.852            35.143                Irkutsk          1098.219
       280   03 Jun 2027 11:35:39.431   03 Jun 2027 11:36:04.208            24.777                Novosib           774.281
       281   03 Jun 2027 12:54:43.432   03 Jun 2027 12:56:11.541            88.109                  Delhi          2753.406
       282   03 Jun 2027 12:58:57.589   03 Jun 2027 12:59:54.730            57.141                  Delhi          1785.656
       283   03 Jun 2027 13:02:57.482   03 Jun 2027 13:03:31.315            33.833                Novosib          1057.281
       284   03 Jun 2027 13:03:34.824   03 Jun 2027 13:04:31.475            56.651                Novosib          1770.344
       285   03 Jun 2027 13:06:11.585   03 Jun 2027 13:06:46.891            35.306                Novosib          1103.313
       286   03 Jun 2027 13:06:49.553   03 Jun 2027 13:07:39.337            49.784                Norilsk          1555.750
       287   03 Jun 2027 13:07:57.866   03 Jun 2027 13:08:37.878            40.012                Norilsk          1250.375
       288   03 Jun 2027 14:38:29.868   03 Jun 2027 14:41:44.859           194.991                 Moscow          6093.469
       289   03 Jun 2027 14:41:47.839   03 Jun 2027 14:42:13.857            26.018                 Moscow           813.062
       290   03 Jun 2027 14:43:19.046   03 Jun 2027 14:43:58.772            39.726              Murmansk1          1241.437
       291   03 Jun 2027 14:44:04.444   03 Jun 2027 14:45:15.315            70.871              Murmansk2          2214.719
       292   03 Jun 2027 14:47:37.550   03 Jun 2027 14:49:10.781            93.231                Norilsk          2913.469
       293   03 Jun 2027 14:49:42.426   03 Jun 2027 14:50:57.643            75.217                Norilsk          2350.531
       294   03 Jun 2027 15:00:21.065   03 Jun 2027 15:00:46.385            25.320                Anadyr2           791.250
       295   03 Jun 2027 15:53:06.495   03 Jun 2027 15:53:33.140            26.645               CapeTown           832.656
       296   03 Jun 2027 15:53:50.319   03 Jun 2027 15:54:02.692            12.373               CapeTown           386.656
       297   03 Jun 2027 15:54:29.804   03 Jun 2027 15:55:48.813            79.009               CapeTown          2469.031
       298   03 Jun 2027 16:19:37.613   03 Jun 2027 16:20:41.479            63.866              Murmansk2          1995.813
       299   03 Jun 2027 16:27:03.493   03 Jun 2027 16:27:17.033            13.540              Murmansk1           423.125
       300   03 Jun 2027 16:29:09.077   03 Jun 2027 16:29:27.463            18.386              Murmansk1           574.563
       301   03 Jun 2027 16:32:46.511   03 Jun 2027 16:32:59.115            12.604                Anadyr1           393.875
       302   03 Jun 2027 16:33:03.407   03 Jun 2027 16:34:31.338            87.931                Anadyr2          2747.844
       303   03 Jun 2027 16:37:52.308   03 Jun 2027 16:38:18.417            26.109                Anadyr1           815.906
       304   03 Jun 2027 16:39:57.359   03 Jun 2027 16:40:22.228            24.869                Anadyr2           777.156
       305   03 Jun 2027 17:28:14.217   03 Jun 2027 17:29:16.012            61.795               CapeTown          1931.094
       306   03 Jun 2027 17:32:26.233   03 Jun 2027 17:32:42.050            15.817               CapeTown           494.281
       307   03 Jun 2027 17:34:40.678   03 Jun 2027 17:34:51.442            10.764               CapeTown           336.375
       308   03 Jun 2027 17:38:58.863   03 Jun 2027 17:39:35.153            36.290               CapeTown          1134.063
       309   03 Jun 2027 17:59:47.517   03 Jun 2027 18:02:46.433           178.916              Murmansk2          5591.125
       310   03 Jun 2027 18:02:46.433   03 Jun 2027 18:03:16.179            29.746              Murmansk1           929.563
       311   03 Jun 2027 18:08:29.747   03 Jun 2027 18:09:38.688            68.941                Anadyr2          2154.406
       312   03 Jun 2027 18:11:24.260   03 Jun 2027 18:12:46.983            82.723               Magadan2          2585.094
       313   03 Jun 2027 18:14:18.470   03 Jun 2027 18:14:30.509            12.039               Magadan2           376.219
       314   03 Jun 2027 18:16:09.428   03 Jun 2027 18:16:18.732             9.304               Magadan1           290.750
       315   03 Jun 2027 18:19:12.560   03 Jun 2027 18:19:32.778            20.218               Magadan1           631.812
       316   03 Jun 2027 19:44:25.635   03 Jun 2027 19:48:07.046           221.411                Anadyr2          6919.094
       317   03 Jun 2027 19:48:07.881   03 Jun 2027 19:50:28.849           140.968               Magadan2          4405.250
       318   03 Jun 2027 19:51:02.548   03 Jun 2027 19:51:19.940            17.392               Magadan1           543.500
       319   03 Jun 2027 19:53:48.161   03 Jun 2027 19:54:08.507            20.346               Magadan1           635.813
       320   03 Jun 2027 20:39:55.752   03 Jun 2027 20:42:49.424           173.672            RioGallegos          5427.250
       321   03 Jun 2027 20:45:26.241   03 Jun 2027 20:45:47.034            20.793            RioGallegos           649.781
       322   03 Jun 2027 20:46:11.486   03 Jun 2027 20:47:01.158            49.672            RioGallegos          1552.250
       323   03 Jun 2027 21:22:20.424   03 Jun 2027 21:24:57.828           157.404                Norilsk          4918.875
       324   03 Jun 2027 21:25:06.821   03 Jun 2027 21:25:30.191            23.370                Norilsk           730.312
       325   03 Jun 2027 21:25:49.427   03 Jun 2027 21:26:03.199            13.772                Norilsk           430.375
       326   03 Jun 2027 21:27:00.492   03 Jun 2027 21:29:41.826           161.334                Irkutsk          5041.688
       327   03 Jun 2027 21:41:29.159   03 Jun 2027 21:42:27.247            58.088                Sumatra          1815.250
       328   03 Jun 2027 21:44:56.489   03 Jun 2027 21:45:44.249            47.760                Sumatra          1492.500
       329   03 Jun 2027 21:48:11.258   03 Jun 2027 21:48:40.317            29.059                Sumatra           908.094
       330   03 Jun 2027 22:55:44.005   03 Jun 2027 22:55:51.851             7.846                Anadyr2           245.187
       331   03 Jun 2027 22:56:25.577   03 Jun 2027 22:56:37.298            11.721                Anadyr2           366.281
       332   03 Jun 2027 22:57:51.881   03 Jun 2027 22:57:57.727             5.846                Anadyr2           182.687
       333   03 Jun 2027 22:58:10.131   03 Jun 2027 23:00:10.946           120.815                Norilsk          3775.469
       334   03 Jun 2027 23:00:13.430   03 Jun 2027 23:00:44.754            31.324               Magadan2           978.875
       335   03 Jun 2027 23:02:03.193   03 Jun 2027 23:03:00.758            57.565                Irkutsk          1798.906
       336   03 Jun 2027 23:03:06.724   03 Jun 2027 23:05:33.537           146.813                Novosib          4587.906
       337   03 Jun 2027 23:12:18.873   03 Jun 2027 23:12:57.564            38.691                  Delhi          1209.094
       338   03 Jun 2027 23:18:20.964   03 Jun 2027 23:19:36.689            75.725                  Delhi          2366.406
       339   04 Jun 2027 00:30:42.077   04 Jun 2027 00:30:55.601            13.524                Anadyr1           422.625
       340   04 Jun 2027 00:31:22.124   04 Jun 2027 00:32:00.678            38.554                Anadyr1          1204.812
       341   04 Jun 2027 00:32:16.494   04 Jun 2027 00:32:19.148             2.654                Anadyr2            82.938
       342   04 Jun 2027 00:34:10.591   04 Jun 2027 00:34:27.096            16.505                Norilsk           515.781
       343   04 Jun 2027 00:34:42.105   04 Jun 2027 00:35:06.100            23.995               Magadan2           749.844
       344   04 Jun 2027 00:35:23.301   04 Jun 2027 00:37:02.780            99.479               Magadan1          3108.719
       345   04 Jun 2027 00:37:19.994   04 Jun 2027 00:41:00.664           220.670              Murmansk2          6895.937
       346   04 Jun 2027 00:49:26.654   04 Jun 2027 00:50:03.060            36.406                  Delhi          1137.687
       347   04 Jun 2027 00:56:48.177   04 Jun 2027 00:57:11.856            23.679                  Delhi           739.969
       348   04 Jun 2027 01:27:33.217   04 Jun 2027 01:28:11.538            38.321            RioGallegos          1197.531
       349   04 Jun 2027 01:30:21.680   04 Jun 2027 01:30:52.186            30.506            RioGallegos           953.312
       350   04 Jun 2027 02:02:36.453   04 Jun 2027 02:03:45.794            69.341                Anadyr1          2166.906
       351   04 Jun 2027 02:03:55.766   04 Jun 2027 02:04:00.171             4.405                Anadyr1           137.656
       352   04 Jun 2027 02:04:42.574   04 Jun 2027 02:05:24.558            41.984                Anadyr2          1312.000
       353   04 Jun 2027 02:08:29.610   04 Jun 2027 02:10:33.309           123.699               Magadan1          3865.594
       354   04 Jun 2027 02:12:19.515   04 Jun 2027 02:12:46.967            27.452              Murmansk1           857.875
       355   04 Jun 2027 02:12:52.787   04 Jun 2027 02:13:12.882            20.095              Murmansk2           627.969
       356   04 Jun 2027 02:13:36.568   04 Jun 2027 02:13:45.062             8.494              Murmansk2           265.438
       357   04 Jun 2027 02:14:07.410   04 Jun 2027 02:15:28.288            80.878                Novosib          2527.438
       358   04 Jun 2027 02:17:42.999   04 Jun 2027 02:18:05.386            22.387                Novosib           699.594
       359   04 Jun 2027 02:24:06.108   04 Jun 2027 02:24:40.325            34.217                  Delhi          1069.281
       360   04 Jun 2027 02:41:28.738   04 Jun 2027 02:42:29.847            61.109               CapeTown          1909.656
       361   04 Jun 2027 03:36:35.808   04 Jun 2027 03:36:56.391            20.583                Anadyr2           643.219
       362   04 Jun 2027 03:39:30.792   04 Jun 2027 03:39:39.230             8.438                Anadyr1           263.687
       363   04 Jun 2027 03:56:10.843   04 Jun 2027 03:56:44.456            33.613              Murmansk2          1050.406
       364   04 Jun 2027 03:58:19.924   04 Jun 2027 03:59:27.615            67.691              Murmansk2          2115.344
       365   04 Jun 2027 05:17:16.205   04 Jun 2027 05:17:57.089            40.884                Anadyr2          1277.625
       366   04 Jun 2027 05:18:52.606   04 Jun 2027 05:24:38.700           346.094               Magadan2         10815.438
       367   04 Jun 2027 05:24:50.659   04 Jun 2027 05:25:02.097            11.438                Anadyr2           357.437
       368   04 Jun 2027 06:55:05.825   04 Jun 2027 06:55:19.954            14.129                Anadyr2           441.531
       369   04 Jun 2027 06:55:33.500   04 Jun 2027 06:56:25.495            51.995                Anadyr1          1624.844
       370   04 Jun 2027 06:56:30.876   04 Jun 2027 06:56:54.205            23.329               Magadan1           729.031
       371   04 Jun 2027 06:56:57.779   04 Jun 2027 06:57:22.228            24.449               Magadan2           764.031
       372   04 Jun 2027 06:57:29.325   04 Jun 2027 06:58:01.336            32.011                Anadyr1          1000.344
       373   04 Jun 2027 06:58:01.336   04 Jun 2027 06:58:16.625            15.289                Anadyr2           477.781
       374   04 Jun 2027 06:58:35.611   04 Jun 2027 06:58:57.499            21.888               Magadan2           684.000
       375   04 Jun 2027 06:59:18.514   04 Jun 2027 06:59:57.839            39.325                Anadyr2          1228.906
       376   04 Jun 2027 08:30:00.843   04 Jun 2027 08:30:09.067             8.224               Magadan2           257.000
       377   04 Jun 2027 08:30:36.133   04 Jun 2027 08:31:10.882            34.749               Magadan2          1085.906
       378   04 Jun 2027 08:31:49.069   04 Jun 2027 08:32:39.011            49.942               Magadan2          1560.687
       379   04 Jun 2027 08:33:05.163   04 Jun 2027 08:33:13.617             8.454               Magadan1           264.188
       380   04 Jun 2027 08:33:15.465   04 Jun 2027 08:33:23.835             8.370                Anadyr2           261.562
       381   04 Jun 2027 08:33:39.511   04 Jun 2027 08:34:55.160            75.649               Magadan1          2364.031
       382   04 Jun 2027 08:35:17.738   04 Jun 2027 08:35:19.670             1.932               Magadan1            60.375
       383   04 Jun 2027 08:35:58.751   04 Jun 2027 08:36:11.456            12.705               Magadan1           397.031
       384   04 Jun 2027 08:42:07.491   04 Jun 2027 08:42:20.342            12.851              Murmansk1           401.594
       385   04 Jun 2027 09:11:08.325   04 Jun 2027 09:11:32.639            24.314            RioGallegos           759.813
       386   04 Jun 2027 09:12:11.179   04 Jun 2027 09:12:19.644             8.465            RioGallegos           264.531
       387   04 Jun 2027 09:13:24.095   04 Jun 2027 09:13:37.720            13.625            RioGallegos           425.781
       388   04 Jun 2027 09:21:52.659   04 Jun 2027 09:22:42.897            50.238            RioGallegos          1569.938
       389   04 Jun 2027 09:47:11.532   04 Jun 2027 09:47:53.840            42.308                Sumatra          1322.125
       390   04 Jun 2027 10:07:17.940   04 Jun 2027 10:07:39.492            21.552                Irkutsk           673.500
       391   04 Jun 2027 10:07:43.289   04 Jun 2027 10:08:02.968            19.679                Novosib           614.969
       392   04 Jun 2027 10:08:13.384   04 Jun 2027 10:08:21.204             7.820                Norilsk           244.375
       393   04 Jun 2027 10:08:25.759   04 Jun 2027 10:08:36.189            10.430                Irkutsk           325.937
       394   04 Jun 2027 10:08:41.561   04 Jun 2027 10:09:21.300            39.739                Norilsk          1241.844
       395   04 Jun 2027 10:09:42.441   04 Jun 2027 10:09:51.058             8.617                Norilsk           269.281
       396   04 Jun 2027 10:09:53.732   04 Jun 2027 10:10:11.836            18.104                Novosib           565.750
       397   04 Jun 2027 10:10:15.196   04 Jun 2027 10:10:32.708            17.512                Irkutsk           547.250
       398   04 Jun 2027 10:11:09.822   04 Jun 2027 10:11:21.075            11.253                Norilsk           351.656
       399   04 Jun 2027 10:11:22.025   04 Jun 2027 10:11:31.184             9.159                Norilsk           286.219
       400   04 Jun 2027 10:11:39.278   04 Jun 2027 10:11:55.783            16.505                Novosib           515.781
       401   04 Jun 2027 10:12:00.325   04 Jun 2027 10:12:04.884             4.559                Novosib           142.469
       402   04 Jun 2027 10:12:09.877   04 Jun 2027 10:12:24.629            14.752                Norilsk           461.000
       403   04 Jun 2027 10:48:03.898   04 Jun 2027 10:48:36.896            32.998            RioGallegos          1031.187
       404   04 Jun 2027 10:50:30.921   04 Jun 2027 10:51:06.157            35.236            RioGallegos          1101.125
       405   04 Jun 2027 11:22:19.615   04 Jun 2027 11:22:57.043            37.428                Sumatra          1169.625
       406   04 Jun 2027 11:30:36.289   04 Jun 2027 11:31:21.516            45.227                  Delhi          1413.344
       407   04 Jun 2027 11:45:11.790   04 Jun 2027 11:45:35.046            23.256                Norilsk           726.750
       408   04 Jun 2027 11:45:41.145   04 Jun 2027 11:45:46.118             4.973                Norilsk           155.406
       409   04 Jun 2027 11:45:54.207   04 Jun 2027 11:46:05.449            11.242                Novosib           351.313
       410   04 Jun 2027 11:46:28.479   04 Jun 2027 11:47:31.411            62.932                Norilsk          1966.625
       411   04 Jun 2027 11:47:50.121   04 Jun 2027 11:47:57.086             6.965                Norilsk           217.656
       412   04 Jun 2027 13:07:12.384   04 Jun 2027 13:10:39.718           207.334                  Delhi          6479.188
       413   04 Jun 2027 13:15:35.482   04 Jun 2027 13:15:50.200            14.718                Novosib           459.938
       414   04 Jun 2027 13:16:33.805   04 Jun 2027 13:17:08.153            34.348                Novosib          1073.375
       415   04 Jun 2027 13:18:04.043   04 Jun 2027 13:20:20.911           136.868                Novosib          4277.125
       416   04 Jun 2027 13:27:37.176   04 Jun 2027 13:28:01.632            24.456                Norilsk           764.250
       417   04 Jun 2027 14:50:37.306   04 Jun 2027 14:52:36.736           119.430                 Moscow          3732.187
       418   04 Jun 2027 14:54:08.719   04 Jun 2027 14:57:17.215           188.496              Murmansk1          5890.500
       419   04 Jun 2027 14:59:21.670   04 Jun 2027 14:59:37.465            15.795              Murmansk1           493.594
       420   04 Jun 2027 15:00:39.874   04 Jun 2027 15:01:44.656            64.782                Norilsk          2024.438
       421   04 Jun 2027 15:03:30.318   04 Jun 2027 15:04:14.545            44.227                Norilsk          1382.094
       422   04 Jun 2027 15:10:17.801   04 Jun 2027 15:10:50.765            32.964                Anadyr2          1030.125
       423   04 Jun 2027 15:11:26.331   04 Jun 2027 15:11:36.356            10.025                Anadyr1           313.281
       424   04 Jun 2027 15:11:55.153   04 Jun 2027 15:12:22.400            27.247                Anadyr1           851.469
       425   04 Jun 2027 16:04:12.749   04 Jun 2027 16:05:11.313            58.564               CapeTown          1830.125
       426   04 Jun 2027 16:11:40.718   04 Jun 2027 16:12:07.882            27.164               CapeTown           848.875
       427   04 Jun 2027 16:29:41.471   04 Jun 2027 16:30:45.436            63.965                 Moscow          1998.906
       428   04 Jun 2027 16:32:01.124   04 Jun 2027 16:33:13.860            72.736              Murmansk1          2273.000
       429   04 Jun 2027 16:39:54.734   04 Jun 2027 16:40:41.008            46.274              Murmansk1          1446.062
       430   04 Jun 2027 16:44:44.514   04 Jun 2027 16:46:33.599           109.085                Anadyr1          3408.906
       431   04 Jun 2027 16:50:38.794   04 Jun 2027 16:50:40.265             1.471                Anadyr2            45.969
       432   04 Jun 2027 16:55:04.711   04 Jun 2027 16:55:55.394            50.683                Anadyr1          1583.844
       433   04 Jun 2027 17:40:29.242   04 Jun 2027 17:40:47.286            18.044               CapeTown           563.875
       434   04 Jun 2027 17:46:50.517   04 Jun 2027 17:47:00.202             9.685               CapeTown           302.656
       435   04 Jun 2027 17:47:27.492   04 Jun 2027 17:47:51.648            24.156               CapeTown           754.875
       436   04 Jun 2027 18:12:39.161   04 Jun 2027 18:17:04.061           264.900              Murmansk1          8278.125
       437   04 Jun 2027 18:20:31.079   04 Jun 2027 18:20:53.403            22.324                Anadyr1           697.625
       438   04 Jun 2027 18:23:16.286   04 Jun 2027 18:24:53.681            97.395               Magadan1          3043.594
       439   04 Jun 2027 18:25:46.412   04 Jun 2027 18:26:17.788            31.376               Magadan1           980.500
       440   04 Jun 2027 19:56:26.901   04 Jun 2027 20:00:12.855           225.954                Anadyr2          7061.062
       441   04 Jun 2027 20:00:15.303   04 Jun 2027 20:02:52.937           157.634               Magadan2          4926.062
       442   04 Jun 2027 20:03:31.390   04 Jun 2027 20:03:34.154             2.764               Magadan2            86.375
       443   04 Jun 2027 20:03:53.035   04 Jun 2027 20:03:56.088             3.053               Magadan2            95.406
       444   04 Jun 2027 20:04:16.357   04 Jun 2027 20:04:35.353            18.996               Magadan2           593.625
       445   04 Jun 2027 20:07:36.576   04 Jun 2027 20:07:52.155            15.579               Magadan1           486.844
       446   04 Jun 2027 20:09:30.734   04 Jun 2027 20:10:08.585            37.851               Magadan2          1182.844
       447   04 Jun 2027 20:51:29.806   04 Jun 2027 20:53:52.713           142.907            RioGallegos          4465.844
       448   04 Jun 2027 20:54:03.050   04 Jun 2027 20:54:31.372            28.322            RioGallegos           885.062
       449   04 Jun 2027 20:57:35.819   04 Jun 2027 20:58:05.585            29.766            RioGallegos           930.187
       450   04 Jun 2027 21:32:10.778   04 Jun 2027 21:32:58.108            47.330                Anadyr1          1479.063
       451   04 Jun 2027 21:34:19.316   04 Jun 2027 21:34:43.810            24.494                Norilsk           765.437
       452   04 Jun 2027 21:35:17.026   04 Jun 2027 21:36:48.485            91.459               Magadan2          2858.094
       453   04 Jun 2027 21:37:58.498   04 Jun 2027 21:38:22.704            24.206               Magadan2           756.437
       454   04 Jun 2027 21:38:47.738   04 Jun 2027 21:40:05.943            78.205                Irkutsk          2443.906
       455   04 Jun 2027 21:43:06.432   04 Jun 2027 21:43:20.016            13.584                Irkutsk           424.500
       456   04 Jun 2027 21:48:03.253   04 Jun 2027 21:48:14.329            11.076                Irkutsk           346.125
       457   04 Jun 2027 21:52:56.544   04 Jun 2027 21:55:46.103           169.559                Sumatra          5298.719
       458   04 Jun 2027 23:07:12.679   04 Jun 2027 23:07:33.746            21.067                Anadyr2           658.344
       459   04 Jun 2027 23:08:29.149   04 Jun 2027 23:09:53.438            84.289                Anadyr2          2634.031
       460   04 Jun 2027 23:10:40.579   04 Jun 2027 23:10:42.922             2.343                Norilsk            73.219
       461   04 Jun 2027 23:10:50.108   04 Jun 2027 23:11:06.932            16.824               Magadan2           525.750
       462   04 Jun 2027 23:11:06.932   04 Jun 2027 23:11:21.896            14.964               Magadan1           467.625
       463   04 Jun 2027 23:11:49.012   04 Jun 2027 23:12:16.425            27.413                Norilsk           856.656
       464   04 Jun 2027 23:12:20.615   04 Jun 2027 23:12:46.285            25.670               Magadan2           802.187
       465   04 Jun 2027 23:13:22.637   04 Jun 2027 23:13:39.378            16.741                Norilsk           523.156
       466   04 Jun 2027 23:14:04.090   04 Jun 2027 23:14:27.280            23.190                Irkutsk           724.688
       467   04 Jun 2027 23:14:44.602   04 Jun 2027 23:15:26.825            42.223                Novosib          1319.469
       468   04 Jun 2027 23:15:51.622   04 Jun 2027 23:17:22.717            91.095                Novosib          2846.719
       469   04 Jun 2027 23:22:55.714   04 Jun 2027 23:23:55.552            59.838                  Delhi          1869.937
       470   04 Jun 2027 23:26:04.510   04 Jun 2027 23:26:32.230            27.720                  Delhi           866.250
       471   04 Jun 2027 23:28:09.278   04 Jun 2027 23:29:06.298            57.020                  Delhi          1781.875
       472   05 Jun 2027 00:41:01.493   05 Jun 2027 00:42:38.287            96.794                Anadyr2          3024.813
       473   05 Jun 2027 00:43:23.463   05 Jun 2027 00:43:54.500            31.037                Anadyr1           969.906
       474   05 Jun 2027 00:46:12.455   05 Jun 2027 00:46:29.026            16.571                Norilsk           517.844
       475   05 Jun 2027 00:46:39.258   05 Jun 2027 00:48:03.111            83.853               Magadan2          2620.406
       476   05 Jun 2027 00:48:45.866   05 Jun 2027 00:48:50.346             4.480              Murmansk1           140.000
       477   05 Jun 2027 00:49:11.359   05 Jun 2027 00:53:02.341           230.982              Murmansk2          7218.188
       478   05 Jun 2027 01:02:32.191   05 Jun 2027 01:02:54.887            22.696                  Delhi           709.250
       479   05 Jun 2027 01:06:19.120   05 Jun 2027 01:06:21.743             2.623                  Delhi            81.969
       480   05 Jun 2027 01:07:01.551   05 Jun 2027 01:07:36.755            35.204                  Delhi          1100.125
       481   05 Jun 2027 01:40:04.544   05 Jun 2027 01:40:54.406            49.862            RioGallegos          1558.188
       482   05 Jun 2027 01:41:49.225   05 Jun 2027 01:42:28.447            39.222            RioGallegos          1225.688
