uniorb/output/strategy_4/Drop/Drop_KinoSat_110605.txt

KinoSat_110605
-------------------------
    Access    *     Start Time (UTCG)     *     Stop Time (UTCG)  *   Duration (s)        *       Station  *  Data (Mbytes)
         1   01 Jun 2027 03:45:35.443   01 Jun 2027 03:45:56.590            21.147               Magadan2           660.844
         2   01 Jun 2027 03:46:06.013   01 Jun 2027 03:46:37.435            31.422                Anadyr1           981.938
         3   01 Jun 2027 03:47:02.080   01 Jun 2027 03:48:57.009           114.929               Magadan2          3591.531
         4   01 Jun 2027 03:49:20.654   01 Jun 2027 03:49:48.915            28.261                Anadyr2           883.156
         5   01 Jun 2027 03:49:48.915   01 Jun 2027 03:50:05.662            16.747                Anadyr1           523.344
         6   01 Jun 2027 05:20:55.988   01 Jun 2027 05:21:21.081            25.093                Irkutsk           784.156
         7   01 Jun 2027 05:21:50.521   01 Jun 2027 05:24:59.593           189.072               Magadan2          5908.500
         8   01 Jun 2027 05:25:03.559   01 Jun 2027 05:25:33.401            29.842               Magadan2           932.563
         9   01 Jun 2027 05:25:59.526   01 Jun 2027 05:26:22.976            23.450                Norilsk           732.813
        10   01 Jun 2027 05:26:44.663   01 Jun 2027 05:26:52.894             8.231                Novosib           257.219
        11   01 Jun 2027 05:27:29.187   01 Jun 2027 05:28:01.717            32.530              Murmansk2          1016.562
        12   01 Jun 2027 05:28:36.817   01 Jun 2027 05:29:25.874            49.057              Murmansk2          1533.031
        13   01 Jun 2027 05:31:32.411   01 Jun 2027 05:32:25.045            52.634              Murmansk2          1644.812
        14   01 Jun 2027 05:33:11.846   01 Jun 2027 05:33:21.591             9.745              Murmansk2           304.531
        15   01 Jun 2027 06:00:48.963   01 Jun 2027 06:02:59.070           130.107            RioGallegos          4065.844
        16   01 Jun 2027 06:04:04.737   01 Jun 2027 06:04:49.699            44.962            RioGallegos          1405.063
        17   01 Jun 2027 06:05:44.827   01 Jun 2027 06:06:23.693            38.866            RioGallegos          1214.563
        18   01 Jun 2027 06:36:30.859   01 Jun 2027 06:40:08.092           217.233                Sumatra          6788.531
        19   01 Jun 2027 06:41:07.818   01 Jun 2027 06:41:22.578            14.760                Sumatra           461.250
        20   01 Jun 2027 06:41:47.522   01 Jun 2027 06:43:15.133            87.611                Sumatra          2737.844
        21   01 Jun 2027 06:57:46.877   01 Jun 2027 06:58:09.054            22.177                Norilsk           693.031
        22   01 Jun 2027 06:58:28.109   01 Jun 2027 06:59:07.863            39.754                Novosib          1242.313
        23   01 Jun 2027 06:59:13.249   01 Jun 2027 07:01:54.020           160.771                Norilsk          5024.094
        24   01 Jun 2027 07:02:10.590   01 Jun 2027 07:03:13.623            63.033              Murmansk1          1969.781
        25   01 Jun 2027 07:03:13.623   01 Jun 2027 07:03:21.296             7.673              Murmansk2           239.781
        26   01 Jun 2027 07:03:45.937   01 Jun 2027 07:04:11.886            25.949              Murmansk2           810.906
        27   01 Jun 2027 07:38:12.337   01 Jun 2027 07:39:36.586            84.249            RioGallegos          2632.781
        28   01 Jun 2027 07:42:35.277   01 Jun 2027 07:42:37.889             2.612            RioGallegos            81.625
        29   01 Jun 2027 08:12:24.289   01 Jun 2027 08:12:49.645            25.356                Sumatra           792.375
        30   01 Jun 2027 08:13:56.472   01 Jun 2027 08:15:22.080            85.608                Sumatra          2675.250
        31   01 Jun 2027 08:20:08.170   01 Jun 2027 08:23:55.289           227.119                  Delhi          7097.469
        32   01 Jun 2027 08:35:18.147   01 Jun 2027 08:35:31.268            13.121                Novosib           410.031
        33   01 Jun 2027 08:35:43.279   01 Jun 2027 08:36:07.910            24.631                Irkutsk           769.719
        34   01 Jun 2027 08:36:32.135   01 Jun 2027 08:37:23.911            51.776                Norilsk          1618.000
        35   01 Jun 2027 08:37:28.898   01 Jun 2027 08:39:29.122           120.224                Novosib          3757.000
        36   01 Jun 2027 08:40:24.481   01 Jun 2027 08:40:36.133            11.652                 Moscow           364.125
        37   01 Jun 2027 09:57:29.869   01 Jun 2027 10:00:26.964           177.095                  Delhi          5534.219
        38   01 Jun 2027 10:01:10.688   01 Jun 2027 10:01:38.481            27.793                  Delhi           868.531
        39   01 Jun 2027 10:11:37.026   01 Jun 2027 10:12:00.738            23.712                Norilsk           741.000
        40   01 Jun 2027 10:12:00.824   01 Jun 2027 10:14:03.299           122.475              Murmansk2          3827.344
        41   01 Jun 2027 10:15:29.735   01 Jun 2027 10:16:16.943            47.208              Murmansk2          1475.250
        42   01 Jun 2027 11:59:40.666   01 Jun 2027 12:05:25.274           344.608                Anadyr2         10769.000
        43   01 Jun 2027 15:12:55.700   01 Jun 2027 15:15:21.728           146.028               Magadan2          4563.375
        44   01 Jun 2027 15:17:51.068   01 Jun 2027 15:18:51.587            60.519               Magadan1          1891.219
        45   01 Jun 2027 15:21:24.701   01 Jun 2027 15:22:26.264            61.563               Magadan1          1923.844
        46   01 Jun 2027 17:43:23.617   01 Jun 2027 17:47:17.857           234.240            RioGallegos          7320.000
        47   01 Jun 2027 18:42:19.624   01 Jun 2027 18:46:07.192           227.568                Sumatra          7111.500
        48   01 Jun 2027 18:48:17.246   01 Jun 2027 18:48:52.522            35.276                Sumatra          1102.375
        49   01 Jun 2027 20:04:05.963   01 Jun 2027 20:05:27.088            81.125                Novosib          2535.156
        50   01 Jun 2027 20:05:57.642   01 Jun 2027 20:06:26.726            29.084                Novosib           908.875
        51   01 Jun 2027 20:12:14.462   01 Jun 2027 20:19:07.501           413.039                  Delhi         12907.469
        52   01 Jun 2027 21:38:27.131   01 Jun 2027 21:44:05.236           338.105              Murmansk1         10565.781
        53   01 Jun 2027 21:44:11.841   01 Jun 2027 21:48:14.977           243.136                 Moscow          7598.000
        54   01 Jun 2027 23:17:33.178   01 Jun 2027 23:17:57.906            24.728                 Moscow           772.750
        55   01 Jun 2027 23:22:05.389   01 Jun 2027 23:23:07.444            62.055                 Moscow          1939.219
        56   01 Jun 2027 23:42:14.156   01 Jun 2027 23:45:44.073           209.917               CapeTown          6559.906
        57   01 Jun 2027 23:47:49.535   01 Jun 2027 23:48:03.966            14.431               CapeTown           450.969
        58   02 Jun 2027 00:50:03.685   02 Jun 2027 00:51:27.435            83.750              Murmansk1          2617.188
        59   02 Jun 2027 00:51:27.435   02 Jun 2027 00:52:36.614            69.179              Murmansk2          2161.844
        60   02 Jun 2027 01:00:17.388   02 Jun 2027 01:01:52.238            94.850                 Moscow          2964.062
        61   02 Jun 2027 01:20:06.522   02 Jun 2027 01:20:27.161            20.639               CapeTown           644.969
        62   02 Jun 2027 01:22:27.809   02 Jun 2027 01:22:57.765            29.956               CapeTown           936.125
        63   02 Jun 2027 01:26:20.312   02 Jun 2027 01:26:37.018            16.706               CapeTown           522.063
        64   02 Jun 2027 01:27:24.251   02 Jun 2027 01:27:56.013            31.762               CapeTown           992.563
        65   02 Jun 2027 02:14:10.572   02 Jun 2027 02:15:29.451            78.879               Magadan1          2464.969
        66   02 Jun 2027 02:15:51.698   02 Jun 2027 02:16:15.362            23.664               Magadan2           739.500
        67   02 Jun 2027 02:17:28.675   02 Jun 2027 02:17:35.088             6.413               Magadan1           200.406
        68   02 Jun 2027 02:19:16.756   02 Jun 2027 02:20:16.858            60.102               Magadan1          1878.187
        69   02 Jun 2027 02:23:49.361   02 Jun 2027 02:23:57.908             8.547                Norilsk           267.094
        70   02 Jun 2027 02:25:23.682   02 Jun 2027 02:25:50.683            27.001               Magadan1           843.781
        71   02 Jun 2027 02:25:57.244   02 Jun 2027 02:26:38.346            41.102              Murmansk2          1284.438
        72   02 Jun 2027 02:28:21.206   02 Jun 2027 02:28:36.905            15.699              Murmansk2           490.594
        73   02 Jun 2027 02:29:26.527   02 Jun 2027 02:30:16.247            49.720              Murmansk2          1553.750
        74   02 Jun 2027 02:31:05.507   02 Jun 2027 02:32:05.008            59.501                 Moscow          1859.406
        75   02 Jun 2027 02:36:33.459   02 Jun 2027 02:36:33.940             0.481                 Moscow            15.031
        76   02 Jun 2027 02:37:15.197   02 Jun 2027 02:37:29.165            13.968                 Moscow           436.500
        77   02 Jun 2027 02:38:55.966   02 Jun 2027 02:39:15.932            19.966                 Moscow           623.938
        78   02 Jun 2027 03:53:05.088   02 Jun 2027 03:53:14.186             9.098               Magadan2           284.312
        79   02 Jun 2027 03:56:33.616   02 Jun 2027 03:56:35.919             2.303               Magadan1            71.969
        80   02 Jun 2027 03:56:37.104   02 Jun 2027 04:01:38.716           301.612                Anadyr2          9425.375
        81   02 Jun 2027 04:01:38.716   02 Jun 2027 04:02:19.900            41.184                Anadyr1          1287.000
        82   02 Jun 2027 04:43:01.323   02 Jun 2027 04:44:08.285            66.962            RioGallegos          2092.562
        83   02 Jun 2027 05:33:52.982   02 Jun 2027 05:34:16.205            23.223                Irkutsk           725.719
        84   02 Jun 2027 05:35:06.687   02 Jun 2027 05:37:39.659           152.972               Magadan1          4780.375
        85   02 Jun 2027 07:09:50.944   02 Jun 2027 07:12:15.115           144.171                Irkutsk          4505.344
        86   02 Jun 2027 07:12:38.483   02 Jun 2027 07:14:04.275            85.792                Irkutsk          2681.000
        87   02 Jun 2027 07:14:59.936   02 Jun 2027 07:15:17.158            17.222                Novosib           538.187
        88   02 Jun 2027 08:50:00.713   02 Jun 2027 08:50:04.147             3.434                Novosib           107.312
        89   02 Jun 2027 08:50:08.078   02 Jun 2027 08:51:29.781            81.703                Novosib          2553.219
        90   02 Jun 2027 10:10:21.221   02 Jun 2027 10:13:25.206           183.985                  Delhi          5749.531
        91   02 Jun 2027 10:17:22.487   02 Jun 2027 10:18:24.846            62.359                  Delhi          1948.719
        92   02 Jun 2027 10:28:03.468   02 Jun 2027 10:28:17.228            13.760                Norilsk           430.000
        93   02 Jun 2027 12:00:52.900   02 Jun 2027 12:01:10.227            17.327              Murmansk2           541.469
        94   02 Jun 2027 12:02:19.122   02 Jun 2027 12:02:57.023            37.901              Murmansk2          1184.406
        95   02 Jun 2027 12:04:45.275   02 Jun 2027 12:05:39.733            54.458              Murmansk1          1701.813
        96   02 Jun 2027 12:11:22.486   02 Jun 2027 12:15:13.536           231.050                Anadyr1          7220.312
        97   02 Jun 2027 12:16:57.142   02 Jun 2027 12:17:45.869            48.727                Anadyr2          1522.719
        98   02 Jun 2027 13:37:47.919   02 Jun 2027 13:38:19.771            31.852              Murmansk2           995.375
        99   02 Jun 2027 13:38:19.771   02 Jun 2027 13:38:31.859            12.088              Murmansk1           377.750
       100   02 Jun 2027 13:38:55.973   02 Jun 2027 13:39:11.939            15.966              Murmansk1           498.937
       101   02 Jun 2027 13:40:00.443   02 Jun 2027 13:40:17.531            17.088              Murmansk1           534.000
       102   02 Jun 2027 13:40:26.636   02 Jun 2027 13:40:48.795            22.159              Murmansk2           692.469
       103   02 Jun 2027 13:42:12.129   02 Jun 2027 13:43:14.250            62.121              Murmansk1          1941.281
       104   02 Jun 2027 13:46:27.033   02 Jun 2027 13:48:27.741           120.708                Anadyr1          3772.125
       105   02 Jun 2027 13:50:19.946   02 Jun 2027 13:50:45.744            25.798                Anadyr1           806.187
       106   02 Jun 2027 13:52:16.314   02 Jun 2027 13:53:28.122            71.808               Magadan1          2244.000
       107   02 Jun 2027 15:16:41.426   02 Jun 2027 15:18:22.923           101.497              Murmansk2          3171.781
       108   02 Jun 2027 15:22:17.468   02 Jun 2027 15:24:31.492           134.024                Anadyr2          4188.250
       109   02 Jun 2027 15:24:50.865   02 Jun 2027 15:26:56.861           125.996               Magadan2          3937.375
       110   02 Jun 2027 15:27:07.603   02 Jun 2027 15:29:03.170           115.567               Magadan1          3611.469
       111   02 Jun 2027 15:30:30.672   02 Jun 2027 15:31:46.927            76.255               Magadan1          2382.969
       112   02 Jun 2027 15:33:20.661   02 Jun 2027 15:34:22.478            61.817               Magadan2          1931.781
       113   02 Jun 2027 17:00:29.206   02 Jun 2027 17:02:13.055           103.849               Magadan2          3245.281
       114   02 Jun 2027 17:04:06.034   02 Jun 2027 17:04:45.736            39.702                Norilsk          1240.688
       115   02 Jun 2027 17:09:30.021   02 Jun 2027 17:11:16.222           106.201               Magadan1          3318.781
       116   02 Jun 2027 17:52:43.698   02 Jun 2027 17:55:59.107           195.409            RioGallegos          6106.531
       117   02 Jun 2027 17:56:39.186   02 Jun 2027 17:58:46.583           127.397            RioGallegos          3981.156
       118   02 Jun 2027 18:37:39.897   02 Jun 2027 18:40:04.153           144.256                Norilsk          4508.000
       119   02 Jun 2027 18:40:16.152   02 Jun 2027 18:41:19.711            63.559                Irkutsk          1986.219
       120   02 Jun 2027 18:42:27.806   02 Jun 2027 18:47:04.707           276.901                Novosib          8653.156
       121   02 Jun 2027 18:55:36.718   02 Jun 2027 18:56:37.562            60.844                Sumatra          1901.375
       122   02 Jun 2027 18:57:46.255   02 Jun 2027 18:58:57.757            71.502                Sumatra          2234.437
       123   02 Jun 2027 20:19:51.828   02 Jun 2027 20:20:15.730            23.902                Novosib           746.938
       124   02 Jun 2027 20:20:28.921   02 Jun 2027 20:21:35.074            66.153                Novosib          2067.281
       125   02 Jun 2027 20:23:52.516   02 Jun 2027 20:27:37.970           225.454                  Delhi          7045.437
       126   02 Jun 2027 20:28:51.253   02 Jun 2027 20:30:17.879            86.626                  Delhi          2707.062
       127   02 Jun 2027 21:50:23.388   02 Jun 2027 21:55:55.824           332.436              Murmansk2         10388.625
       128   02 Jun 2027 21:56:45.880   02 Jun 2027 21:59:00.929           135.049              Murmansk1          4220.281
       129   02 Jun 2027 22:00:25.625   02 Jun 2027 22:01:38.339            72.714                 Moscow          2272.313
       130   02 Jun 2027 23:29:29.879   02 Jun 2027 23:30:27.155            57.276                 Moscow          1789.875
       131   02 Jun 2027 23:30:46.960   02 Jun 2027 23:31:58.612            71.652                 Moscow          2239.125
       132   02 Jun 2027 23:53:52.607   02 Jun 2027 23:55:41.362           108.755               CapeTown          3398.594
       133   02 Jun 2027 23:57:12.427   02 Jun 2027 23:58:31.608            79.181               CapeTown          2474.406
       134   03 Jun 2027 01:02:05.236   03 Jun 2027 01:02:57.920            52.684              Murmansk2          1646.375
       135   03 Jun 2027 01:03:10.316   03 Jun 2027 01:04:32.221            81.905              Murmansk1          2559.531
       136   03 Jun 2027 01:06:02.737   03 Jun 2027 01:06:25.218            22.481                 Moscow           702.531
       137   03 Jun 2027 01:09:57.619   03 Jun 2027 01:09:59.996             2.377                 Moscow            74.281
       138   03 Jun 2027 01:10:54.871   03 Jun 2027 01:11:04.820             9.949                 Moscow           310.906
       139   03 Jun 2027 01:11:17.614   03 Jun 2027 01:11:40.940            23.326              Murmansk2           728.938
       140   03 Jun 2027 01:29:54.584   03 Jun 2027 01:31:18.591            84.007               CapeTown          2625.219
       141   03 Jun 2027 02:26:00.394   03 Jun 2027 02:28:29.521           149.127               Magadan1          4660.219
       142   03 Jun 2027 02:29:25.302   03 Jun 2027 02:29:53.842            28.540               Magadan2           891.875
       143   03 Jun 2027 02:31:18.979   03 Jun 2027 02:32:01.430            42.451               Magadan2          1326.594
       144   03 Jun 2027 02:35:44.614   03 Jun 2027 02:35:50.854             6.240                Norilsk           195.000
       145   03 Jun 2027 02:37:57.248   03 Jun 2027 02:39:39.431           102.183              Murmansk2          3193.219
       146   03 Jun 2027 02:41:43.755   03 Jun 2027 02:42:27.900            44.145                 Moscow          1379.531
       147   03 Jun 2027 02:44:41.605   03 Jun 2027 02:44:48.108             6.503                 Moscow           203.219
       148   03 Jun 2027 02:48:46.450   03 Jun 2027 02:49:32.064            45.614                 Moscow          1425.437
       149   03 Jun 2027 03:19:45.150   03 Jun 2027 03:20:21.830            36.680            RioGallegos          1146.250
       150   03 Jun 2027 03:21:11.164   03 Jun 2027 03:22:27.225            76.061            RioGallegos          2376.906
       151   03 Jun 2027 04:06:51.582   03 Jun 2027 04:06:57.678             6.096               Magadan2           190.500
       152   03 Jun 2027 04:08:21.971   03 Jun 2027 04:13:49.591           327.620                Anadyr2         10238.125
       153   03 Jun 2027 04:13:49.591   03 Jun 2027 04:13:59.484             9.893                Anadyr1           309.156
       154   03 Jun 2027 04:50:14.157   03 Jun 2027 04:51:32.093            77.936            RioGallegos          2435.500
       155   03 Jun 2027 04:51:51.332   03 Jun 2027 04:52:00.623             9.291            RioGallegos           290.344
       156   03 Jun 2027 04:56:07.413   03 Jun 2027 04:56:30.951            23.538            RioGallegos           735.563
       157   03 Jun 2027 05:45:37.198   03 Jun 2027 05:49:32.915           235.717                Irkutsk          7366.156
       158   03 Jun 2027 07:20:42.508   03 Jun 2027 07:21:01.474            18.966                Irkutsk           592.687
       159   03 Jun 2027 07:21:51.863   03 Jun 2027 07:23:05.542            73.679                Irkutsk          2302.469
       160   03 Jun 2027 07:23:16.965   03 Jun 2027 07:23:33.188            16.223                Irkutsk           506.969
       161   03 Jun 2027 07:24:01.720   03 Jun 2027 07:24:22.274            20.554                Irkutsk           642.312
       162   03 Jun 2027 07:24:24.576   03 Jun 2027 07:25:26.048            61.472                Irkutsk          1921.000
       163   03 Jun 2027 07:26:58.393   03 Jun 2027 07:26:59.560             1.167                Norilsk            36.469
       164   03 Jun 2027 07:28:04.081   03 Jun 2027 07:28:19.016            14.935              Murmansk2           466.719
       165   03 Jun 2027 08:05:45.824   03 Jun 2027 08:06:00.691            14.867            RioGallegos           464.594
       166   03 Jun 2027 08:06:41.390   03 Jun 2027 08:07:17.790            36.400            RioGallegos          1137.500
       167   03 Jun 2027 08:37:45.791   03 Jun 2027 08:39:07.706            81.915                Sumatra          2559.844
       168   03 Jun 2027 08:58:34.084   03 Jun 2027 08:58:46.071            11.987              Murmansk1           374.594
       169   03 Jun 2027 08:58:49.419   03 Jun 2027 08:58:53.439             4.020              Murmansk1           125.625
       170   03 Jun 2027 08:59:15.695   03 Jun 2027 08:59:19.610             3.915              Murmansk1           122.344
       171   03 Jun 2027 09:00:14.571   03 Jun 2027 09:00:38.718            24.147                Novosib           754.594
       172   03 Jun 2027 09:00:40.547   03 Jun 2027 09:01:04.710            24.163                Novosib           755.094
       173   03 Jun 2027 09:01:43.335   03 Jun 2027 09:02:09.409            26.074                Novosib           814.812
       174   03 Jun 2027 10:23:37.378   03 Jun 2027 10:26:13.033           155.655                  Delhi          4864.219
       175   03 Jun 2027 10:35:07.709   03 Jun 2027 10:35:12.424             4.715              Murmansk1           147.344
       176   03 Jun 2027 10:39:32.772   03 Jun 2027 10:40:07.368            34.596              Murmansk2          1081.125
       177   03 Jun 2027 12:08:24.100   03 Jun 2027 12:08:51.558            27.458              Murmansk2           858.063
       178   03 Jun 2027 12:09:04.679   03 Jun 2027 12:09:21.878            17.199              Murmansk2           537.469
       179   03 Jun 2027 12:09:43.208   03 Jun 2027 12:10:24.592            41.384              Murmansk2          1293.250
       180   03 Jun 2027 12:11:05.562   03 Jun 2027 12:11:53.888            48.326              Murmansk2          1510.188
       181   03 Jun 2027 12:17:41.075   03 Jun 2027 12:18:10.088            29.013              Murmansk2           906.656
       182   03 Jun 2027 12:23:10.062   03 Jun 2027 12:26:28.068           198.006                Anadyr1          6187.688
       183   03 Jun 2027 13:47:06.885   03 Jun 2027 13:47:40.865            33.980              Murmansk2          1061.875
       184   03 Jun 2027 13:48:55.402   03 Jun 2027 13:49:39.155            43.753              Murmansk2          1367.281
       185   03 Jun 2027 13:52:48.750   03 Jun 2027 13:53:30.637            41.887              Murmansk1          1308.969
       186   03 Jun 2027 13:55:19.656   03 Jun 2027 13:55:33.156            13.500              Murmansk1           421.875
       187   03 Jun 2027 13:55:41.056   03 Jun 2027 13:56:15.570            34.514              Murmansk1          1078.563
       188   03 Jun 2027 13:58:26.638   03 Jun 2027 14:00:28.912           122.274                Anadyr2          3821.063
       189   03 Jun 2027 14:01:02.355   03 Jun 2027 14:02:20.293            77.938                Anadyr2          2435.563
       190   03 Jun 2027 14:02:49.256   03 Jun 2027 14:07:33.825           284.569               Magadan2          8892.781
       191   03 Jun 2027 15:36:47.321   03 Jun 2027 15:40:22.430           215.109               Magadan1          6722.156
       192   03 Jun 2027 15:41:02.431   03 Jun 2027 15:42:18.088            75.657               Magadan1          2364.281
       193   03 Jun 2027 17:10:12.221   03 Jun 2027 17:11:00.273            48.052                Anadyr2          1501.625
       194   03 Jun 2027 17:11:21.506   03 Jun 2027 17:12:03.578            42.072                Anadyr1          1314.750
       195   03 Jun 2027 17:12:30.558   03 Jun 2027 17:14:18.307           107.749               Magadan2          3367.156
       196   03 Jun 2027 17:16:09.008   03 Jun 2027 17:16:43.193            34.185                Norilsk          1068.281
       197   03 Jun 2027 17:17:18.372   03 Jun 2027 17:17:38.339            19.967                Norilsk           623.969
       198   03 Jun 2027 17:19:39.623   03 Jun 2027 17:22:15.318           155.695                Irkutsk          4865.469
       199   03 Jun 2027 18:04:32.741   03 Jun 2027 18:05:39.684            66.943            RioGallegos          2091.969
       200   03 Jun 2027 18:06:37.146   03 Jun 2027 18:07:59.342            82.196            RioGallegos          2568.625
       201   03 Jun 2027 18:15:00.320   03 Jun 2027 18:15:42.201            41.881            RioGallegos          1308.781
       202   03 Jun 2027 18:48:04.437   03 Jun 2027 18:49:23.704            79.267                Norilsk          2477.094
       203   03 Jun 2027 18:52:10.493   03 Jun 2027 18:52:54.818            44.325                Irkutsk          1385.156
       204   03 Jun 2027 18:53:44.454   03 Jun 2027 19:00:21.295           396.841                Novosib         12401.281
       205   03 Jun 2027 19:17:35.477   03 Jun 2027 19:18:27.420            51.943                Sumatra          1623.219
       206   03 Jun 2027 20:30:37.201   03 Jun 2027 20:31:55.464            78.263                Novosib          2445.719
       207   03 Jun 2027 20:33:11.910   03 Jun 2027 20:34:34.437            82.527                Novosib          2578.969
       208   03 Jun 2027 20:35:36.719   03 Jun 2027 20:37:29.668           112.949                  Delhi          3529.656
       209   03 Jun 2027 20:39:35.695   03 Jun 2027 20:40:23.601            47.906                  Delhi          1497.063
       210   03 Jun 2027 22:02:20.951   03 Jun 2027 22:04:11.857           110.906              Murmansk1          3465.812
       211   03 Jun 2027 22:04:34.458   03 Jun 2027 22:07:49.531           195.073              Murmansk2          6096.031
       212   03 Jun 2027 22:07:53.288   03 Jun 2027 22:14:32.650           399.362                 Moscow         12480.063
       213   03 Jun 2027 23:41:27.706   03 Jun 2027 23:43:27.495           119.789                 Moscow          3743.406
       214   04 Jun 2027 00:05:36.641   04 Jun 2027 00:07:34.547           117.906               CapeTown          3684.563
       215   04 Jun 2027 00:07:40.290   04 Jun 2027 00:08:19.301            39.011               CapeTown          1219.094
       216   04 Jun 2027 01:13:53.717   04 Jun 2027 01:13:55.143             1.426               Magadan1            44.562
       217   04 Jun 2027 01:14:06.693   04 Jun 2027 01:14:55.022            48.329              Murmansk2          1510.281
       218   04 Jun 2027 01:15:05.254   04 Jun 2027 01:15:11.993             6.739              Murmansk1           210.594
       219   04 Jun 2027 01:16:26.629   04 Jun 2027 01:16:42.502            15.873              Murmansk1           496.031
       220   04 Jun 2027 01:16:52.314   04 Jun 2027 01:17:28.213            35.899              Murmansk2          1121.844
       221   04 Jun 2027 01:17:38.138   04 Jun 2027 01:18:25.398            47.260                 Moscow          1476.875
       222   04 Jun 2027 01:20:19.946   04 Jun 2027 01:21:42.147            82.201                 Moscow          2568.781
       223   04 Jun 2027 01:43:40.705   04 Jun 2027 01:44:51.207            70.502               CapeTown          2203.188
       224   04 Jun 2027 02:37:52.379   04 Jun 2027 02:40:45.478           173.099               Magadan1          5409.344
       225   04 Jun 2027 02:42:13.203   04 Jun 2027 02:42:24.396            11.193               Magadan2           349.781
       226   04 Jun 2027 02:43:51.749   04 Jun 2027 02:44:40.739            48.990               Magadan2          1530.938
       227   04 Jun 2027 02:49:56.923   04 Jun 2027 02:51:49.623           112.700              Murmansk2          3521.875
       228   04 Jun 2027 02:53:51.581   04 Jun 2027 02:54:32.362            40.781                 Moscow          1274.406
       229   04 Jun 2027 03:30:39.695   04 Jun 2027 03:32:45.882           126.187            RioGallegos          3943.344
       230   04 Jun 2027 03:33:30.218   04 Jun 2027 03:33:44.567            14.349            RioGallegos           448.406
       231   04 Jun 2027 03:34:00.884   04 Jun 2027 03:35:21.961            81.077            RioGallegos          2533.656
       232   04 Jun 2027 04:18:27.158   04 Jun 2027 04:18:57.014            29.856               Magadan1           933.000
       233   04 Jun 2027 04:19:49.102   04 Jun 2027 04:19:58.831             9.729                Anadyr2           304.031
       234   04 Jun 2027 04:20:07.302   04 Jun 2027 04:22:06.747           119.445                Anadyr2          3732.656
       235   04 Jun 2027 04:22:10.218   04 Jun 2027 04:23:29.799            79.581               Magadan2          2486.906
       236   04 Jun 2027 04:23:43.036   04 Jun 2027 04:24:09.684            26.648                Anadyr1           832.750
       237   04 Jun 2027 04:24:12.019   04 Jun 2027 04:25:30.922            78.903                Anadyr2          2465.719
       238   04 Jun 2027 04:25:38.542   04 Jun 2027 04:25:50.411            11.869                Anadyr2           370.906
       239   04 Jun 2027 05:01:54.365   04 Jun 2027 05:05:33.651           219.286            RioGallegos          6852.688
       240   04 Jun 2027 05:57:35.835   04 Jun 2027 05:59:16.593           100.758               Magadan1          3148.687
       241   04 Jun 2027 05:59:20.912   04 Jun 2027 06:00:54.981            94.069               Magadan1          2939.656
       242   04 Jun 2027 06:00:59.536   04 Jun 2027 06:01:31.864            32.328                Irkutsk          1010.250
       243   04 Jun 2027 06:01:41.811   04 Jun 2027 06:02:21.190            39.379                Norilsk          1230.594
       244   04 Jun 2027 07:33:51.874   04 Jun 2027 07:35:08.974            77.100                Irkutsk          2409.375
       245   04 Jun 2027 07:35:33.823   04 Jun 2027 07:36:00.080            26.257                Irkutsk           820.531
       246   04 Jun 2027 07:36:32.760   04 Jun 2027 07:36:39.361             6.601                Irkutsk           206.281
       247   04 Jun 2027 07:37:16.550   04 Jun 2027 07:37:47.778            31.228                Irkutsk           975.875
       248   04 Jun 2027 07:37:52.581   04 Jun 2027 07:37:58.453             5.872                Irkutsk           183.500
       249   04 Jun 2027 07:39:42.842   04 Jun 2027 07:40:01.088            18.246              Murmansk1           570.188
       250   04 Jun 2027 07:40:23.995   04 Jun 2027 07:40:43.382            19.387              Murmansk1           605.844
       251   04 Jun 2027 08:16:15.634   04 Jun 2027 08:16:27.131            11.497            RioGallegos           359.281
       252   04 Jun 2027 08:16:35.237   04 Jun 2027 08:16:59.177            23.940            RioGallegos           748.125
       253   04 Jun 2027 08:23:25.085   04 Jun 2027 08:23:55.427            30.342            RioGallegos           948.187
       254   04 Jun 2027 08:51:32.445   04 Jun 2027 08:53:05.577            93.132                Sumatra          2910.375
       255   04 Jun 2027 09:11:18.123   04 Jun 2027 09:11:53.214            35.091                Novosib          1096.594
       256   04 Jun 2027 09:11:57.778   04 Jun 2027 09:12:41.192            43.414                Novosib          1356.688
       257   04 Jun 2027 09:14:14.153   04 Jun 2027 09:15:17.557            63.404                Novosib          1981.375
       258   04 Jun 2027 10:51:56.732   04 Jun 2027 10:52:03.220             6.488              Murmansk2           202.750
       259   04 Jun 2027 12:20:38.632   04 Jun 2027 12:20:56.633            18.001              Murmansk1           562.531
       260   04 Jun 2027 12:21:12.536   04 Jun 2027 12:21:34.473            21.937              Murmansk1           685.531
       261   04 Jun 2027 12:22:01.833   04 Jun 2027 12:22:24.533            22.700              Murmansk1           709.375
       262   04 Jun 2027 12:23:07.075   04 Jun 2027 12:23:50.659            43.584              Murmansk1          1362.000
       263   04 Jun 2027 12:28:24.398   04 Jun 2027 12:28:40.193            15.795              Murmansk2           493.594
       264   04 Jun 2027 12:29:42.551   04 Jun 2027 12:30:26.219            43.668              Murmansk1          1364.625
       265   04 Jun 2027 12:35:01.176   04 Jun 2027 12:40:48.352           347.176                Anadyr2         10849.250
       266   04 Jun 2027 12:41:24.742   04 Jun 2027 12:43:48.570           143.828                Anadyr1          4494.625
       267   04 Jun 2027 14:10:26.664   04 Jun 2027 14:11:46.448            79.784                Anadyr1          2493.250
       268   04 Jun 2027 14:12:18.732   04 Jun 2027 14:13:03.042            44.310                Anadyr2          1384.687
       269   04 Jun 2027 14:14:09.878   04 Jun 2027 14:14:49.170            39.292                Anadyr2          1227.875
       270   04 Jun 2027 14:15:05.336   04 Jun 2027 14:20:44.341           339.005               Magadan1         10593.906
       271   04 Jun 2027 15:48:44.824   04 Jun 2027 15:52:36.481           231.657               Magadan1          7239.281
       272   04 Jun 2027 15:53:58.455   04 Jun 2027 15:54:49.474            51.019               Magadan1          1594.344
       273   04 Jun 2027 15:56:07.974   04 Jun 2027 15:56:10.000             2.026               Magadan2            63.312
       274   04 Jun 2027 17:22:12.326   04 Jun 2027 17:22:36.650            24.324                Anadyr2           760.125
       275   04 Jun 2027 17:24:09.376   04 Jun 2027 17:24:18.747             9.371                Anadyr1           292.844
       276   04 Jun 2027 17:24:28.267   04 Jun 2027 17:24:54.243            25.976                Anadyr1           811.750
       277   04 Jun 2027 17:25:41.104   04 Jun 2027 17:27:07.262            86.158               Magadan2          2692.438
       278   04 Jun 2027 17:28:08.329   04 Jun 2027 17:29:41.319            92.990                Norilsk          2905.937
       279   04 Jun 2027 17:30:23.469   04 Jun 2027 17:36:04.446           340.977                Irkutsk         10655.531
       280   04 Jun 2027 17:48:14.218   04 Jun 2027 17:49:11.170            56.952                Sumatra          1779.750
       281   04 Jun 2027 19:05:17.513   04 Jun 2027 19:12:10.315           412.802                Novosib         12900.062
       282   04 Jun 2027 19:23:28.259   04 Jun 2027 19:24:55.905            87.646                Sumatra          2738.938
       283   04 Jun 2027 19:27:36.394   04 Jun 2027 19:28:33.346            56.952                Sumatra          1779.750
       284   04 Jun 2027 20:44:34.582   04 Jun 2027 20:45:23.777            49.195                Novosib          1537.344
       285   04 Jun 2027 20:47:25.781   04 Jun 2027 20:49:15.839           110.058                  Delhi          3439.312
       286   04 Jun 2027 20:50:05.766   04 Jun 2027 20:50:58.053            52.287                  Delhi          1633.969
       287   04 Jun 2027 20:58:07.031   04 Jun 2027 20:58:35.139            28.108                  Delhi           878.375
       288   04 Jun 2027 22:14:19.501   04 Jun 2027 22:19:45.289           325.788              Murmansk2         10180.875
       289   04 Jun 2027 22:19:48.373   04 Jun 2027 22:24:55.786           307.413                 Moscow          9606.656
       290   04 Jun 2027 22:46:31.310   04 Jun 2027 22:51:24.835           293.525               CapeTown          9172.656
       291   05 Jun 2027 00:26:55.427   05 Jun 2027 00:27:17.060            21.633               CapeTown           676.031
       292   05 Jun 2027 01:20:27.320   05 Jun 2027 01:20:49.124            21.804               Magadan1           681.375
       293   05 Jun 2027 01:22:37.047   05 Jun 2027 01:22:53.787            16.740               Magadan2           523.125
       294   05 Jun 2027 01:26:08.028   05 Jun 2027 01:28:19.914           131.886              Murmansk1          4121.438
       295   05 Jun 2027 01:29:25.899   05 Jun 2027 01:29:54.296            28.397                 Moscow           887.406
       296   05 Jun 2027 01:32:00.806   05 Jun 2027 01:33:06.964            66.158                 Moscow          2067.437
       297   05 Jun 2027 01:55:01.853   05 Jun 2027 01:56:29.620            87.767               CapeTown          2742.719
       298   05 Jun 2027 02:49:46.583   05 Jun 2027 02:52:16.947           150.364               Magadan1          4698.875
       299   05 Jun 2027 02:53:23.452   05 Jun 2027 02:53:46.103            22.651               Magadan1           707.844
       300   05 Jun 2027 02:53:59.273   05 Jun 2027 02:54:04.183             4.910               Magadan1           153.438
       301   05 Jun 2027 02:54:44.124   05 Jun 2027 02:55:09.291            25.167               Magadan1           786.469
       302   05 Jun 2027 02:57:30.000   05 Jun 2027 02:58:06.280            36.280                Norilsk          1133.750
       303   05 Jun 2027 03:41:47.217   05 Jun 2027 03:45:21.902           214.685            RioGallegos          6708.906
       304   05 Jun 2027 04:31:05.098   05 Jun 2027 04:31:24.578            19.480               Magadan1           608.750
       305   05 Jun 2027 04:31:24.578   05 Jun 2027 04:32:58.201            93.623               Magadan2          2925.719
       306   05 Jun 2027 04:33:15.572   05 Jun 2027 04:34:40.557            84.985               Magadan2          2655.781
       307   05 Jun 2027 04:34:50.531   05 Jun 2027 04:36:56.570           126.039                Irkutsk          3938.719
       308   05 Jun 2027 04:37:32.075   05 Jun 2027 04:37:51.492            19.417                Anadyr2           606.781
       309   05 Jun 2027 04:38:05.315   05 Jun 2027 04:38:20.943            15.628               Magadan1           488.375
       310   05 Jun 2027 04:39:54.181   05 Jun 2027 04:40:34.230            40.049              Murmansk2          1251.531
       311   05 Jun 2027 05:13:37.844   05 Jun 2027 05:16:57.800           199.956            RioGallegos          6248.625
       312   05 Jun 2027 06:06:20.988   05 Jun 2027 06:08:31.881           130.893                Novosib          4090.406
       313   05 Jun 2027 06:11:19.001   05 Jun 2027 06:12:02.315            43.314                Novosib          1353.563
       314   05 Jun 2027 06:12:25.774   05 Jun 2027 06:12:48.687            22.913               Magadan1           716.031
       315   05 Jun 2027 06:17:15.451   05 Jun 2027 06:17:42.035            26.584              Murmansk2           830.750
       316   05 Jun 2027 07:46:48.029   05 Jun 2027 07:46:56.236             8.207                Irkutsk           256.469
       317   05 Jun 2027 07:47:12.980   05 Jun 2027 07:47:27.884            14.904                Irkutsk           465.750
       318   05 Jun 2027 07:47:48.472   05 Jun 2027 07:47:52.199             3.727              Murmansk2           116.469
       319   05 Jun 2027 07:48:01.731   05 Jun 2027 07:48:28.126            26.395                Irkutsk           824.844
       320   05 Jun 2027 07:48:39.875   05 Jun 2027 07:49:53.332            73.457                Irkutsk          2295.531
       321   05 Jun 2027 07:50:54.659   05 Jun 2027 07:51:06.556            11.897                Novosib           371.781
       322   05 Jun 2027 08:29:20.224   05 Jun 2027 08:29:35.544            15.320            RioGallegos           478.750
       323   05 Jun 2027 08:30:07.298   05 Jun 2027 08:30:43.953            36.655            RioGallegos          1145.469
       324   05 Jun 2027 08:31:08.606   05 Jun 2027 08:31:48.166            39.560            RioGallegos          1236.250
       325   05 Jun 2027 09:23:43.630   05 Jun 2027 09:24:02.019            18.389                Novosib           574.656
       326   05 Jun 2027 09:26:18.400   05 Jun 2027 09:27:01.781            43.381                Novosib          1355.656
       327   05 Jun 2027 11:04:22.255   05 Jun 2027 11:04:32.011             9.756                Norilsk           304.875
       328   05 Jun 2027 12:29:47.032   05 Jun 2027 12:31:13.568            86.536                 Moscow          2704.250
       329   05 Jun 2027 12:31:57.279   05 Jun 2027 12:32:42.607            45.328                 Moscow          1416.500
       330   05 Jun 2027 12:32:53.381   05 Jun 2027 12:34:14.138            80.757                 Moscow          2523.656
       331   05 Jun 2027 12:34:23.896   05 Jun 2027 12:34:32.373             8.477              Murmansk2           264.906
       332   05 Jun 2027 12:35:08.468   05 Jun 2027 12:36:14.010            65.542              Murmansk2          2048.188
       333   05 Jun 2027 12:36:57.377   05 Jun 2027 12:37:44.548            47.171              Murmansk1          1474.094
       334   05 Jun 2027 12:46:54.702   05 Jun 2027 12:49:36.442           161.740                Anadyr1          5054.375
       335   05 Jun 2027 12:50:00.948   05 Jun 2027 12:55:28.635           327.687                Anadyr2         10240.219
       336   05 Jun 2027 14:22:27.047   05 Jun 2027 14:23:33.270            66.223                Anadyr1          2069.469
       337   05 Jun 2027 14:25:52.286   05 Jun 2027 14:32:26.691           394.405               Magadan1         12325.156
       338   05 Jun 2027 14:33:25.777   05 Jun 2027 14:33:39.290            13.513               Magadan2           422.281
       339   05 Jun 2027 16:00:43.190   05 Jun 2027 16:02:04.072            80.882               Magadan1          2527.563
       340   05 Jun 2027 16:02:24.960   05 Jun 2027 16:03:16.990            52.030               Magadan1          1625.938
       341   05 Jun 2027 16:04:38.677   05 Jun 2027 16:04:48.621             9.944               Magadan2           310.750
       342   05 Jun 2027 16:05:02.609   05 Jun 2027 16:05:24.984            22.375               Magadan2           699.219
       343   05 Jun 2027 16:56:23.229   05 Jun 2027 16:57:49.848            86.619            RioGallegos          2706.844
       344   05 Jun 2027 17:35:53.687   05 Jun 2027 17:36:04.376            10.689                Anadyr1           334.031
       345   05 Jun 2027 17:36:28.088   05 Jun 2027 17:37:16.620            48.532                Norilsk          1516.625
       346   05 Jun 2027 17:37:38.244   05 Jun 2027 17:37:41.206             2.962               Magadan2            92.562
       347   05 Jun 2027 17:38:26.022   05 Jun 2027 17:38:38.526            12.504               Magadan1           390.750
       348   05 Jun 2027 17:39:43.338   05 Jun 2027 17:40:44.711            61.373               Magadan1          1917.906
       349   05 Jun 2027 17:41:45.401   05 Jun 2027 17:49:12.311           446.910                Irkutsk         13965.938
       350   05 Jun 2027 17:57:29.356   05 Jun 2027 18:03:48.689           379.333                Sumatra         11854.156
       351   05 Jun 2027 19:18:39.761   05 Jun 2027 19:23:16.649           276.888                Novosib          8652.750
       352   05 Jun 2027 20:51:29.384   05 Jun 2027 20:55:13.783           224.399              Murmansk2          7012.469
       353   05 Jun 2027 22:26:18.798   05 Jun 2027 22:27:48.249            89.451              Murmansk1          2795.344
       354   05 Jun 2027 22:28:04.470   05 Jun 2027 22:32:21.427           256.957              Murmansk2          8029.906
       355   05 Jun 2027 22:33:16.538   05 Jun 2027 22:38:16.329           299.791                 Moscow          9368.469
       356   05 Jun 2027 22:57:11.834   05 Jun 2027 23:04:20.142           428.308               CapeTown         13384.625
       357   06 Jun 2027 01:41:36.405   06 Jun 2027 01:42:05.871            29.466                 Moscow           920.813
       358   06 Jun 2027 01:46:30.478   06 Jun 2027 01:46:32.954             2.476                 Moscow            77.375
       359   06 Jun 2027 01:49:36.474   06 Jun 2027 01:49:48.943            12.469                 Moscow           389.656
       360   06 Jun 2027 01:50:47.014   06 Jun 2027 01:51:01.749            14.735              Murmansk1           460.469
       361   06 Jun 2027 01:51:08.130   06 Jun 2027 01:51:57.456            49.326                 Moscow          1541.438
       362   06 Jun 2027 02:09:28.801   06 Jun 2027 02:10:37.647            68.846               CapeTown          2151.437
       363   06 Jun 2027 03:01:43.062   06 Jun 2027 03:01:53.191            10.129               Magadan2           316.531
       364   06 Jun 2027 03:02:40.070   06 Jun 2027 03:03:28.968            48.898               Magadan1          1528.062
       365   06 Jun 2027 03:06:01.682   06 Jun 2027 03:09:47.787           226.105                Anadyr1          7065.781
       366   06 Jun 2027 03:09:47.787   06 Jun 2027 03:09:49.565             1.778                Anadyr2            55.563
       367   06 Jun 2027 03:10:04.195   06 Jun 2027 03:13:24.336           200.141                Anadyr1          6254.406
       368   06 Jun 2027 03:14:16.956   06 Jun 2027 03:14:35.583            18.627               Magadan2           582.094
       369   06 Jun 2027 04:43:45.360   06 Jun 2027 04:44:22.814            37.454                Irkutsk          1170.437
       370   06 Jun 2027 04:44:59.894   06 Jun 2027 04:49:12.499           252.605                Irkutsk          7893.906
       371   06 Jun 2027 04:49:24.972   06 Jun 2027 04:49:50.628            25.656                Irkutsk           801.750
       372   06 Jun 2027 06:21:18.416   06 Jun 2027 06:21:21.020             2.604               Magadan1            81.375
       373   06 Jun 2027 06:21:21.020   06 Jun 2027 06:21:33.884            12.864               Magadan2           402.000
       374   06 Jun 2027 06:22:00.500   06 Jun 2027 06:22:37.091            36.591               Magadan2          1143.469
       375   06 Jun 2027 06:23:16.939   06 Jun 2027 06:23:21.893             4.954               Magadan2           154.813
       376   06 Jun 2027 06:23:23.482   06 Jun 2027 06:23:51.908            28.426               Magadan2           888.313
       377   06 Jun 2027 06:26:56.699   06 Jun 2027 06:27:00.055             3.356                Norilsk           104.875
       378   06 Jun 2027 06:28:48.596   06 Jun 2027 06:29:06.472            17.876              Murmansk2           558.625
       379   06 Jun 2027 07:59:15.556   06 Jun 2027 07:59:46.003            30.447                Irkutsk           951.469
       380   06 Jun 2027 08:00:06.599   06 Jun 2027 08:00:20.923            14.324                Irkutsk           447.625
       381   06 Jun 2027 08:00:22.211   06 Jun 2027 08:00:47.064            24.853                 Moscow           776.656
       382   06 Jun 2027 08:01:52.340   06 Jun 2027 08:02:07.803            15.463                Novosib           483.219
       383   06 Jun 2027 08:04:19.543   06 Jun 2027 08:04:42.952            23.409              Murmansk2           731.531
       384   06 Jun 2027 08:42:57.843   06 Jun 2027 08:44:04.488            66.645            RioGallegos          2082.656
       385   06 Jun 2027 09:34:24.987   06 Jun 2027 09:35:13.809            48.822                Novosib          1525.687
       386   06 Jun 2027 09:38:22.173   06 Jun 2027 09:38:39.454            17.281                Novosib           540.031
       387   06 Jun 2027 11:15:59.876   06 Jun 2027 11:16:09.499             9.623                Norilsk           300.719
       388   06 Jun 2027 12:42:17.151   06 Jun 2027 12:43:01.971            44.820                 Moscow          1400.625
       389   06 Jun 2027 12:44:42.011   06 Jun 2027 12:45:36.881            54.870                 Moscow          1714.688
       390   06 Jun 2027 12:45:51.807   06 Jun 2027 12:47:09.687            77.880              Murmansk2          2433.750
       391   06 Jun 2027 12:48:15.714   06 Jun 2027 12:48:52.042            36.328              Murmansk2          1135.250
       392   06 Jun 2027 12:49:45.970   06 Jun 2027 12:50:14.492            28.522              Murmansk2           891.313
       393   06 Jun 2027 12:54:25.893   06 Jun 2027 12:54:48.410            22.517              Murmansk2           703.656
       394   06 Jun 2027 12:58:49.970   06 Jun 2027 13:01:00.911           130.941                Anadyr2          4091.906
       395   06 Jun 2027 13:02:30.431   06 Jun 2027 13:02:48.788            18.357                Anadyr2           573.656
       396   06 Jun 2027 13:03:02.573   06 Jun 2027 13:04:24.596            82.023                Anadyr2          2563.219
       397   06 Jun 2027 14:24:58.151   06 Jun 2027 14:26:14.048            75.897              Murmansk2          2371.781
       398   06 Jun 2027 14:26:16.874   06 Jun 2027 14:27:33.794            76.920              Murmansk1          2403.750
       399   06 Jun 2027 14:34:27.706   06 Jun 2027 14:35:42.070            74.364                Anadyr2          2323.875
       400   06 Jun 2027 14:35:59.454   06 Jun 2027 14:37:13.230            73.776                Anadyr1          2305.500
       401   06 Jun 2027 14:37:28.441   06 Jun 2027 14:38:19.159            50.718                Anadyr1          1584.938
       402   06 Jun 2027 14:38:31.855   06 Jun 2027 14:43:44.511           312.656               Magadan2          9770.500
       403   06 Jun 2027 14:43:53.200   06 Jun 2027 14:46:24.895           151.695               Magadan1          4740.469
       404   06 Jun 2027 16:12:42.275   06 Jun 2027 16:14:58.774           136.499               Magadan1          4265.594
       405   06 Jun 2027 17:06:42.256   06 Jun 2027 17:12:03.603           321.347            RioGallegos         10042.094
       406   06 Jun 2027 17:49:29.350   06 Jun 2027 17:50:12.587            43.237                Norilsk          1351.156
       407   06 Jun 2027 17:53:20.159   06 Jun 2027 18:00:01.568           401.409                Irkutsk         12544.031
       408   06 Jun 2027 18:08:19.407   06 Jun 2027 18:16:52.386           512.979                Sumatra         16030.594
       409   06 Jun 2027 19:32:00.005   06 Jun 2027 19:35:16.603           196.598                Novosib          6143.688
       410   06 Jun 2027 19:38:51.853   06 Jun 2027 19:44:05.810           313.957                  Delhi          9811.156
       411   06 Jun 2027 21:03:08.147   06 Jun 2027 21:08:17.321           309.174              Murmansk1          9661.688
       412   06 Jun 2027 22:41:09.553   06 Jun 2027 22:44:17.073           187.520              Murmansk1          5860.000
       413   06 Jun 2027 22:48:55.623   06 Jun 2027 22:50:19.649            84.026                 Moscow          2625.813
       414   06 Jun 2027 23:08:15.133   06 Jun 2027 23:16:28.227           493.094               CapeTown         15409.187
       415   07 Jun 2027 03:13:41.875   07 Jun 2027 03:13:55.956            14.081               Magadan2           440.031
       416   07 Jun 2027 03:14:07.551   07 Jun 2027 03:14:39.739            32.188               Magadan2          1005.875
       417   07 Jun 2027 03:19:13.377   07 Jun 2027 03:19:29.557            16.180               Magadan1           505.625
       418   07 Jun 2027 03:20:37.930   07 Jun 2027 03:21:24.382            46.452               Magadan2          1451.625
       419   07 Jun 2027 03:21:29.348   07 Jun 2027 03:23:15.704           106.356               Magadan1          3323.625
       420   07 Jun 2027 03:23:15.704   07 Jun 2027 03:24:42.133            86.429               Magadan2          2700.906
       421   07 Jun 2027 03:24:46.205   07 Jun 2027 03:26:44.870           118.665                Anadyr2          3708.281
       422   07 Jun 2027 04:09:54.505   07 Jun 2027 04:10:14.013            19.508            RioGallegos           609.625
       423   07 Jun 2027 04:54:58.543   07 Jun 2027 04:55:13.218            14.675                Irkutsk           458.594
       424   07 Jun 2027 04:55:33.970   07 Jun 2027 04:56:46.807            72.837                Irkutsk          2276.156
       425   07 Jun 2027 04:57:14.131   07 Jun 2027 04:58:34.618            80.487                Irkutsk          2515.219
       426   07 Jun 2027 05:00:09.481   07 Jun 2027 05:01:05.824            56.343                Anadyr2          1760.719
       427   07 Jun 2027 05:01:14.605   07 Jun 2027 05:02:07.354            52.749               Magadan2          1648.406
       428   07 Jun 2027 05:02:07.354   07 Jun 2027 05:02:14.679             7.325               Magadan1           228.906
       429   07 Jun 2027 06:37:32.958   07 Jun 2027 06:38:29.714            56.756                Novosib          1773.625
       430   07 Jun 2027 08:11:06.642   07 Jun 2027 08:11:34.583            27.941              Murmansk2           873.156
       431   07 Jun 2027 08:11:41.570   07 Jun 2027 08:11:52.560            10.990              Murmansk2           343.438
       432   07 Jun 2027 08:12:14.892   07 Jun 2027 08:12:51.392            36.500                Irkutsk          1140.625
       433   07 Jun 2027 08:14:45.180   07 Jun 2027 08:15:21.237            36.057                Novosib          1126.781
       434   07 Jun 2027 09:37:47.731   07 Jun 2027 09:39:14.861            87.130                  Delhi          2722.812
       435   07 Jun 2027 09:50:19.803   07 Jun 2027 09:50:25.457             5.654                Novosib           176.688
       436   07 Jun 2027 12:54:52.976   07 Jun 2027 12:55:00.168             7.192                 Moscow           224.750
       437   07 Jun 2027 12:55:33.925   07 Jun 2027 12:56:08.722            34.797                 Moscow          1087.406
       438   07 Jun 2027 12:56:40.552   07 Jun 2027 12:57:23.593            43.041                 Moscow          1345.031
       439   07 Jun 2027 12:57:53.025   07 Jun 2027 12:59:32.513            99.488              Murmansk1          3109.000
       440   07 Jun 2027 13:00:17.407   07 Jun 2027 13:00:47.435            30.028              Murmansk1           938.375
       441   07 Jun 2027 13:02:02.496   07 Jun 2027 13:02:10.615             8.119              Murmansk1           253.719
       442   07 Jun 2027 13:13:00.764   07 Jun 2027 13:14:31.577            90.813                Anadyr1          2837.906
       443   07 Jun 2027 13:17:49.088   07 Jun 2027 13:19:10.297            81.209                Anadyr1          2537.781
       444   07 Jun 2027 14:06:11.096   07 Jun 2027 14:07:01.961            50.865               CapeTown          1589.531
       445   07 Jun 2027 14:37:43.338   07 Jun 2027 14:39:30.571           107.233              Murmansk1          3351.031
       446   07 Jun 2027 14:39:59.747   07 Jun 2027 14:40:14.475            14.728              Murmansk1           460.250
       447   07 Jun 2027 14:40:28.539   07 Jun 2027 14:41:26.186            57.647              Murmansk1          1801.469
       448   07 Jun 2027 14:46:28.593   07 Jun 2027 14:47:13.642            45.049                Anadyr2          1407.781
       449   07 Jun 2027 14:47:13.642   07 Jun 2027 14:47:46.877            33.235                Anadyr1          1038.594
       450   07 Jun 2027 14:48:59.040   07 Jun 2027 14:49:35.797            36.757                Anadyr1          1148.656
       451   07 Jun 2027 14:50:17.857   07 Jun 2027 14:50:26.761             8.904                Anadyr1           278.250
       452   07 Jun 2027 14:50:48.970   07 Jun 2027 14:55:19.350           270.380               Magadan1          8449.375
       453   07 Jun 2027 14:55:31.756   07 Jun 2027 14:59:03.679           211.923               Magadan2          6622.594
       454   07 Jun 2027 16:24:41.968   07 Jun 2027 16:26:06.296            84.328               Magadan2          2635.250
       455   07 Jun 2027 16:33:33.838   07 Jun 2027 16:34:16.633            42.795               Magadan2          1337.344
       456   07 Jun 2027 17:17:59.813   07 Jun 2027 17:25:15.613           435.800            RioGallegos         13618.750
       457   07 Jun 2027 18:02:21.472   07 Jun 2027 18:03:21.529            60.057                Norilsk          1876.781
       458   07 Jun 2027 18:05:02.024   07 Jun 2027 18:12:55.643           473.619                Irkutsk         14800.594
       459   07 Jun 2027 18:19:32.296   07 Jun 2027 18:27:21.957           469.661                Sumatra         14676.906
       460   07 Jun 2027 19:49:42.276   07 Jun 2027 19:57:28.262           465.986                  Delhi         14562.062
       461   07 Jun 2027 21:14:55.525   07 Jun 2027 21:21:00.627           365.102              Murmansk2         11409.437
       462   07 Jun 2027 22:54:03.261   07 Jun 2027 22:56:59.785           176.524              Murmansk1          5516.375
       463   07 Jun 2027 23:02:32.157   07 Jun 2027 23:03:28.062            55.905                 Moscow          1747.031
       464   07 Jun 2027 23:23:01.938   07 Jun 2027 23:26:54.898           232.960               CapeTown          7280.000
       465   08 Jun 2027 02:02:11.021   08 Jun 2027 02:03:18.666            67.645              Murmansk1          2113.906
       466   08 Jun 2027 02:05:39.633   08 Jun 2027 02:06:57.631            77.998                 Moscow          2437.437
       467   08 Jun 2027 02:09:50.582   08 Jun 2027 02:10:07.305            16.723                 Moscow           522.594
       468   08 Jun 2027 02:12:19.307   08 Jun 2027 02:12:34.783            15.476                 Moscow           483.625
       469   08 Jun 2027 03:27:16.966   08 Jun 2027 03:27:57.816            40.850               Magadan1          1276.562
       470   08 Jun 2027 03:28:05.677   08 Jun 2027 03:29:02.603            56.926               Magadan1          1778.938
       471   08 Jun 2027 03:30:03.469   08 Jun 2027 03:30:13.358             9.889                Anadyr2           309.031
       472   08 Jun 2027 03:30:48.411   08 Jun 2027 03:31:09.861            21.450                Anadyr2           670.312
       473   08 Jun 2027 03:32:12.463   08 Jun 2027 03:32:29.656            17.193                Anadyr2           537.281
       474   08 Jun 2027 03:32:48.181   08 Jun 2027 03:34:10.246            82.065                Anadyr2          2564.531
       475   08 Jun 2027 03:34:20.203   08 Jun 2027 03:35:35.306            75.103               Magadan2          2346.969
       476   08 Jun 2027 03:35:35.306   08 Jun 2027 03:35:49.115            13.809               Magadan1           431.531
       477   08 Jun 2027 03:35:54.506   08 Jun 2027 03:38:42.511           168.005                Anadyr1          5250.156
       478   08 Jun 2027 04:20:29.047   08 Jun 2027 04:22:06.930            97.883            RioGallegos          3058.844
       479   08 Jun 2027 05:07:48.707   08 Jun 2027 05:08:46.934            58.227                Irkutsk          1819.594
       480   08 Jun 2027 05:09:05.815   08 Jun 2027 05:10:29.421            83.606                Irkutsk          2612.688
       481   08 Jun 2027 05:11:05.874   08 Jun 2027 05:11:09.923             4.049                Irkutsk           126.531
       482   08 Jun 2027 05:12:24.736   08 Jun 2027 05:13:17.804            53.068                Irkutsk          1658.375
