uniorb/output/strategy_4/Drop/Drop_KinoSat_110906.txt

KinoSat_110906
-------------------------
    Access    *     Start Time (UTCG)     *     Stop Time (UTCG)  *   Duration (s)        *       Station  *  Data (Mbytes)
         1   01 Jun 2027 03:22:38.003   01 Jun 2027 03:23:14.376            36.373                Anadyr2          1136.656
         2   01 Jun 2027 03:23:21.523   01 Jun 2027 03:24:47.173            85.650                Anadyr2          2676.562
         3   01 Jun 2027 03:24:47.173   01 Jun 2027 03:25:47.414            60.241                Anadyr1          1882.531
         4   01 Jun 2027 03:25:47.414   01 Jun 2027 03:25:57.192             9.778                Anadyr2           305.563
         5   01 Jun 2027 03:26:24.921   01 Jun 2027 03:26:29.602             4.681                Anadyr2           146.281
         6   01 Jun 2027 04:59:45.748   01 Jun 2027 05:00:53.479            67.731                Anadyr1          2116.594
         7   01 Jun 2027 05:01:02.720   01 Jun 2027 05:02:20.634            77.914                Anadyr1          2434.813
         8   01 Jun 2027 05:02:20.634   01 Jun 2027 05:03:29.125            68.491                Anadyr2          2140.344
         9   01 Jun 2027 05:03:29.125   01 Jun 2027 05:04:18.701            49.576                Anadyr1          1549.250
        10   01 Jun 2027 06:33:30.428   01 Jun 2027 06:34:20.227            49.799               Magadan1          1556.219
        11   01 Jun 2027 06:34:20.227   01 Jun 2027 06:34:41.608            21.381               Magadan2           668.156
        12   01 Jun 2027 06:34:50.094   01 Jun 2027 06:37:59.755           189.661                Anadyr2          5926.906
        13   01 Jun 2027 06:38:02.262   01 Jun 2027 06:38:29.649            27.387                Anadyr1           855.844
        14   01 Jun 2027 06:38:38.341   01 Jun 2027 06:38:54.661            16.320              Murmansk1           510.000
        15   01 Jun 2027 06:39:06.559   01 Jun 2027 06:39:35.042            28.483                Irkutsk           890.094
        16   01 Jun 2027 06:39:40.047   01 Jun 2027 06:41:51.929           131.882                Norilsk          4121.313
        17   01 Jun 2027 06:42:37.194   01 Jun 2027 06:43:19.336            42.142              Murmansk1          1316.937
        18   01 Jun 2027 07:14:46.354   01 Jun 2027 07:17:40.521           174.167            RioGallegos          5442.719
        19   01 Jun 2027 07:51:15.862   01 Jun 2027 07:52:41.605            85.743                Sumatra          2679.469
        20   01 Jun 2027 08:11:15.303   01 Jun 2027 08:11:30.379            15.076                Norilsk           471.125
        21   01 Jun 2027 08:11:38.722   01 Jun 2027 08:15:53.806           255.084                Irkutsk          7971.375
        22   01 Jun 2027 08:16:22.947   01 Jun 2027 08:16:41.528            18.581              Murmansk1           580.656
        23   01 Jun 2027 08:17:10.491   01 Jun 2027 08:17:16.778             6.287                Novosib           196.469
        24   01 Jun 2027 08:51:17.537   01 Jun 2027 08:52:11.926            54.389            RioGallegos          1699.656
        25   01 Jun 2027 08:55:28.773   01 Jun 2027 08:55:56.055            27.282            RioGallegos           852.563
        26   01 Jun 2027 09:25:37.718   01 Jun 2027 09:27:20.423           102.705                Sumatra          3209.531
        27   01 Jun 2027 09:34:24.628   01 Jun 2027 09:36:27.689           123.061                  Delhi          3845.656
        28   01 Jun 2027 09:47:46.627   01 Jun 2027 09:48:33.629            47.002                Novosib          1468.813
        29   01 Jun 2027 09:49:29.644   01 Jun 2027 09:49:54.681            25.037                Novosib           782.406
        30   01 Jun 2027 09:50:07.534   01 Jun 2027 09:51:44.240            96.706                Novosib          3022.063
        31   01 Jun 2027 09:52:03.430   01 Jun 2027 09:52:20.070            16.640                 Moscow           520.000
        32   01 Jun 2027 09:52:54.072   01 Jun 2027 09:53:21.378            27.306                Novosib           853.313
        33   01 Jun 2027 11:10:26.696   01 Jun 2027 11:11:52.781            86.085                  Delhi          2690.156
        34   01 Jun 2027 11:12:17.825   01 Jun 2027 11:14:13.838           116.013                  Delhi          3625.406
        35   01 Jun 2027 11:25:12.729   01 Jun 2027 11:26:06.282            53.553                 Moscow          1673.531
        36   01 Jun 2027 11:26:41.253   01 Jun 2027 11:31:49.339           308.086              Murmansk2          9627.687
        37   01 Jun 2027 11:31:49.339   01 Jun 2027 11:34:18.932           149.593              Murmansk1          4674.781
        38   01 Jun 2027 12:54:03.751   01 Jun 2027 12:59:36.064           332.313                 Moscow         10384.781
        39   01 Jun 2027 13:00:26.691   01 Jun 2027 13:02:02.658            95.967              Murmansk2          2998.969
        40   01 Jun 2027 13:02:19.614   01 Jun 2027 13:03:47.293            87.679              Murmansk1          2739.969
        41   01 Jun 2027 13:04:29.106   01 Jun 2027 13:06:55.138           146.032                Norilsk          4563.500
        42   01 Jun 2027 13:14:39.624   01 Jun 2027 13:16:54.137           134.513                Anadyr2          4203.531
        43   01 Jun 2027 14:07:53.919   01 Jun 2027 14:09:20.734            86.815               CapeTown          2712.969
        44   01 Jun 2027 14:10:52.454   01 Jun 2027 14:11:37.126            44.672               CapeTown          1396.000
        45   01 Jun 2027 14:35:14.562   01 Jun 2027 14:36:12.768            58.206              Murmansk2          1818.938
        46   01 Jun 2027 14:36:37.156   01 Jun 2027 14:38:27.269           110.113              Murmansk2          3441.031
        47   01 Jun 2027 14:48:19.703   01 Jun 2027 14:52:16.873           237.170                Anadyr2          7411.563
        48   01 Jun 2027 16:15:29.945   01 Jun 2027 16:18:04.932           154.987              Murmansk2          4843.344
        49   01 Jun 2027 16:18:26.557   01 Jun 2027 16:19:44.556            77.999              Murmansk2          2437.469
        50   01 Jun 2027 16:24:02.944   01 Jun 2027 16:25:38.644            95.700                Anadyr1          2990.625
        51   01 Jun 2027 16:26:56.554   01 Jun 2027 16:30:56.451           239.897               Magadan2          7496.781
        52   01 Jun 2027 17:59:58.419   01 Jun 2027 18:01:40.296           101.877                Anadyr1          3183.656
        53   01 Jun 2027 18:02:06.241   01 Jun 2027 18:04:02.195           115.954                Anadyr2          3623.562
        54   01 Jun 2027 18:04:09.307   01 Jun 2027 18:05:35.178            85.871               Magadan2          2683.469
        55   01 Jun 2027 18:08:00.486   01 Jun 2027 18:08:38.373            37.887               Magadan2          1183.969
        56   01 Jun 2027 18:55:25.032   01 Jun 2027 18:58:32.286           187.254            RioGallegos          5851.687
        57   01 Jun 2027 19:02:15.258   01 Jun 2027 19:02:38.265            23.007            RioGallegos           718.969
        58   01 Jun 2027 19:35:44.245   01 Jun 2027 19:35:48.369             4.124                Anadyr2           128.875
        59   01 Jun 2027 19:37:19.929   01 Jun 2027 19:37:34.263            14.334                Anadyr2           447.937
        60   01 Jun 2027 19:37:54.230   01 Jun 2027 19:41:53.873           239.643                Norilsk          7488.844
        61   01 Jun 2027 19:42:31.840   01 Jun 2027 19:44:38.354           126.514                Irkutsk          3953.562
        62   01 Jun 2027 19:44:44.285   01 Jun 2027 19:45:00.912            16.627                Irkutsk           519.594
        63   01 Jun 2027 19:46:25.180   01 Jun 2027 19:46:35.782            10.602                Irkutsk           331.313
        64   01 Jun 2027 19:51:56.159   01 Jun 2027 19:52:10.996            14.837                Irkutsk           463.656
        65   01 Jun 2027 19:56:56.163   01 Jun 2027 19:59:51.216           175.053                Sumatra          5470.406
        66   01 Jun 2027 20:00:46.263   01 Jun 2027 20:02:29.083           102.820                Sumatra          3213.125
        67   01 Jun 2027 20:03:45.498   01 Jun 2027 20:04:11.822            26.324                Sumatra           822.625
        68   01 Jun 2027 21:14:41.468   01 Jun 2027 21:15:25.423            43.955                Norilsk          1373.594
        69   01 Jun 2027 21:18:05.891   01 Jun 2027 21:21:11.619           185.728                Novosib          5804.000
        70   01 Jun 2027 21:27:02.748   01 Jun 2027 21:29:40.556           157.808                  Delhi          4931.500
        71   01 Jun 2027 22:46:21.137   01 Jun 2027 22:46:53.971            32.834                Anadyr2          1026.063
        72   01 Jun 2027 22:50:12.235   01 Jun 2027 22:52:44.374           152.139               Magadan1          4754.344
        73   01 Jun 2027 22:53:30.219   01 Jun 2027 22:54:36.091            65.872                Novosib          2058.500
        74   01 Jun 2027 22:54:50.688   01 Jun 2027 22:58:31.011           220.323              Murmansk2          6885.094
        75   02 Jun 2027 00:18:05.895   02 Jun 2027 00:18:51.905            46.010                Anadyr1          1437.812
        76   02 Jun 2027 00:19:08.289   02 Jun 2027 00:19:48.280            39.991                Anadyr2          1249.719
        77   02 Jun 2027 00:20:37.682   02 Jun 2027 00:21:16.259            38.577                Anadyr2          1205.531
        78   02 Jun 2027 00:23:34.280   02 Jun 2027 00:23:47.202            12.922                Anadyr2           403.813
        79   02 Jun 2027 00:23:55.035   02 Jun 2027 00:25:43.390           108.355               Magadan1          3386.094
        80   02 Jun 2027 00:25:57.723   02 Jun 2027 00:26:15.789            18.066               Magadan1           564.562
        81   02 Jun 2027 00:26:15.789   02 Jun 2027 00:26:49.603            33.814               Magadan2          1056.688
        82   02 Jun 2027 00:27:16.258   02 Jun 2027 00:27:36.671            20.413               Magadan1           637.906
        83   02 Jun 2027 00:27:53.095   02 Jun 2027 00:30:13.333           140.238              Murmansk1          4382.437
        84   02 Jun 2027 00:31:30.750   02 Jun 2027 00:32:39.017            68.267                 Moscow          2133.344
        85   02 Jun 2027 00:35:45.134   02 Jun 2027 00:37:22.684            97.550                 Moscow          3048.438
        86   02 Jun 2027 00:56:55.182   02 Jun 2027 00:58:02.823            67.641               CapeTown          2113.781
        87   02 Jun 2027 01:52:49.456   02 Jun 2027 01:53:44.235            54.779                Anadyr1          1711.844
        88   02 Jun 2027 01:55:33.205   02 Jun 2027 01:56:45.903            72.698               Magadan2          2271.813
        89   02 Jun 2027 01:57:38.283   02 Jun 2027 01:58:16.333            38.050               Magadan2          1189.062
        90   02 Jun 2027 02:01:09.564   02 Jun 2027 02:01:18.865             9.301                Norilsk           290.656
        91   02 Jun 2027 02:03:13.907   02 Jun 2027 02:03:35.867            21.960                Norilsk           686.250
        92   02 Jun 2027 02:03:49.621   02 Jun 2027 02:05:16.566            86.945              Murmansk1          2717.031
        93   02 Jun 2027 02:05:51.809   02 Jun 2027 02:05:58.432             6.623              Murmansk2           206.969
        94   02 Jun 2027 02:06:34.543   02 Jun 2027 02:06:51.882            17.339                Novosib           541.844
        95   02 Jun 2027 02:09:58.763   02 Jun 2027 02:10:39.772            41.009                Novosib          1281.531
        96   02 Jun 2027 02:14:15.869   02 Jun 2027 02:14:32.408            16.539                 Moscow           516.844
        97   02 Jun 2027 02:15:00.202   02 Jun 2027 02:15:54.323            54.121                 Moscow          1691.281
        98   02 Jun 2027 02:36:32.148   02 Jun 2027 02:36:53.963            21.815               CapeTown           681.719
        99   02 Jun 2027 02:40:42.471   02 Jun 2027 02:41:05.257            22.786               CapeTown           712.062
       100   02 Jun 2027 03:33:39.289   02 Jun 2027 03:36:56.203           196.914               Magadan1          6153.562
       101   02 Jun 2027 03:37:05.064   02 Jun 2027 03:38:00.405            55.341               Magadan1          1729.406
       102   02 Jun 2027 03:38:11.643   02 Jun 2027 03:38:26.312            14.669                Anadyr1           458.406
       103   02 Jun 2027 03:38:31.115   02 Jun 2027 03:38:57.097            25.982               Magadan1           811.938
       104   02 Jun 2027 03:38:57.097   02 Jun 2027 03:39:06.556             9.459               Magadan2           295.594
       105   02 Jun 2027 03:39:06.556   02 Jun 2027 03:39:39.730            33.174               Magadan1          1036.687
       106   02 Jun 2027 03:39:52.294   02 Jun 2027 03:39:58.623             6.329               Magadan2           197.781
       107   02 Jun 2027 05:13:04.524   02 Jun 2027 05:14:11.225            66.701                Anadyr2          2084.406
       108   02 Jun 2027 05:14:21.666   02 Jun 2027 05:16:16.170           114.504                Anadyr1          3578.250
       109   02 Jun 2027 06:48:08.479   02 Jun 2027 06:51:42.187           213.708                Irkutsk          6678.375
       110   02 Jun 2027 08:26:14.356   02 Jun 2027 08:27:54.430           100.074                Irkutsk          3127.312
       111   02 Jun 2027 09:03:41.026   02 Jun 2027 09:06:04.251           143.225            RioGallegos          4475.781
       112   02 Jun 2027 09:37:55.554   02 Jun 2027 09:40:01.206           125.652                Sumatra          3926.625
       113   02 Jun 2027 09:42:31.210   02 Jun 2027 09:42:34.537             3.327                Sumatra           103.969
       114   02 Jun 2027 09:46:04.783   02 Jun 2027 09:47:01.560            56.777                Sumatra          1774.281
       115   02 Jun 2027 10:00:31.822   02 Jun 2027 10:01:39.759            67.937                Irkutsk          2123.031
       116   02 Jun 2027 10:02:15.390   02 Jun 2027 10:02:21.209             5.819                Novosib           181.844
       117   02 Jun 2027 10:02:36.393   02 Jun 2027 10:03:10.380            33.987                Novosib          1062.094
       118   02 Jun 2027 10:03:17.978   02 Jun 2027 10:03:21.724             3.746                Norilsk           117.062
       119   02 Jun 2027 11:22:50.673   02 Jun 2027 11:25:52.159           181.486                  Delhi          5671.437
       120   02 Jun 2027 11:38:50.608   02 Jun 2027 11:39:10.624            20.016                Norilsk           625.500
       121   02 Jun 2027 13:06:11.592   02 Jun 2027 13:08:56.393           164.801                 Moscow          5150.031
       122   02 Jun 2027 13:09:42.936   02 Jun 2027 13:13:39.387           236.451              Murmansk2          7389.094
       123   02 Jun 2027 13:18:33.204   02 Jun 2027 13:18:57.502            24.298                Norilsk           759.312
       124   02 Jun 2027 13:25:47.978   02 Jun 2027 13:27:19.751            91.773                Anadyr1          2867.906
       125   02 Jun 2027 13:28:42.566   02 Jun 2027 13:29:34.069            51.503                Anadyr2          1609.469
       126   02 Jun 2027 14:19:44.487   02 Jun 2027 14:21:13.453            88.966               CapeTown          2780.187
       127   02 Jun 2027 14:47:38.326   02 Jun 2027 14:47:57.235            18.909              Murmansk1           590.906
       128   02 Jun 2027 14:48:38.931   02 Jun 2027 14:50:28.950           110.019              Murmansk2          3438.094
       129   02 Jun 2027 15:00:17.628   02 Jun 2027 15:04:03.567           225.939                Anadyr1          7060.594
       130   02 Jun 2027 16:28:23.002   02 Jun 2027 16:31:05.027           162.025              Murmansk1          5063.281
       131   02 Jun 2027 16:36:04.115   02 Jun 2027 16:37:57.580           113.465                Anadyr2          3545.781
       132   02 Jun 2027 16:38:48.708   02 Jun 2027 16:41:18.666           149.958               Magadan1          4686.187
       133   02 Jun 2027 16:41:38.379   02 Jun 2027 16:41:40.279             1.900               Magadan2            59.375
       134   02 Jun 2027 16:44:33.997   02 Jun 2027 16:44:44.329            10.332               Magadan1           322.875
       135   02 Jun 2027 16:45:23.355   02 Jun 2027 16:45:33.257             9.902               Magadan2           309.438
       136   02 Jun 2027 16:45:42.879   02 Jun 2027 16:46:39.425            56.546               Magadan2          1767.062
       137   02 Jun 2027 18:11:59.482   02 Jun 2027 18:15:30.220           210.738                Anadyr1          6585.562
       138   02 Jun 2027 18:16:04.477   02 Jun 2027 18:17:12.149            67.672               Magadan2          2114.750
       139   02 Jun 2027 18:20:09.908   02 Jun 2027 18:21:15.713            65.805               Magadan1          2056.406
       140   02 Jun 2027 19:07:00.207   02 Jun 2027 19:10:21.689           201.482            RioGallegos          6296.312
       141   02 Jun 2027 19:11:38.145   02 Jun 2027 19:13:08.991            90.846            RioGallegos          2838.938
       142   02 Jun 2027 19:50:15.828   02 Jun 2027 19:51:19.633            63.805               Magadan2          1993.906
       143   02 Jun 2027 19:51:19.633   02 Jun 2027 19:51:48.619            28.986               Magadan1           905.812
       144   02 Jun 2027 19:51:59.857   02 Jun 2027 19:53:29.878            90.021                Norilsk          2813.156
       145   02 Jun 2027 19:54:19.430   02 Jun 2027 19:56:39.223           139.793                Irkutsk          4368.531
       146   02 Jun 2027 19:57:00.110   02 Jun 2027 19:57:53.782            53.672                Irkutsk          1677.250
       147   02 Jun 2027 20:08:25.143   02 Jun 2027 20:09:48.783            83.640                Sumatra          2613.750
       148   02 Jun 2027 20:11:41.258   02 Jun 2027 20:12:49.793            68.535                Sumatra          2141.719
       149   02 Jun 2027 20:14:40.541   02 Jun 2027 20:15:12.420            31.879                Sumatra           996.219
       150   02 Jun 2027 21:29:58.675   02 Jun 2027 21:31:27.127            88.452                Novosib          2764.125
       151   02 Jun 2027 21:35:51.757   02 Jun 2027 21:36:06.421            14.664                Novosib           458.250
       152   02 Jun 2027 21:36:28.895   02 Jun 2027 21:36:59.275            30.380                Novosib           949.375
       153   02 Jun 2027 21:38:23.802   02 Jun 2027 21:39:57.751            93.949                  Delhi          2935.906
       154   02 Jun 2027 21:40:48.659   02 Jun 2027 21:41:25.345            36.686                  Delhi          1146.437
       155   02 Jun 2027 21:42:58.235   02 Jun 2027 21:43:38.472            40.237                  Delhi          1257.406
       156   02 Jun 2027 21:45:12.806   02 Jun 2027 21:45:32.812            20.006                  Delhi           625.188
       157   02 Jun 2027 23:01:45.452   02 Jun 2027 23:02:48.533            63.081                Norilsk          1971.281
       158   02 Jun 2027 23:03:08.669   02 Jun 2027 23:03:28.527            19.858               Magadan1           620.562
       159   02 Jun 2027 23:04:19.203   02 Jun 2027 23:09:21.497           302.294              Murmansk1          9446.688
       160   03 Jun 2027 00:29:49.026   03 Jun 2027 00:30:10.019            20.993                Anadyr2           656.031
       161   03 Jun 2027 00:30:10.604   03 Jun 2027 00:31:01.584            50.980                Anadyr1          1593.125
       162   03 Jun 2027 00:32:43.235   03 Jun 2027 00:33:07.649            24.414                Anadyr2           762.938
       163   03 Jun 2027 00:35:24.930   03 Jun 2027 00:37:04.334            99.404               Magadan1          3106.375
       164   03 Jun 2027 00:37:25.664   03 Jun 2027 00:37:45.774            20.110               Magadan1           628.438
       165   03 Jun 2027 00:38:50.980   03 Jun 2027 00:39:07.114            16.134               Magadan2           504.187
       166   03 Jun 2027 00:39:53.958   03 Jun 2027 00:42:53.652           179.694              Murmansk1          5615.437
       167   03 Jun 2027 00:43:25.029   03 Jun 2027 00:44:02.953            37.924                 Moscow          1185.125
       168   03 Jun 2027 00:44:26.807   03 Jun 2027 00:45:03.469            36.662                 Moscow          1145.688
       169   03 Jun 2027 00:49:20.858   03 Jun 2027 00:50:05.139            44.281                 Moscow          1383.781
       170   03 Jun 2027 01:08:22.312   03 Jun 2027 01:09:30.727            68.415               CapeTown          2137.969
       171   03 Jun 2027 01:09:56.542   03 Jun 2027 01:10:14.412            17.870               CapeTown           558.437
       172   03 Jun 2027 01:14:10.194   03 Jun 2027 01:14:15.378             5.184               CapeTown           162.000
       173   03 Jun 2027 01:18:30.210   03 Jun 2027 01:19:19.321            49.111               CapeTown          1534.719
       174   03 Jun 2027 02:05:45.556   03 Jun 2027 02:05:59.534            13.978                Anadyr2           436.813
       175   03 Jun 2027 02:06:20.345   03 Jun 2027 02:06:35.033            14.688                Anadyr1           459.000
       176   03 Jun 2027 02:07:05.391   03 Jun 2027 02:08:12.146            66.755               Magadan1          2086.094
       177   03 Jun 2027 02:09:40.827   03 Jun 2027 02:09:49.811             8.984               Magadan1           280.750
       178   03 Jun 2027 02:12:26.647   03 Jun 2027 02:12:58.261            31.614               Magadan1           987.938
       179   03 Jun 2027 02:15:51.332   03 Jun 2027 02:17:50.917           119.585              Murmansk2          3737.031
       180   03 Jun 2027 02:18:53.236   03 Jun 2027 02:19:24.614            31.378                Novosib           980.563
       181   03 Jun 2027 02:19:40.409   03 Jun 2027 02:19:43.390             2.981                 Moscow            93.156
       182   03 Jun 2027 02:22:19.129   03 Jun 2027 02:22:23.916             4.787                 Moscow           149.594
       183   03 Jun 2027 02:23:50.927   03 Jun 2027 02:24:27.048            36.121                 Moscow          1128.781
       184   03 Jun 2027 02:29:47.136   03 Jun 2027 02:30:22.465            35.329                 Moscow          1104.031
       185   03 Jun 2027 02:44:49.523   03 Jun 2027 02:46:00.834            71.311               CapeTown          2228.469
       186   03 Jun 2027 03:45:40.054   03 Jun 2027 03:48:55.888           195.834               Magadan1          6119.813
       187   03 Jun 2027 03:50:58.651   03 Jun 2027 03:51:07.518             8.867               Magadan2           277.094
       188   03 Jun 2027 03:51:54.174   03 Jun 2027 03:52:05.423            11.249               Magadan2           351.531
       189   03 Jun 2027 05:24:24.411   03 Jun 2027 05:25:51.254            86.843                Anadyr1          2713.844
       190   03 Jun 2027 05:26:15.658   03 Jun 2027 05:26:30.546            14.888                Irkutsk           465.250
       191   03 Jun 2027 06:59:55.131   03 Jun 2027 06:59:56.015             0.884               Magadan2            27.625
       192   03 Jun 2027 07:00:08.482   03 Jun 2027 07:00:18.313             9.831               Magadan1           307.219
       193   03 Jun 2027 07:00:19.631   03 Jun 2027 07:01:58.911            99.280               Magadan2          3102.500
       194   03 Jun 2027 07:02:18.771   03 Jun 2027 07:03:10.593            51.822               Magadan2          1619.438
       195   03 Jun 2027 07:03:10.593   03 Jun 2027 07:03:12.362             1.769               Magadan1            55.281
       196   03 Jun 2027 07:03:20.500   03 Jun 2027 07:03:32.278            11.778               Magadan2           368.063
       197   03 Jun 2027 07:06:45.653   03 Jun 2027 07:06:52.839             7.186                Norilsk           224.562
       198   03 Jun 2027 07:38:37.330   03 Jun 2027 07:39:19.980            42.650            RioGallegos          1332.813
       199   03 Jun 2027 08:20:13.310   03 Jun 2027 08:20:34.658            21.348                Sumatra           667.125
       200   03 Jun 2027 08:34:17.056   03 Jun 2027 08:35:17.838            60.782                Norilsk          1899.437
       201   03 Jun 2027 08:35:57.234   03 Jun 2027 08:36:01.860             4.626                Irkutsk           144.563
       202   03 Jun 2027 08:36:45.881   03 Jun 2027 08:36:51.496             5.615                Irkutsk           175.469
       203   03 Jun 2027 08:37:39.475   03 Jun 2027 08:38:06.788            27.313                Irkutsk           853.531
       204   03 Jun 2027 08:38:19.499   03 Jun 2027 08:39:04.889            45.390                Norilsk          1418.438
       205   03 Jun 2027 08:39:20.382   03 Jun 2027 08:39:54.111            33.729                Irkutsk          1054.031
       206   03 Jun 2027 09:16:09.800   03 Jun 2027 09:16:26.521            16.721            RioGallegos           522.531
       207   03 Jun 2027 09:17:16.724   03 Jun 2027 09:17:38.441            21.717            RioGallegos           678.656
       208   03 Jun 2027 09:50:21.532   03 Jun 2027 09:51:08.796            47.264                Sumatra          1477.000
       209   03 Jun 2027 09:53:30.496   03 Jun 2027 09:54:02.874            32.378                Sumatra          1011.812
       210   03 Jun 2027 10:02:34.488   03 Jun 2027 10:02:39.440             4.952                  Delhi           154.750
       211   03 Jun 2027 10:06:08.160   03 Jun 2027 10:06:38.562            30.402                  Delhi           950.063
       212   03 Jun 2027 10:11:20.744   03 Jun 2027 10:11:35.663            14.919                Novosib           466.219
       213   03 Jun 2027 10:13:00.232   03 Jun 2027 10:13:10.781            10.549                Novosib           329.656
       214   03 Jun 2027 10:13:47.655   03 Jun 2027 10:13:56.183             8.528                Irkutsk           266.500
       215   03 Jun 2027 10:14:26.469   03 Jun 2027 10:14:48.444            21.975                Novosib           686.719
       216   03 Jun 2027 10:14:52.813   03 Jun 2027 10:15:12.908            20.095                Novosib           627.969
       217   03 Jun 2027 10:15:28.159   03 Jun 2027 10:15:30.128             1.969                Novosib            61.531
       218   03 Jun 2027 10:15:48.993   03 Jun 2027 10:16:30.232            41.239                Novosib          1288.719
       219   03 Jun 2027 11:35:31.564   03 Jun 2027 11:37:07.887            96.323                  Delhi          3010.094
       220   03 Jun 2027 11:37:36.603   03 Jun 2027 11:38:28.497            51.894                  Delhi          1621.688
       221   03 Jun 2027 11:50:52.742   03 Jun 2027 11:51:10.153            17.411                Norilsk           544.094
       222   03 Jun 2027 11:53:43.209   03 Jun 2027 11:54:41.418            58.209                Norilsk          1819.031
       223   03 Jun 2027 13:18:22.653   03 Jun 2027 13:19:10.018            47.365                 Moscow          1480.156
       224   03 Jun 2027 13:21:01.892   03 Jun 2027 13:21:16.370            14.478                 Moscow           452.437
       225   03 Jun 2027 13:21:52.428   03 Jun 2027 13:24:26.045           153.617              Murmansk1          4800.531
       226   03 Jun 2027 13:24:46.246   03 Jun 2027 13:25:34.717            48.471              Murmansk2          1514.719
       227   03 Jun 2027 13:26:32.176   03 Jun 2027 13:26:44.866            12.690              Murmansk1           396.562
       228   03 Jun 2027 13:30:03.069   03 Jun 2027 13:30:27.375            24.306              Murmansk2           759.562
       229   03 Jun 2027 13:31:26.560   03 Jun 2027 13:31:33.312             6.752              Murmansk1           211.000
       230   03 Jun 2027 13:32:52.645   03 Jun 2027 13:33:08.011            15.366              Murmansk2           480.187
       231   03 Jun 2027 13:33:53.029   03 Jun 2027 13:34:21.123            28.094              Murmansk2           877.938
       232   03 Jun 2027 13:37:22.890   03 Jun 2027 13:41:06.030           223.140                Anadyr2          6973.125
       233   03 Jun 2027 14:40:09.196   03 Jun 2027 14:41:09.443            60.247               CapeTown          1882.719
       234   03 Jun 2027 15:00:04.527   03 Jun 2027 15:00:40.797            36.270              Murmansk2          1133.438
       235   03 Jun 2027 15:02:46.470   03 Jun 2027 15:03:10.336            23.866              Murmansk2           745.812
       236   03 Jun 2027 15:04:44.987   03 Jun 2027 15:04:49.734             4.747              Murmansk1           148.344
       237   03 Jun 2027 15:06:24.362   03 Jun 2027 15:06:31.408             7.046              Murmansk2           220.188
       238   03 Jun 2027 15:07:44.618   03 Jun 2027 15:08:15.411            30.793              Murmansk2           962.281
       239   03 Jun 2027 15:12:16.319   03 Jun 2027 15:14:16.917           120.598                Anadyr2          3768.687
       240   03 Jun 2027 15:14:28.023   03 Jun 2027 15:15:07.620            39.597                Anadyr1          1237.406
       241   03 Jun 2027 15:21:24.800   03 Jun 2027 15:22:35.125            70.325                Anadyr2          2197.656
       242   03 Jun 2027 16:41:26.817   03 Jun 2027 16:44:06.539           159.722              Murmansk1          4991.313
       243   03 Jun 2027 16:48:05.396   03 Jun 2027 16:49:52.819           107.423                Anadyr1          3356.969
       244   03 Jun 2027 16:50:42.825   03 Jun 2027 16:51:01.851            19.026               Magadan1           594.563
       245   03 Jun 2027 16:51:24.595   03 Jun 2027 16:53:16.750           112.155               Magadan2          3504.844
       246   03 Jun 2027 16:56:19.706   03 Jun 2027 16:56:38.459            18.753               Magadan2           586.031
       247   03 Jun 2027 16:57:26.030   03 Jun 2027 16:57:35.391             9.361               Magadan2           292.531
       248   03 Jun 2027 16:57:44.679   03 Jun 2027 16:59:11.257            86.578               Magadan2          2705.562
       249   03 Jun 2027 18:24:00.363   03 Jun 2027 18:27:00.163           179.800                Anadyr1          5618.750
       250   03 Jun 2027 18:27:13.074   03 Jun 2027 18:29:44.497           151.423                Norilsk          4731.969
       251   03 Jun 2027 19:18:42.283   03 Jun 2027 19:22:13.743           211.460            RioGallegos          6608.125
       252   03 Jun 2027 19:22:27.548   03 Jun 2027 19:24:02.591            95.043            RioGallegos          2970.094
       253   03 Jun 2027 19:24:05.557   03 Jun 2027 19:25:00.410            54.853            RioGallegos          1714.156
       254   03 Jun 2027 20:04:34.708   03 Jun 2027 20:04:40.900             6.192               Magadan1           193.500
       255   03 Jun 2027 20:05:08.644   03 Jun 2027 20:05:26.290            17.646               Magadan1           551.438
       256   03 Jun 2027 20:06:10.091   03 Jun 2027 20:09:20.554           190.463                Irkutsk          5951.969
       257   03 Jun 2027 20:10:11.884   03 Jun 2027 20:11:24.429            72.545                Novosib          2267.031
       258   03 Jun 2027 20:20:02.924   03 Jun 2027 20:21:11.186            68.262                Sumatra          2133.188
       259   03 Jun 2027 20:21:33.326   03 Jun 2027 20:22:13.618            40.292                Sumatra          1259.125
       260   03 Jun 2027 20:23:44.732   03 Jun 2027 20:24:21.203            36.471                Sumatra          1139.719
       261   03 Jun 2027 21:38:24.412   03 Jun 2027 21:39:03.728            39.316               Magadan1          1228.625
       262   03 Jun 2027 21:41:01.906   03 Jun 2027 21:42:27.125            85.219               Magadan2          2663.094
       263   03 Jun 2027 21:43:06.918   03 Jun 2027 21:43:33.831            26.913                Novosib           841.031
       264   03 Jun 2027 21:43:53.238   03 Jun 2027 21:44:00.385             7.147                Novosib           223.344
       265   03 Jun 2027 21:44:10.198   03 Jun 2027 21:44:39.603            29.405                Novosib           918.906
       266   03 Jun 2027 21:49:56.209   03 Jun 2027 21:53:14.898           198.689                  Delhi          6209.031
       267   03 Jun 2027 21:58:41.752   03 Jun 2027 21:59:14.274            32.522                  Delhi          1016.312
       268   03 Jun 2027 23:14:02.797   03 Jun 2027 23:15:40.315            97.518               Magadan2          3047.438
       269   03 Jun 2027 23:15:40.315   03 Jun 2027 23:16:03.140            22.825               Magadan1           713.281
       270   03 Jun 2027 23:16:14.327   03 Jun 2027 23:20:59.784           285.457              Murmansk1          8920.531
       271   03 Jun 2027 23:21:42.213   03 Jun 2027 23:22:22.632            40.419                 Moscow          1263.094
       272   03 Jun 2027 23:26:14.329   03 Jun 2027 23:26:32.146            17.817                 Moscow           556.781
       273   04 Jun 2027 00:41:33.035   04 Jun 2027 00:41:51.650            18.615                Anadyr2           581.719
       274   04 Jun 2027 00:44:10.767   04 Jun 2027 00:44:14.809             4.042                Anadyr2           126.313
       275   04 Jun 2027 00:44:25.153   04 Jun 2027 00:44:38.499            13.346                Anadyr2           417.063
       276   04 Jun 2027 00:46:53.571   04 Jun 2027 00:48:43.620           110.049               Magadan2          3439.031
       277   04 Jun 2027 00:48:54.361   04 Jun 2027 00:49:24.450            30.089               Magadan2           940.281
       278   04 Jun 2027 00:50:06.039   04 Jun 2027 00:50:39.325            33.286               Magadan1          1040.187
       279   04 Jun 2027 00:51:55.089   04 Jun 2027 00:54:15.007           139.918              Murmansk1          4372.437
       280   04 Jun 2027 00:55:20.863   04 Jun 2027 00:56:22.456            61.593                 Moscow          1924.781
       281   04 Jun 2027 01:06:43.616   04 Jun 2027 01:07:06.903            23.287                 Moscow           727.719
       282   04 Jun 2027 01:19:56.376   04 Jun 2027 01:20:33.526            37.150               CapeTown          1160.937
       283   04 Jun 2027 01:20:55.676   04 Jun 2027 01:21:11.413            15.737               CapeTown           491.781
       284   04 Jun 2027 01:21:47.936   04 Jun 2027 01:22:31.910            43.974               CapeTown          1374.188
       285   04 Jun 2027 02:15:55.039   04 Jun 2027 02:16:47.123            52.084                Anadyr1          1627.625
       286   04 Jun 2027 02:17:42.954   04 Jun 2027 02:18:11.934            28.980                Anadyr1           905.625
       287   04 Jun 2027 02:18:39.010   04 Jun 2027 02:18:57.148            18.138               Magadan1           566.813
       288   04 Jun 2027 02:19:42.153   04 Jun 2027 02:20:07.452            25.299               Magadan2           790.594
       289   04 Jun 2027 02:20:41.471   04 Jun 2027 02:21:06.714            25.243               Magadan1           788.844
       290   04 Jun 2027 02:22:43.179   04 Jun 2027 02:22:50.555             7.376               Magadan2           230.500
       291   04 Jun 2027 02:23:55.550   04 Jun 2027 02:24:08.672            13.122               Magadan2           410.062
       292   04 Jun 2027 02:24:08.672   04 Jun 2027 02:24:18.759            10.087               Magadan1           315.219
       293   04 Jun 2027 02:26:58.359   04 Jun 2027 02:27:25.771            27.412               Magadan1           856.625
       294   04 Jun 2027 02:27:53.000   04 Jun 2027 02:28:44.543            51.543              Murmansk2          1610.719
       295   04 Jun 2027 02:28:44.543   04 Jun 2027 02:28:56.537            11.994              Murmansk1           374.812
       296   04 Jun 2027 02:29:04.515   04 Jun 2027 02:29:48.653            44.138              Murmansk1          1379.313
       297   04 Jun 2027 02:31:06.169   04 Jun 2027 02:31:23.609            17.440                 Moscow           545.000
       298   04 Jun 2027 02:32:19.712   04 Jun 2027 02:34:14.888           115.176                 Moscow          3599.250
       299   04 Jun 2027 03:03:44.006   04 Jun 2027 03:04:47.315            63.309               CapeTown          1978.406
       300   04 Jun 2027 03:58:08.279   04 Jun 2027 03:59:40.502            92.223               Magadan1          2881.969
       301   04 Jun 2027 04:00:09.701   04 Jun 2027 04:03:56.445           226.744               Magadan2          7085.750
       302   04 Jun 2027 04:03:56.445   04 Jun 2027 04:04:11.793            15.348               Magadan1           479.625
       303   04 Jun 2027 04:04:30.263   04 Jun 2027 04:04:36.417             6.154                Anadyr1           192.313
       304   04 Jun 2027 04:46:43.823   04 Jun 2027 04:47:32.512            48.689            RioGallegos          1521.531
       305   04 Jun 2027 04:48:07.683   04 Jun 2027 04:48:45.794            38.111            RioGallegos          1190.969
       306   04 Jun 2027 05:35:54.969   04 Jun 2027 05:37:03.357            68.388                Irkutsk          2137.125
       307   04 Jun 2027 05:38:22.947   04 Jun 2027 05:38:48.183            25.236                Anadyr1           788.625
       308   04 Jun 2027 07:10:30.118   04 Jun 2027 07:10:41.548            11.430               Magadan1           357.187
       309   04 Jun 2027 07:11:28.125   04 Jun 2027 07:12:08.089            39.964                Norilsk          1248.875
       310   04 Jun 2027 07:12:11.787   04 Jun 2027 07:12:20.552             8.765               Magadan2           273.906
       311   04 Jun 2027 07:12:24.556   04 Jun 2027 07:13:58.560            94.004               Magadan1          2937.625
       312   04 Jun 2027 07:14:21.788   04 Jun 2027 07:14:50.045            28.257               Magadan1           883.031
       313   04 Jun 2027 07:15:05.082   04 Jun 2027 07:15:25.921            20.839               Magadan2           651.219
       314   04 Jun 2027 07:15:52.018   04 Jun 2027 07:16:45.443            53.425              Murmansk2          1669.531
       315   04 Jun 2027 08:25:54.567   04 Jun 2027 08:26:46.958            52.391                Sumatra          1637.219
       316   04 Jun 2027 08:37:33.417   04 Jun 2027 08:38:08.780            35.363                Sumatra          1105.094
       317   04 Jun 2027 08:46:12.674   04 Jun 2027 08:46:53.748            41.074                Irkutsk          1283.563
       318   04 Jun 2027 08:47:28.998   04 Jun 2027 08:47:58.494            29.496                Irkutsk           921.750
       319   04 Jun 2027 08:48:29.510   04 Jun 2027 08:48:56.203            26.693                Irkutsk           834.156
       320   04 Jun 2027 08:49:24.636   04 Jun 2027 08:49:44.155            19.519                Irkutsk           609.969
       321   04 Jun 2027 08:49:56.706   04 Jun 2027 08:50:07.662            10.956                Irkutsk           342.375
       322   04 Jun 2027 08:50:24.339   04 Jun 2027 08:51:28.864            64.525                Irkutsk          2016.406
       323   04 Jun 2027 08:54:36.337   04 Jun 2027 08:54:46.719            10.382                Norilsk           324.438
       324   04 Jun 2027 09:28:44.816   04 Jun 2027 09:29:42.697            57.881            RioGallegos          1808.781
       325   04 Jun 2027 09:32:07.842   04 Jun 2027 09:32:43.939            36.097            RioGallegos          1128.031
       326   04 Jun 2027 10:02:58.470   04 Jun 2027 10:03:06.237             7.767                Sumatra           242.719
       327   04 Jun 2027 10:06:17.145   04 Jun 2027 10:06:46.273            29.128                Sumatra           910.250
       328   04 Jun 2027 10:13:47.367   04 Jun 2027 10:13:57.395            10.028                  Delhi           313.375
       329   04 Jun 2027 10:18:20.916   04 Jun 2027 10:18:42.175            21.259                  Delhi           664.344
       330   04 Jun 2027 10:23:58.614   04 Jun 2027 10:24:06.460             7.846                Novosib           245.188
       331   04 Jun 2027 10:24:11.326   04 Jun 2027 10:25:17.132            65.806                Novosib          2056.437
       332   04 Jun 2027 10:25:25.805   04 Jun 2027 10:25:40.289            14.484                Novosib           452.625
       333   04 Jun 2027 10:26:40.976   04 Jun 2027 10:26:55.970            14.994                Novosib           468.562
       334   04 Jun 2027 10:26:58.674   04 Jun 2027 10:27:16.672            17.998                Novosib           562.438
       335   04 Jun 2027 10:27:19.454   04 Jun 2027 10:27:30.425            10.971                Novosib           342.844
       336   04 Jun 2027 11:48:28.325   04 Jun 2027 11:50:49.260           140.935                  Delhi          4404.219
       337   04 Jun 2027 11:52:29.134   04 Jun 2027 11:52:33.532             4.398                  Delhi           137.438
       338   04 Jun 2027 12:00:46.816   04 Jun 2027 12:01:03.802            16.986                Novosib           530.813
       339   04 Jun 2027 12:01:11.023   04 Jun 2027 12:01:32.059            21.036                Novosib           657.375
       340   04 Jun 2027 12:02:02.024   04 Jun 2027 12:03:01.102            59.078                Novosib          1846.188
       341   04 Jun 2027 12:07:01.536   04 Jun 2027 12:07:31.921            30.385                Norilsk           949.531
       342   04 Jun 2027 12:08:44.150   04 Jun 2027 12:08:45.773             1.623                Norilsk            50.719
       343   04 Jun 2027 13:10:37.540   04 Jun 2027 13:12:46.086           128.546               CapeTown          4017.062
       344   04 Jun 2027 13:13:49.366   04 Jun 2027 13:15:09.024            79.658               CapeTown          2489.312
       345   04 Jun 2027 13:30:54.923   04 Jun 2027 13:31:12.920            17.997                 Moscow           562.406
       346   04 Jun 2027 13:31:26.455   04 Jun 2027 13:31:45.769            19.314                 Moscow           603.562
       347   04 Jun 2027 13:34:03.732   04 Jun 2027 13:35:14.900            71.168              Murmansk2          2224.000
       348   04 Jun 2027 13:35:48.594   04 Jun 2027 13:36:16.902            28.308              Murmansk1           884.625
       349   04 Jun 2027 13:38:33.846   04 Jun 2027 13:38:47.035            13.189              Murmansk2           412.156
       350   04 Jun 2027 13:40:58.766   04 Jun 2027 13:41:10.908            12.142              Murmansk2           379.437
       351   04 Jun 2027 13:42:23.807   04 Jun 2027 13:42:39.382            15.575              Murmansk2           486.719
       352   04 Jun 2027 13:43:09.445   04 Jun 2027 13:43:21.358            11.913              Murmansk2           372.281
       353   04 Jun 2027 13:44:01.394   04 Jun 2027 13:44:18.638            17.244              Murmansk1           538.875
       354   04 Jun 2027 13:46:21.993   04 Jun 2027 13:46:29.272             7.279              Murmansk1           227.469
       355   04 Jun 2027 13:49:06.861   04 Jun 2027 13:51:17.745           130.884                Anadyr1          4090.125
       356   04 Jun 2027 13:52:15.813   04 Jun 2027 13:53:24.118            68.305                Anadyr2          2134.531
       357   04 Jun 2027 13:55:11.120   04 Jun 2027 13:55:22.816            11.696                Anadyr1           365.500
       358   04 Jun 2027 15:11:31.624   04 Jun 2027 15:11:45.088            13.464                 Moscow           420.750
       359   04 Jun 2027 15:12:33.311   04 Jun 2027 15:13:41.688            68.377              Murmansk2          2136.781
       360   04 Jun 2027 15:14:25.434   04 Jun 2027 15:14:31.930             6.496              Murmansk2           203.000
       361   04 Jun 2027 15:14:48.113   04 Jun 2027 15:16:29.058           100.945              Murmansk2          3154.531
       362   04 Jun 2027 15:24:15.624   04 Jun 2027 15:26:02.534           106.910                Anadyr1          3340.937
       363   04 Jun 2027 15:29:22.745   04 Jun 2027 15:32:01.123           158.378               Magadan2          4949.312
       364   04 Jun 2027 15:32:01.123   04 Jun 2027 15:32:10.680             9.557               Magadan1           298.656
       365   04 Jun 2027 16:55:06.891   04 Jun 2027 16:56:05.275            58.384              Murmansk2          1824.500
       366   04 Jun 2027 17:00:06.763   04 Jun 2027 17:01:49.406           102.643                Anadyr1          3207.594
       367   04 Jun 2027 17:02:11.655   04 Jun 2027 17:03:02.941            51.286                Anadyr2          1602.688
       368   04 Jun 2027 17:03:20.634   04 Jun 2027 17:04:42.366            81.732               Magadan2          2554.125
       369   04 Jun 2027 17:09:46.703   04 Jun 2027 17:10:52.527            65.824               Magadan1          2057.000
       370   04 Jun 2027 18:36:01.021   04 Jun 2027 18:39:42.231           221.210                Anadyr2          6912.813
       371   04 Jun 2027 18:39:48.138   04 Jun 2027 18:41:38.296           110.158               Magadan1          3442.437
       372   04 Jun 2027 18:49:33.767   04 Jun 2027 18:49:41.644             7.877               Magadan1           246.156
       373   04 Jun 2027 18:50:27.776   04 Jun 2027 18:50:59.940            32.164               Magadan2          1005.125
       374   04 Jun 2027 19:30:28.936   04 Jun 2027 19:32:46.587           137.651            RioGallegos          4301.594
       375   04 Jun 2027 19:33:22.888   04 Jun 2027 19:34:07.904            45.016            RioGallegos          1406.750
       376   04 Jun 2027 19:39:09.636   04 Jun 2027 19:39:32.463            22.827            RioGallegos           713.344
       377   04 Jun 2027 20:13:52.720   04 Jun 2027 20:16:15.127           142.407                Norilsk          4450.219
       378   04 Jun 2027 20:17:44.105   04 Jun 2027 20:18:45.073            60.968                Norilsk          1905.250
       379   04 Jun 2027 20:19:01.112   04 Jun 2027 20:19:41.118            40.006                Irkutsk          1250.187
       380   04 Jun 2027 20:20:00.878   04 Jun 2027 20:20:51.174            50.296                Novosib          1571.750
       381   04 Jun 2027 20:21:49.221   04 Jun 2027 20:22:46.875            57.654                Novosib          1801.687
       382   04 Jun 2027 20:25:06.557   04 Jun 2027 20:25:12.358             5.801                Novosib           181.281
       383   04 Jun 2027 20:31:47.857   04 Jun 2027 20:33:36.625           108.768                Sumatra          3399.000
       384   04 Jun 2027 20:34:30.549   04 Jun 2027 20:35:38.527            67.978                Sumatra          2124.313
       385   04 Jun 2027 21:50:26.409   04 Jun 2027 21:51:30.834            64.425               Magadan2          2013.281
       386   04 Jun 2027 21:53:41.128   04 Jun 2027 21:54:23.689            42.561                Irkutsk          1330.031
       387   04 Jun 2027 21:55:37.512   04 Jun 2027 21:56:52.514            75.002                Novosib          2343.813
       388   04 Jun 2027 22:00:17.663   04 Jun 2027 22:00:27.782            10.119                Novosib           316.219
       389   04 Jun 2027 22:00:53.133   04 Jun 2027 22:01:09.946            16.813                Novosib           525.406
       390   04 Jun 2027 22:01:36.248   04 Jun 2027 22:05:08.477           212.229                  Delhi          6632.156
       391   04 Jun 2027 23:21:34.873   04 Jun 2027 23:21:50.459            15.586                Anadyr1           487.062
       392   04 Jun 2027 23:22:15.454   04 Jun 2027 23:22:18.458             3.004                Anadyr2            93.875
       393   04 Jun 2027 23:22:30.226   04 Jun 2027 23:22:46.870            16.644                Anadyr2           520.125
       394   04 Jun 2027 23:25:53.815   04 Jun 2027 23:26:44.711            50.896               Magadan1          1590.500
       395   04 Jun 2027 23:26:44.711   04 Jun 2027 23:27:56.522            71.811               Magadan2          2244.094
       396   04 Jun 2027 23:28:11.104   04 Jun 2027 23:30:58.730           167.626              Murmansk2          5238.312
       397   04 Jun 2027 23:30:58.730   04 Jun 2027 23:32:08.685            69.955              Murmansk1          2186.094
       398   04 Jun 2027 23:33:01.062   04 Jun 2027 23:34:19.809            78.747                 Moscow          2460.844
       399   04 Jun 2027 23:35:10.043   04 Jun 2027 23:35:55.170            45.127                 Moscow          1410.219
       400   04 Jun 2027 23:38:15.306   04 Jun 2027 23:38:37.496            22.190                 Moscow           693.437
       401   05 Jun 2027 00:58:21.620   05 Jun 2027 00:59:28.642            67.022               Magadan1          2094.437
       402   05 Jun 2027 00:59:36.164   05 Jun 2027 01:00:19.193            43.029               Magadan2          1344.656
       403   05 Jun 2027 01:00:53.268   05 Jun 2027 01:01:48.019            54.751               Magadan2          1710.969
       404   05 Jun 2027 01:03:56.424   05 Jun 2027 01:04:17.467            21.043              Murmansk1           657.594
       405   05 Jun 2027 01:05:05.440   05 Jun 2027 01:06:56.765           111.325              Murmansk2          3478.906
       406   05 Jun 2027 01:08:00.738   05 Jun 2027 01:09:09.130            68.392                 Moscow          2137.250
       407   05 Jun 2027 01:31:36.477   05 Jun 2027 01:32:53.954            77.477               CapeTown          2421.156
       408   05 Jun 2027 01:40:59.040   05 Jun 2027 01:41:52.124            53.084               CapeTown          1658.875
       409   05 Jun 2027 02:27:51.504   05 Jun 2027 02:28:49.404            57.900                Anadyr2          1809.375
       410   05 Jun 2027 02:29:47.969   05 Jun 2027 02:30:04.755            16.786                Anadyr2           524.563
       411   05 Jun 2027 02:30:14.174   05 Jun 2027 02:31:10.998            56.824               Magadan2          1775.750
       412   05 Jun 2027 02:32:52.419   05 Jun 2027 02:33:07.504            15.085               Magadan2           471.406
       413   05 Jun 2027 02:34:53.212   05 Jun 2027 02:35:05.138            11.926               Magadan1           372.687
       414   05 Jun 2027 02:35:23.621   05 Jun 2027 02:35:50.182            26.561               Magadan2           830.031
       415   05 Jun 2027 02:39:16.785   05 Jun 2027 02:39:32.411            15.626                Norilsk           488.312
       416   05 Jun 2027 02:39:54.589   05 Jun 2027 02:41:09.462            74.873              Murmansk2          2339.781
       417   05 Jun 2027 02:43:09.026   05 Jun 2027 02:43:54.076            45.050                 Moscow          1407.813
       418   05 Jun 2027 02:43:58.702   05 Jun 2027 02:44:28.736            30.034                 Moscow           938.563
       419   05 Jun 2027 02:48:46.192   05 Jun 2027 02:49:25.356            39.164                 Moscow          1223.875
       420   05 Jun 2027 02:54:44.603   05 Jun 2027 02:54:45.382             0.779                 Moscow            24.344
       421   05 Jun 2027 02:55:30.279   05 Jun 2027 02:55:34.934             4.655                 Moscow           145.469
       422   05 Jun 2027 03:08:41.181   05 Jun 2027 03:08:46.680             5.499               CapeTown           171.844
       423   05 Jun 2027 03:09:41.093   05 Jun 2027 03:11:23.412           102.319               CapeTown          3197.469
       424   05 Jun 2027 04:08:45.727   05 Jun 2027 04:10:30.624           104.897                Anadyr2          3278.031
       425   05 Jun 2027 04:10:41.833   05 Jun 2027 04:11:37.321            55.488               Magadan2          1734.000
       426   05 Jun 2027 04:11:57.146   05 Jun 2027 04:12:12.187            15.041               Magadan1           470.031
       427   05 Jun 2027 04:12:12.187   05 Jun 2027 04:14:19.091           126.904               Magadan2          3965.750
       428   05 Jun 2027 04:14:30.227   05 Jun 2027 04:15:04.896            34.669                Anadyr2          1083.406
       429   05 Jun 2027 05:45:59.375   05 Jun 2027 05:46:14.799            15.424                Irkutsk           482.000
       430   05 Jun 2027 05:46:38.754   05 Jun 2027 05:46:54.290            15.536                Irkutsk           485.500
       431   05 Jun 2027 05:47:21.695   05 Jun 2027 05:49:54.195           152.500                Irkutsk          4765.625
       432   05 Jun 2027 07:23:12.522   05 Jun 2027 07:23:32.083            19.561               Magadan2           611.281
       433   05 Jun 2027 07:23:33.404   05 Jun 2027 07:23:45.052            11.648               Magadan2           364.000
       434   05 Jun 2027 07:23:45.052   05 Jun 2027 07:24:15.174            30.122               Magadan1           941.313
       435   05 Jun 2027 07:24:22.531   05 Jun 2027 07:25:40.104            77.573               Magadan1          2424.156
       436   05 Jun 2027 07:25:57.558   05 Jun 2027 07:26:24.669            27.111               Magadan2           847.219
       437   05 Jun 2027 07:26:31.419   05 Jun 2027 07:27:00.074            28.655               Magadan1           895.469
       438   05 Jun 2027 07:27:00.074   05 Jun 2027 07:27:13.168            13.094               Magadan2           409.188
       439   05 Jun 2027 07:27:53.738   05 Jun 2027 07:28:46.078            52.340              Murmansk1          1635.625
       440   05 Jun 2027 08:04:13.570   05 Jun 2027 08:04:38.277            24.707            RioGallegos           772.094
       441   05 Jun 2027 08:37:42.695   05 Jun 2027 08:38:49.663            66.968                Sumatra          2092.750
       442   05 Jun 2027 08:59:36.257   05 Jun 2027 08:59:58.865            22.608                Irkutsk           706.500
       443   05 Jun 2027 09:01:10.265   05 Jun 2027 09:01:43.326            33.061                Irkutsk          1033.156
       444   05 Jun 2027 09:01:46.529   05 Jun 2027 09:01:48.070             1.541                Irkutsk            48.156
       445   05 Jun 2027 09:02:04.807   05 Jun 2027 09:02:23.140            18.333                Irkutsk           572.906
       446   05 Jun 2027 09:03:27.306   05 Jun 2027 09:03:36.254             8.948                Irkutsk           279.625
       447   05 Jun 2027 09:08:29.928   05 Jun 2027 09:09:05.802            35.874              Murmansk2          1121.063
       448   05 Jun 2027 09:42:49.435   05 Jun 2027 09:43:21.913            32.478            RioGallegos          1014.937
       449   05 Jun 2027 10:15:52.902   05 Jun 2027 10:17:24.860            91.958                Sumatra          2873.687
       450   05 Jun 2027 10:24:58.215   05 Jun 2027 10:25:34.579            36.364                  Delhi          1136.375
       451   05 Jun 2027 10:36:02.850   05 Jun 2027 10:37:22.880            80.030                Novosib          2500.937
       452   05 Jun 2027 10:38:12.310   05 Jun 2027 10:38:14.025             1.715                Norilsk            53.594
       453   05 Jun 2027 10:38:21.869   05 Jun 2027 10:38:56.513            34.644                Norilsk          1082.625
       454   05 Jun 2027 10:38:59.160   05 Jun 2027 10:39:05.226             6.066                Novosib           189.563
       455   05 Jun 2027 10:39:07.596   05 Jun 2027 10:39:19.056            11.460                Novosib           358.125
       456   05 Jun 2027 10:39:24.389   05 Jun 2027 10:39:52.969            28.580                Novosib           893.125
       457   05 Jun 2027 12:01:57.087   05 Jun 2027 12:04:22.379           145.292                  Delhi          4540.375
       458   05 Jun 2027 12:10:20.090   05 Jun 2027 12:11:21.174            61.084                Novosib          1908.875
       459   05 Jun 2027 12:16:51.564   05 Jun 2027 12:17:00.444             8.880                Norilsk           277.500
       460   05 Jun 2027 13:21:42.593   05 Jun 2027 13:24:26.260           163.667               CapeTown          5114.594
       461   05 Jun 2027 13:27:18.582   05 Jun 2027 13:28:02.568            43.986               CapeTown          1374.563
       462   05 Jun 2027 13:29:43.048   05 Jun 2027 13:29:53.382            10.334               CapeTown           322.938
       463   05 Jun 2027 13:46:16.931   05 Jun 2027 13:47:20.219            63.288              Murmansk1          1977.750
       464   05 Jun 2027 13:47:34.286   05 Jun 2027 13:48:29.923            55.637              Murmansk2          1738.656
       465   05 Jun 2027 13:49:27.450   05 Jun 2027 13:50:21.094            53.644              Murmansk2          1676.375
       466   05 Jun 2027 13:54:39.950   05 Jun 2027 13:55:16.887            36.937              Murmansk1          1154.281
       467   05 Jun 2027 14:00:55.732   05 Jun 2027 14:03:17.533           141.801                Anadyr1          4431.281
       468   05 Jun 2027 14:05:44.512   05 Jun 2027 14:07:11.348            86.836                Anadyr1          2713.625
       469   05 Jun 2027 15:25:04.880   05 Jun 2027 15:25:45.452            40.572              Murmansk2          1267.875
       470   05 Jun 2027 15:26:33.131   05 Jun 2027 15:26:49.898            16.767              Murmansk2           523.969
       471   05 Jun 2027 15:29:18.644   05 Jun 2027 15:29:46.430            27.786              Murmansk1           868.312
       472   05 Jun 2027 15:30:44.786   05 Jun 2027 15:30:52.530             7.744              Murmansk1           242.000
       473   05 Jun 2027 15:36:15.426   05 Jun 2027 15:37:36.072            80.646                Anadyr2          2520.188
       474   05 Jun 2027 15:38:06.815   05 Jun 2027 15:38:08.638             1.823                Anadyr1            56.969
       475   05 Jun 2027 15:38:09.071   05 Jun 2027 15:38:29.819            20.748                Anadyr2           648.375
       476   05 Jun 2027 15:39:10.267   05 Jun 2027 15:40:36.424            86.157                Anadyr2          2692.406
       477   05 Jun 2027 15:40:38.601   05 Jun 2027 15:41:37.136            58.535               Magadan1          1829.219
       478   05 Jun 2027 15:42:09.841   05 Jun 2027 15:43:25.238            75.397               Magadan2          2356.156
       479   05 Jun 2027 15:45:26.194   05 Jun 2027 15:45:45.905            19.711               Magadan1           615.969
       480   05 Jun 2027 17:12:08.164   05 Jun 2027 17:14:35.347           147.183                Anadyr1          4599.469
       481   05 Jun 2027 17:14:55.196   05 Jun 2027 17:15:03.230             8.034                Anadyr2           251.062
       482   05 Jun 2027 17:15:14.409   05 Jun 2027 17:16:48.571            94.162               Magadan2          2942.562
